# .PCD v0.7 - Point Cloud Data file format
VERSION 0.7
FIELDS x y z intensity laser_id azimuth distance_m adjustedtime timestamp vertical_angle
SIZE 4 4 4 1 1 2 8 8 4 8
TYPE F F F U U U F U U F
COUNT 1 1 1 1 1 1 1 1 1 1
WIDTH 538
HEIGHT 1
VIEWPOINT 0 0 0 1 0 0 0
POINTS 538
DATA ascii
8.13613129 0.96153474 0.14300501 12 1 8326 8.19400000 2989423033 2989423033 1.00000000
2.60686541 0.30762020 -0.60601813 7 2 8327 2.69400000 2989423035 2989423035 -13.00000000
8.12837029 0.95917898 0.42894551 34 3 8327 8.19600000 2989423038 2989423038 3.00000000
3.14497352 0.37056246 -0.61554980 6 4 8328 3.22600000 2989423040 2989423040 -11.00000000
8.14845943 0.95866585 0.71781468 83 5 8329 8.23600000 2989423042 2989423042 5.00000000
3.98459077 0.46808183 -0.63543677 6 6 8330 4.06200000 2989423045 2989423045 -9.00000000
8.14852238 0.95578963 1.00737202 99 7 8331 8.26600000 2989423047 2989423047 7.00000000
5.28590298 0.61908036 -0.65346342 6 8 8332 5.36200000 2989423049 2989423049 -7.00000000
8.11152840 0.94858003 -0.71450275 17 10 8333 8.19800000 2989423054 2989423054 -5.00000000
8.13168526 0.94806004 -0.42905018 17 12 8335 8.19800000 2989423059 2989423059 -3.00000000
8.13200378 0.94522011 -0.14290030 14 14 8337 8.18800000 2989423063 2989423063 -1.00000000
8.19000340 0.95196164 2.20927930 63 15 8337 8.53600000 2989423065 2989423065 15.00000000
2.22823977 0.25584581 -0.60097784 4 0 8345 2.32200000 2989423086 2989423086 -15.00000000
8.14539814 0.93381178 0.14310974 15 1 8346 8.20000000 2989423088 2989423088 1.00000000
2.61760402 0.29962674 -0.60826766 6 2 8347 2.70400000 2989423091 2989423091 -13.00000000
8.14373684 0.93074131 0.42957354 28 3 8348 8.20800000 2989423093 2989423093 3.00000000
3.15014887 0.36002806 -0.61631304 6 4 8348 3.23000000 2989423095 2989423095 -11.00000000
8.13394070 0.92818356 0.71624589 76 5 8349 8.21800000 2989423098 2989423098 5.00000000
3.99797654 0.45551187 -0.63731402 6 6 8350 4.07400000 2989423100 2989423100 -9.00000000
8.15180969 0.92734015 1.00737202 99 7 8351 8.26600000 2989423102 2989423102 7.00000000
5.29197645 0.60107338 -0.65395087 6 8 8352 5.36600000 2989423105 2989423105 -7.00000000
8.09895229 0.91846365 -0.71310830 17 10 8353 8.18200000 2989423109 2989423109 -5.00000000
8.13692951 0.91989374 -0.42915484 17 12 8355 8.20000000 2989423114 2989423114 -3.00000000
8.12531757 0.91570860 -0.14272578 14 14 8357 8.17800000 2989423118 2989423118 -1.00000000
8.18575859 0.92107332 2.20720887 54 15 8358 8.52800000 2989423121 2989423121 15.00000000
2.21759939 0.24678424 -0.59787202 4 0 8365 2.31000000 2989423141 2989423141 -15.00000000
8.13270855 0.90360677 0.14283049 18 1 8366 8.18400000 2989423144 2989423144 1.00000000
2.61863375 0.29048777 -0.60826766 6 2 8367 2.70400000 2989423146 2989423146 -13.00000000
8.13883781 0.90284979 0.42915484 26 3 8367 8.20000000 2989423148 2989423148 3.00000000
3.14162970 0.34794921 -0.61440498 5 4 8368 3.22000000 2989423151 2989423151 -11.00000000
8.12920952 0.89890927 0.71554863 76 5 8369 8.21000000 2989423153 2989423153 5.00000000
3.97794414 0.43916914 -0.63387245 9 6 8370 4.05200000 2989423155 2989423155 -9.00000000
8.15499687 0.89887941 1.00737202 99 7 8371 8.26600000 2989423158 2989423158 7.00000000
5.29009581 0.58216304 -0.65346342 6 8 8372 5.36200000 2989423160 2989423160 -7.00000000
8.07834339 0.88757628 -0.71101654 17 10 8373 8.15800000 2989423165 2989423165 -5.00000000
8.15597439 0.89322442 -0.42999223 17 12 8375 8.21600000 2989423169 2989423169 -3.00000000
8.12647724 0.88712341 -0.14269088 12 14 8377 8.17600000 2989423174 2989423174 -1.00000000
8.18124199 0.89165688 2.20513821 56 15 8378 8.52000000 2989423176 2989423176 15.00000000
2.22228861 0.23945579 -0.59890729 4 0 8385 2.31400000 2989423197 2989423197 -15.00000000
8.11990738 0.87350172 0.14255126 15 1 8386 8.16800000 2989423199 2989423199 1.00000000
2.61963201 0.28134528 -0.60826766 6 2 8387 2.70400000 2989423201 2989423201 -13.00000000
8.15385532 0.87571412 0.42978287 23 3 8387 8.21200000 2989423204 2989423204 3.00000000
3.14087319 0.33677146 -0.61402333 5 4 8388 3.21800000 2989423206 2989423206 -11.00000000
8.13229847 0.87052757 0.71554863 79 5 8389 8.21000000 2989423208 2989423208 5.00000000
3.97356033 0.42465112 -0.63293386 6 6 8390 4.04600000 2989423211 2989423211 -9.00000000
8.15018940 0.86956525 1.00639701 99 7 8391 8.25800000 2989423213 2989423213 7.00000000
5.29999161 0.56453460 -0.65443838 6 8 8392 5.37000000 2989423215 2989423215 -7.00000000
8.07544804 0.85874015 -0.71049362 17 10 8393 8.15200000 2989423220 2989423220 -5.00000000
8.13520908 0.86222327 -0.42873615 17 12 8395 8.19200000 2989423224 2989423224 -3.00000000
8.12952423 0.85875130 -0.14269088 12 14 8397 8.17600000 2989423229 2989423229 -1.00000000
8.18430424 0.86309355 2.20513821 56 15 8398 8.52000000 2989423231 2989423231 15.00000000
2.22311091 0.23169710 -0.59890729 4 0 8405 2.31400000 2989423252 2989423252 -15.00000000
8.13086319 0.84598041 0.14269088 15 1 8406 8.17600000 2989423254 2989423254 1.00000000
2.61090636 0.27119267 -0.60601813 6 2 8407 2.69400000 2989423257 2989423257 -13.00000000
8.14295673 0.84580207 0.42905018 21 3 8407 8.19800000 2989423259 2989423259 3.00000000
3.15569901 0.32722312 -0.61669469 5 4 8408 3.23200000 2989423261 2989423261 -11.00000000
8.13330555 0.84193009 0.71537435 83 5 8409 8.20800000 2989423264 2989423264 5.00000000
3.98287821 0.41159043 -0.63418531 9 6 8410 4.05400000 2989423266 2989423266 -9.00000000
8.14330196 0.84009194 1.00517833 97 7 8411 8.24800000 2989423268 2989423268 7.00000000
5.29008198 0.54481053 -0.65297592 6 8 8412 5.35800000 2989423271 2989423271 -7.00000000
8.07641506 0.83034259 -0.71031928 17 10 8413 8.15000000 2989423275 2989423275 -5.00000000
8.12227440 0.83219230 -0.42789876 17 12 8415 8.17600000 2989423280 2989423280 -3.00000000
8.13645077 0.83077496 -0.14276068 12 14 8417 8.18000000 2989423284 2989423284 -1.00000000
8.18342304 0.83412796 2.20410299 56 15 8418 8.51600000 2989423287 2989423287 15.00000000
2.23928332 0.22548397 -0.60304838 4 0 8425 2.33000000 2989423307 2989423307 -15.00000000
8.13774586 0.81799322 0.14276068 15 1 8426 8.18000000 2989423310 2989423310 1.00000000
2.61183715 0.26207727 -0.60601813 5 2 8427 2.69400000 2989423312 2989423312 -13.00000000
8.13592243 0.81637567 0.42852682 21 3 8427 8.18800000 2989423314 2989423314 3.00000000
3.15291524 0.31581435 -0.61593145 5 4 8428 3.22800000 2989423317 2989423317 -11.00000000
8.14015961 0.81393087 0.71572298 83 5 8429 8.21200000 2989423319 2989423319 5.00000000
3.97642827 0.39690030 -0.63293386 9 6 8430 4.04600000 2989423321 2989423321 -9.00000000
8.14618492 0.81166142 1.00517833 97 7 8431 8.24800000 2989423323 2989423323 7.00000000
5.29590225 0.52673435 -0.65346342 6 8 8432 5.36200000 2989423326 2989423326 -7.00000000
8.12486458 0.80667299 -0.71432847 8 10 8433 8.19600000 2989423330 2989423330 -5.00000000
8.12910461 0.80422848 -0.42810813 17 12 8435 8.18000000 2989423335 2989423335 -3.00000000
8.13532066 0.80197603 -0.14269088 12 14 8437 8.17600000 2989423340 2989423340 -1.00000000
8.18998909 0.80736518 2.20513821 51 15 8437 8.52000000 2989423342 2989423342 15.00000000
2.23044276 0.21673185 -0.60046017 4 0 8445 2.32000000 2989423363 2989423363 -15.00000000
8.14453220 0.78996831 0.14283049 12 1 8446 8.18400000 2989423365 2989423365 1.00000000
2.62049484 0.25370982 -0.60781777 5 2 8447 2.70200000 2989423367 2989423367 -13.00000000
8.13275909 0.78739363 0.42821279 18 3 8447 8.18200000 2989423370 2989423370 3.00000000
3.14813590 0.30424014 -0.61478657 5 4 8448 3.22200000 2989423372 2989423372 -11.00000000
8.13303566 0.78455490 0.71485138 76 5 8449 8.20200000 2989423374 2989423374 5.00000000
3.98762083 0.38396421 -0.63449818 9 6 8450 4.05600000 2989423376 2989423376 -9.00000000
8.15094471 0.78341091 1.00542212 99 7 8451 8.25000000 2989423379 2989423379 7.00000000
5.29375648 0.50786585 -0.65297592 6 8 8452 5.35800000 2989423381 2989423381 -7.00000000
6.61039400 0.63301545 -0.58098018 16 10 8453 6.66600000 2989423386 2989423386 -5.00000000
8.14379120 0.77698588 -0.42873615 17 12 8455 8.19200000 2989423390 2989423390 -3.00000000
8.12612629 0.77243817 -0.14248145 12 14 8457 8.16400000 2989423395 2989423395 -1.00000000
8.18520069 0.77661204 2.20306778 56 15 8458 8.51200000 2989423397 2989423397 15.00000000
2.21968126 0.20747668 -0.59735435 4 0 8466 2.30800000 2989423418 2989423418 -15.00000000
8.12945366 0.75844002 0.14251634 12 1 8467 8.16600000 2989423420 2989423420 1.00000000
2.62916851 0.24482626 -0.60961735 5 2 8468 2.71000000 2989423423 2989423423 -13.00000000
8.13969994 0.75652999 0.42842212 13 3 8469 8.18600000 2989423425 2989423425 3.00000000
3.14922976 0.29269961 -0.61478657 5 4 8469 3.22200000 2989423427 2989423427 -11.00000000
8.11601734 0.75290018 0.71310830 90 5 8470 8.18200000 2989423429 2989423429 5.00000000
3.97523260 0.36807141 -0.63230813 6 6 8471 4.04200000 2989423432 2989423432 -9.00000000
8.15178394 0.75334823 1.00517833 95 7 8472 8.24800000 2989423434 2989423434 7.00000000
5.28569889 0.48754820 -0.65175724 6 8 8473 5.34800000 2989423436 2989423436 -7.00000000
6.61663771 0.60914820 -0.58132881 16 10 8474 6.67000000 2989423441 2989423441 -5.00000000
8.13862896 0.74640250 -0.42831746 17 12 8476 8.18400000 2989423446 2989423446 -3.00000000
8.12292862 0.74210346 -0.14237674 14 14 8478 8.15800000 2989423450 2989423450 -1.00000000
8.18016624 0.74733263 2.20099711 58 15 8478 8.50400000 2989423453 2989423453 15.00000000
2.22616434 0.20024650 -0.59890729 4 0 8486 2.31400000 2989423473 2989423473 -15.00000000
8.12010098 0.72898549 0.14230692 21 1 8487 8.15400000 2989423476 2989423476 1.00000000
2.61836123 0.23460381 -0.60691792 5 2 8488 2.69800000 2989423478 2989423478 -13.00000000
8.14229107 0.72811258 0.42842212 13 3 8489 8.18600000 2989423480 2989423480 3.00000000
3.15609860 0.28222954 -0.61593145 4 4 8489 3.22800000 2989423482 2989423482 -11.00000000
8.12653446 0.72527385 0.71380556 79 5 8490 8.19000000 2989423485 2989423485 5.00000000
3.96665525 0.35331672 -0.63074374 9 6 8491 4.03200000 2989423487 2989423487 -9.00000000
8.14250088 0.72383398 1.00371587 97 7 8492 8.23600000 2989423489 2989423489 7.00000000
5.30911922 0.47102439 -0.65443838 6 8 8493 5.37000000 2989423492 2989423492 -7.00000000
6.61078548 0.58534521 -0.58063155 12 10 8494 6.66200000 2989423496 2989423496 -5.00000000
8.13322639 0.71728700 -0.42789876 17 12 8496 8.17600000 2989423501 2989423501 -3.00000000
8.12347794 0.71356964 -0.14234182 14 14 8498 8.15600000 2989423506 2989423506 -1.00000000
8.18285084 0.71734577 2.20099711 58 15 8499 8.50400000 2989423508 2989423508 15.00000000
2.22296691 0.19252978 -0.59787202 4 0 8505 2.31000000 2989423529 2989423529 -15.00000000
8.13044357 0.70274305 0.14244655 18 1 8506 8.16200000 2989423531 2989423531 1.00000000
2.61135864 0.22524983 -0.60511833 7 2 8507 2.69000000 2989423533 2989423533 -13.00000000
8.14068127 0.70076513 0.42821279 18 3 8508 8.18200000 2989423535 2989423535 3.00000000
3.15114927 0.27125686 -0.61478657 5 4 8508 3.22200000 2989423538 2989423538 -11.00000000
8.13087940 0.69849187 0.71397984 83 5 8509 8.19200000 2989423540 2989423540 5.00000000
3.98355031 0.34151074 -0.63324672 9 6 8510 4.04800000 2989423542 2989423542 -9.00000000
8.13694477 0.69615167 1.00274098 95 7 8511 8.22800000 2989423545 2989423545 7.00000000
5.28691721 0.45138970 -0.65151352 9 8 8512 5.34600000 2989423547 2989423547 -7.00000000
6.61666059 0.56375813 -0.58098018 16 10 8513 6.66600000 2989423552 2989423552 -5.00000000
8.12760067 0.68963689 -0.42748010 17 12 8515 8.16800000 2989423556 2989423556 -3.00000000
8.12978458 0.68696404 -0.14241163 14 14 8517 8.16000000 2989423561 2989423561 -1.00000000
8.18121338 0.69130981 2.19996190 58 15 8517 8.50000000 2989423563 2989423563 15.00000000
2.23517656 0.18572885 -0.60097784 4 0 8525 2.32200000 2989423584 2989423584 -15.00000000
8.13085365 0.67419297 0.14241163 15 1 8526 8.16000000 2989423586 2989423586 1.00000000
2.61989737 0.21677589 -0.60691792 7 2 8527 2.69800000 2989423588 2989423588 -13.00000000
8.13511562 0.67168719 0.42779410 18 3 8528 8.17400000 2989423591 2989423591 3.00000000
3.15403342 0.26041719 -0.61516821 4 4 8528 3.22400000 2989423593 2989423593 -11.00000000
8.13525391 0.67026913 0.71415418 79 5 8529 8.19400000 2989423595 2989423595 5.00000000
3.98078060 0.32727975 -0.63262099 9 6 8530 4.04400000 2989423598 2989423598 -9.00000000
8.13536835 0.66741955 1.00225353 95 7 8531 8.22400000 2989423600 2989423600 7.00000000
5.26867580 0.43131250 -0.64907610 8 8 8532 5.32600000 2989423602 2989423602 -7.00000000
6.62255955 0.54098266 -0.58132881 24 10 8533 6.67000000 2989423607 2989423607 -5.00000000
8.13194847 0.66142398 -0.42758477 17 12 8535 8.17000000 2989423611 2989423611 -3.00000000
8.13611984 0.65890443 -0.14248145 12 14 8537 8.16400000 2989423616 2989423616 -1.00000000
8.18754387 0.66163069 2.20099711 54 15 8538 8.50400000 2989423618 2989423618 15.00000000
2.22037435 0.17708701 -0.59683675 4 0 8544 2.30600000 2989423639 2989423639 -15.00000000
8.13703156 0.64754367 0.14248145 15 1 8545 8.16400000 2989423641 2989423641 1.00000000
2.61477399 0.20762405 -0.60556823 6 2 8546 2.69200000 2989423644 2989423644 -13.00000000
8.14327145 0.64517975 0.42810813 23 3 8547 8.18000000 2989423646 2989423646 3.00000000
3.14705110 0.24933636 -0.61364174 4 4 8547 3.21600000 2989423648 2989423648 -11.00000000
8.12551498 0.64234591 0.71310830 79 5 8548 8.18200000 2989423651 2989423651 5.00000000
3.97790551 0.31376654 -0.63199526 9 6 8549 4.04000000 2989423653 2989423653 -9.00000000
8.14941025 0.64137250 1.00371587 97 7 8550 8.23600000 2989423655 2989423655 7.00000000
5.29184628 0.41554803 -0.65175724 9 8 8551 5.34800000 2989423658 2989423658 -7.00000000
6.61637163 0.51839596 -0.58063155 44 10 8552 6.66200000 2989423662 2989423662 -5.00000000
8.13210583 0.63429850 -0.42748010 17 12 8554 8.16800000 2989423667 2989423667 -3.00000000
8.13028526 0.63130128 -0.14234182 12 14 8556 8.15600000 2989423671 2989423671 -1.00000000
8.18187809 0.63530731 2.19892669 51 15 8556 8.49600000 2989423674 2989423674 15.00000000
2.23446274 0.17036344 -0.60046017 4 0 8564 2.32000000 2989423694 2989423694 -15.00000000
8.12727833 0.61822611 0.14227201 15 1 8565 8.15200000 2989423697 2989423697 1.00000000
2.63297129 0.19982275 -0.60961735 5 2 8566 2.71000000 2989423699 2989423699 -13.00000000
8.14945698 0.61705208 0.42831746 21 3 8567 8.18400000 2989423701 2989423701 3.00000000
3.15181756 0.23864605 -0.61440498 4 4 8567 3.22000000 2989423704 2989423704 -11.00000000
8.11380005 0.61292803 0.71188813 76 5 8568 8.16800000 2989423706 2989423706 5.00000000
3.96912766 0.29913688 -0.63043088 6 6 8569 4.03000000 2989423708 2989423708 -9.00000000
8.14368153 0.61232650 1.00274098 92 7 8570 8.22800000 2989423711 2989423711 7.00000000
5.28732586 0.39662802 -0.65102601 9 8 8571 5.34200000 2989423713 2989423713 -7.00000000
6.61814117 0.49529737 -0.58063155 80 10 8572 6.66200000 2989423717 2989423717 -5.00000000
8.13825417 0.60620499 -0.42768943 17 12 8574 8.17200000 2989423722 2989423722 -3.00000000
8.11847973 0.60188252 -0.14209749 14 14 8576 8.14200000 2989423727 2989423727 -1.00000000
8.17644501 0.60474503 2.19685602 56 15 8577 8.48800000 2989423729 2989423729 15.00000000
2.22733688 0.16200212 -0.59838963 4 0 8584 2.31200000 2989423750 2989423750 -15.00000000
8.12140942 0.58927399 0.14213240 15 1 8585 8.14400000 2989423752 2989423752 1.00000000
2.62199068 0.18978663 -0.60691792 6 2 8586 2.69800000 2989423754 2989423754 -13.00000000
8.14359283 0.58802605 0.42789876 23 3 8587 8.17600000 2989423757 2989423757 3.00000000
3.16046405 0.22820826 -0.61593145 4 4 8587 3.22800000 2989423759 2989423759 -11.00000000
8.11589050 0.58460188 0.71188813 76 5 8588 8.16800000 2989423761 2989423761 5.00000000
3.97014761 0.28528020 -0.63043088 6 6 8589 4.03000000 2989423764 2989423764 -9.00000000
8.14180946 0.58361214 1.00225353 95 7 8590 8.22400000 2989423766 2989423766 7.00000000
5.29263830 0.37845254 -0.65151352 9 8 8591 5.34600000 2989423768 2989423768 -7.00000000
6.60591841 0.47120041 -0.57941139 44 10 8592 6.64800000 2989423773 2989423773 -5.00000000
8.12836742 0.57694507 -0.42706141 17 12 8594 8.16000000 2989423777 2989423777 -3.00000000
8.13249969 0.57438534 -0.14230692 14 14 8596 8.15400000 2989423782 2989423782 -1.00000000
8.17647839 0.57749152 2.19633842 56 15 8596 8.48600000 2989423784 2989423784 15.00000000
2.23945212 0.15502675 -0.60149544 4 0 8604 2.32400000 2989423805 2989423805 -15.00000000
8.11942673 0.56064588 0.14206259 18 1 8605 8.14000000 2989423807 2989423807 1.00000000
2.61486077 0.18009742 -0.60511833 6 2 8606 2.69000000 2989423810 2989423810 -13.00000000
8.14360332 0.55945915 0.42779410 18 3 8607 8.17400000 2989423812 2989423812 3.00000000
3.16124153 0.21717480 -0.61593145 4 4 8607 3.22800000 2989423814 2989423814 -11.00000000
8.12583256 0.55681342 0.71258533 76 5 8608 8.17600000 2989423817 2989423817 5.00000000
3.96717763 0.27115068 -0.62980515 6 6 8609 4.02600000 2989423819 2989423819 -9.00000000
8.13191414 0.55437827 1.00079107 95 7 8610 8.21200000 2989423821 2989423821 7.00000000
5.28600502 0.35943681 -0.65053856 9 8 8611 5.33800000 2989423823 2989423823 -7.00000000
8.24209023 0.55899906 1.30841792 7 9 8612 8.36400000 2989423826 2989423826 9.00000000
6.61348629 0.44854304 -0.57993430 16 10 8612 6.65400000 2989423828 2989423828 -5.00000000
8.22294903 0.55625904 1.60203230 6 11 8613 8.39600000 2989423830 2989423830 11.00000000
8.12634659 0.54829937 -0.42685205 17 12 8614 8.15600000 2989423833 2989423833 -3.00000000
8.22651196 0.55361545 1.90353584 2 13 8615 8.46200000 2989423835 2989423835 13.00000000
8.13046455 0.54572630 -0.14223711 14 14 8616 8.15000000 2989423837 2989423837 -1.00000000
8.17854023 0.54751933 2.19633842 56 15 8617 8.48600000 2989423840 2989423840 15.00000000
2.23419666 0.14682861 -0.59994256 4 0 8624 2.31800000 2989423860 2989423860 -15.00000000
8.12532520 0.53256196 0.14213240 18 1 8625 8.14400000 2989423863 2989423863 1.00000000
2.61547351 0.17096874 -0.60511833 6 2 8626 2.69000000 2989423865 2989423865 -13.00000000
8.13554096 0.53037959 0.42727074 23 3 8627 8.16400000 2989423867 2989423867 3.00000000
3.14630747 0.20511693 -0.61287850 4 4 8627 3.21200000 2989423870 2989423870 -11.00000000
8.12971497 0.52857482 0.71275967 79 5 8628 8.17800000 2989423872 2989423872 5.00000000
3.97204256 0.25755662 -0.63043088 9 6 8629 4.03000000 2989423874 2989423874 -9.00000000
8.13776112 0.52624542 1.00127852 97 7 8630 8.21600000 2989423876 2989423876 7.00000000
5.27534151 0.34021649 -0.64907610 6 8 8631 5.32600000 2989423879 2989423879 -7.00000000
6.62892962 0.42635009 -0.58115447 20 10 8632 6.66800000 2989423883 2989423883 -5.00000000
8.13219643 0.52018476 -0.42706141 17 12 8634 8.16000000 2989423888 2989423888 -3.00000000
8.11635494 0.51632673 -0.14195788 14 14 8636 8.13400000 2989423893 2989423893 -1.00000000
8.19187832 0.52113122 2.19944429 54 15 8636 8.49800000 2989423895 2989423895 15.00000000
2.24047995 0.13938877 -0.60149544 4 0 8644 2.32400000 2989423916 2989423916 -15.00000000
8.13112640 0.50444371 0.14220221 15 1 8645 8.14800000 2989423918 2989423918 1.00000000
2.62383437 0.16231930 -0.60691792 6 2 8646 2.69800000 2989423920 2989423920 -13.00000000
8.14332390 0.50234693 0.42758477 23 3 8647 8.17000000 2989423923 2989423923 3.00000000
3.14700437 0.19413301 -0.61287850 4 4 8647 3.21200000 2989423925 2989423925 -11.00000000
8.12355614 0.49970430 0.71206242 76 5 8648 8.17000000 2989423927 2989423927 5.00000000
3.97883224 0.24405286 -0.63136947 9 6 8649 4.03600000 2989423929 2989423929 -9.00000000
8.14351177 0.49807853 1.00176597 97 7 8650 8.22000000 2989423932 2989423932 7.00000000
5.29432964 0.32288760 -0.65126979 9 8 8651 5.34400000 2989423934 2989423934 -7.00000000
6.61049032 0.40199885 -0.57941139 20 10 8652 6.64800000 2989423939 2989423939 -5.00000000
8.12399483 0.49119222 -0.42653805 17 12 8654 8.15000000 2989423943 2989423943 -3.00000000
8.11411476 0.48775223 -0.14188807 14 14 8656 8.13000000 2989423948 2989423948 -1.00000000
8.18207741 0.49183753 2.19633842 56 15 8656 8.48600000 2989423950 2989423950 15.00000000
2.22938156 0.13088784 -0.59838963 4 0 8664 2.31200000 2989423971 2989423971 -15.00000000
8.12086010 0.47535655 0.14199278 21 1 8665 8.13600000 2989423973 2989423973 1.00000000
2.62438512 0.15315942 -0.60691792 6 2 8666 2.69800000 2989423976 2989423976 -13.00000000
8.14103985 0.47368634 0.42737541 21 3 8667 8.16600000 2989423978 2989423978 3.00000000
3.14766288 0.18314674 -0.61287850 4 4 8667 3.21200000 2989423980 2989423980 -11.00000000
8.12127304 0.47111398 0.71171379 79 5 8668 8.16600000 2989423982 2989423982 5.00000000
3.97374368 0.22982049 -0.63043088 9 6 8669 4.03000000 2989423985 2989423985 -9.00000000
8.14916420 0.46987787 1.00225353 95 7 8670 8.22400000 2989423987 2989423987 7.00000000
5.27957010 0.30349359 -0.64931989 8 8 8671 5.32800000 2989423989 2989423989 -7.00000000
8.21002197 0.47051156 1.30247331 2 9 8672 8.32600000 2989423992 2989423992 9.00000000
6.62378836 0.37960544 -0.58045727 44 10 8672 6.66000000 2989423994 2989423994 -5.00000000
8.13563061 0.46339908 -0.42706141 17 12 8674 8.16000000 2989423999 2989423999 -3.00000000
8.11776447 0.45953873 -0.14192297 16 14 8676 8.13200000 2989424003 2989424003 -1.00000000
8.16831398 0.46240026 2.19219732 49 15 8676 8.47000000 2989424005 2989424005 15.00000000
2.22210932 0.12267908 -0.59631908 4 0 8684 2.30400000 2989424026 2989424026 -15.00000000
8.12246990 0.44700658 0.14199278 15 1 8685 8.13600000 2989424029 2989424029 1.00000000
2.63074112 0.14431791 -0.60826766 6 2 8686 2.70400000 2989424031 2989424031 -13.00000000
8.13865471 0.44504783 0.42716607 15 3 8687 8.16200000 2989424033 2989424033 3.00000000
3.16396546 0.17301580 -0.61593145 4 4 8687 3.22800000 2989424035 2989424035 -11.00000000
8.11491013 0.44232881 0.71101654 79 5 8688 8.15800000 2989424038 2989424038 5.00000000
3.97452188 0.21594813 -0.63043088 6 6 8689 4.03000000 2989424040 2989424040 -9.00000000
8.13489723 0.44057029 1.00030363 95 7 8690 8.20800000 2989424042 2989424042 7.00000000
5.28654385 0.28538361 -0.65005106 6 8 8691 5.33400000 2989424045 2989424045 -7.00000000
8.21753216 0.44216880 1.30341196 7 9 8692 8.33200000 2989424047 2989424047 9.00000000
6.61313581 0.35583949 -0.57941139 56 10 8692 6.64800000 2989424049 2989424049 -5.00000000
8.11526012 0.43382484 -0.42591003 17 12 8694 8.13800000 2989424054 2989424054 -3.00000000
8.12530994 0.43151778 -0.14202769 14 14 8696 8.13800000 2989424058 2989424058 -1.00000000
8.17188358 0.43256092 2.19271493 49 15 8697 8.47200000 2989424061 2989424061 15.00000000
2.23217034 0.11542051 -0.59890729 4 0 8704 2.31400000 2989424082 2989424082 -15.00000000
8.12198353 0.41854823 0.14195788 18 1 8705 8.13400000 2989424084 2989424084 1.00000000
2.61760569 0.13443437 -0.60511833 6 2 8706 2.69000000 2989424086 2989424086 -13.00000000
8.14015865 0.41663590 0.42716607 15 3 8707 8.16200000 2989424088 2989424088 3.00000000
3.16062880 0.16176975 -0.61516821 4 4 8707 3.22400000 2989424091 2989424091 -11.00000000
8.11441517 0.41389832 0.71084225 83 5 8708 8.15600000 2989424093 2989424093 5.00000000
3.96933293 0.20177229 -0.62949228 9 6 8709 4.02400000 2989424095 2989424095 -9.00000000
8.12845516 0.41176978 0.99932861 95 7 8710 8.20000000 2989424098 2989424098 7.00000000
5.28155994 0.26662812 -0.64931989 4 8 8711 5.32800000 2989424100 2989424100 -7.00000000
8.22691631 0.41387856 1.30466342 10 9 8712 8.34000000 2989424102 2989424102 9.00000000
6.61433744 0.33275315 -0.57941139 68 10 8712 6.64800000 2989424105 2989424105 -5.00000000
8.11672497 0.40549466 -0.42591003 21 12 8714 8.13800000 2989424109 2989424109 -3.00000000
8.11678028 0.40265712 -0.14185315 16 14 8716 8.12800000 2989424114 2989424114 -1.00000000
8.18292046 0.40593818 2.19530320 56 15 8716 8.48200000 2989424116 2989424116 15.00000000
2.23641872 0.10781413 -0.59994256 4 0 8724 2.31800000 2989424137 2989424137 -15.00000000
8.12539291 0.39029059 0.14199278 15 1 8725 8.13600000 2989424139 2989424139 1.00000000
2.61805892 0.12529640 -0.60511833 6 2 8726 2.69000000 2989424141 2989424141 -13.00000000
8.12959385 0.38764814 0.42653805 18 3 8727 8.15000000 2989424144 2989424144 3.00000000
3.14548612 0.14998804 -0.61211526 5 4 8727 3.20800000 2989424146 2989424146 -11.00000000
8.11780071 0.38566574 0.71101654 76 5 8728 8.15800000 2989424148 2989424148 5.00000000
3.97395945 0.18810230 -0.63011801 9 6 8729 4.02800000 2989424151 2989424151 -9.00000000
8.12984371 0.38339368 0.99932861 97 7 8730 8.20000000 2989424153 2989424153 7.00000000
5.28840733 0.24846992 -0.65005106 6 8 8731 5.33400000 2989424155 2989424155 -7.00000000
8.22041798 0.38478929 1.30341196 10 9 8732 8.33200000 2989424158 2989424158 9.00000000
6.61545897 0.30966279 -0.57941139 76 10 8732 6.64800000 2989424160 2989424160 -5.00000000
8.10811520 0.37669608 -0.42538664 17 12 8734 8.12800000 2989424164 2989424164 -3.00000000
8.11214447 0.37404552 -0.14174844 14 14 8736 8.12200000 2989424169 2989424169 -1.00000000
8.18428707 0.37737200 2.19530320 58 15 8736 8.48200000 2989424171 2989424171 15.00000000
2.22904444 0.10005081 -0.59787202 4 0 8743 2.31000000 2989424192 2989424192 -15.00000000
8.12864017 0.36343300 0.14202769 18 1 8744 8.13800000 2989424194 2989424194 1.00000000
2.62235355 0.11678732 -0.60601813 6 2 8745 2.69400000 2989424197 2989424197 -13.00000000
8.12079525 0.36166209 0.42601469 13 3 8745 8.14000000 2989424199 2989424199 3.00000000
3.14400482 0.13946940 -0.61173362 5 4 8746 3.20600000 2989424201 2989424201 -11.00000000
8.11704445 0.35865608 0.71084225 76 5 8747 8.15600000 2989424204 2989424204 5.00000000
3.97850823 0.17509685 -0.63074374 9 6 8748 4.03200000 2989424206 2989424206 -9.00000000
8.13900280 0.35677978 1.00030363 95 7 8749 8.20800000 2989424208 2989424208 7.00000000
5.27730322 0.23041202 -0.64858866 6 8 8750 5.32200000 2989424210 2989424210 -7.00000000
8.20974541 0.35844523 1.30153477 10 9 8750 8.32000000 2989424213 2989424213 9.00000000
6.60251570 0.28711751 -0.57819122 64 10 8751 6.63400000 2989424215 2989424215 -5.00000000
8.12727833 0.35058120 -0.42632869 21 12 8753 8.14600000 2989424220 2989424220 -3.00000000
8.10934448 0.34697166 -0.14167863 18 14 8755 8.11800000 2989424224 2989424224 -1.00000000
8.17391300 0.34973434 2.19219732 54 15 8755 8.47000000 2989424227 2989424227 15.00000000
2.23131037 0.09234927 -0.59838963 4 0 8763 2.31200000 2989424247 2989424247 -15.00000000
8.12186718 0.33472717 0.14188807 18 1 8764 8.13000000 2989424250 2989424250 1.00000000
2.63248086 0.10803241 -0.60826766 6 2 8765 2.70400000 2989424252 2989424252 -13.00000000
8.13004875 0.33222163 0.42643338 13 3 8766 8.14800000 2989424254 2989424254 3.00000000
3.14839578 0.12865424 -0.61249685 5 4 8766 3.21000000 2989424257 2989424257 -11.00000000
8.11227417 0.33007711 0.71031928 76 5 8767 8.15000000 2989424259 2989424259 5.00000000
3.96725249 0.16072841 -0.62886655 9 6 8768 4.02000000 2989424261 2989424261 -9.00000000
8.14416504 0.32852721 1.00079107 92 7 8769 8.21200000 2989424263 2989424263 7.00000000
5.27212477 0.21175040 -0.64785743 6 8 8770 5.31600000 2989424266 2989424266 -7.00000000
8.20310879 0.32803687 1.30028331 10 9 8771 8.31200000 2989424268 2989424268 9.00000000
6.60745955 0.26422790 -0.57853985 52 10 8771 6.63800000 2989424270 2989424270 -5.00000000
8.12446117 0.32205135 -0.42611936 21 12 8773 8.14200000 2989424275 2989424275 -3.00000000
8.11050606 0.31866264 -0.14167863 18 14 8775 8.11800000 2989424280 2989424280 -1.00000000
8.17900085 0.31992412 2.19323254 51 15 8776 8.47400000 2989424282 2989424282 15.00000000
2.23354959 0.08463313 -0.59890729 4 0 8783 2.31400000 2989424303 2989424303 -15.00000000
8.11699104 0.30614841 0.14178336 15 1 8784 8.12400000 2989424305 2989424305 1.00000000
2.62310505 0.09847714 -0.60601813 6 2 8785 2.69400000 2989424307 2989424307 -13.00000000
8.12910938 0.30518466 0.42632869 13 3 8785 8.14600000 2989424310 2989424310 3.00000000
3.15667319 0.11795674 -0.61402333 5 4 8786 3.21800000 2989424312 2989424312 -11.00000000
8.11337757 0.30175799 0.71031928 79 5 8787 8.15000000 2989424314 2989424314 5.00000000
3.96384144 0.14673299 -0.62824082 9 6 8788 4.01600000 2989424316 2989424316 -9.00000000
8.12939262 0.29951206 0.99884117 90 7 8789 8.19600000 2989424319 2989424319 7.00000000
5.28076696 0.19363692 -0.64883238 4 8 8790 5.32400000 2989424321 2989424321 -7.00000000
8.21210003 0.29968885 1.30153477 10 9 8791 8.32000000 2989424323 2989424323 9.00000000
6.59838629 0.24079865 -0.57766825 44 10 8791 6.62800000 2989424326 2989424326 -5.00000000
8.12553596 0.29368973 -0.42611936 21 12 8793 8.14200000 2989424330 2989424330 -3.00000000
8.11556530 0.29049280 -0.14174844 18 14 8795 8.12200000 2989424335 2989424335 -1.00000000
8.17615604 0.29266161 2.19219732 63 15 8795 8.47000000 2989424337 2989424337 15.00000000
2.22996998 0.07670325 -0.59787202 4 0 8803 2.31000000 2989424358 2989424358 -15.00000000
8.11801052 0.27781296 0.14178336 15 1 8804 8.12400000 2989424360 2989424360 1.00000000
2.61953759 0.08918757 -0.60511833 5 2 8805 2.69000000 2989424362 2989424362 -13.00000000
8.13212109 0.27687487 0.42643338 10 3 8805 8.14800000 2989424365 2989424365 3.00000000
3.16295218 0.10713656 -0.61516821 5 4 8806 3.22400000 2989424367 2989424367 -11.00000000
8.12035465 0.27363646 0.71084225 83 5 8807 8.15600000 2989424369 2989424369 5.00000000
3.97420073 0.13322662 -0.62980515 6 6 8808 4.02600000 2989424372 2989424372 -9.00000000
8.13038826 0.27113336 0.99884117 92 7 8809 8.19600000 2989424374 2989424374 7.00000000
5.26157045 0.17454427 -0.64639497 4 8 8810 5.30400000 2989424376 2989424376 -7.00000000
8.22494221 0.27141234 1.30341196 10 9 8811 8.33200000 2989424379 2989424379 9.00000000
6.60715151 0.21802737 -0.57836550 48 10 8811 6.63600000 2989424381 2989424381 -5.00000000
8.11653042 0.26499864 -0.42559600 21 12 8813 8.13200000 2989424386 2989424386 -3.00000000
8.12052727 0.26229155 -0.14181826 18 14 8815 8.12600000 2989424390 2989424390 -1.00000000
8.17712688 0.26411971 2.19219732 51 15 8815 8.47000000 2989424392 2989424392 15.00000000
2.24180961 0.06927676 -0.60097784 4 0 8823 2.32200000 2989424413 2989424413 -15.00000000
8.11093616 0.24922845 0.14164373 18 1 8824 8.11600000 2989424415 2989424415 1.00000000
2.62178087 0.08010265 -0.60556823 6 2 8825 2.69200000 2989424418 2989424418 -13.00000000
8.12110329 0.24670345 0.42580533 13 3 8826 8.13600000 2989424420 2989424420 3.00000000
3.14564562 0.09555864 -0.61173362 5 4 8826 3.20600000 2989424422 2989424422 -11.00000000
8.12325191 0.24534963 0.71101654 79 5 8827 8.15800000 2989424425 2989424425 5.00000000
3.97069263 0.11923467 -0.62917942 6 6 8828 4.02200000 2989424427 2989424427 -9.00000000
8.12334824 0.24251440 0.99786621 90 7 8829 8.18800000 2989424429 2989424429 7.00000000
5.27603722 0.15658914 -0.64810115 6 8 8830 5.31800000 2989424432 2989424432 -7.00000000
8.22579670 0.24413596 1.30341196 10 9 8830 8.33200000 2989424434 2989424434 9.00000000
6.61583853 0.19519781 -0.57906276 16 10 8831 6.64400000 2989424436 2989424436 -5.00000000
8.11540985 0.23660684 -0.42549133 17 12 8833 8.13000000 2989424441 2989424441 -3.00000000
8.10940075 0.23359855 -0.14160882 20 14 8835 8.11400000 2989424445 2989424445 -1.00000000
8.18962669 0.23447900 2.19530320 58 15 8836 8.48200000 2989424448 2989424448 15.00000000
2.22658873 0.06102752 -0.59683675 4 0 8843 2.30600000 2989424468 2989424468 -15.00000000
8.12374973 0.22124112 0.14185315 15 1 8844 8.12800000 2989424471 2989424471 1.00000000
2.62009645 0.07089773 -0.60511833 6 2 8845 2.69000000 2989424473 2989424473 -13.00000000
8.12586975 0.21987958 0.42601469 15 3 8845 8.14000000 2989424475 2989424475 3.00000000
3.14988518 0.08468322 -0.61249685 5 4 8846 3.21000000 2989424478 2989424478 -11.00000000
8.10812569 0.21656711 0.70962209 76 5 8847 8.14200000 2989424480 2989424480 5.00000000
3.96713543 0.10526885 -0.62855369 6 6 8848 4.01800000 2989424482 2989424482 -9.00000000
8.13208294 0.21436639 0.99884117 92 7 8849 8.19600000 2989424485 2989424485 7.00000000
5.26464510 0.13785958 -0.64663875 6 8 8850 5.30600000 2989424487 2989424487 -7.00000000
8.21478844 0.21367708 1.30153477 10 9 8851 8.32000000 2989424489 2989424489 9.00000000
6.60851288 0.17189580 -0.57836550 16 10 8851 6.63600000 2989424492 2989424492 -5.00000000
8.12217617 0.20843105 -0.42580533 17 12 8853 8.13600000 2989424496 2989424496 -3.00000000
8.10616875 0.20518883 -0.14153902 18 14 8855 8.11000000 2989424501 2989424501 -1.00000000
8.17301464 0.20545352 2.19064450 47 15 8856 8.46400000 2989424503 2989424503 15.00000000
2.21520042 0.05297778 -0.59373087 4 0 8863 2.29400000 2989424524 2989424524 -15.00000000
8.11647606 0.19269274 0.14171354 15 1 8864 8.12000000 2989424526 2989424526 1.00000000
2.62812066 0.06193510 -0.60691792 6 2 8865 2.69800000 2989424528 2989424528 -13.00000000
8.14056492 0.19184305 0.42674738 18 3 8865 8.15400000 2989424531 2989424531 3.00000000
3.14623618 0.07359574 -0.61173362 5 4 8866 3.20600000 2989424533 2989424533 -11.00000000
8.10684013 0.18821691 0.70944774 76 5 8867 8.14000000 2989424535 2989424535 5.00000000
3.96550369 0.09137481 -0.62824082 6 6 8868 4.01600000 2989424538 2989424538 -9.00000000
8.13675117 0.18606958 0.99932861 90 7 8869 8.20000000 2989424540 2989424540 7.00000000
5.27700186 0.11975192 -0.64810115 6 8 8870 5.31800000 2989424542 2989424542 -7.00000000
8.21347713 0.18638986 1.30122185 10 9 8870 8.31800000 2989424545 2989424545 9.00000000
6.61305618 0.14891645 -0.57871413 44 10 8871 6.64000000 2989424547 2989424547 -5.00000000
8.12485123 0.18012236 -0.42591003 25 12 8873 8.13800000 2989424551 2989424551 -3.00000000
8.10483551 0.17684814 -0.14150411 16 14 8875 8.10800000 2989424556 2989424556 -1.00000000
8.16595650 0.17675589 2.18857384 49 15 8876 8.45600000 2989424558 2989424558 15.00000000
2.23082352 0.04556054 -0.59787202 4 0 8883 2.31000000 2989424579 2989424579 -15.00000000
8.10910225 0.16419786 0.14157392 15 1 8884 8.11200000 2989424581 2989424581 1.00000000
2.62442422 0.05268265 -0.60601813 6 2 8885 2.69400000 2989424584 2989424584 -13.00000000
8.12920380 0.16318549 0.42611936 13 3 8885 8.14200000 2989424586 2989424586 3.00000000
3.15039945 0.06269100 -0.61249685 5 4 8886 3.21000000 2989424588 2989424588 -11.00000000
8.11143208 0.15999620 0.70979637 76 5 8887 8.14400000 2989424591 2989424591 5.00000000
3.96184850 0.07745484 -0.62761509 9 6 8888 4.01200000 2989424593 2989424593 -9.00000000
8.12941265 0.15751207 0.99835366 92 7 8889 8.19200000 2989424595 2989424595 7.00000000
5.27738762 0.10133102 -0.64810115 6 8 8890 5.31800000 2989424598 2989424598 -7.00000000
8.21407795 0.15771835 1.30122185 10 9 8890 8.31800000 2989424600 2989424600 9.00000000
6.61751986 0.12590748 -0.57906276 88 10 8891 6.64400000 2989424602 2989424602 -5.00000000
8.11943913 0.15164834 -0.42559600 17 12 8893 8.13200000 2989424607 2989424607 -3.00000000
8.10740280 0.14859256 -0.14153902 18 14 8895 8.11000000 2989424611 2989424611 -1.00000000
8.17231750 0.14835550 2.19012666 56 15 8896 8.46200000 2989424614 2989424614 15.00000000
2.23096895 0.03777323 -0.59787202 4 0 8903 2.31000000 2989424634 2989424634 -15.00000000
8.11362457 0.13595781 0.14164373 15 1 8904 8.11600000 2989424637 2989424637 1.00000000
2.61484981 0.04335982 -0.60376865 6 2 8905 2.68400000 2989424639 2989424639 -13.00000000
8.12972450 0.13480829 0.42611936 15 3 8905 8.14200000 2989424641 2989424641 3.00000000
3.15845108 0.05182250 -0.61402333 5 4 8906 3.21800000 2989424644 2989424644 -11.00000000
8.10994911 0.13164870 0.70962209 79 5 8907 8.14200000 2989424646 2989424646 5.00000000
3.96011972 0.06359322 -0.62730223 9 6 8908 4.01000000 2989424648 2989424648 -9.00000000
8.11998844 0.12897652 0.99713498 90 7 8909 8.18200000 2989424650 2989424650 7.00000000
5.26778507 0.08275298 -0.64688247 6 8 8910 5.30800000 2989424653 2989424653 -7.00000000
8.22247887 0.12916902 1.30247331 10 9 8910 8.32600000 2989424655 2989424655 9.00000000
6.60596609 0.10262157 -0.57801688 100 10 8911 6.63200000 2989424657 2989424657 -5.00000000
8.11392784 0.12321431 -0.42528197 17 12 8913 8.12600000 2989424662 2989424662 -3.00000000
8.11387062 0.12038053 -0.14164373 20 14 8915 8.11600000 2989424667 2989424667 -1.00000000
8.17662811 0.12131162 2.19116211 47 15 8915 8.46600000 2989424669 2989424669 15.00000000
2.23881388 0.03008931 -0.59994256 4 0 8923 2.31800000 2989424690 2989424690 -15.00000000
8.11404991 0.10763515 0.14164373 15 1 8924 8.11600000 2989424692 2989424692 1.00000000
2.61498523 0.03423203 -0.60376865 6 2 8925 2.68400000 2989424694 2989424694 -13.00000000
8.11416817 0.10622028 0.42528197 15 3 8925 8.12600000 2989424697 2989424697 3.00000000
3.14290810 0.04059429 -0.61097038 5 4 8926 3.20200000 2989424699 2989424699 -11.00000000
8.11832809 0.10344043 0.71031928 76 5 8927 8.15000000 2989424701 2989424701 5.00000000
3.96426797 0.04981908 -0.62792796 6 6 8928 4.01400000 2989424703 2989424703 -9.00000000
8.12435913 0.10068089 0.99762243 90 7 8929 8.18600000 2989424706 2989424706 7.00000000
5.25414705 0.06419471 -0.64517629 8 8 8930 5.29400000 2989424708 2989424708 -7.00000000
8.21300316 0.10034575 1.30090904 10 9 8930 8.31600000 2989424710 2989424710 9.00000000
6.60229969 0.07951383 -0.57766825 40 10 8931 6.62800000 2989424713 2989424713 -5.00000000
8.10632038 0.09479725 -0.42486328 17 12 8933 8.11800000 2989424717 2989424717 -3.00000000
8.09624577 0.09185293 -0.14132959 18 14 8935 8.09800000 2989424722 2989424722 -1.00000000
8.17894936 0.09136354 2.19167972 51 15 8936 8.46800000 2989424724 2989424724 15.00000000
2.22731471 0.02215890 -0.59683675 4 0 8943 2.30600000 2989424745 2989424745 -15.00000000
8.12237453 0.07938935 0.14178336 15 1 8944 8.12400000 2989424747 2989424747 1.00000000
2.61898613 0.02514123 -0.60466844 6 2 8945 2.68800000 2989424750 2989424750 -13.00000000
8.11849785 0.07651730 0.42549133 13 3 8946 8.13000000 2989424752 2989424752 3.00000000
3.14695692 0.02966025 -0.61173362 5 4 8946 3.20600000 2989424754 2989424754 -11.00000000
8.10668564 0.07499097 0.70927346 72 5 8947 8.13800000 2989424756 2989424756 5.00000000
3.95454121 0.03589126 -0.62636358 2 6 8948 4.00400000 2989424759 2989424759 -9.00000000
8.13061619 0.07237398 0.99835366 90 7 8949 8.19200000 2989424761 2989424761 7.00000000
5.25433922 0.04585392 -0.64517629 8 8 8950 5.29400000 2989424763 2989424763 -7.00000000
8.19750118 0.07153851 1.29840600 10 9 8950 8.30000000 2989424766 2989424766 9.00000000
6.59456778 0.05639886 -0.57697099 24 10 8951 6.62000000 2989424768 2989424768 -5.00000000
8.11259365 0.06654948 -0.42517731 17 12 8953 8.12400000 2989424773 2989424773 -3.00000000
8.10451508 0.06365403 -0.14146921 18 14 8955 8.10600000 2989424777 2989424777 -1.00000000
8.17534447 0.06421033 2.19064450 51 15 8955 8.46400000 2989424780 2989424780 15.00000000
2.22737861 0.01438398 -0.59683675 4 0 8963 2.30600000 2989424800 2989424800 -15.00000000
8.10460567 0.05092341 0.14146921 15 1 8964 8.10600000 2989424803 2989424803 1.00000000
2.62880135 0.01605863 -0.60691792 7 2 8965 2.69800000 2989424805 2989424805 -13.00000000
8.12670422 0.04822540 0.42591003 18 3 8966 8.13800000 2989424807 2989424807 3.00000000
3.14311481 0.01865184 -0.61097038 5 4 8966 3.20200000 2989424809 2989424809 -11.00000000
8.10092068 0.04665847 0.70875049 76 5 8967 8.13200000 2989424812 2989424812 5.00000000
3.96254373 0.02213125 -0.62761509 2 6 8968 4.01200000 2989424814 2989424814 -9.00000000
8.13081932 0.04399239 0.99835366 90 7 8969 8.19200000 2989424816 2989424816 7.00000000
5.26240778 0.02755415 -0.64615124 6 8 8970 5.30200000 2989424819 2989424819 -7.00000000
8.21351147 0.04157267 1.30090904 10 9 8971 8.31600000 2989424821 2989424821 9.00000000
6.59273195 0.03336910 -0.57679671 20 10 8971 6.61800000 2989424823 2989424823 -5.00000000
8.12675667 0.03829672 -0.42591003 21 12 8973 8.13800000 2989424828 2989424828 -3.00000000
8.10068893 0.03534615 -0.14139940 18 14 8975 8.10200000 2989424833 2989424833 -1.00000000
8.17166042 0.03422957 2.18960905 49 15 8976 8.46000000 2989424835 2989424835 15.00000000
2.22741389 0.00699765 -0.59683675 4 0 8982 2.30600000 2989424856 2989424856 -15.00000000
8.10672951 0.02405322 0.14150411 18 1 8983 8.10800000 2989424858 2989424858 1.00000000
2.62299395 0.00732480 -0.60556823 6 2 8984 2.69200000 2989424860 2989424860 -13.00000000
8.12681961 0.02127601 0.42591003 13 3 8985 8.13800000 2989424862 2989424862 3.00000000
3.14708591 0.00823907 -0.61173362 5 4 8985 3.20600000 2989424865 2989424865 -11.00000000
8.10700798 0.01980920 0.70927346 76 5 8986 8.13800000 2989424867 2989424867 5.00000000
3.94284177 0.00894604 -0.62448639 2 6 8987 3.99200000 2989424869 2989424869 -9.00000000
8.12496471 0.01701691 0.99762243 90 7 8988 8.18600000 2989424872 2989424872 7.00000000
5.27041054 0.01011847 -0.64712620 8 8 8989 5.31000000 2989424874 2989424874 -7.00000000
8.20965004 0.01576142 1.30028331 10 9 8989 8.31200000 2989424876 2989424876 9.00000000
6.59679127 0.01151358 -0.57714534 12 10 8990 6.62200000 2989424879 2989424879 -5.00000000
8.10486984 0.01131654 -0.42475861 21 12 8992 8.11600000 2989424883 2989424883 -3.00000000
8.10876083 0.00849148 -0.14153902 18 14 8994 8.11000000 2989424888 2989424888 -1.00000000
8.16593266 0.00855135 2.18805623 47 15 8994 8.45400000 2989424890 2989424890 15.00000000
2.22356105 -0.00077617 -0.59580141 4 0 9002 2.30200000 2989424911 2989424911 -15.00000000
8.10876369 -0.00424574 0.14153902 28 1 9003 8.11000000 2989424913 2989424913 1.00000000
2.61520863 -0.00182576 -0.60376865 6 2 9004 2.68400000 2989424915 2989424915 -13.00000000
8.12484646 -0.00709027 0.42580533 13 3 9005 8.13600000 2989424918 2989424918 3.00000000
3.14709544 -0.00274636 -0.61173362 5 4 9005 3.20600000 2989424920 2989424920 -11.00000000
8.10105038 -0.00848340 0.70875049 76 5 9006 8.13200000 2989424922 2989424922 5.00000000
3.93692279 -0.00480986 -0.62354779 4 6 9007 3.98600000 2989424925 2989424925 -9.00000000
8.12100506 -0.01133907 0.99713498 85 7 9008 8.18200000 2989424927 2989424927 7.00000000
5.25056267 -0.00824757 -0.64468884 6 8 9009 5.29000000 2989424929 2989424929 -7.00000000
8.20767784 -0.01432511 1.29997039 10 9 9010 8.31000000 2989424932 2989424932 9.00000000
6.59280634 -0.01150663 -0.57679671 16 10 9010 6.61800000 2989424934 2989424934 -5.00000000
8.10286236 -0.01697062 -0.42465395 17 12 9012 8.11400000 2989424938 2989424938 -3.00000000
8.11473942 -0.01982809 -0.14164373 16 14 9014 8.11600000 2989424943 2989424943 -1.00000000
8.17363644 -0.02139858 2.19012666 47 15 9015 8.46200000 2989424945 2989424945 15.00000000
2.23513579 -0.00858235 -0.59890729 4 0 9022 2.31400000 2989424966 2989424966 -15.00000000
8.11669827 -0.03258269 0.14167863 18 1 9023 8.11800000 2989424968 2989424968 1.00000000
2.61713505 -0.01096269 -0.60421854 7 2 9024 2.68600000 2989424971 2989424971 -13.00000000
8.11278915 -0.03539895 0.42517731 15 3 9025 8.12400000 2989424973 2989424973 3.00000000
3.14117718 -0.01370606 -0.61058879 5 4 9025 3.20000000 2989424975 2989424975 -11.00000000
8.11093330 -0.03680650 0.70962209 76 5 9026 8.14200000 2989424978 2989424978 5.00000000
3.92502999 -0.01849641 -0.62167054 4 6 9027 3.97400000 2989424980 2989424980 -9.00000000
8.12091541 -0.03968660 0.99713498 85 7 9028 8.18200000 2989424982 2989424982 7.00000000
5.24653196 -0.02655531 -0.64420134 6 8 9029 5.28600000 2989424985 2989424985 -7.00000000
8.21153545 -0.04156267 1.30059612 10 9 9029 8.31400000 2989424987 2989424987 9.00000000
6.60268784 -0.03457191 -0.57766825 16 10 9030 6.62800000 2989424989 2989424989 -5.00000000
8.10275364 -0.04525479 -0.42465395 17 12 9032 8.11400000 2989424994 2989424994 -3.00000000
8.10062313 -0.04807063 -0.14139940 18 14 9034 8.10200000 2989424998 2989424998 -1.00000000
8.17738438 -0.04852614 2.19116211 47 15 9034 8.46600000 2989425001 2989425001 15.00000000
2.22350144 -0.01629941 -0.59580141 4 0 9042 2.30200000 2989425021 2989425021 -15.00000000
8.12453365 -0.06097509 0.14181826 18 1 9043 8.12600000 2989425024 2989425024 1.00000000
2.62097812 -0.02012806 -0.60511833 7 2 9044 2.69000000 2989425026 2989425026 -13.00000000
8.11661053 -0.06374902 0.42538664 15 3 9045 8.12800000 2989425028 2989425028 3.00000000
3.13522053 -0.02462447 -0.60944390 8 4 9045 3.19400000 2989425031 2989425031 -11.00000000
8.10477924 -0.06507073 0.70909911 76 5 9046 8.13600000 2989425033 2989425033 5.00000000
3.93679333 -0.03229443 -0.62354779 6 6 9047 3.98600000 2989425035 2989425035 -9.00000000
8.12469769 -0.06806690 0.99762243 90 7 9048 8.18600000 2989425038 2989425038 7.00000000
5.25434732 -0.04493687 -0.64517629 6 8 9049 5.29400000 2989425040 2989425040 -7.00000000
8.18959999 -0.07146955 1.29715455 10 9 9050 8.29200000 2989425042 2989425042 9.00000000
6.63639641 -0.05791495 -0.58063155 8 10 9050 6.66200000 2989425044 2989425044 -5.00000000
8.11852360 -0.07368341 -0.42549133 17 12 9052 8.13000000 2989425049 2989425049 -3.00000000
8.09440708 -0.07629025 -0.14129469 20 14 9054 8.09600000 2989425054 2989425054 -1.00000000
8.17328739 -0.07846034 2.19012666 47 15 9055 8.46200000 2989425056 2989425056 15.00000000
2.21957183 -0.02363158 -0.59476614 4 0 9061 2.29800000 2989425077 2989425077 -15.00000000
8.11028957 -0.08776520 0.14157392 18 1 9062 8.11200000 2989425079 2989425079 1.00000000
2.62089705 -0.02881943 -0.60511833 7 2 9063 2.69000000 2989425081 2989425081 -13.00000000
8.12234592 -0.09073125 0.42570066 18 3 9064 8.13400000 2989425084 2989425084 3.00000000
3.13904786 -0.03506496 -0.61020714 8 4 9064 3.19800000 2989425086 2989425086 -11.00000000
8.09654903 -0.09185638 0.70840186 76 5 9065 8.12800000 2989425088 2989425088 5.00000000
3.92481303 -0.04521260 -0.62167054 6 6 9066 3.97400000 2989425091 2989425091 -9.00000000
8.12641239 -0.09503221 0.99786621 90 7 9067 8.18800000 2989425093 2989425093 7.00000000
5.23431969 -0.06212508 -0.64273894 8 8 9068 5.27400000 2989425095 2989425095 -7.00000000
8.20513725 -0.09738509 1.29965758 10 9 9068 8.30800000 2989425097 2989425097 9.00000000
8.08054543 -0.09731687 -0.70700741 17 10 9069 8.11200000 2989425100 2989425100 -5.00000000
8.11823463 -0.10060500 -0.42549133 17 12 9071 8.13000000 2989425104 2989425104 -3.00000000
8.10010815 -0.10320829 -0.14139940 22 14 9073 8.10200000 2989425109 2989425109 -1.00000000
8.16913795 -0.10408782 2.18909144 47 15 9073 8.45800000 2989425111 2989425111 15.00000000
2.23106575 -0.03154305 -0.59787202 4 0 9081 2.31000000 2989425132 2989425132 -15.00000000
8.10993385 -0.11607487 0.14157392 18 1 9082 8.11200000 2989425134 2989425134 1.00000000
2.61688328 -0.03791143 -0.60421854 7 2 9083 2.68600000 2989425137 2989425137 -13.00000000
8.12397671 -0.11911225 0.42580533 21 3 9084 8.13600000 2989425139 2989425139 3.00000000
3.13498020 -0.04596451 -0.60944390 6 4 9084 3.19400000 2989425141 2989425141 -11.00000000
8.10614014 -0.12026583 0.70927346 72 5 9085 8.13800000 2989425144 2989425144 5.00000000
3.93450713 -0.05906072 -0.62323493 8 6 9086 3.98400000 2989425146 2989425146 -9.00000000
8.12603092 -0.12339810 0.99786621 92 7 9087 8.18800000 2989425148 2989425148 7.00000000
5.23804092 -0.08045685 -0.64322639 8 8 9088 5.27800000 2989425150 2989425150 -7.00000000
8.20077419 -0.12739640 1.29903185 10 9 9089 8.30400000 2989425153 2989425153 9.00000000
8.07816410 -0.12549169 -0.70683306 17 10 9089 8.11000000 2989425155 2989425155 -5.00000000
8.11184311 -0.12884715 -0.42517731 17 12 9091 8.12400000 2989425160 2989425160 -3.00000000
8.09969902 -0.13148232 -0.14139940 20 14 9093 8.10200000 2989425164 2989425164 -1.00000000
8.16870117 -0.13402851 2.18909144 49 15 9094 8.45800000 2989425167 2989425167 15.00000000
2.21935940 -0.03873906 -0.59476614 4 0 9100 2.29800000 2989425187 2989425187 -15.00000000
8.10550594 -0.14289723 0.14150411 15 1 9101 8.10800000 2989425190 2989425190 1.00000000
2.60894966 -0.04645036 -0.60241890 7 2 9102 2.67800000 2989425192 2989425192 -13.00000000
8.12154007 -0.14601578 0.42570066 21 3 9103 8.13400000 2989425194 2989425194 3.00000000
3.14266229 -0.05650138 -0.61097038 8 4 9103 3.20200000 2989425197 2989425197 -11.00000000
8.10569668 -0.14714611 0.70927346 76 5 9104 8.13800000 2989425199 2989425199 5.00000000
3.93033957 -0.07203530 -0.62260920 8 6 9105 3.98000000 2989425201 2989425201 -9.00000000
