# .PCD v0.7 - Point Cloud Data file format
VERSION 0.7
FIELDS x y z intensity laser_id azimuth distance_m adjustedtime timestamp vertical_angle
SIZE 4 4 4 1 1 2 8 8 4 8
TYPE F F F U U U F U U F
COUNT 1 1 1 1 1 1 1 1 1 1
WIDTH 537
HEIGHT 1
VIEWPOINT 0 0 0 1 0 0 0
POINTS 537
DATA ascii
3.23594999 7.61972237 -0.72426420 4 10 2301 8.31000000 2990705867 2990705867 -5.00000000
4.43674278 10.44217491 2.20537043 59 11 2302 11.55800000 2990705870 2990705870 11.00000000
3.49843860 8.22583389 2.06370091 55 13 2304 9.17400000 2990705874 2990705874 13.00000000
3.02554440 7.11047792 2.07055235 9 15 2305 8.00000000 2990705879 2990705879 15.00000000
0.89925790 2.10522556 -0.61340111 4 0 2313 2.37000000 2990705900 2990705900 -15.00000000
1.06108594 2.48167777 -0.62311441 3 2 2315 2.77000000 2990705904 2990705904 -13.00000000
1.27944958 2.99094462 -0.63234103 4 4 2316 3.31400000 2990705909 2990705909 -11.00000000
1.60797310 3.75530195 -0.64701295 2 6 2318 4.13600000 2990705913 2990705913 -9.00000000
2.16929865 5.06135321 -0.67613113 2 8 2320 5.54800000 2990705918 2990705918 -7.00000000
1.83345437 4.27570820 -0.40701732 11 10 2321 4.67000000 2990705923 2990705923 -5.00000000
4.48709822 10.45910072 2.21223950 53 11 2322 11.59400000 2990705925 2990705925 11.00000000
3.52559304 8.20999050 2.06280112 59 13 2324 9.17000000 2990705930 2990705930 13.00000000
3.07017350 7.14602232 2.08401084 29 15 2325 8.05200000 2990705934 2990705934 15.00000000
0.89975166 2.08819675 -0.60926002 4 0 2331 2.35400000 2990705955 2990705955 -15.00000000
1.06733358 2.47475338 -0.62221462 3 2 2333 2.76600000 2990705960 2990705960 -13.00000000
1.28106141 2.96888423 -0.62852484 4 4 2334 3.29400000 2990705964 2990705964 -11.00000000
1.62446225 3.76111269 -0.64889014 2 6 2336 4.14800000 2990705969 2990705969 -9.00000000
2.19385386 5.07455587 -0.67881227 2 8 2338 5.57000000 2990705973 2990705973 -7.00000000
1.85162354 4.28089952 -0.40806317 38 10 2339 4.68200000 2990705978 2990705978 -5.00000000
4.52461243 10.45576286 2.21452928 56 11 2340 11.60600000 2990705980 2990705980 11.00000000
3.55291724 8.20245075 2.06370091 60 13 2342 9.17400000 2990705985 2990705985 13.00000000
3.08492661 7.11861610 2.07883453 40 15 2343 8.03200000 2990705989 2990705989 15.00000000
0.90549403 2.08150029 -0.60822475 4 0 2351 2.35000000 2990706010 2990706010 -15.00000000
1.07596564 2.47101259 -0.62221462 3 2 2353 2.76600000 2990706015 2990706015 -13.00000000
1.30082619 2.98599291 -0.63310426 4 4 2354 3.31800000 2990706019 2990706019 -11.00000000
1.64231849 3.76628351 -0.65076739 2 6 2356 4.16000000 2990706024 2990706024 -9.00000000
2.20678926 5.05595112 -0.67734981 2 8 2358 5.55800000 2990706029 2990706029 -7.00000000
1.86894739 4.27988768 -0.40858611 8 10 2359 4.68800000 2990706033 2990706033 -5.00000000
4.56737041 10.45429802 2.21758223 53 11 2360 11.62200000 2990706036 2990706036 11.00000000
3.58308911 8.19356918 2.06460071 59 13 2362 9.17800000 2990706040 2990706040 13.00000000
3.11099696 7.10726166 2.07883453 40 15 2364 8.03200000 2990706045 2990706045 15.00000000
0.91394460 2.08202386 -0.60926002 4 0 2370 2.35400000 2990706066 2990706066 -15.00000000
1.08572173 2.47099924 -0.62311441 3 2 2372 2.77000000 2990706070 2990706070 -13.00000000
1.30756068 2.97447371 -0.63157779 4 4 2373 3.31000000 2990706075 2990706075 -11.00000000
1.64843440 3.74635196 -0.64826441 2 6 2375 4.14400000 2990706079 2990706079 -9.00000000
2.22274327 5.04678869 -0.67710608 2 8 2377 5.55600000 2990706084 2990706084 -7.00000000
3.32198858 7.53908300 -0.72077799 4 10 2378 8.27000000 2990706089 2990706089 -5.00000000
4.60359669 10.44268703 2.21834540 53 11 2379 11.62600000 2990706091 2990706091 11.00000000
3.61181355 8.18520832 2.06550050 59 13 2381 9.18200000 2990706095 2990706095 13.00000000
3.13487005 7.10098791 2.07986975 40 15 2382 8.03600000 2990706100 2990706100 15.00000000
0.91964132 2.07528853 -0.60822475 4 0 2390 2.35000000 2990706121 2990706121 -15.00000000
1.08801937 2.45294333 -0.61951518 3 2 2392 2.75400000 2990706125 2990706125 -13.00000000
1.32112086 2.97706938 -0.63310426 4 4 2393 3.31800000 2990706130 2990706130 -11.00000000
1.66551089 3.74960160 -0.64982879 2 6 2395 4.15400000 2990706135 2990706135 -9.00000000
2.23389459 5.02448797 -0.67515618 2 8 2397 5.54000000 2990706139 2990706139 -7.00000000
3.35233355 7.53654337 -0.72164953 8 10 2398 8.28000000 2990706144 2990706144 -5.00000000
4.64640617 10.44090366 2.22139835 59 11 2399 11.64200000 2990706146 2990706146 11.00000000
3.63560581 8.16187000 2.06280112 59 13 2401 9.17000000 2990706151 2990706151 13.00000000
3.16199708 7.09529543 2.08142281 42 15 2402 8.04200000 2990706155 2990706155 15.00000000
0.92918193 2.07526851 -0.60926002 4 0 2412 2.35400000 2990706176 2990706176 -15.00000000
1.09902394 2.45230412 -0.62041503 3 2 2414 2.75800000 2990706181 2990706181 -13.00000000
1.32772291 2.96122622 -0.63081455 4 4 2415 3.30600000 2990706185 2990706185 -11.00000000
1.67666078 3.73597002 -0.64857727 2 6 2417 4.14600000 2990706190 2990706190 -9.00000000
2.25805116 5.02673817 -0.67661858 2 8 2419 5.55200000 2990706194 2990706194 -7.00000000
3.38043022 7.52179813 -0.72147524 4 10 2420 8.27800000 2990706199 2990706199 -5.00000000
4.69692850 10.44626331 2.22635937 59 11 2421 11.66800000 2990706201 2990706201 11.00000000
3.66211963 8.13718796 2.06010175 59 13 2423 9.15800000 2990706206 2990706206 13.00000000
3.19080400 7.08662510 2.08245802 40 15 2424 8.04600000 2990706211 2990706211 15.00000000
0.93323791 2.06497073 -0.60718948 4 0 2432 2.34600000 2990706231 2990706231 -15.00000000
1.11400270 2.46265721 -0.62401420 3 2 2434 2.77400000 2990706236 2990706236 -13.00000000
1.33886099 2.95836210 -0.63119614 4 4 2435 3.30800000 2990706241 2990706241 -11.00000000
2.27394462 5.01520967 -0.67613113 2 8 2439 5.54800000 2990706250 2990706250 -7.00000000
3.41571927 7.52991152 -0.72339267 4 10 2440 8.30000000 2990706254 2990706254 -5.00000000
4.74553394 10.45662022 2.23208356 59 11 2441 11.69800000 2990706257 2990706257 11.00000000
3.69211316 8.12790394 2.06100154 62 13 2443 9.16200000 2990706261 2990706261 13.00000000
3.21355796 7.06784821 2.08038759 40 15 2445 8.03800000 2990706266 2990706266 15.00000000
0.94452733 2.07257605 -0.61029530 4 0 2450 2.35800000 2990706287 2990706287 -15.00000000
1.12173390 2.45914531 -0.62401420 3 2 2452 2.77400000 2990706291 2990706291 -13.00000000
1.34570301 2.94878316 -0.63005131 4 4 2453 3.30200000 2990706296 2990706296 -11.00000000
1.70960903 3.74273586 -0.65170598 2 6 2455 4.16600000 2990706300 2990706300 -9.00000000
2.28886366 5.00623560 -0.67588741 2 8 2457 5.54600000 2990706305 2990706305 -7.00000000
3.43935823 7.51914358 -0.72339267 4 10 2458 8.30000000 2990706310 2990706310 -5.00000000
4.78081179 10.44701576 2.23322845 59 11 2459 11.70400000 2990706312 2990706312 11.00000000
3.71762967 8.11626434 2.06100154 59 13 2461 9.16200000 2990706317 2990706317 13.00000000
3.23129535 7.05125713 2.07831693 42 15 2462 8.03000000 2990706321 2990706321 15.00000000
0.95014173 2.06575632 -0.60926002 4 0 2470 2.35400000 2990706342 2990706342 -15.00000000
1.12705135 2.44813395 -0.62221462 3 2 2472 2.76600000 2990706346 2990706346 -13.00000000
1.36748636 2.96903276 -0.63539398 4 4 2473 3.33000000 2990706351 2990706351 -11.00000000
1.72100925 3.73315763 -0.65108025 2 6 2475 4.16200000 2990706356 2990706356 -9.00000000
2.30466127 4.99461079 -0.67539990 2 8 2477 5.54200000 2990706360 2990706360 -7.00000000
3.45639825 7.48719358 -0.72147524 4 10 2478 8.27800000 2990706365 2990706365 -5.00000000
3.75084424 8.11385155 2.06370091 60 13 2481 9.17400000 2990706372 2990706372 13.00000000
3.26075482 7.05045557 2.08142281 40 15 2482 8.04200000 2990706376 2990706376 15.00000000
0.96096146 2.06926847 -0.61133057 4 0 2491 2.36200000 2990706397 2990706397 -15.00000000
1.13601661 2.44398665 -0.62221462 3 2 2493 2.76600000 2990706402 2990706402 -13.00000000
1.37835932 2.96400070 -0.63539398 4 4 2494 3.33000000 2990706406 2990706406 -11.00000000
1.73134601 3.71966124 -0.64982879 2 6 2496 4.15400000 2990706411 2990706411 -9.00000000
2.33133507 5.00412416 -0.67783731 2 8 2498 5.56200000 2990706416 2990706416 -7.00000000
3.49475908 7.49795151 -0.72374129 4 10 2499 8.30400000 2990706420 2990706420 -5.00000000
4.86457300 10.43211079 2.23742628 46 11 2500 11.72600000 2990706423 2990706423 11.00000000
3.77726102 8.09298611 2.06190133 59 13 2502 9.16600000 2990706427 2990706427 13.00000000
3.28862023 7.03963327 2.08194041 40 15 2504 8.04400000 2990706432 2990706432 15.00000000
0.96817869 2.06590152 -0.61133057 4 0 2511 2.36200000 2990706452 2990706452 -15.00000000
1.14288568 2.43647790 -0.62131482 3 2 2513 2.76200000 2990706457 2990706457 -13.00000000
1.37868857 2.93784404 -0.63081455 2 4 2514 3.30600000 2990706462 2990706462 -11.00000000
1.74431956 3.71359491 -0.64982879 2 6 2516 4.15400000 2990706466 2990706466 -9.00000000
2.34456563 4.98697329 -0.67661858 2 8 2518 5.55200000 2990706471 2990706471 -7.00000000
3.52430248 7.49291849 -0.72443855 4 10 2519 8.31200000 2990706476 2990706476 -5.00000000
4.91098928 10.43638325 2.24200559 53 11 2520 11.75000000 2990706478 2990706478 11.00000000
3.79884505 8.06564713 2.05830216 60 13 2522 9.15000000 2990706482 2990706482 13.00000000
3.31234932 7.02636385 2.08142281 40 15 2524 8.04200000 2990706487 2990706487 15.00000000
0.97301358 2.05935621 -0.61029530 4 0 2529 2.35800000 2990706508 2990706508 -15.00000000
1.15719938 2.44696879 -0.62491405 3 2 2531 2.77800000 2990706512 2990706512 -13.00000000
1.39126980 2.94059682 -0.63234103 2 4 2532 3.31400000 2990706517 2990706517 -11.00000000
1.75935924 3.71523809 -0.65108025 2 6 2534 4.16200000 2990706522 2990706522 -9.00000000
2.36277175 4.98496437 -0.67734981 2 8 2536 5.55800000 2990706526 2990706526 -7.00000000
3.53758073 7.46020651 -0.72234678 8 10 2537 8.28800000 2990706531 2990706531 -5.00000000
4.95721579 10.44928360 2.24811149 56 11 2538 11.78200000 2990706533 2990706533 11.00000000
1.93284893 4.07240486 -0.23624450 4 12 2539 4.51400000 2990706535 2990706535 -3.00000000
3.82750869 8.06071472 2.06010175 59 13 2540 9.15800000 2990706538 2990706538 13.00000000
3.33440685 7.01592302 2.08142281 40 15 2542 8.04200000 2990706542 2990706542 15.00000000
0.97770196 2.05071592 -0.60874242 4 0 2549 2.35200000 2990706563 2990706563 -15.00000000
1.16573381 2.44291449 -0.62491405 3 2 2551 2.77800000 2990706568 2990706568 -13.00000000
1.39475930 2.92154884 -0.62928808 4 4 2552 3.29800000 2990706572 2990706572 -11.00000000
1.77231717 3.70907402 -0.65108025 2 6 2554 4.16200000 2990706577 2990706577 -9.00000000
2.37501931 4.96594143 -0.67588741 2 8 2556 5.54600000 2990706582 2990706582 -7.00000000
3.57391953 7.46937943 -0.72443855 8 10 2557 8.31200000 2990706586 2990706586 -5.00000000
4.99705076 10.43899918 2.24963808 56 11 2558 11.79000000 2990706588 2990706588 11.00000000
3.85393858 8.04378986 2.05920196 62 13 2560 9.15400000 2990706593 2990706593 13.00000000
3.35553527 6.99727345 2.07935214 45 15 2562 8.03400000 2990706598 2990706598 15.00000000
0.98820418 2.05425406 -0.61081296 4 0 2569 2.36000000 2990706618 2990706618 -15.00000000
1.17087257 2.43180704 -0.62311441 3 2 2571 2.77000000 2990706623 2990706623 -13.00000000
1.41176486 2.93081236 -0.63234103 2 4 2572 3.31400000 2990706628 2990706628 -11.00000000
1.77667463 3.68507123 -0.64795154 2 6 2574 4.14200000 2990706632 2990706632 -9.00000000
2.39924097 4.97192335 -0.67783731 2 8 2576 5.56200000 2990706637 2990706637 -7.00000000
3.59737206 7.45147610 -0.72391558 8 10 2577 8.30600000 2990706641 2990706641 -5.00000000
5.03858232 10.43210030 2.25192785 56 11 2578 11.80200000 2990706644 2990706644 11.00000000
3.88029671 8.02677917 2.05830216 60 13 2580 9.15000000 2990706648 2990706648 13.00000000
3.38040280 6.98958588 2.08038759 42 15 2581 8.03800000 2990706653 2990706653 15.00000000
0.99958652 2.05948186 -0.61340111 4 0 2589 2.37000000 2990706674 2990706674 -15.00000000
1.17594790 2.42069387 -0.62131482 3 2 2591 2.76200000 2990706678 2990706678 -13.00000000
1.42713583 2.93646097 -0.63463074 4 4 2592 3.32600000 2990706683 2990706683 -11.00000000
1.79298341 3.68595243 -0.64920300 2 6 2594 4.15000000 2990706687 2990706687 -9.00000000
2.41136789 4.95280933 -0.67637485 2 8 2596 5.55000000 2990706692 2990706692 -7.00000000
3.63295794 7.45857668 -0.72583300 8 10 2597 8.32800000 2990706697 2990706697 -5.00000000
5.08356667 10.43209743 2.25574398 56 11 2598 11.82200000 2990706699 2990706699 11.00000000
3.90145779 7.99917364 2.05470300 60 13 2600 9.13400000 2990706704 2990706704 13.00000000
3.40938807 6.98409319 2.08245802 42 15 2602 8.04600000 2990706708 2990706708 15.00000000
1.00507021 2.05251026 -0.61236584 4 0 2609 2.36600000 2990706729 2990706729 -15.00000000
1.18610585 2.42007399 -0.62221462 3 2 2611 2.76600000 2990706734 2990706734 -13.00000000
1.43564856 2.92793608 -0.63386750 4 4 2612 3.32200000 2990706738 2990706738 -11.00000000
1.80583894 3.67967129 -0.64920300 2 6 2614 4.15000000 2990706743 2990706743 -9.00000000
2.44176936 4.97108841 -0.68003094 2 8 2616 5.58000000 2990706747 2990706747 -7.00000000
3.66248584 7.45300245 -0.72653025 8 10 2617 8.33600000 2990706752 2990706752 -5.00000000
5.12861252 10.43190670 2.25956011 59 11 2618 11.84200000 2990706754 2990706754 11.00000000
3.92419386 7.97501516 2.05200362 62 13 2620 9.12200000 2990706759 2990706759 13.00000000
3.43167639 6.97101545 2.08194041 45 15 2621 8.04400000 2990706764 2990706764 15.00000000
1.01222861 2.04898930 -0.61236584 4 0 2629 2.36600000 2990706784 2990706784 -15.00000000
1.20145607 2.42989397 -0.62581384 3 2 2631 2.78200000 2990706789 2990706789 -13.00000000
1.43541455 2.90179014 -0.62928808 4 4 2632 3.29800000 2990706793 2990706793 -11.00000000
1.83269584 3.70166993 -0.65420896 2 6 2634 4.18200000 2990706798 2990706798 -9.00000000
2.45117426 4.94652653 -0.67783731 2 8 2636 5.56200000 2990706803 2990706803 -7.00000000
3.69201922 7.44731283 -0.72722751 8 10 2637 8.34400000 2990706807 2990706807 -5.00000000
5.18069696 10.44560051 2.26642919 56 11 2638 11.87800000 2990706810 2990706810 11.00000000
3.95374107 7.96475983 2.05290341 55 13 2640 9.12600000 2990706814 2990706814 13.00000000
3.45290542 6.94974041 2.07935214 45 15 2642 8.03400000 2990706819 2990706819 15.00000000
1.01212668 2.03178787 -0.60822475 4 0 2648 2.35000000 2990706840 2990706840 -15.00000000
1.20950735 2.42589641 -0.62581384 3 2 2650 2.78200000 2990706844 2990706844 -13.00000000
1.45028722 2.90755510 -0.63157779 4 4 2651 3.31000000 2990706849 2990706849 -11.00000000
1.84407866 3.69380474 -0.65389609 2 6 2653 4.18000000 2990706853 2990706853 -9.00000000
2.47821164 4.95968008 -0.68076217 2 8 2655 5.58600000 2990706858 2990706858 -7.00000000
3.70956826 7.42077160 -0.72583300 8 10 2656 8.32800000 2990706863 2990706863 -5.00000000
5.22145462 10.44065380 2.26910067 59 11 2657 11.89200000 2990706865 2990706865 11.00000000
3.47299170 6.93540382 2.07831693 42 15 2660 8.03000000 2990706874 2990706874 15.00000000
1.01921284 2.02824259 -0.60822475 4 0 2668 2.35000000 2990706895 2990706895 -15.00000000
1.21271431 2.41121387 -0.62311441 3 2 2670 2.77000000 2990706899 2990706899 -13.00000000
1.47101676 2.92352009 -0.63615721 4 4 2671 3.33400000 2990706904 2990706904 -11.00000000
1.84896469 3.67146683 -0.65108025 2 6 2673 4.16200000 2990706909 2990706909 -9.00000000
2.49550915 4.95099926 -0.68076217 4 8 2675 5.58600000 2990706913 2990706913 -7.00000000
3.74262547 7.42200994 -0.72722751 8 10 2676 8.34400000 2990706918 2990706918 -5.00000000
5.26051998 10.42762280 2.27024531 62 11 2677 11.89800000 2990706920 2990706920 11.00000000
3.50013041 6.92607641 2.07935214 45 15 2681 8.03400000 2990706929 2990706929 15.00000000
1.02978027 2.03156495 -0.61029530 4 0 2688 2.35800000 2990706950 2990706950 -15.00000000
1.21936023 2.40349030 -0.62221462 3 2 2690 2.76600000 2990706955 2990706955 -13.00000000
1.48476708 2.92537022 -0.63768369 4 4 2691 3.34200000 2990706959 2990706959 -11.00000000
1.85550666 3.65266204 -0.64889014 2 6 2693 4.14800000 2990706964 2990706964 -9.00000000
2.50647831 4.92987156 -0.67905599 4 8 2695 5.57200000 2990706969 2990706969 -7.00000000
3.76851034 7.40890026 -0.72722751 8 10 2696 8.34400000 2990706973 2990706973 -5.00000000
5.30401039 10.42319489 2.27329826 62 11 2697 11.91400000 2990706975 2990706975 11.00000000
4.60687304 9.04539967 2.34354019 56 13 2699 10.41800000 2990706980 2990706980 13.00000000
1.98363638 3.89310551 -0.07626702 21 14 2700 4.37000000 2990706982 2990706982 -1.00000000
3.52658701 6.92131662 2.08142281 42 15 2700 8.04200000 2990706985 2990706985 15.00000000
1.03862429 2.03139806 -0.61133057 4 0 2708 2.36200000 2990707005 2990707005 -15.00000000
1.23484445 2.41309762 -0.62581384 3 2 2710 2.78200000 2990707010 2990707010 -13.00000000
1.47707629 2.88521838 -0.63005131 4 4 2711 3.30200000 2990707015 2990707015 -11.00000000
1.88085663 3.67077541 -0.65327030 2 6 2713 4.17600000 2990707019 2990707019 -9.00000000
2.52095413 4.91579294 -0.67832476 2 8 2715 5.56600000 2990707024 2990707024 -7.00000000
3.78070712 7.36911011 -0.72461283 21 10 2716 8.31400000 2990707028 2990707028 -5.00000000
5.35739517 10.43780231 2.28054905 65 11 2717 11.95200000 2990707031 2990707031 11.00000000
4.63841963 9.02926445 2.34354019 56 13 2719 10.41800000 2990707035 2990707035 13.00000000
1.98898721 3.87015057 -0.07595287 7 14 2720 4.35200000 2990707038 2990707038 -1.00000000
3.55369806 6.91178083 2.08245802 42 15 2721 8.04600000 2990707040 2990707040 15.00000000
1.04393804 2.02432632 -0.61029530 4 0 2728 2.35800000 2990707061 2990707061 -15.00000000
1.23789752 2.39838243 -0.62311441 3 2 2730 2.77000000 2990707065 2990707065 -13.00000000
1.49434459 2.89400029 -0.63310426 4 4 2731 3.31800000 2990707070 2990707070 -11.00000000
1.89003086 3.65716815 -0.65201885 2 6 2733 4.16800000 2990707075 2990707075 -9.00000000
2.54174590 4.91401625 -0.67929971 4 8 2735 5.57400000 2990707079 2990707079 -7.00000000
3.82288909 7.38771963 -0.72775048 8 10 2736 8.35000000 2990707084 2990707084 -5.00000000
5.40733576 10.44519043 2.28627348 62 11 2737 11.98200000 2990707086 2990707086 11.00000000
4.66901255 9.01128769 2.34309030 54 13 2739 10.41600000 2990707091 2990707091 13.00000000
3.57304263 6.89309788 2.08038759 42 15 2740 8.03800000 2990707095 2990707095 15.00000000
1.04921496 2.01724219 -0.60926002 4 0 2748 2.35400000 2990707116 2990707116 -15.00000000
1.25346053 2.40787506 -0.62671363 3 2 2750 2.78600000 2990707121 2990707121 -13.00000000
1.50443745 2.88876629 -0.63310426 4 4 2751 3.31800000 2990707125 2990707125 -11.00000000
1.90643740 3.65755510 -0.65327030 2 6 2753 4.17600000 2990707130 2990707130 -9.00000000
2.56439257 4.91567373 -0.68076217 4 8 2755 5.58600000 2990707134 2990707134 -7.00000000
3.83759165 7.35313463 -0.72565871 8 10 2756 8.32600000 2990707139 2990707139 -5.00000000
5.45103264 10.44017410 2.28932643 62 11 2757 11.99800000 2990707141 2990707141 11.00000000
4.70134211 8.99666214 2.34354019 57 13 2759 10.41800000 2990707146 2990707146 13.00000000
3.59470177 6.87310839 2.07831693 42 15 2761 8.03000000 2990707151 2990707151 15.00000000
1.05804491 2.01698899 -0.61029530 4 0 2768 2.35800000 2990707171 2990707171 -15.00000000
1.26004612 2.40003419 -0.62581384 3 2 2770 2.78200000 2990707176 2990707176 -13.00000000
1.51998937 2.89392591 -0.63539398 4 4 2771 3.33000000 2990707181 2990707181 -11.00000000
1.91367817 3.64038730 -0.65139312 2 6 2773 4.16400000 2990707185 2990707185 -9.00000000
2.58430862 4.91196299 -0.68149334 4 8 2775 5.59200000 2990707190 2990707190 -7.00000000
3.87158751 7.35556173 -0.72722751 8 10 2776 8.34400000 2990707194 2990707194 -5.00000000
4.73453474 8.98364449 2.34443998 56 13 2779 10.42200000 2990707201 2990707201 13.00000000
3.61837506 6.86285877 2.07883453 45 15 2780 8.03200000 2990707206 2990707206 15.00000000
1.07049930 2.02352905 -0.61340111 4 0 2788 2.37000000 2990707227 2990707227 -15.00000000
1.26659238 2.39217687 -0.62491405 3 2 2790 2.77800000 2990707231 2990707231 -13.00000000
1.53191972 2.89207220 -0.63615721 4 4 2791 3.33400000 2990707236 2990707236 -11.00000000
1.92637384 3.63368511 -0.65139312 2 6 2793 4.16400000 2990707240 2990707240 -9.00000000
2.59771729 4.89589787 -0.68051839 4 8 2795 5.58400000 2990707245 2990707245 -7.00000000
3.90191031 7.35080147 -0.72809905 8 10 2796 8.35400000 2990707250 2990707250 -5.00000000
4.76220655 8.96018028 2.34264016 57 13 2799 10.41400000 2990707257 2990707257 13.00000000
3.64321589 6.85189247 2.07935214 45 15 2800 8.03400000 2990707261 2990707261 15.00000000
1.07866859 2.02356553 -0.61443639 4 0 2806 2.37400000 2990707282 2990707282 -15.00000000
1.27226686 2.38474727 -0.62401420 3 2 2808 2.77400000 2990707287 2990707287 -13.00000000
1.53730023 2.88031721 -0.63463074 4 4 2809 3.32600000 2990707291 2990707291 -11.00000000
1.94057202 3.63284230 -0.65233171 2 6 2811 4.17000000 2990707296 2990707296 -9.00000000
2.60559797 4.87370777 -0.67856848 4 8 2813 5.56800000 2990707300 2990707300 -7.00000000
3.93062234 7.34904861 -0.72914493 8 10 2814 8.36600000 2990707305 2990707305 -5.00000000
4.78481197 8.93486691 2.33994079 59 13 2817 10.40200000 2990707312 2990707312 13.00000000
3.67019749 6.85063028 2.08245802 40 15 2818 8.04600000 2990707316 2990707316 15.00000000
1.08023751 2.00957847 -0.61133057 4 0 2826 2.36200000 2990707337 2990707337 -15.00000000
1.28427649 2.38715625 -0.62581384 3 2 2828 2.78200000 2990707342 2990707342 -13.00000000
1.54548419 2.87147617 -0.63386750 4 4 2829 3.32200000 2990707346 2990707346 -11.00000000
1.96073568 3.63995934 -0.65483469 2 6 2831 4.18600000 2990707351 2990707351 -9.00000000
2.62824655 4.87506676 -0.68003094 4 8 2833 5.58000000 2990707356 2990707356 -7.00000000
3.95719695 7.33703661 -0.72931927 4 10 2834 8.36800000 2990707360 2990707360 -5.00000000
4.82152748 8.92839909 2.34264016 57 13 2837 10.41400000 2990707367 2990707367 13.00000000
3.68977046 6.82693529 2.07935214 45 15 2839 8.03400000 2990707372 2990707372 15.00000000
1.08632505 2.00409722 -0.61081296 4 0 2846 2.36000000 2990707393 2990707393 -15.00000000
2.03614593 3.75480151 0.07455668 16 1 2847 4.27200000 2990707395 2990707395 1.00000000
1.29260147 2.38265872 -0.62581384 3 2 2848 2.78200000 2990707397 2990707397 -13.00000000
1.56111693 2.87641692 -0.63615721 2 4 2849 3.33400000 2990707402 2990707402 -11.00000000
1.97060096 3.62788534 -0.65389609 2 6 2851 4.18000000 2990707406 2990707406 -9.00000000
2.64998841 4.87458324 -0.68124962 4 8 2853 5.59000000 2990707411 2990707411 -7.00000000
3.97421670 7.30742645 -0.72775048 4 10 2854 8.35000000 2990707416 2990707416 -5.00000000
4.85452795 8.91493702 2.34354019 55 13 2857 10.41800000 2990707422 2990707422 13.00000000
3.71054077 6.81126928 2.07831693 45 15 2858 8.03000000 2990707427 2990707427 15.00000000
1.09238756 1.99859774 -0.61029530 4 0 2866 2.35800000 2990707448 2990707448 -15.00000000
2.04444337 3.73889852 0.07438216 18 1 2867 4.26200000 2990707450 2990707450 1.00000000
1.30278111 2.38155150 -0.62671363 3 2 2868 2.78600000 2990707452 2990707452 -13.00000000
1.56737804 2.86406112 -0.63463074 2 4 2869 3.32600000 2990707457 2990707457 -11.00000000
1.96901870 3.59499669 -0.64920300 2 6 2871 4.15000000 2990707462 2990707462 -9.00000000
2.66985035 4.87052536 -0.68198085 6 8 2873 5.59600000 2990707466 2990707466 -7.00000000
4.00640631 7.30573797 -0.72897065 4 10 2874 8.36400000 2990707471 2990707471 -5.00000000
4.88561726 8.89793777 2.34354019 56 13 2877 10.41800000 2990707478 2990707478 13.00000000
3.73615408 6.80166197 2.07935214 40 15 2878 8.03400000 2990707482 2990707482 15.00000000
1.10308707 2.00154018 -0.61236584 4 0 2886 2.36600000 2990707503 2990707503 -15.00000000
1.30543911 2.36675119 -0.62401420 3 2 2888 2.77400000 2990707508 2990707508 -13.00000000
1.58115995 2.86544824 -0.63615721 2 4 2889 3.33400000 2990707512 2990707512 -11.00000000
1.99301517 3.60885191 -0.65295744 2 6 2891 4.17400000 2990707517 2990707517 -9.00000000
2.68203402 4.85248947 -0.68076217 6 8 2893 5.58600000 2990707521 2990707521 -7.00000000
4.03670406 7.30042648 -0.72984219 8 10 2894 8.37400000 2990707526 2990707526 -5.00000000
4.91475916 8.87741947 2.34264016 55 13 2897 10.41400000 2990707533 2990707533 13.00000000
3.76174545 6.79195881 2.08038759 42 15 2898 8.03800000 2990707538 2990707538 15.00000000
1.11006701 1.99767745 -0.61236584 4 0 2906 2.36600000 2990707558 2990707558 -15.00000000
1.31369269 2.36217999 -0.62401420 3 2 2908 2.77400000 2990707563 2990707563 -13.00000000
1.59497058 2.86677384 -0.63768369 2 4 2909 3.34200000 2990707568 2990707568 -11.00000000
2.00560021 3.60187316 -0.65295744 2 6 2911 4.17400000 2990707572 2990707572 -9.00000000
2.69895601 4.84309769 -0.68076217 6 8 2913 5.58600000 2990707577 2990707577 -7.00000000
4.06798410 7.29673243 -0.73088807 4 10 2914 8.38600000 2990707581 2990707581 -5.00000000
4.94191790 8.85340309 2.34084058 59 13 2917 10.40600000 2990707588 2990707588 13.00000000
3.78378749 6.77306604 2.07883453 40 15 2919 8.03200000 2990707593 2990707593 15.00000000
1.11479759 1.99061430 -0.61133057 4 0 2925 2.36200000 2990707614 2990707614 -15.00000000
1.32723546 2.36801004 -0.62671363 3 2 2927 2.78600000 2990707618 2990707618 -13.00000000
1.59678686 2.84776950 -0.63463074 2 4 2928 3.32600000 2990707623 2990707623 -11.00000000
2.01560020 3.59175706 -0.65233171 2 6 2930 4.17000000 2990707627 2990707627 -9.00000000
2.71888971 4.84104443 -0.68173712 6 8 2932 5.59400000 2990707632 2990707632 -7.00000000
4.08044720 7.26235867 -0.72879630 4 10 2933 8.36200000 2990707637 2990707637 -5.00000000
4.97124958 8.83696651 2.34084058 56 13 2936 10.40600000 2990707644 2990707644 13.00000000
3.80788946 6.76619625 2.08038759 40 15 2937 8.03800000 2990707648 2990707648 15.00000000
1.11794007 1.97998190 -0.60926002 4 0 2945 2.35400000 2990707669 2990707669 -15.00000000
1.33741069 2.36675596 -0.62761343 3 2 2947 2.79000000 2990707673 2990707673 -13.00000000
1.60092080 2.83192396 -0.63234103 4 4 2948 3.31400000 2990707678 2990707678 -11.00000000
2.02812552 3.58469963 -0.65233171 2 6 2950 4.17000000 2990707683 2990707683 -9.00000000
2.73381543 4.82806921 -0.68124962 6 8 2952 5.59000000 2990707687 2990707687 -7.00000000
4.09988070 7.23766947 -0.72775048 8 10 2953 8.35000000 2990707692 2990707692 -5.00000000
5.00783443 8.82973003 2.34354019 55 13 2956 10.41800000 2990707699 2990707699 13.00000000
3.82862449 6.74782228 2.07883453 40 15 2957 8.03200000 2990707703 2990707703 15.00000000
1.12675607 1.97942531 -0.61029530 4 0 2965 2.35800000 2990707724 2990707724 -15.00000000
1.33601773 2.34514070 -0.62311441 3 2 2967 2.77000000 2990707729 2990707729 -13.00000000
1.61662900 2.83655262 -0.63463074 2 4 2968 3.32600000 2990707733 2990707733 -11.00000000
2.04845572 3.59132528 -0.65483469 2 6 2970 4.18600000 2990707738 2990707738 -9.00000000
2.75458837 4.82539272 -0.68222457 6 8 2972 5.59800000 2990707743 2990707743 -7.00000000
4.14092875 7.25099611 -0.73053944 8 10 2973 8.38200000 2990707747 2990707747 -5.00000000
5.03862572 8.81219578 2.34354019 56 13 2976 10.41800000 2990707754 2990707754 13.00000000
3.84373593 6.71697712 2.07365823 38 15 2978 8.01200000 2990707759 2990707759 15.00000000
1.13750482 1.98218238 -0.61236584 4 0 2985 2.36600000 2990707779 2990707779 -15.00000000
1.34419560 2.34046292 -0.62311441 3 2 2987 2.77000000 2990707784 2990707784 -13.00000000
1.63630116 2.84791493 -0.63844693 4 4 2988 3.34600000 2990707789 2990707789 -11.00000000
2.06097937 3.58415294 -0.65483469 2 6 2990 4.18600000 2990707793 2990707793 -9.00000000
2.76547456 4.80542517 -0.68076217 6 8 2992 5.58600000 2990707798 2990707798 -7.00000000
4.16124344 7.22786427 -0.72966790 8 10 2993 8.37200000 2990707803 2990707803 -5.00000000
5.06740856 8.79117775 2.34264016 55 13 2996 10.41400000 2990707809 2990707809 13.00000000
3.87295127 6.71355915 2.07676411 40 15 2998 8.02400000 2990707814 2990707814 15.00000000
1.14441705 1.97819960 -0.61236584 4 0 3005 2.36600000 2990707835 2990707835 -15.00000000
1.35821581 2.34587526 -0.62581384 3 2 3007 2.78200000 2990707839 2990707839 -13.00000000
1.63639235 2.82519746 -0.63463074 2 4 3008 3.32600000 2990707844 2990707844 -11.00000000
2.06951499 3.57010078 -0.65358317 2 6 3010 4.17800000 2990707849 2990707849 -9.00000000
2.78023934 4.79230833 -0.68027467 6 8 3012 5.58200000 2990707853 2990707853 -7.00000000
4.18344784 7.20812511 -0.72914493 8 10 3013 8.36600000 2990707858 2990707858 -5.00000000
5.09414864 8.76669598 2.34084058 55 13 3016 10.40600000 2990707865 2990707865 13.00000000
3.89539099 6.69832897 2.07624626 40 15 3018 8.02200000 2990707869 2990707869 15.00000000
1.14936876 1.97085524 -0.61133057 4 0 3025 2.36200000 2990707890 2990707890 -15.00000000
1.37032545 2.34785223 -0.62761343 3 2 3027 2.79000000 2990707895 2990707895 -13.00000000
1.65020382 2.82624960 -0.63615721 2 4 3028 3.33400000 2990707899 2990707899 -11.00000000
2.08196449 3.56285524 -0.65358317 2 6 3030 4.17800000 2990707904 2990707904 -9.00000000
2.80095935 4.78942871 -0.68124962 6 8 3032 5.59000000 2990707909 2990707909 -7.00000000
4.20355272 7.18487978 -0.72827339 4 10 3033 8.35600000 2990707913 2990707913 -5.00000000
5.12471914 8.74886036 2.34084058 55 13 3036 10.40600000 2990707920 2990707920 13.00000000
3.91581798 6.67969131 2.07469344 40 15 3038 8.01600000 2990707925 2990707925 15.00000000
1.15819943 1.97016191 -0.61236584 4 0 3045 2.36600000 2990707945 2990707945 -15.00000000
1.37653625 2.33969522 -0.62671363 3 2 3047 2.78600000 2990707950 2990707950 -13.00000000
1.66205084 2.82385612 -0.63692045 2 4 3048 3.33800000 2990707955 2990707955 -11.00000000
2.09739614 3.56067228 -0.65452182 2 6 3050 4.18400000 2990707959 2990707959 -9.00000000
2.82068467 4.78475237 -0.68198085 4 8 3052 5.59600000 2990707964 2990707964 -7.00000000
4.22658300 7.16673040 -0.72792476 4 10 3053 8.35200000 2990707968 2990707968 -5.00000000
5.15621758 8.73259640 2.34129047 54 13 3056 10.40800000 2990707975 2990707975 13.00000000
3.93205190 6.65668917 2.07158756 24 15 3057 8.00400000 2990707980 2990707980 15.00000000
1.16113019 1.95945919 -0.61029530 4 0 3065 2.35800000 2990708001 2990708001 -15.00000000
1.38270688 2.33152366 -0.62581384 3 2 3067 2.78200000 2990708005 2990708005 -13.00000000
1.66989434 2.81466031 -0.63615721 2 4 3068 3.33400000 2990708010 2990708010 -11.00000000
2.09972739 3.53634381 -0.65139312 2 6 3070 4.16400000 2990708014 2990708014 -9.00000000
2.84446788 4.78682280 -0.68368703 6 8 3072 5.61000000 2990708019 2990708019 -7.00000000
4.26786327 7.17933512 -0.73071373 4 10 3073 8.38400000 2990708024 2990708024 -5.00000000
5.18965864 8.71956825 2.34264016 55 13 3076 10.41400000 2990708031 2990708031 13.00000000
4.49818277 7.55176353 2.35525322 38 15 3078 9.10000000 2990708035 2990708035 15.00000000
1.17356372 1.96555018 -0.61340111 4 0 3084 2.37000000 2990708056 2990708056 -15.00000000
1.38843167 2.32358003 -0.62491405 3 2 3086 2.77800000 2990708061 2990708061 -13.00000000
1.68929231 2.82595849 -0.63997334 2 4 3087 3.35400000 2990708065 2990708065 -11.00000000
2.05972147 3.44290733 -0.63543677 4 6 3089 4.06200000 2990708070 2990708070 -9.00000000
2.85216808 4.76373863 -0.68173712 6 8 3091 5.59400000 2990708074 2990708074 -7.00000000
1.88740385 3.15237331 0.58193618 7 9 3091 3.72000000 2990708077 2990708077 9.00000000
4.28857613 7.16001558 -0.73019081 8 10 3092 8.37800000 2990708079 2990708079 -5.00000000
5.21453667 8.69562626 2.34084058 55 13 3095 10.40600000 2990708086 2990708086 13.00000000
4.52387238 7.54090834 2.35628867 40 15 3096 9.10400000 2990708091 2990708091 15.00000000
1.18041754 1.96144164 -0.61340111 4 0 3104 2.37000000 2990708111 2990708111 -15.00000000
1.39653397 2.31871939 -0.62491405 3 2 3106 2.77800000 2990708116 2990708116 -13.00000000
1.69509363 2.81331825 -0.63844693 2 4 3107 3.34600000 2990708120 2990708120 -11.00000000
1.94422042 3.22424316 -0.59632820 10 6 3109 3.81200000 2990708125 2990708125 -9.00000000
1.89897847 3.14797258 0.45140404 7 7 3110 3.70400000 2990708127 2990708127 7.00000000
2.87083077 4.75715303 -0.68222457 6 8 3111 5.59800000 2990708130 2990708130 -7.00000000
4.32589960 7.16546965 -0.73228258 8 10 3112 8.40200000 2990708134 2990708134 -5.00000000
5.24082613 8.67070007 2.33904099 56 13 3115 10.39800000 2990708141 2990708141 13.00000000
4.55148077 7.52427673 2.35628867 40 15 3117 9.10400000 2990708146 2990708146 15.00000000
1.18124568 1.94739890 -0.61029530 4 0 3124 2.35800000 2990708167 2990708167 -15.00000000
1.40866435 2.32049370 -0.62671363 3 2 3126 2.78600000 2990708171 2990708171 -13.00000000
1.71101797 2.81745243 -0.64073658 2 4 3127 3.35800000 2990708176 2990708176 -11.00000000
1.90170503 3.12775517 0.44945413 31 7 3130 3.68800000 2990708183 2990708183 7.00000000
2.89773464 4.76406288 -0.68466198 6 8 3131 5.61800000 2990708185 2990708185 -7.00000000
1.88472843 3.09861517 0.57442737 53 9 3131 3.67200000 2990708187 2990708187 9.00000000
4.34260035 7.13670969 -0.73088807 8 10 3132 8.38600000 2990708190 2990708190 -5.00000000
5.26903296 8.64902496 2.33814120 56 13 3135 10.39400000 2990708197 2990708197 13.00000000
4.57741261 7.51079178 2.35680628 40 15 3136 9.10600000 2990708201 2990708201 15.00000000
1.18602085 1.93996727 -0.60926002 4 0 3144 2.35400000 2990708222 2990708222 -15.00000000
1.41777277 2.31722474 -0.62716353 3 2 3146 2.78800000 2990708226 2990708226 -13.00000000
1.81513500 2.96551538 -0.67584544 5 4 3147 3.54200000 2990708231 2990708231 -11.00000000
2.13079572 3.47986841 0.35698992 21 5 3148 4.09600000 2990708233 2990708233 5.00000000
1.90223920 3.10417223 0.44701675 42 7 3150 3.66800000 2990708238 2990708238 7.00000000
1.92975605 3.14784241 -0.45335397 7 8 3151 3.72000000 2990708240 2990708240 -7.00000000
1.89504004 3.09000254 0.57411450 61 9 3152 3.67000000 2990708243 2990708243 9.00000000
4.37269354 7.12999964 -0.73175961 8 10 3152 8.39600000 2990708245 2990708245 -5.00000000
1.91680026 3.12426066 0.71248078 14 11 3153 3.73400000 2990708247 2990708247 11.00000000
5.30734873 8.64386463 2.34174037 55 13 3155 10.41000000 2990708252 2990708252 13.00000000
4.59884214 7.48408842 2.35370040 42 15 3157 9.09400000 2990708256 2990708256 15.00000000
1.19312322 1.93560719 -0.60926002 4 0 3165 2.35400000 2990708277 2990708277 -15.00000000
1.42421007 2.30869555 -0.62626374 3 2 3167 2.78400000 2990708282 2990708282 -13.00000000
1.86929619 3.02901292 -0.69187343 13 4 3168 3.62600000 2990708286 2990708286 -11.00000000
1.91719425 3.10420203 -0.57786894 33 6 3170 3.69400000 2990708291 2990708291 -9.00000000
1.88647532 3.05327177 0.44067955 39 7 3171 3.61600000 2990708293 2990708293 7.00000000
1.94336796 3.14412546 -0.45384145 40 8 3172 3.72400000 2990708296 2990708296 -7.00000000
1.90269876 3.07832789 0.57317591 65 9 3172 3.66400000 2990708298 2990708298 9.00000000
1.92100871 3.10552669 0.70980948 28 11 3174 3.72000000 2990708302 2990708302 11.00000000
5.33899450 8.62435436 2.34174037 56 13 3176 10.41000000 2990708307 2990708307 13.00000000
4.62697268 7.47127485 2.35473561 42 15 3177 9.09800000 2990708312 2990708312 15.00000000
1.20089185 1.93307161 -0.60977769 4 0 3185 2.35600000 2990708332 2990708332 -15.00000000
1.42505777 2.29212546 -0.62311441 3 2 3187 2.77000000 2990708337 2990708337 -13.00000000
1.87363672 3.01246667 -0.68958372 9 4 3188 3.61400000 2990708342 2990708342 -11.00000000
1.90505314 3.06059599 -0.57098579 31 6 3190 3.65000000 2990708346 2990708346 -9.00000000
1.89187527 3.03824258 0.43946084 54 7 3191 3.60600000 2990708349 2990708349 7.00000000
1.93438900 3.10530925 -0.44921041 31 8 3192 3.68600000 2990708351 2990708351 -7.00000000
1.90770018 3.06127453 0.57129866 65 9 3193 3.65200000 2990708353 2990708353 9.00000000
1.97365582 3.16711307 -0.32648543 7 10 3193 3.74600000 2990708355 2990708355 -5.00000000
1.92145109 3.08214188 0.70599329 36 11 3194 3.70000000 2990708358 2990708358 11.00000000
5.34637308 8.56929207 2.33184266 12 13 3196 10.36600000 2990708362 2990708362 13.00000000
4.65637159 7.45754337 2.35577106 40 15 3198 9.10200000 2990708367 2990708367 15.00000000
1.21241987 1.93726659 -0.61236584 4 0 3204 2.36600000 2990708388 2990708388 -15.00000000
1.43885732 2.29729629 -0.62581384 3 2 3206 2.78200000 2990708392 2990708392 -13.00000000
1.98305011 3.16493273 0.19573648 4 3 3207 3.74000000 2990708395 2990708395 3.00000000
1.86693776 2.97961831 -0.68347782 9 4 3207 3.58200000 2990708397 2990708397 -11.00000000
1.91519201 3.05426168 -0.57098579 33 6 3209 3.65000000 2990708402 2990708402 -9.00000000
1.89561081 3.02186251 0.43799841 54 7 3210 3.59400000 2990708404 2990708404 7.00000000
1.93306911 3.08038163 -0.44652927 33 8 3211 3.66400000 2990708406 2990708406 -7.00000000
1.91520798 3.05191994 0.57067293 68 9 3211 3.64800000 2990708408 2990708408 9.00000000
1.96190131 3.12511492 -0.32282487 20 10 3212 3.70400000 2990708411 2990708411 -5.00000000
1.93270540 3.07741594 0.70637488 70 11 3213 3.70200000 2990708413 2990708413 11.00000000
1.96035230 3.12022805 -0.19311967 14 12 3214 3.69000000 2990708415 2990708415 -3.00000000
1.98405766 3.15551353 -0.06506257 10 14 3216 3.72800000 2990708420 2990708420 -1.00000000
4.68594694 7.45269060 2.35887671 40 15 3216 9.11400000 2990708422 2990708422 15.00000000
1.21505249 1.92648673 -0.61029530 4 0 3224 2.35800000 2990708443 2990708443 -15.00000000
1.45102835 2.29885149 -0.62761343 3 2 3226 2.79000000 2990708448 2990708448 -13.00000000
2.00474930 3.17487907 0.19678320 32 3 3227 3.76000000 2990708450 2990708450 3.00000000
1.88361633 2.98304343 -0.68576753 12 4 3227 3.59400000 2990708452 2990708452 -11.00000000
1.95998013 3.10277939 0.32108176 1 5 3228 3.68400000 2990708455 2990708455 5.00000000
1.91951013 3.03753853 -0.56910861 31 6 3229 3.63800000 2990708457 2990708457 -9.00000000
1.91039050 3.02193880 0.43897337 55 7 3230 3.60200000 2990708459 2990708459 7.00000000
1.94274879 3.07193756 -0.44628555 33 8 3231 3.66200000 2990708461 2990708461 -7.00000000
1.91793203 3.03152490 0.56816995 68 9 3232 3.63200000 2990708464 2990708464 9.00000000
1.95149362 3.08457327 -0.31933865 29 10 3232 3.66400000 2990708466 2990708466 -5.00000000
1.93818617 3.06235600 0.70446682 49 11 3233 3.69200000 2990708468 2990708468 11.00000000
1.97230041 3.11505365 -0.19322436 21 12 3234 3.69200000 2990708471 2990708471 -3.00000000
2.06151867 3.25470805 0.88945645 2 13 3235 3.95400000 2990708473 2990708473 13.00000000
1.97900569 3.12323141 -0.06453900 16 14 3236 3.69800000 2990708475 2990708475 -1.00000000
4.70909357 7.42893934 2.35680628 45 15 3237 9.10600000 2990708478 2990708478 15.00000000
1.21762478 1.91571200 -0.60822475 4 0 3244 2.35000000 2990708498 2990708498 -15.00000000
1.99463892 3.13699365 0.06488805 9 1 3245 3.71800000 2990708501 2990708501 1.00000000
1.46113575 2.29706097 -0.62851322 3 2 3246 2.79400000 2990708503 2990708503 -13.00000000
2.00402474 3.14932632 0.19563180 39 3 3247 3.73800000 2990708505 2990708505 3.00000000
1.89085567 2.97148108 -0.68462270 13 4 3247 3.58800000 2990708508 2990708508 -11.00000000
1.92479610 3.02248859 -0.56754422 30 6 3249 3.62800000 2990708512 2990708512 -9.00000000
1.93265986 3.03366828 0.44165450 61 7 3250 3.62400000 2990708514 2990708514 7.00000000
1.95025945 3.06011534 -0.44555432 31 8 3251 3.65600000 2990708517 2990708517 -7.00000000
1.92797434 3.02514815 0.56816995 65 9 3251 3.63200000 2990708519 2990708519 9.00000000
1.95046675 3.05926251 -0.31742123 31 10 3252 3.64200000 2990708521 2990708521 -5.00000000
1.94991970 3.05722713 0.70484841 50 11 3253 3.69400000 2990708524 2990708524 11.00000000
1.98316193 3.10815001 -0.19322436 27 12 3254 3.69200000 2990708526 2990708526 -3.00000000
2.07496405 3.25077748 0.89035630 4 13 3255 3.95800000 2990708528 2990708528 13.00000000
1.98236239 3.10450673 -0.06429467 22 14 3256 3.68400000 2990708531 2990708531 -1.00000000
4.72746468 7.40351295 2.35370040 42 15 3256 9.09400000 2990708533 2990708533 15.00000000
1.22847223 1.91795719 -0.61029530 4 0 3264 2.35800000 2990708554 2990708554 -15.00000000
1.99370956 3.11149120 0.06450409 27 1 3265 3.69600000 2990708556 2990708556 1.00000000
1.46283519 2.28210306 -0.62581384 3 2 3266 2.78200000 2990708558 2990708558 -13.00000000
2.00638080 3.12886167 0.19479443 66 3 3267 3.72200000 2990708561 2990708561 3.00000000
1.90015686 2.96321011 -0.68424106 12 4 3267 3.58600000 2990708563 2990708563 -11.00000000
1.97729051 3.08231282 0.32038450 64 5 3268 3.67600000 2990708565 2990708565 5.00000000
1.92786658 3.00411391 -0.56535417 28 6 3269 3.61400000 2990708567 2990708567 -9.00000000
1.95932400 3.05196071 0.44531059 100 7 3270 3.65400000 2990708570 2990708570 7.00000000
1.95878386 3.04994845 -0.44506684 31 8 3271 3.65200000 2990708572 2990708572 -7.00000000
1.94492710 3.02837253 0.57004720 73 9 3271 3.64400000 2990708574 2990708574 9.00000000
1.95467198 3.04237795 -0.31637534 28 10 3272 3.63000000 2990708577 2990708577 -5.00000000
1.95314908 3.03884125 0.70217711 56 11 3273 3.68000000 2990708579 2990708579 11.00000000
1.98211741 3.08272910 -0.19207296 29 12 3274 3.67000000 2990708581 2990708581 -3.00000000
2.07681084 3.22876406 0.88630718 9 13 3275 3.94000000 2990708584 2990708584 13.00000000
1.98236632 3.08075166 -0.06394561 28 14 3276 3.66400000 2990708586 2990708586 -1.00000000
4.41562605 6.86222649 2.18650341 22 15 3276 8.44800000 2990708588 2990708588 15.00000000
1.24110973 1.92361259 -0.61340111 4 0 3283 2.37000000 2990708609 2990708609 -15.00000000
1.99642575 3.09310174 0.06425976 27 1 3284 3.68200000 2990708611 2990708611 1.00000000
1.47039497 2.27723956 -0.62581384 3 2 3285 2.78200000 2990708614 2990708614 -13.00000000
2.01024318 3.11212492 0.19416639 86 3 3286 3.71000000 2990708616 2990708616 3.00000000
1.90251613 2.94534874 -0.68156976 11 4 3286 3.57200000 2990708618 2990708618 -11.00000000
1.99182642 3.08243251 0.32108176 83 5 3287 3.68400000 2990708620 2990708620 5.00000000
1.93567324 2.99438667 -0.56472844 24 6 3288 3.61000000 2990708623 2990708623 -9.00000000
1.96188807 3.03377819 0.44360441 88 7 3289 3.64000000 2990708625 2990708625 7.00000000
1.96241760 3.03343582 -0.44360441 33 8 3290 3.64000000 2990708627 2990708627 -7.00000000
1.95763278 3.02488184 0.57067293 73 9 3291 3.64800000 2990708630 2990708630 9.00000000
1.96691513 3.03922462 -0.31672397 29 10 3291 3.63400000 2990708632 2990708632 -5.00000000
1.96534944 3.03564358 0.70294034 66 11 3292 3.68400000 2990708634 2990708634 11.00000000
1.98798621 3.06943369 -0.19165426 27 12 3293 3.66200000 2990708637 2990708637 -3.00000000
2.08538699 3.21858835 0.88540733 20 13 3294 3.93600000 2990708639 2990708639 13.00000000
1.98604560 3.06409264 -0.06373619 28 14 3295 3.65200000 2990708641 2990708641 -1.00000000
4.79245949 7.39385843 2.36094737 40 15 3295 9.12200000 2990708643 2990708643 15.00000000
1.24571085 1.91602933 -0.61236584 4 0 3303 2.36600000 2990708664 2990708664 -15.00000000
1.99957848 3.07437992 0.06401543 24 1 3304 3.66800000 2990708667 2990708667 1.00000000
1.47833502 2.27209306 -0.62581384 3 2 3305 2.78200000 2990708669 2990708669 -13.00000000
2.00801992 3.08500195 0.19291033 52 3 3306 3.68600000 2990708671 2990708671 3.00000000
1.90528870 2.92717195 -0.67889839 9 4 3306 3.55800000 2990708673 2990708673 -11.00000000
2.00039959 3.07212162 0.32073313 68 5 3307 3.68000000 2990708676 2990708676 5.00000000
1.95366108 2.99919796 -0.56691849 31 6 3308 3.62400000 2990708678 2990708678 -9.00000000
1.96921468 3.02192211 0.44287318 72 7 3309 3.63400000 2990708680 2990708680 7.00000000
1.97516239 3.02989292 -0.44409189 35 8 3310 3.64400000 2990708683 2990708683 -7.00000000
1.96386349 3.01141143 0.56942147 71 9 3311 3.64000000 2990708685 2990708685 9.00000000
1.97751200 3.03234029 -0.31672397 29 10 3311 3.63400000 2990708687 2990708687 -5.00000000
1.97807920 3.03205347 0.70370358 70 11 3312 3.68800000 2990708690 2990708690 11.00000000
1.99432218 3.05578542 -0.19123559 30 12 3313 3.65400000 2990708692 2990708692 -3.00000000
2.08062911 3.18681312 0.87865883 24 13 3314 3.90600000 2990708694 2990708694 13.00000000
1.98798120 3.04374766 -0.06345695 27 14 3315 3.63600000 2990708696 2990708696 -1.00000000
4.81530046 7.36977482 2.35887671 42 15 3316 9.11400000 2990708699 2990708699 15.00000000
1.24815679 1.90520561 -0.61029530 4 0 3323 2.35800000 2990708720 2990708720 -15.00000000
1.99385607 3.04229379 0.06349185 28 1 3324 3.63800000 2990708722 2990708722 1.00000000
1.48839402 2.27017832 -0.62671363 3 2 3325 2.78600000 2990708724 2990708724 -13.00000000
2.01329947 3.06962347 0.19238697 50 3 3326 3.67600000 2990708726 2990708726 3.00000000
1.91549492 2.92050338 -0.67889839 11 4 3326 3.55800000 2990708729 2990708729 -11.00000000
2.01111102 3.06512022 0.32073313 71 5 3327 3.68000000 2990708731 2990708731 5.00000000
1.97170591 3.00392008 -0.56910861 33 6 3328 3.63800000 2990708733 2990708733 -9.00000000
1.97757208 3.01171112 0.44238570 57 7 3329 3.63000000 2990708736 2990708736 7.00000000
1.99989486 3.04454899 -0.44726050 43 8 3330 3.67000000 2990708738 2990708738 -7.00000000
1.97436333 3.00453806 0.56942147 74 9 3331 3.64000000 2990708740 2990708740 9.00000000
1.98370826 3.01875877 -0.31602672 31 10 3331 3.62600000 2990708743 2990708743 -5.00000000
1.99080789 3.02841115 0.70446682 68 11 3332 3.69200000 2990708745 2990708745 11.00000000
2.00058699 3.04213023 -0.19081689 29 12 3333 3.64600000 2990708747 2990708747 -3.00000000
2.08531427 3.16976285 0.87595940 18 13 3334 3.89400000 2990708749 2990708749 13.00000000
1.99199772 3.02676725 -0.06324752 28 14 3335 3.62400000 2990708752 2990708752 -1.00000000
4.83546495 7.34731102 2.35680628 42 15 3335 9.10600000 2990708754 2990708754 15.00000000
1.24628532 1.88793910 -0.60615420 4 0 3343 2.34200000 2990708775 2990708775 -15.00000000
2.00336146 3.03364658 0.06345695 31 1 3344 3.63600000 2990708777 2990708777 1.00000000
1.50275433 2.27472472 -0.62941307 3 2 3345 2.79800000 2990708779 2990708779 -13.00000000
2.01849627 3.05424571 0.19186361 48 3 3346 3.66600000 2990708782 2990708782 3.00000000
1.90619361 2.88431740 -0.67202926 5 4 3346 3.52200000 2990708784 2990708784 -11.00000000
2.01300764 3.04478550 0.31933865 56 5 3347 3.66400000 2990708786 2990708786 5.00000000
1.98653841 3.00360966 -0.57036006 26 6 3348 3.64600000 2990708789 2990708789 -9.00000000
2.01655221 3.04783344 0.44872293 100 7 3349 3.68200000 2990708791 2990708791 7.00000000
2.02256227 3.05575824 -0.44994161 35 8 3350 3.69200000 2990708793 2990708793 -7.00000000
1.98920143 3.00421619 0.57067293 78 9 3351 3.64800000 2990708796 2990708796 9.00000000
1.99203360 3.00849342 -0.31567809 33 10 3351 3.62200000 2990708798 2990708798 -5.00000000
2.00136685 3.02144361 0.70446682 68 11 3352 3.69200000 2990708800 2990708800 11.00000000
2.00898743 3.03179860 -0.19060755 27 12 3353 3.64200000 2990708802 2990708802 -3.00000000
2.09205914 3.15596724 0.87415981 14 13 3354 3.88600000 2990708805 2990708805 13.00000000
2.00697160 3.02646184 -0.06338714 27 14 3355 3.63200000 2990708807 2990708807 -1.00000000
4.85254097 7.31750727 2.35266519 42 15 3355 9.09000000 2990708809 2990708809 15.00000000
1.26142716 1.89644539 -0.61029530 4 0 3363 2.35800000 2990708830 2990708830 -15.00000000
2.01504636 3.02830005 0.06349185 39 1 3364 3.63800000 2990708832 2990708832 1.00000000
1.50420654 2.25973201 -0.62671363 3 2 3365 2.78600000 2990708835 2990708835 -13.00000000
2.01975965 3.03423476 0.19102624 54 3 3365 3.65000000 2990708837 2990708837 3.00000000
1.86075389 2.79430699 -0.65256679 4 4 3366 3.42000000 2990708839 2990708839 -11.00000000
2.01920533 3.03110766 0.31864139 49 5 3367 3.65600000 2990708842 2990708842 5.00000000
2.01344275 3.02131414 -0.57505310 5 6 3368 3.67600000 2990708844 2990708844 -9.00000000
2.02717876 3.04077578 0.44872293 100 7 3369 3.68200000 2990708846 2990708846 7.00000000
2.03321648 3.04867959 -0.44994161 29 8 3370 3.69200000 2990708848 2990708848 -7.00000000
2.00901699 3.01239395 0.57348877 95 9 3370 3.66600000 2990708851 2990708851 9.00000000
2.01910949 3.02638245 -0.31829277 33 10 3371 3.65200000 2990708853 2990708853 -5.00000000
2.00318265 3.00137544 0.70141387 70 11 3372 3.67600000 2990708855 2990708855 11.00000000
2.01401281 3.01646209 -0.19008419 26 12 3373 3.63200000 2990708858 2990708858 -3.00000000
2.06734419 3.09516859 0.85931301 22 13 3374 3.82000000 2990708860 2990708860 13.00000000
2.02418947 3.02941370 -0.06359657 27 14 3375 3.64400000 2990708862 2990708862 -1.00000000
