# .PCD v0.7 - Point Cloud Data file format
VERSION 0.7
FIELDS x y z intensity laser_id azimuth distance_m adjustedtime timestamp vertical_angle
SIZE 4 4 4 1 1 2 8 8 4 8
TYPE F F F U U U F U U F
COUNT 1 1 1 1 1 1 1 1 1 1
WIDTH 539
HEIGHT 1
VIEWPOINT 0 0 0 1 0 0 0
POINTS 539
DATA ascii
8.15925407 2.78717470 -0.45186865 12 12 7114 8.63400000 2990119512 2990119512 -3.00000000
8.19020176 2.79614997 1.99801528 106 13 7115 8.88200000 2990119514 2990119514 13.00000000
8.16261005 2.78513980 -0.15054446 14 14 7116 8.62600000 2990119517 2990119517 -1.00000000
7.34631395 2.50661373 2.07986975 45 15 7116 8.03600000 2990119519 2990119519 15.00000000
2.14201689 0.72753370 -0.60615420 4 0 7124 2.34200000 2990119540 2990119540 -15.00000000
8.17644310 2.77552843 0.15071899 12 1 7125 8.63600000 2990119542 2990119542 1.00000000
2.53008461 0.85835552 -0.61681581 3 2 7126 2.74200000 2990119544 2990119544 -13.00000000
8.17879772 2.77314401 0.45260134 13 3 7127 8.64800000 2990119547 2990119547 3.00000000
3.02319717 1.02506042 -0.62051088 4 4 7127 3.25200000 2990119549 2990119549 -11.00000000
8.17632198 2.77071357 0.75529164 78 5 7128 8.66600000 2990119551 2990119551 5.00000000
3.83739328 1.29963255 -0.64169419 4 6 7129 4.10200000 2990119554 2990119554 -9.00000000
8.20186806 2.77617908 1.06318820 92 7 7130 8.72400000 2990119556 2990119556 7.00000000
5.17301035 1.74996114 -0.67052513 6 8 7131 5.50200000 2990119558 2990119558 -7.00000000
8.19450188 2.77049804 1.37005305 89 9 7132 8.75800000 2990119561 2990119561 9.00000000
8.04613400 2.72033596 -0.74308985 13 10 7132 8.52600000 2990119563 2990119563 -5.00000000
8.20979309 2.77407122 1.68446183 81 11 7133 8.82800000 2990119565 2990119565 11.00000000
8.16514874 2.75739861 -0.45165929 12 12 7134 8.63000000 2990119567 2990119567 -3.00000000
8.19252682 2.76505113 1.99621570 103 13 7135 8.87400000 2990119570 2990119570 13.00000000
8.16280842 2.75343418 -0.15036993 12 14 7136 8.61600000 2990119572 2990119572 -1.00000000
7.34037447 2.47601533 2.07572865 45 15 7136 8.02000000 2990119574 2990119574 15.00000000
2.13355494 0.71636277 -0.60304838 4 0 7144 2.33000000 2990119595 2990119595 -15.00000000
8.16712379 2.74060869 0.15036993 12 1 7145 8.61600000 2990119597 2990119597 1.00000000
2.54230332 0.85261685 -0.61906528 4 2 7146 2.75200000 2990119600 2990119600 -13.00000000
8.18416119 2.74473691 0.45239201 13 3 7146 8.64400000 2990119602 2990119602 3.00000000
3.03978729 1.01886868 -0.62318218 5 4 7147 3.26600000 2990119604 2990119604 -11.00000000
8.17082977 2.73709321 0.75389719 76 5 7148 8.65000000 2990119607 2990119607 5.00000000
3.83066750 1.28246689 -0.63981694 4 6 7149 4.09000000 2990119609 2990119609 -9.00000000
8.19644833 2.74249339 1.06123829 95 7 7150 8.70800000 2990119611 2990119611 7.00000000
5.18285275 1.73315239 -0.67101258 6 8 7151 5.50600000 2990119613 2990119613 -7.00000000
8.19989681 2.74205589 1.36942732 86 9 7151 8.75400000 2990119616 2990119616 9.00000000
8.05935955 2.69349623 -0.74343848 13 10 7152 8.53000000 2990119618 2990119618 -5.00000000
8.21197796 2.74290895 1.68293536 71 11 7153 8.82000000 2990119620 2990119620 11.00000000
8.17851353 2.73014474 -0.45186865 12 12 7154 8.63400000 2990119623 2990119623 -3.00000000
8.19103718 2.73273659 1.99351621 103 13 7155 8.86200000 2990119625 2990119625 13.00000000
8.16478252 2.72239375 -0.15023032 12 14 7156 8.60800000 2990119627 2990119627 -1.00000000
7.34530735 2.44915533 2.07469344 45 15 7156 8.01600000 2990119630 2990119630 15.00000000
2.13970971 0.71012795 -0.60408366 4 0 7164 2.33400000 2990119650 2990119650 -15.00000000
8.15576267 2.70515847 0.14998598 12 1 7165 8.59400000 2990119653 2990119653 1.00000000
2.53971481 0.84189785 -0.61771560 4 2 7166 2.74600000 2990119655 2990119655 -13.00000000
8.19037437 2.71346569 0.45218265 13 3 7167 8.64000000 2990119657 2990119657 3.00000000
3.03959799 1.00701678 -0.62241894 5 4 7167 3.26200000 2990119660 2990119660 -11.00000000
8.17465973 2.70667624 0.75337422 76 5 7168 8.64400000 2990119662 2990119662 5.00000000
3.82761931 1.26660526 -0.63856548 4 6 7169 4.08200000 2990119664 2990119664 -9.00000000
8.19089413 2.70887923 1.05928838 97 7 7170 8.69200000 2990119666 2990119666 7.00000000
5.19829464 1.71816516 -0.67223132 6 8 7171 5.51600000 2990119669 2990119669 -7.00000000
8.20238972 2.70950508 1.36817586 89 9 7172 8.74600000 2990119671 2990119671 9.00000000
8.08763123 2.67159677 -0.74518162 13 10 7172 8.55000000 2990119673 2990119673 -5.00000000
8.20285988 2.70807242 1.67911911 75 11 7173 8.80000000 2990119676 2990119676 11.00000000
8.17282009 2.69657350 -0.45103127 12 12 7174 8.61800000 2990119678 2990119678 -3.00000000
8.20052624 2.70412803 1.99351621 104 13 7175 8.86200000 2990119680 2990119680 13.00000000
8.16283989 2.69012141 -0.15002088 12 14 7176 8.59600000 2990119683 2990119683 -1.00000000
7.34689522 2.41979957 2.07262301 45 15 7177 8.00800000 2990119685 2990119685 15.00000000
2.14584661 0.70385885 -0.60511893 4 0 7184 2.33800000 2990119706 2990119706 -15.00000000
8.17085552 2.67854190 0.15009069 12 1 7185 8.60000000 2990119708 2990119708 1.00000000
2.54263806 0.83302742 -0.61771560 4 2 7186 2.74600000 2990119710 2990119710 -13.00000000
8.18224525 2.68069410 0.45124063 13 3 7186 8.62200000 2990119713 2990119713 3.00000000
3.05802083 1.00128782 -0.62547189 5 4 7187 3.27800000 2990119715 2990119715 -11.00000000
8.17837715 2.67626595 0.75285131 76 5 7188 8.63800000 2990119717 2990119717 5.00000000
3.83201718 1.25323665 -0.63856548 6 6 7189 4.08200000 2990119719 2990119719 -9.00000000
8.18143177 2.67410398 1.05685091 95 7 7190 8.67200000 2990119722 2990119722 7.00000000
5.17218208 1.68953061 -0.66808772 9 8 7191 5.48200000 2990119724 2990119724 -7.00000000
8.20616436 2.67901778 1.36723721 89 9 7192 8.74000000 2990119726 2990119726 9.00000000
8.10827160 2.64705920 -0.74622744 13 10 7192 8.56200000 2990119729 2990119729 -5.00000000
8.20106411 2.67576885 1.67682946 81 11 7193 8.78800000 2990119731 2990119731 11.00000000
8.16319466 2.66183686 -0.44998455 12 12 7194 8.59800000 2990119733 2990119733 -3.00000000
8.19138718 2.66944814 1.98901725 103 13 7195 8.84200000 2990119736 2990119736 13.00000000
8.17218018 2.66161132 -0.15002088 14 14 7196 8.59600000 2990119738 2990119738 -1.00000000
7.35855293 2.39661956 2.07365823 45 15 7196 8.01200000 2990119740 2990119740 15.00000000
2.15196586 0.69755554 -0.60615420 4 0 7204 2.34200000 2990119761 2990119761 -15.00000000
8.16303444 2.64445734 0.14977655 12 1 7205 8.58200000 2990119763 2990119763 1.00000000
2.54553056 0.82414687 -0.61771560 4 2 7206 2.74600000 2990119765 2990119765 -13.00000000
8.17065144 2.64534926 0.45008922 13 3 7206 8.60000000 2990119768 2990119768 3.00000000
3.04655409 0.98577207 -0.62241894 5 4 7207 3.26200000 2990119770 2990119770 -11.00000000
8.18198204 2.64586258 0.75232840 76 5 7208 8.63200000 2990119772 2990119772 5.00000000
3.84388709 1.24228263 -0.63981694 6 6 7209 4.09000000 2990119775 2990119775 -9.00000000
8.18315983 2.64308858 1.05587602 97 7 7210 8.66400000 2990119777 2990119777 7.00000000
5.17427015 1.67024648 -0.66760027 6 8 7211 5.47800000 2990119779 2990119779 -7.00000000
8.20230579 2.64611101 1.36504710 94 9 7212 8.72600000 2990119782 2990119782 9.00000000
8.10987759 2.61629319 -0.74553025 13 10 7212 8.55400000 2990119784 2990119784 -5.00000000
8.20287991 2.64471579 1.67530298 81 11 7213 8.78000000 2990119786 2990119786 11.00000000
8.17623806 2.63455081 -0.45019388 12 12 7214 8.60200000 2990119789 2990119789 -3.00000000
8.18952560 2.63725471 1.98631775 101 13 7215 8.83000000 2990119791 2990119791 13.00000000
8.16619301 2.62816787 -0.14974165 12 14 7216 8.58000000 2990119793 2990119793 -1.00000000
7.37239075 2.37269449 2.07521105 45 15 7216 8.01800000 2990119795 2990119795 15.00000000
2.15978622 0.69218433 -0.60770714 4 0 7223 2.34800000 2990119816 2990119816 -15.00000000
8.17747211 2.61920309 0.14988127 12 1 7224 8.58800000 2990119818 2990119818 1.00000000
2.55196142 0.81688929 -0.61861539 4 2 7225 2.75000000 2990119821 2990119821 -13.00000000
8.18173790 2.61742067 0.45019388 13 3 7226 8.60200000 2990119823 2990119823 3.00000000
3.04980636 0.97566390 -0.62241894 5 4 7226 3.26200000 2990119825 2990119825 -11.00000000
8.18122292 2.61568189 0.75145680 83 5 7227 8.62200000 2990119828 2990119828 5.00000000
3.84422231 1.22832656 -0.63919121 6 6 7228 4.08600000 2990119830 2990119830 -9.00000000
8.18431568 2.61352229 1.05490100 97 7 7229 8.65600000 2990119832 2990119832 7.00000000
5.19490910 1.65790701 -0.66955018 6 8 7230 5.49400000 2990119835 2990119835 -7.00000000
8.18423176 2.61192155 1.36066699 94 9 7230 8.69800000 2990119837 2990119837 9.00000000
8.10711956 2.58575296 -0.74448436 13 10 7231 8.54200000 2990119839 2990119839 -5.00000000
8.21908665 2.61988449 1.67682946 84 11 7232 8.78800000 2990119842 2990119842 11.00000000
8.17351151 2.60378551 -0.44956586 12 12 7233 8.59000000 2990119844 2990119844 -3.00000000
8.19079876 2.60771799 1.98451817 90 13 7234 8.82200000 2990119846 2990119846 13.00000000
8.15199661 2.59379768 -0.14932279 14 14 7235 8.55600000 2990119848 2990119848 -1.00000000
7.37510490 2.34518933 2.07365823 45 15 7236 8.01200000 2990119851 2990119851 15.00000000
2.14193034 0.67822617 -0.60201311 4 0 7243 2.32600000 2990119871 2990119871 -15.00000000
8.17131329 2.58581591 0.14960203 12 1 7244 8.57200000 2990119874 2990119874 1.00000000
2.55665541 0.80856389 -0.61906528 4 2 7245 2.75200000 2990119876 2990119876 -13.00000000
8.17894745 2.58666134 0.44956586 13 3 7245 8.59000000 2990119878 2990119878 3.00000000
3.06068134 0.96737880 -0.62394542 5 4 7246 3.27000000 2990119881 2990119881 -11.00000000
8.17130470 2.58110714 0.74971372 83 5 7247 8.60200000 2990119883 2990119883 5.00000000
3.83718395 1.21133220 -0.63731402 6 6 7248 4.07400000 2990119885 2990119885 -9.00000000
8.18960190 2.58374333 1.05441356 95 7 7249 8.65200000 2990119888 2990119888 7.00000000
5.19687843 1.63856947 -0.66906267 6 8 7250 5.49000000 2990119890 2990119890 -7.00000000
8.18621445 2.57953262 1.35941553 94 9 7251 8.69000000 2990119892 2990119892 9.00000000
8.11989689 2.55863571 -0.74483299 8 10 7251 8.54600000 2990119895 2990119895 -5.00000000
8.20383835 2.58351231 1.67186844 90 11 7252 8.76200000 2990119897 2990119897 11.00000000
8.17493057 2.57284045 -0.44914716 17 12 7253 8.58200000 2990119899 2990119899 -3.00000000
8.19985104 2.57911086 1.98451817 90 13 7254 8.82200000 2990119901 2990119901 13.00000000
8.16863155 2.56772470 -0.14946240 12 14 7255 8.56400000 2990119904 2990119904 -1.00000000
7.38324642 2.31943107 2.07365823 45 15 7256 8.01200000 2990119906 2990119906 15.00000000
2.15142465 0.67380327 -0.60408366 4 0 7261 2.33400000 2990119927 2990119927 -15.00000000
8.14886189 2.55057502 0.14904355 12 1 7262 8.54000000 2990119929 2990119929 1.00000000
2.55174351 0.79820085 -0.61726570 4 2 7263 2.74400000 2990119931 2990119931 -13.00000000
8.19084549 2.56214619 0.44977522 13 3 7263 8.59400000 2990119934 2990119934 3.00000000
3.06745291 0.95893019 -0.62470865 5 4 7264 3.27400000 2990119936 2990119936 -11.00000000
8.16225719 2.55007625 0.74814492 76 5 7265 8.58400000 2990119938 2990119938 5.00000000
3.84097052 1.19927144 -0.63731402 6 6 7266 4.07400000 2990119941 2990119941 -9.00000000
8.18251896 2.55327177 1.05246365 97 7 7267 8.63600000 2990119943 2990119943 7.00000000
5.19442034 1.61987102 -0.66808772 9 8 7268 5.48200000 2990119945 2990119945 -7.00000000
8.19383144 2.55523229 1.35941553 97 9 7268 8.69000000 2990119948 2990119948 9.00000000
6.65562916 2.07427216 -0.60991591 12 10 7269 6.99800000 2990119950 2990119950 -5.00000000
8.18942070 2.55072069 1.66728902 96 11 7270 8.73800000 2990119952 2990119952 11.00000000
8.16390228 2.54120946 -0.44810045 12 12 7271 8.56200000 2990119954 2990119954 -3.00000000
8.20419121 2.55217981 1.98361838 90 13 7272 8.81800000 2990119957 2990119957 13.00000000
8.16901970 2.53967500 -0.14932279 12 14 7273 8.55600000 2990119959 2990119959 -1.00000000
7.41263485 2.30310273 2.07986975 45 15 7274 8.03600000 2990119961 2990119961 15.00000000
2.15745473 0.66743118 -0.60511893 4 0 7281 2.33800000 2990119982 2990119982 -15.00000000
8.16535759 2.52447724 0.14918317 12 1 7282 8.54800000 2990119984 2990119984 1.00000000
2.54520464 0.78641230 -0.61501616 4 2 7283 2.73400000 2990119987 2990119987 -13.00000000
8.17874813 2.52705359 0.44862381 13 3 7283 8.57200000 2990119989 2990119989 3.00000000
3.06327820 0.94590002 -0.62318218 5 4 7284 3.26600000 2990119991 2990119991 -11.00000000
8.16539764 2.51980639 0.74762195 76 5 7285 8.57800000 2990119994 2990119994 5.00000000
3.84890866 1.18702090 -0.63793975 6 6 7286 4.07800000 2990119996 2990119996 -9.00000000
8.17620564 2.52001619 1.05051374 92 7 7287 8.62000000 2990119998 2990119998 7.00000000
5.19245434 1.59939182 -0.66711277 9 8 7288 5.47400000 2990120001 2990120001 -7.00000000
8.19892502 2.52545190 1.35878980 97 9 7288 8.68600000 2990120003 2990120003 9.00000000
6.65902090 2.04985452 -0.60956728 12 10 7289 6.99400000 2990120005 2990120005 -5.00000000
8.19639874 2.52154136 1.66690743 90 11 7290 8.73600000 2990120007 2990120007 11.00000000
8.15935993 2.50858808 -0.44736776 17 12 7291 8.54800000 2990120010 2990120010 -3.00000000
8.19814777 2.51894736 1.98001921 92 13 7292 8.80200000 2990120012 2990120012 13.00000000
8.17210102 2.50938344 -0.14921808 12 14 7293 8.55000000 2990120014 2990120014 -1.00000000
7.45756578 2.28854895 2.09022260 45 15 7294 8.07600000 2990120017 2990120017 15.00000000
2.16727710 0.66177595 -0.60718948 4 0 7302 2.34600000 2990120037 2990120037 -15.00000000
8.17072964 2.49336553 0.14911336 12 1 7303 8.54400000 2990120040 2990120040 1.00000000
2.54434204 0.77594149 -0.61411637 5 2 7304 2.73000000 2990120042 2990120042 -13.00000000
8.17267227 2.49239898 0.44778645 13 3 7304 8.55600000 2990120044 2990120044 3.00000000
3.05921268 0.93237674 -0.62165570 5 4 7305 3.25800000 2990120047 2990120047 -11.00000000
8.16886044 2.48812032 0.74709904 76 5 7306 8.57200000 2990120049 2990120049 5.00000000
3.85701299 1.17405641 -0.63856548 6 6 7307 4.08200000 2990120051 2990120051 -9.00000000
8.18158913 2.48887658 1.05002630 95 7 7308 8.61600000 2990120053 2990120053 7.00000000
5.20208025 1.58150458 -0.66760027 9 8 7309 5.47800000 2990120056 2990120056 -7.00000000
8.19300652 2.49078774 1.35628676 94 9 7309 8.67000000 2990120058 2990120058 9.00000000
6.66648912 2.02543426 -0.60956728 12 10 7310 6.99400000 2990120060 2990120060 -5.00000000
8.19619274 2.48863125 1.66499925 90 11 7311 8.72600000 2990120063 2990120063 11.00000000
8.15894318 2.47576594 -0.44684440 12 12 7312 8.53800000 2990120065 2990120065 -3.00000000
8.19240665 2.48435855 1.97641993 103 13 7313 8.78600000 2990120067 2990120067 13.00000000
8.16593361 2.47477436 -0.14893883 14 14 7314 8.53400000 2990120070 2990120070 -1.00000000
7.55240345 2.28883743 2.11455154 45 15 7314 8.17000000 2990120072 2990120072 15.00000000
2.16402507 0.65253353 -0.60563654 4 0 7322 2.34000000 2990120093 2990120093 -15.00000000
8.16789627 2.46136737 0.14890394 12 1 7323 8.53200000 2990120095 2990120095 1.00000000
2.55449891 0.76930314 -0.61591601 5 2 7324 2.73800000 2990120097 2990120097 -13.00000000
8.17749786 2.46270394 0.44757709 13 3 7324 8.55200000 2990120100 2990120100 3.00000000
3.06620860 0.92282403 -0.62241894 5 4 7325 3.26200000 2990120102 2990120102 -11.00000000
8.17177200 2.45786881 0.74657607 76 5 7326 8.56600000 2990120104 2990120104 5.00000000
3.85541248 1.15887988 -0.63762689 6 6 7327 4.07600000 2990120106 2990120106 -9.00000000
8.18262196 2.45801783 1.04905128 97 7 7328 8.60800000 2990120109 2990120109 7.00000000
5.20756865 1.56333625 -0.66760027 9 8 7329 5.47800000 2990120111 2990120111 -7.00000000
8.17894745 2.45535803 1.35253239 90 9 7329 8.64600000 2990120113 2990120113 9.00000000
6.65061855 1.99528122 -0.60747552 12 10 7330 6.97000000 2990120116 2990120116 -5.00000000
8.19918728 2.45831442 1.66385448 90 11 7331 8.72000000 2990120118 2990120118 11.00000000
8.17136192 2.44841743 -0.44705373 17 12 7332 8.54200000 2990120120 2990120120 -3.00000000
8.19356155 2.45351052 1.97462034 104 13 7333 8.77800000 2990120123 2990120123 13.00000000
8.16111183 2.44224191 -0.14869450 14 14 7334 8.52000000 2990120125 2990120125 -1.00000000
7.62737226 2.28106809 2.13318658 42 15 7335 8.24200000 2990120127 2990120127 15.00000000
2.15877128 0.64314741 -0.60356599 4 0 7341 2.33200000 2990120148 2990120148 -15.00000000
8.16834736 2.43198562 0.14876431 12 1 7342 8.52400000 2990120150 2990120150 1.00000000
2.55703592 0.76082790 -0.61591601 5 2 7343 2.73800000 2990120153 2990120153 -13.00000000
8.17838669 2.43186712 0.44715840 13 3 7344 8.54400000 2990120155 2990120155 3.00000000
3.06360626 0.91097236 -0.62127411 5 4 7344 3.25600000 2990120157 2990120157 -11.00000000
8.15695953 2.42394638 0.74448436 76 5 7345 8.54200000 2990120159 2990120159 5.00000000
3.86491513 1.14777565 -0.63856548 6 6 7346 4.08200000 2990120162 2990120162 -9.00000000
8.18692207 2.42974019 1.04856384 92 7 7347 8.60400000 2990120164 2990120164 7.00000000
5.20701504 1.54436541 -0.66686904 9 8 7348 5.47200000 2990120166 2990120166 -7.00000000
8.18515110 2.42766047 1.35221946 87 9 7348 8.64400000 2990120169 2990120169 9.00000000
6.62854481 1.96472287 -0.60486084 20 10 7349 6.94000000 2990120171 2990120171 -5.00000000
8.20164776 2.42943859 1.66270959 46 11 7350 8.71400000 2990120173 2990120173 11.00000000
8.16411591 2.41677141 -0.44621637 12 12 7351 8.52600000 2990120176 2990120176 -3.00000000
8.19044018 2.42300940 1.97192097 57 13 7352 8.76600000 2990120178 2990120178 13.00000000
8.15765953 2.41176343 -0.14848508 14 14 7353 8.50800000 2990120180 2990120180 -1.00000000
7.69934130 2.27626443 2.15130401 45 15 7353 8.31200000 2990120183 2990120183 15.00000000
2.16470981 0.63669825 -0.60460126 4 0 7361 2.33600000 2990120203 2990120203 -15.00000000
8.15376377 2.39669085 0.14834546 12 1 7362 8.50000000 2990120206 2990120206 1.00000000
2.54845762 0.74860215 -0.61321658 6 2 7363 2.72600000 2990120208 2990120208 -13.00000000
8.19640732 2.40611744 0.44768175 26 3 7364 8.55400000 2990120210 2990120210 3.00000000
3.07807016 0.90359074 -0.62356383 5 4 7364 3.26800000 2990120212 2990120212 -11.00000000
8.16537094 2.39545846 0.74448436 72 5 7365 8.54200000 2990120215 2990120215 5.00000000
3.84994221 1.12872005 -0.63543677 6 6 7366 4.06200000 2990120217 2990120217 -9.00000000
8.18392372 2.39779902 1.04710138 95 7 7367 8.59200000 2990120219 2990120219 7.00000000
5.21237421 1.52618015 -0.66686904 9 8 7368 5.47200000 2990120222 2990120222 -7.00000000
8.21674442 2.40430117 1.35597396 18 9 7369 8.66800000 2990120224 2990120224 9.00000000
6.64301157 1.94381118 -0.60555810 52 10 7369 6.94800000 2990120226 2990120226 -5.00000000
8.24399567 2.41071320 1.66957867 12 11 7370 8.75000000 2990120229 2990120229 11.00000000
8.16866779 2.38713813 -0.44600701 12 12 7371 8.52200000 2990120231 2990120231 -3.00000000
8.27367210 2.41625643 1.98991704 23 13 7372 8.84600000 2990120233 2990120233 13.00000000
8.16986752 2.38439369 -0.14855488 14 14 7373 8.51200000 2990120236 2990120236 -1.00000000
7.80036163 2.27507520 2.17718577 45 15 7374 8.41200000 2990120238 2990120238 15.00000000
2.17434001 0.63129270 -0.60667187 4 0 7381 2.34400000 2990120259 2990120259 -15.00000000
8.16592121 2.36932874 0.14841527 12 1 7382 8.50400000 2990120261 2990120261 1.00000000
2.54544020 0.73807371 -0.61186689 6 2 7383 2.72000000 2990120263 2990120263 -13.00000000
8.18557262 2.37193322 0.44663504 13 3 7384 8.53400000 2990120265 2990120265 3.00000000
3.08120561 0.89284080 -0.62356383 5 4 7384 3.26800000 2990120268 2990120268 -11.00000000
8.16602802 2.36472464 0.74378711 76 5 7385 8.53400000 2990120270 2990120270 5.00000000
3.85765386 1.11637270 -0.63606256 4 6 7386 4.06600000 2990120272 2990120272 -9.00000000
8.17126751 2.36315060 1.04442024 90 7 7387 8.57000000 2990120275 2990120275 7.00000000
5.21766996 1.50797617 -0.66686904 9 8 7388 5.47200000 2990120277 2990120277 -7.00000000
8.33663750 2.40939951 1.37443316 10 9 7388 8.78600000 2990120279 2990120279 9.00000000
6.65549850 1.92226946 -0.60608101 36 10 7389 6.95400000 2990120282 2990120282 -5.00000000
8.30894852 2.39825463 1.68102729 12 11 7390 8.81000000 2990120284 2990120284 11.00000000
8.16159821 2.35418129 -0.44516966 17 12 7391 8.50600000 2990120286 2990120286 -3.00000000
8.28205585 2.38736105 1.98991704 6 13 7392 8.84600000 2990120289 2990120289 13.00000000
8.17621994 2.35530758 -0.14851998 12 14 7393 8.51000000 2990120291 2990120291 -1.00000000
7.89139938 2.27325988 2.20047951 45 15 7393 8.50200000 2990120293 2990120293 15.00000000
2.18024468 0.62476331 -0.60770714 4 0 7401 2.34800000 2990120314 2990120314 -15.00000000
8.16645241 2.33860779 0.14827564 12 1 7402 8.49600000 2990120316 2990120316 1.00000000
2.54425406 0.72811162 -0.61096704 6 2 7403 2.71600000 2990120318 2990120318 -13.00000000
8.17075920 2.33675551 0.44537899 13 3 7404 8.51000000 2990120321 2990120321 3.00000000
3.06542754 0.87668163 -0.61974764 4 4 7404 3.24800000 2990120323 2990120323 -11.00000000
8.17040157 2.33511043 0.74343848 76 5 7405 8.53000000 2990120325 2990120325 5.00000000
3.87672257 1.10724008 -0.63856548 4 6 7406 4.08200000 2990120328 2990120328 -9.00000000
8.17564869 2.33352351 1.04393280 90 7 7407 8.56600000 2990120330 2990120330 7.00000000
5.21526575 1.48757601 -0.66589409 9 8 7408 5.46400000 2990120332 2990120332 -7.00000000
8.26942444 2.35716796 1.36191845 5 9 7409 8.70600000 2990120335 2990120335 9.00000000
6.66025209 1.89847946 -0.60590672 12 10 7409 6.95200000 2990120337 2990120337 -5.00000000
8.38713074 2.38913703 1.69514716 6 11 7410 8.88400000 2990120339 2990120339 11.00000000
8.15247822 2.32075620 -0.44422761 17 12 7411 8.48800000 2990120341 2990120341 -3.00000000
8.48152447 2.41282535 2.03580713 12 13 7412 9.05000000 2990120344 2990120344 13.00000000
8.16707993 2.32183146 -0.14820583 14 14 7413 8.49200000 2990120346 2990120346 -1.00000000
8.00931835 2.27547026 2.23102021 45 15 7414 8.62000000 2990120348 2990120348 15.00000000
2.17125845 0.61399496 -0.60460126 4 0 7421 2.33600000 2990120369 2990120369 -15.00000000
8.17071724 2.30899978 0.14820583 15 1 7422 8.49200000 2990120371 2990120371 1.00000000
2.55990791 0.72293341 -0.61411637 7 2 7423 2.73000000 2990120374 2990120374 -13.00000000
8.17117786 2.30605006 0.44496030 23 3 7424 8.50200000 2990120376 2990120376 3.00000000
3.07602692 0.86810893 -0.62127411 5 4 7424 3.25600000 2990120378 2990120378 -11.00000000
8.16316223 2.30224967 0.74204397 76 5 7425 8.51400000 2990120381 2990120381 5.00000000
3.88436651 1.09477282 -0.63919121 4 6 7426 4.08600000 2990120383 2990120383 -9.00000000
8.17992306 2.30389476 1.04344535 90 7 7427 8.56200000 2990120385 2990120385 7.00000000
5.22042656 1.46936226 -0.66589409 9 8 7428 5.46400000 2990120388 2990120388 -7.00000000
8.54530525 2.40519595 1.40603292 10 9 7428 8.98800000 2990120390 2990120390 9.00000000
6.65533066 1.87198246 -0.60486084 12 10 7429 6.94000000 2990120392 2990120392 -5.00000000
8.58819962 2.41403413 1.73407221 12 11 7430 9.08800000 2990120394 2990120394 11.00000000
8.15668392 2.29120421 -0.44401824 17 12 7431 8.48400000 2990120397 2990120397 -3.00000000
8.58558273 2.41006517 2.05875206 40 13 7432 9.15200000 2990120399 2990120399 13.00000000
8.15395641 2.28736758 -0.14782189 16 14 7433 8.47000000 2990120401 2990120401 -1.00000000
8.08378220 2.26768231 2.24965525 45 15 7433 8.69200000 2990120404 2990120404 15.00000000
2.17524934 0.60693127 -0.60511893 4 0 7441 2.33800000 2990120424 2990120424 -15.00000000
8.16331768 2.27616787 0.14792660 12 1 7442 8.47600000 2990120427 2990120427 1.00000000
2.56429291 0.71451634 -0.61456627 6 2 7443 2.73200000 2990120429 2990120429 -13.00000000
8.17532921 2.27644181 0.44475096 26 3 7444 8.49800000 2990120431 2990120431 3.00000000
3.07714701 0.85683966 -0.62089247 5 4 7444 3.25400000 2990120434 2990120434 -11.00000000
8.15387344 2.26893401 0.74047518 72 5 7445 8.49600000 2990120436 2990120436 5.00000000
3.88626122 1.08067799 -0.63887835 4 6 7446 4.08400000 2990120438 2990120438 -9.00000000
8.18791485 2.27532744 1.04344535 87 7 7447 8.56200000 2990120441 2990120441 7.00000000
5.24082565 1.45537984 -0.66784400 9 8 7448 5.48000000 2990120443 2990120443 -7.00000000
8.66446304 2.40449691 1.42417932 10 9 7449 9.10400000 2990120445 2990120445 9.00000000
6.63302708 1.84074795 -0.60224617 16 10 7449 6.91000000 2990120447 2990120447 -5.00000000
8.69684219 2.41184783 1.75429785 12 11 7450 9.19400000 2990120450 2990120450 11.00000000
8.16270733 2.26218486 -0.44391358 12 12 7451 8.48200000 2990120452 2990120452 -3.00000000
8.62962627 2.38996339 2.06730008 26 13 7452 9.19000000 2990120454 2990120454 13.00000000
8.15803623 2.25782418 -0.14775208 14 14 7453 8.46600000 2990120457 2990120457 -1.00000000
8.20934200 2.27048135 2.28226638 47 15 7454 8.81800000 2990120459 2990120459 15.00000000
2.17187119 0.59741741 -0.60356599 4 0 7462 2.33200000 2990120480 2990120480 -15.00000000
8.16003609 2.24305248 0.14771716 12 1 7463 8.46400000 2990120482 2990120482 1.00000000
2.56125712 0.70356441 -0.61321658 7 2 7464 2.72600000 2990120484 2990120484 -13.00000000
8.18361855 2.24646258 0.44475096 26 3 7465 8.49800000 2990120487 2990120487 3.00000000
3.10109234 0.85127228 -0.62509024 5 4 7465 3.27600000 2990120489 2990120489 -11.00000000
8.17174149 2.24166870 0.74134678 83 5 7466 8.50600000 2990120491 2990120491 5.00000000
3.87876534 1.06329334 -0.63700116 4 6 7467 4.07200000 2990120494 2990120494 -9.00000000
8.18662643 2.24267936 1.04222667 90 7 7468 8.55200000 2990120496 2990120496 7.00000000
5.23463678 1.43301666 -0.66638160 9 8 7469 5.46800000 2990120498 2990120498 -7.00000000
6.63780737 1.81589854 -0.60207188 36 10 7470 6.90800000 2990120503 2990120503 -5.00000000
8.18294525 2.23706555 1.64897132 3 11 7471 8.64200000 2990120505 2990120505 11.00000000
8.16323662 2.23014641 -0.44349489 12 12 7472 8.47400000 2990120507 2990120507 -3.00000000
8.09126472 2.20896673 1.93637872 10 13 7473 8.60800000 2990120510 2990120510 13.00000000
8.16046906 2.22632957 -0.14764735 14 14 7474 8.46000000 2990120512 2990120512 -1.00000000
8.11843967 2.21486306 2.25483155 24 15 7474 8.71200000 2990120514 2990120514 15.00000000
2.17767215 0.59084427 -0.60460126 4 0 7482 2.33600000 2990120535 2990120535 -15.00000000
8.16009617 2.21246171 0.14757755 12 1 7483 8.45600000 2990120537 2990120537 1.00000000
2.55993557 0.69360042 -0.61231679 7 2 7484 2.72200000 2990120540 2990120540 -13.00000000
8.17405891 2.21318483 0.44380891 47 3 7485 8.48000000 2990120542 2990120542 3.00000000
3.09456992 0.83787686 -0.62318218 5 4 7485 3.26600000 2990120544 2990120544 -11.00000000
8.14874554 2.20480442 0.73855776 43 5 7486 8.47400000 2990120547 2990120547 5.00000000
3.86338425 1.04459155 -0.63387245 6 6 7487 4.05200000 2990120549 2990120549 -9.00000000
8.11583424 2.19285965 1.03223336 30 7 7488 8.47000000 2990120551 2990120551 7.00000000
5.23577404 1.41370070 -0.66589409 9 8 7489 5.46400000 2990120553 2990120553 -7.00000000
8.08450222 2.18136621 1.32625139 17 9 7490 8.47800000 2990120556 2990120556 9.00000000
6.63641119 1.79064119 -0.60137463 36 10 7490 6.90000000 2990120558 2990120558 -5.00000000
8.07128429 2.17628837 1.62492943 21 11 7491 8.51600000 2990120560 2990120560 11.00000000
8.13433075 2.19176507 -0.44150612 12 12 7492 8.43600000 2990120563 2990120563 -3.00000000
8.04811954 2.16702938 1.92423129 19 13 7493 8.55400000 2990120565 2990120565 13.00000000
8.08901882 2.17652774 -0.14621626 14 14 7494 8.37800000 2990120567 2990120567 -1.00000000
8.07240105 2.17054534 2.23982000 22 15 7495 8.65400000 2990120570 2990120570 15.00000000
2.18324971 0.58499998 -0.60563654 4 0 7500 2.34000000 2990120590 2990120590 -15.00000000
8.03372288 2.15112686 0.14516912 15 1 7501 8.31800000 2990120593 2990120593 1.00000000
2.55833697 0.68454731 -0.61141694 7 2 7502 2.71800000 2990120595 2990120595 -13.00000000
8.03047276 2.14725280 0.43564451 23 3 7503 8.32400000 2990120597 2990120597 3.00000000
3.08770370 0.82561517 -0.62127411 5 4 7503 3.25600000 2990120600 2990120600 -11.00000000
8.04783916 2.15039134 0.72879630 25 5 7504 8.36200000 2990120602 2990120602 5.00000000
3.88573194 1.03754520 -0.63700116 4 6 7505 4.07200000 2990120604 2990120604 -9.00000000
8.05171776 2.14841652 1.02321506 28 7 7506 8.39600000 2990120606 2990120606 7.00000000
5.22292709 1.39264214 -0.66370046 9 8 7507 5.44600000 2990120609 2990120609 -7.00000000
8.07185268 2.15228009 1.32312274 27 9 7507 8.45800000 2990120611 2990120611 9.00000000
6.64200401 1.76978350 -0.60137463 44 10 7508 6.90000000 2990120613 2990120613 -5.00000000
8.06100655 2.14637470 1.62149489 28 11 7509 8.49800000 2990120616 2990120616 11.00000000
8.03116035 2.13692641 -0.43553984 25 12 7510 8.32200000 2990120618 2990120618 -3.00000000
8.05865479 2.14273620 1.92513108 30 13 7511 8.55800000 2990120620 2990120620 13.00000000
8.03010750 2.13364506 -0.14502950 22 14 7512 8.31000000 2990120623 2990120623 -1.00000000
8.08440685 2.14807272 2.24137282 18 15 7512 8.66000000 2990120625 2990120625 15.00000000
2.17220426 0.57392108 -0.60201311 4 0 7520 2.32600000 2990120646 2990120646 -15.00000000
8.04891682 2.12511277 0.14530873 37 1 7521 8.32600000 2990120648 2990120648 1.00000000
2.56447959 0.67660713 -0.61231679 7 2 7522 2.72200000 2990120650 2990120650 -13.00000000
8.06109428 2.12531829 0.43690056 39 3 7523 8.34800000 2990120653 2990120653 3.00000000
3.09436369 0.81583303 -0.62203735 5 4 7523 3.26000000 2990120655 2990120655 -11.00000000
8.06300354 2.12431645 0.72949356 29 5 7524 8.37000000 2990120657 2990120657 5.00000000
3.87404776 1.01995170 -0.63449818 6 6 7525 4.05600000 2990120659 2990120659 -9.00000000
8.06684685 2.12231803 1.02418995 23 7 7526 8.40400000 2990120662 2990120662 7.00000000
5.23159599 1.37541175 -0.66418791 9 8 7527 5.45000000 2990120664 2990120664 -7.00000000
8.07167435 2.12208200 1.32187128 20 9 7527 8.45000000 2990120666 2990120666 9.00000000
6.63465214 1.74304390 -0.60015446 48 10 7528 6.88600000 2990120669 2990120669 -5.00000000
8.08933830 2.12370729 1.62569261 12 11 7529 8.52000000 2990120671 2990120671 11.00000000
8.03277493 2.10735893 -0.43522581 34 12 7530 8.31600000 2990120673 2990120673 -3.00000000
8.02976894 2.10357475 -0.14488988 28 14 7532 8.30200000 2990120678 2990120678 -1.00000000
8.20024490 2.14823484 2.27139592 38 15 7532 8.77600000 2990120680 2990120680 15.00000000
2.16858578 0.56487429 -0.60046017 4 0 7540 2.32000000 2990120701 2990120701 -15.00000000
8.05241489 2.09599638 0.14523892 25 1 7541 8.32200000 2990120703 2990120703 1.00000000
2.56116772 0.66617960 -0.61096704 9 2 7542 2.71600000 2990120706 2990120706 -13.00000000
8.08392811 2.10118628 0.43773794 23 3 7543 8.36400000 2990120708 2990120708 3.00000000
3.09529233 0.80453289 -0.62165570 5 4 7543 3.25800000 2990120710 2990120710 -11.00000000
8.14750576 2.11619329 0.73646605 47 5 7544 8.45000000 2990120712 2990120712 5.00000000
3.89096880 1.00989640 -0.63668829 6 6 7545 4.07000000 2990120715 2990120715 -9.00000000
8.18181038 2.12205529 1.03783929 92 7 7546 8.51600000 2990120717 2990120717 7.00000000
5.23636532 1.35714161 -0.66418791 6 8 7547 5.45000000 2990120719 2990120719 -7.00000000
6.62719488 1.71637738 -0.59893429 44 10 7548 6.87200000 2990120724 2990120724 -5.00000000
8.08068848 2.08980823 -0.43742391 17 12 7550 8.35800000 2990120729 2990120729 -3.00000000
8.10289288 2.09253311 -0.14607663 14 14 7552 8.37000000 2990120733 2990120733 -1.00000000
8.21704674 2.12201285 2.27398419 47 15 7552 8.78600000 2990120735 2990120735 15.00000000
2.17428684 0.55826193 -0.60149544 4 0 7560 2.32400000 2990120756 2990120756 -15.00000000
8.14878273 2.09073591 0.14684455 12 1 7561 8.41400000 2990120759 2990120759 1.00000000
2.56536508 0.65771937 -0.61141694 7 2 7562 2.71800000 2990120761 2990120761 -13.00000000
8.17827797 2.09526110 0.44244817 86 3 7563 8.45400000 2990120763 2990120763 3.00000000
3.11139464 0.79713410 -0.62432700 5 4 7563 3.27200000 2990120765 2990120765 -11.00000000
8.16449356 2.09021091 0.73733759 79 5 7564 8.46000000 2990120768 2990120768 5.00000000
3.87533283 0.99141234 -0.63355958 6 6 7565 4.05000000 2990120770 2990120770 -9.00000000
8.17378235 2.08954930 1.03588939 87 7 7566 8.50000000 2990120772 2990120772 7.00000000
5.24491739 1.33983767 -0.66467541 9 8 7567 5.45400000 2990120775 2990120775 -7.00000000
6.63121510 1.69274092 -0.59875995 40 10 7568 6.87000000 2990120779 2990120779 -5.00000000
8.15180111 2.07786822 -0.44087809 17 12 7570 8.42400000 2990120784 2990120784 -3.00000000
8.16053295 2.07706046 -0.14698416 12 14 7572 8.42200000 2990120788 2990120788 -1.00000000
8.21728039 2.08997679 2.27191353 49 15 7573 8.77800000 2990120791 2990120791 15.00000000
2.17996788 0.55161667 -0.60253072 4 0 7580 2.32800000 2990120812 2990120812 -15.00000000
8.15603065 2.06227851 0.14684455 12 1 7581 8.41400000 2990120814 2990120814 1.00000000
2.56008792 0.64685106 -0.60961735 7 2 7582 2.71000000 2990120816 2990120816 -13.00000000
8.17585945 2.06425619 0.44192481 78 3 7583 8.44400000 2990120818 2990120818 3.00000000
3.11225486 0.78578782 -0.62394542 5 4 7583 3.27000000 2990120821 2990120821 -11.00000000
8.16787624 2.06072402 0.73698896 76 5 7584 8.45600000 2990120823 2990120823 5.00000000
3.87876987 0.97787887 -0.63355958 6 6 7585 4.05000000 2990120825 2990120825 -9.00000000
8.17717648 2.06003475 1.03540194 97 7 7586 8.49600000 2990120828 2990120828 7.00000000
5.24571228 1.32055211 -0.66418791 9 8 7587 5.45000000 2990120830 2990120830 -7.00000000
6.64287996 1.67104149 -0.59928286 40 10 7588 6.87600000 2990120835 2990120835 -5.00000000
8.15319347 2.04794073 -0.44056407 17 12 7590 8.41800000 2990120839 2990120839 -3.00000000
8.16579437 2.04807568 -0.14694926 10 14 7592 8.42000000 2990120844 2990120844 -1.00000000
8.21667004 2.06083608 2.26984310 47 15 7592 8.77000000 2990120846 2990120846 15.00000000
2.19875026 0.54821002 -0.60718948 4 0 7600 2.34600000 2990120867 2990120867 -15.00000000
8.15347767 2.03137898 0.14667003 12 1 7601 8.40400000 2990120869 2990120869 1.00000000
2.56611228 0.63885230 -0.61051714 7 2 7602 2.71400000 2990120871 2990120871 -13.00000000
8.16751003 2.03184724 0.44108742 100 3 7603 8.42800000 2990120874 2990120874 3.00000000
3.09973717 0.77112758 -0.62089247 5 4 7603 3.25400000 2990120876 2990120876 -11.00000000
8.17501926 2.03220034 0.73698896 76 5 7604 8.45600000 2990120878 2990120878 5.00000000
3.88982797 0.96623832 -0.63481104 6 6 7605 4.05800000 2990120881 2990120881 -9.00000000
8.18046474 2.03052211 1.03491449 95 7 7606 8.49200000 2990120883 2990120883 7.00000000
5.23872948 1.29936588 -0.66272551 6 8 7607 5.43800000 2990120885 2990120885 -7.00000000
6.64673901 1.64736402 -0.59910858 32 10 7608 6.87400000 2990120890 2990120890 -5.00000000
8.15641499 2.01850867 -0.44035473 12 12 7610 8.41400000 2990120894 2990120894 -3.00000000
8.15930462 2.01620126 -0.14670493 12 14 7612 8.40600000 2990120899 2990120899 -1.00000000
8.21631241 2.03028822 2.26777244 49 15 7612 8.76200000 2990120901 2990120901 15.00000000
2.18376565 0.53638428 -0.60253072 4 0 7620 2.32800000 2990120922 2990120922 -15.00000000
8.16828728 2.00481224 0.14680964 12 1 7621 8.41200000 2990120924 2990120924 1.00000000
2.57589722 0.63174772 -0.61231679 7 2 7622 2.72200000 2990120927 2990120927 -13.00000000
8.15286541 1.99951851 0.43993604 94 3 7622 8.40600000 2990120929 2990120929 3.00000000
3.09859633 0.75936818 -0.62012923 5 4 7623 3.25000000 2990120931 2990120931 -11.00000000
8.16271114 1.99891281 0.73524582 79 5 7624 8.43600000 2990120934 2990120934 5.00000000
3.90085220 0.95453244 -0.63606256 6 6 7625 4.06600000 2990120936 2990120936 -9.00000000
8.17593288 1.99912560 1.03345203 95 7 7626 8.48000000 2990120938 2990120938 7.00000000
5.25866032 1.28484058 -0.66467541 9 8 7627 5.45400000 2990120940 2990120940 -7.00000000
8.17505360 1.99286330 -0.44098276 12 12 7630 8.42600000 2990120950 2990120950 -3.00000000
8.15074825 1.98392439 -0.14642569 12 14 7632 8.39000000 2990120954 2990120954 -1.00000000
8.21959496 2.00068188 2.26673722 49 15 7632 8.75800000 2990120957 2990120957 15.00000000
2.18374705 0.52830398 -0.60201311 4 0 7640 2.32600000 2990120977 2990120977 -15.00000000
8.15968609 1.97252834 0.14653040 12 1 7641 8.39600000 2990120980 2990120980 1.00000000
2.57808685 0.62275231 -0.61231679 7 2 7642 2.72200000 2990120982 2990120982 -13.00000000
8.16790581 1.97149789 0.44035473 97 3 7643 8.41400000 2990120984 2990120984 3.00000000
3.10122824 0.74854743 -0.62012923 5 4 7643 3.25000000 2990120987 2990120987 -11.00000000
8.15414429 1.96667027 0.73385137 79 5 7644 8.42000000 2990120989 2990120989 5.00000000
3.88303614 0.93581915 -0.63262099 6 6 7645 4.04400000 2990120991 2990120991 -9.00000000
8.18672085 1.97150362 1.03393948 92 7 7646 8.48400000 2990120993 2990120993 7.00000000
5.25925303 1.26554775 -0.66418791 9 8 7647 5.45000000 2990120996 2990120996 -7.00000000
6.60771084 1.58881068 -0.59457648 12 10 7648 6.82200000 2990121000 2990121000 -5.00000000
8.17419243 1.96244991 -0.44056407 12 12 7650 8.41800000 2990121005 2990121005 -3.00000000
8.15373516 1.95452857 -0.14635588 12 14 7652 8.38600000 2990121010 2990121010 -1.00000000
8.20432758 1.96514201 2.26052547 47 15 7653 8.73400000 2990121012 2990121012 15.00000000
2.18924522 0.52195561 -0.60304838 4 0 7659 2.33000000 2990121033 2990121033 -15.00000000
8.15451050 1.94267845 0.14632097 12 1 7660 8.38400000 2990121035 2990121035 1.00000000
2.57255483 0.61239451 -0.61051714 7 2 7661 2.71400000 2990121037 2990121037 -13.00000000
8.16823006 1.94444036 0.44004071 89 3 7661 8.40800000 2990121040 2990121040 3.00000000
3.10942340 0.73962224 -0.62127411 5 4 7662 3.25600000 2990121042 2990121042 -11.00000000
8.15868282 1.93915868 0.73367703 83 5 7663 8.41800000 2990121044 2990121044 5.00000000
3.89380574 0.92476314 -0.63387245 6 6 7664 4.05200000 2990121046 2990121046 -9.00000000
8.17776203 1.94067776 1.03198957 92 7 7665 8.46800000 2990121049 2990121049 7.00000000
5.26728392 1.24901652 -0.66467541 9 8 7666 5.45400000 2990121051 2990121051 -7.00000000
6.62263680 1.56918681 -0.59544802 16 10 7667 6.83200000 2990121056 2990121056 -5.00000000
8.16704941 1.93211389 -0.43983138 17 12 7669 8.40400000 2990121060 2990121060 -3.00000000
8.15044117 1.92518067 -0.14618136 16 14 7671 8.37600000 2990121065 2990121065 -1.00000000
8.21234131 1.93980181 2.26104307 56 15 7671 8.73600000 2990121067 2990121067 15.00000000
2.18541169 0.51298612 -0.60149544 4 0 7679 2.32400000 2990121088 2990121088 -15.00000000
8.15345478 1.91237557 0.14618136 15 1 7680 8.37600000 2990121090 2990121090 1.00000000
2.57088208 0.60252160 -0.60961735 7 2 7681 2.71000000 2990121092 2990121092 -13.00000000
8.17885685 1.91682756 0.44025007 100 3 7681 8.41200000 2990121095 2990121095 3.00000000
3.11389780 0.72921145 -0.62165570 5 4 7682 3.25800000 2990121097 2990121097 -11.00000000
8.15958214 1.90930593 0.73315412 79 5 7683 8.41200000 2990121099 2990121099 5.00000000
3.88162208 0.90756774 -0.63136947 6 6 7684 4.03600000 2990121102 2990121102 -9.00000000
8.16902256 1.90850735 1.03003967 97 7 7685 8.45200000 2990121104 2990121104 7.00000000
5.25808001 1.22746372 -0.66296923 9 8 7686 5.44000000 2990121106 2990121106 -7.00000000
6.63583517 1.54787028 -0.59614527 28 10 7687 6.84000000 2990121111 2990121111 -5.00000000
8.15623760 1.89951658 -0.43888932 17 12 7689 8.38600000 2990121116 2990121116 -3.00000000
8.15126801 1.89535987 -0.14607663 16 14 7691 8.37000000 2990121120 2990121120 -1.00000000
8.20777225 1.90849841 2.25793743 54 15 7691 8.72400000 2990121122 2990121122 15.00000000
2.19471812 0.50709409 -0.60356599 4 0 7699 2.33200000 2990121143 2990121143 -15.00000000
8.15813255 1.88345325 0.14614645 15 1 7700 8.37400000 2990121145 2990121145 1.00000000
2.57676721 0.59441990 -0.61051714 7 2 7701 2.71400000 2990121148 2990121148 -13.00000000
8.15468788 1.87966001 0.43857533 100 3 7702 8.38000000 2990121150 2990121150 3.00000000
3.12025023 0.71921939 -0.62241894 13 4 7702 3.26200000 2990121152 2990121152 -11.00000000
8.16813850 1.88125920 0.73332840 83 5 7703 8.41400000 2990121155 2990121155 5.00000000
3.90979218 0.89977205 -0.63543677 6 6 7704 4.06200000 2990121157 2990121157 -9.00000000
8.16402626 1.87731135 1.02857721 95 7 7705 8.44000000 2990121159 2990121159 7.00000000
5.25846338 1.20821309 -0.66248173 9 8 7706 5.43600000 2990121162 2990121162 -7.00000000
6.63731384 1.52380586 -0.59579664 16 10 7707 6.83600000 2990121166 2990121166 -5.00000000
8.15113735 1.86835706 -0.43826130 17 12 7709 8.37400000 2990121171 2990121171 -3.00000000
8.23647594 1.88640475 1.95077550 3 13 7710 8.67200000 2990121173 2990121173 13.00000000
8.14224052 1.86332631 -0.14579740 18 14 7711 8.35400000 2990121175 2990121175 -1.00000000
8.21471214 1.87840259 2.25793743 58 15 7712 8.72400000 2990121178 2990121178 15.00000000
2.18517232 0.49686003 -0.60046017 4 0 7719 2.32000000 2990121198 2990121198 -15.00000000
8.16270733 1.85452151 0.14611155 18 1 7720 8.37200000 2990121201 2990121201 1.00000000
2.58452773 0.58671594 -0.61186689 6 2 7721 2.72000000 2990121203 2990121203 -13.00000000
8.16087627 1.85260773 0.43857533 100 3 7721 8.38000000 2990121205 2990121205 3.00000000
3.12082720 0.70788902 -0.62203735 16 4 7722 3.26000000 2990121208 2990121208 -11.00000000
8.16299725 1.85009325 0.73228258 83 5 7723 8.40200000 2990121210 2990121210 5.00000000
3.90134954 0.88350105 -0.63355958 6 6 7724 4.05000000 2990121212 2990121212 -9.00000000
8.17440224 1.84967840 1.02906477 92 7 7725 8.44400000 2990121215 2990121215 7.00000000
5.26458502 1.19028807 -0.66272551 9 8 7726 5.43800000 2990121217 2990121217 -7.00000000
6.64064932 1.50018895 -0.59562236 16 10 7727 6.83400000 2990121222 2990121222 -5.00000000
8.16540337 1.84165061 -0.43867999 17 12 7729 8.38200000 2990121226 2990121226 -3.00000000
8.23920822 1.85678577 1.94987571 3 13 7730 8.66800000 2990121228 2990121228 13.00000000
8.14479256 1.83401465 -0.14572759 16 14 7731 8.35000000 2990121231 2990121231 -1.00000000
8.20614147 1.84632409 2.25379634 54 15 7732 8.70800000 2990121233 2990121233 15.00000000
2.18697858 0.48884764 -0.60046017 4 0 7740 2.32000000 2990121254 2990121254 -15.00000000
8.14798164 1.81979656 0.14572759 15 1 7741 8.35000000 2990121256 2990121256 1.00000000
2.59046459 0.57808810 -0.61276668 6 2 7742 2.72400000 2990121258 2990121258 -13.00000000
8.15981388 1.82094419 0.43815663 100 3 7742 8.37200000 2990121261 2990121261 3.00000000
3.12148452 0.69601864 -0.62165570 6 4 7743 3.25800000 2990121263 2990121263 -11.00000000
8.14444160 1.81452942 0.73001653 76 5 7744 8.37600000 2990121265 2990121265 5.00000000
3.90456152 0.86919600 -0.63355958 6 6 7745 4.05000000 2990121268 2990121268 -9.00000000
8.17531395 1.81841230 1.02833354 99 7 7746 8.43800000 2990121270 2990121270 7.00000000
5.25728512 1.16840041 -0.66126305 9 8 7747 5.42600000 2990121272 2990121272 -7.00000000
6.62859821 1.47195256 -0.59405357 12 10 7748 6.81600000 2990121277 2990121277 -5.00000000
8.16624832 1.81041372 -0.43836597 17 12 7750 8.37600000 2990121281 2990121281 -3.00000000
8.25356865 1.82826090 1.95167530 3 13 7751 8.67600000 2990121284 2990121284 13.00000000
8.15536499 1.80501449 -0.14579740 16 14 7752 8.35400000 2990121286 2990121286 -1.00000000
8.19776344 1.81289756 2.24965525 58 15 7753 8.69200000 2990121288 2990121288 15.00000000
2.18867159 0.48121068 -0.60046017 4 0 7760 2.32000000 2990121309 2990121309 -15.00000000
8.14061260 1.78834033 0.14548326 18 1 7761 8.33600000 2990121311 2990121311 1.00000000
2.58485317 0.56737095 -0.61096704 6 2 7762 2.71600000 2990121314 2990121314 -13.00000000
8.16612053 1.79244995 0.43815663 100 3 7762 8.37200000 2990121316 2990121316 3.00000000
3.13540125 0.68764180 -0.62394542 5 4 7763 3.27000000 2990121318 2990121318 -11.00000000
8.14488792 1.78480947 0.72949356 79 5 7764 8.37000000 2990121321 2990121321 5.00000000
3.89213443 0.85218126 -0.63105661 6 6 7765 4.03400000 2990121323 2990121323 -9.00000000
8.17191505 1.78774285 1.02711487 90 7 7766 8.42800000 2990121325 2990121325 7.00000000
5.27684593 1.15343308 -0.66321295 9 8 7767 5.44200000 2990121328 2990121328 -7.00000000
6.63174915 1.44838035 -0.59387922 8 10 7768 6.81400000 2990121332 2990121332 -5.00000000
8.16276073 1.77976978 -0.43784261 17 12 7770 8.36600000 2990121337 2990121337 -3.00000000
8.26180458 1.79985428 1.95212519 3 13 7771 8.67800000 2990121339 2990121339 13.00000000
8.15380001 1.77483475 -0.14565778 16 14 7772 8.34600000 2990121341 2990121341 -1.00000000
8.20781708 1.78509212 2.25069046 54 15 7773 8.69600000 2990121344 2990121344 15.00000000
2.19025540 0.47395015 -0.60046017 4 0 7779 2.32000000 2990121364 2990121364 -15.00000000
8.14063454 1.76006746 0.14537854 15 1 7780 8.33000000 2990121367 2990121367 1.00000000
2.57338667 0.55591577 -0.60781777 7 2 7781 2.70200000 2990121369 2990121369 -13.00000000
8.16225815 1.76325166 0.43763328 100 3 7781 8.36200000 2990121371 2990121371 3.00000000
3.13382626 0.67641222 -0.62318218 5 4 7782 3.26600000 2990121374 2990121374 -11.00000000
8.15270901 1.75821030 0.72966790 76 5 7783 8.37200000 2990121376 2990121376 5.00000000
3.91038752 0.84259856 -0.63355958 6 6 7784 4.05000000 2990121378 2990121378 -9.00000000
8.16227341 1.75729144 1.02516496 95 7 7785 8.41200000 2990121380 2990121380 7.00000000
5.27287912 1.13425827 -0.66223800 9 8 7786 5.43400000 2990121383 2990121383 -7.00000000
6.63261986 1.42554331 -0.59353060 12 10 7787 6.81000000 2990121387 2990121387 -5.00000000
8.14908981 1.74850118 -0.43679589 17 12 7789 8.34600000 2990121392 2990121392 -3.00000000
8.24867344 1.76836228 1.94762623 3 13 7790 8.65800000 2990121394 2990121394 13.00000000
8.15377522 1.74652946 -0.14555307 14 14 7791 8.34000000 2990121397 2990121397 -1.00000000
8.20393944 1.75727451 2.24810219 49 15 7791 8.68600000 2990121399 2990121399 15.00000000
2.20512342 0.46911573 -0.60408366 4 0 7799 2.33400000 2990121420 2990121420 -15.00000000
8.15650845 1.73371935 0.14555307 15 1 7800 8.34000000 2990121422 2990121422 1.00000000
2.58293653 0.54854894 -0.60961735 7 2 7801 2.71000000 2990121424 2990121424 -13.00000000
8.14687347 1.73018527 0.43648186 100 3 7801 8.34000000 2990121427 2990121427 3.00000000
3.13424778 0.66506153 -0.62280059 5 4 7802 3.26400000 2990121429 2990121429 -11.00000000
8.16269493 1.73056781 0.73001653 76 5 7803 8.37600000 2990121431 2990121431 5.00000000
3.91330481 0.82894361 -0.63355958 6 6 7804 4.05000000 2990121433 2990121433 -9.00000000
8.16447353 1.72796702 1.02467740 92 7 7805 8.40800000 2990121436 2990121436 7.00000000
5.25350046 1.11091733 -0.65931314 6 8 7806 5.41000000 2990121438 2990121438 -7.00000000
6.63755560 1.40238249 -0.59353060 12 10 7807 6.81000000 2990121443 2990121443 -5.00000000
8.16491508 1.72210586 -0.43731925 17 12 7809 8.35600000 2990121447 2990121447 -3.00000000
8.24526119 1.73754907 1.94537675 3 13 7810 8.64800000 2990121450 2990121450 13.00000000
8.14808083 1.71558487 -0.14534365 14 14 7811 8.32800000 2990121452 2990121452 -1.00000000
8.21221542 1.72759151 2.24861979 51 15 7812 8.68800000 2990121454 2990121454 15.00000000
2.19351077 0.45864785 -0.60046017 4 0 7819 2.32000000 2990121475 2990121475 -15.00000000
8.16055298 1.70482838 0.14551817 12 1 7820 8.33800000 2990121477 2990121477 1.00000000
2.58674312 0.53992766 -0.61006725 6 2 7821 2.71200000 2990121480 2990121480 -13.00000000
8.15316010 1.70031381 0.43648186 100 3 7822 8.34000000 2990121482 2990121482 3.00000000
3.12694049 0.65211284 -0.62089247 5 4 7822 3.25400000 2990121484 2990121484 -11.00000000
8.14723015 1.69759357 0.72809905 72 5 7823 8.35400000 2990121486 2990121486 5.00000000
3.92584419 0.81729162 -0.63512391 6 6 7824 4.06000000 2990121489 2990121489 -9.00000000
8.17045593 1.69945717 1.02467740 92 7 7825 8.40800000 2990121491 2990121491 7.00000000
5.26123381 1.09338021 -0.65980065 9 8 7826 5.41400000 2990121493 2990121493 -7.00000000
6.66191816 1.38325512 -0.59527373 12 10 7827 6.83000000 2990121498 2990121498 -5.00000000
8.15523148 1.69035161 -0.43648186 17 12 7829 8.34000000 2990121503 2990121503 -3.00000000
8.25127602 1.70875716 1.94537675 3 13 7830 8.64800000 2990121505 2990121505 13.00000000
8.14227104 1.68470120 -0.14513421 14 14 7831 8.31600000 2990121507 2990121507 -1.00000000
8.20843983 1.69839215 2.24603176 49 15 7831 8.67800000 2990121510 2990121510 15.00000000
