# .PCD v0.7 - Point Cloud Data file format
VERSION 0.7
FIELDS x y z intensity laser_id azimuth distance_m adjustedtime timestamp vertical_angle
SIZE 4 4 4 1 1 2 8 8 4 8
TYPE F F F U U U F U U F
COUNT 1 1 1 1 1 1 1 1 1 1
WIDTH 522
HEIGHT 1
VIEWPOINT 0 0 0 1 0 0 0
POINTS 522
DATA ascii
-4.34996271 -4.81251049 -0.33997437 10 12 22211 6.49600000 1896564249 1896564249 -3.00000000
-4.31307316 -4.77002430 1.48467696 74 13 22212 6.60000000 1896564251 1896564251 13.00000000
-4.34756088 -4.80647898 -0.11312650 6 14 22213 6.48200000 1896564253 1896564253 -1.00000000
-4.29466248 -4.74799728 1.71545267 69 15 22213 6.62800000 1896564255 1896564255 15.00000000
-1.29272258 -1.42517447 -0.51556754 4 0 22221 1.99200000 1896564276 1896564276 -15.00000000
-4.33360529 -4.77594948 0.11256802 8 1 22222 6.45000000 1896564279 1896564279 1.00000000
-1.47479486 -1.62476170 -0.50658977 4 2 22223 2.25200000 1896564281 1896564281 -13.00000000
-4.33401823 -4.77305555 0.33788094 20 3 22224 6.45600000 1896564283 1896564283 3.00000000
-1.73154271 -1.90694845 -0.50068283 3 4 22224 2.62400000 1896564285 1896564285 -11.00000000
-4.31624413 -4.75181437 0.56163162 13 5 22225 6.44400000 1896564288 1896564288 5.00000000
-2.06969833 -2.27776146 -0.48744980 2 6 22226 3.11600000 1896564290 1896564290 -9.00000000
-4.32345200 -4.75641251 0.78922588 68 7 22227 6.47600000 1896564292 1896564292 7.00000000
-2.57881069 -2.83606410 -0.47065940 1 8 22228 3.86200000 1896564295 1896564295 -7.00000000
-4.32786942 -4.75793409 1.01870120 62 9 22229 6.51200000 1896564297 1896564297 9.00000000
-3.39987779 -3.73772717 -0.44205391 3 10 22229 5.07200000 1896564299 1896564299 -5.00000000
-4.30345678 -4.72943735 1.24292982 62 11 22230 6.51400000 1896564302 1896564302 11.00000000
-4.34656858 -4.77514172 -0.33840430 10 12 22231 6.46600000 1896564304 1896564304 -3.00000000
-4.30476904 -4.72756290 1.47612882 75 13 22232 6.56200000 1896564306 1896564306 13.00000000
-4.33737993 -4.76170731 -0.11242840 15 14 22233 6.44200000 1896564308 1896564308 -1.00000000
-4.30162668 -4.72080135 1.71131158 67 15 22234 6.61200000 1896564311 1896564311 15.00000000
-1.29899240 -1.42207968 -0.51608515 4 0 22241 1.99400000 1896564332 1896564332 -15.00000000
-4.33001614 -4.73864985 0.11204445 11 1 22242 6.42000000 1896564334 1896564334 1.00000000
-1.48703134 -1.62679577 -0.50883931 4 2 22243 2.26200000 1896564336 1896564336 -13.00000000
-1.73288929 -1.89509726 -0.49915633 3 4 22244 2.61600000 1896564341 1896564341 -11.00000000
-4.32877064 -4.73230886 0.56110865 3 5 22245 6.43800000 1896564343 1896564343 5.00000000
-2.07496977 -2.26760817 -0.48682407 2 6 22246 3.11200000 1896564345 1896564345 -9.00000000
-4.32930613 -4.72957802 0.78727597 68 7 22247 6.46000000 1896564348 1896564348 7.00000000
-2.57260752 -2.80947661 -0.46773455 1 8 22248 3.83800000 1896564350 1896564350 -7.00000000
-4.32176828 -4.71803522 1.01338243 50 9 22249 6.47800000 1896564352 1896564352 9.00000000
-3.42097878 -3.73465157 -0.44309980 3 10 22249 5.08400000 1896564355 1896564355 -5.00000000
-4.31463432 -4.70859718 1.24140334 50 11 22250 6.50600000 1896564357 1896564357 11.00000000
-4.35241365 -4.74816227 -0.33756691 10 12 22251 6.45000000 1896564359 1896564359 -3.00000000
-4.29885530 -4.68809080 1.46848047 34 13 22252 6.52800000 1896564361 1896564361 13.00000000
-4.32558870 -4.71559191 -0.11169540 2 14 22253 6.40000000 1896564364 1896564364 -1.00000000
-4.30681086 -4.69512129 1.70717037 22 15 22253 6.59600000 1896564366 1896564366 15.00000000
-1.29348552 -1.40616226 -0.51194406 5 0 22261 1.97800000 1896564387 1896564387 -15.00000000
-4.33163643 -4.70732021 0.11166050 8 1 22262 6.39800000 1896564389 1896564389 1.00000000
-1.49798012 -1.62733018 -0.51063889 4 2 22263 2.27000000 1896564391 1896564391 -13.00000000
-4.31447077 -4.68538237 0.33379874 7 3 22264 6.37800000 1896564394 1896564394 3.00000000
-1.74481344 -1.89481366 -0.50068283 3 4 22264 2.62400000 1896564396 1896564396 -11.00000000
-4.31826544 -4.68786144 0.55762243 9 5 22265 6.39800000 1896564398 1896564398 5.00000000
-2.08554959 -2.26325679 -0.48744980 2 6 22266 3.11600000 1896564401 1896564401 -9.00000000
-4.33906174 -4.70713902 0.78605729 15 7 22267 6.45000000 1896564403 1896564403 7.00000000
-2.60123849 -2.82091022 -0.47114688 1 8 22268 3.86600000 1896564405 1896564405 -7.00000000
-4.32749605 -4.69130516 1.01087952 17 9 22269 6.46200000 1896564408 1896564408 9.00000000
-3.45560884 -3.74611902 -0.44588879 3 10 22269 5.11600000 1896564410 1896564410 -5.00000000
-4.33370686 -4.69639301 1.24216652 15 11 22270 6.51000000 1896564412 1896564412 11.00000000
-4.35676908 -4.71973228 -0.33662486 10 12 22271 6.43200000 1896564414 1896564414 -3.00000000
-4.31387138 -4.67162466 1.46803057 15 13 22272 6.52600000 1896564417 1896564417 13.00000000
-4.33388138 -4.69165087 -0.11148597 6 14 22273 6.38800000 1896564419 1896564419 -1.00000000
-4.31661940 -4.67296410 1.70458221 13 15 22273 6.58600000 1896564421 1896564421 15.00000000
-1.29789674 -1.40209174 -0.51194406 4 0 22279 1.97800000 1896564443 1896564443 -15.00000000
-4.34232759 -4.68928719 0.11155578 2 1 22280 6.39200000 1896564445 1896564445 1.00000000
-1.50573373 -1.62547529 -0.51153868 4 2 22281 2.27400000 1896564448 1896564448 -13.00000000
-4.34192610 -4.68721247 0.33484545 7 3 22281 6.39800000 1896564450 1896564450 3.00000000
-1.74275100 -1.88068259 -0.49839309 3 4 22282 2.61200000 1896564452 1896564452 -11.00000000
-4.34245300 -4.68450022 0.55884260 13 5 22283 6.41200000 1896564455 1896564455 5.00000000
-2.08996320 -2.25379682 -0.48682407 2 6 22284 3.11200000 1896564457 1896564457 -9.00000000
-4.36192846 -4.70221615 0.78751969 10 7 22285 6.46200000 1896564459 1896564459 7.00000000
-2.59658504 -2.79817319 -0.46870950 1 8 22286 3.84600000 1896564461 1896564461 -7.00000000
-4.34677124 -4.68423653 1.01213098 10 9 22286 6.47000000 1896564464 1896564464 9.00000000
-3.44296145 -3.70896053 -0.44275117 3 10 22287 5.08000000 1896564466 1896564466 -5.00000000
-4.35378313 -4.68850946 1.24369299 12 11 22288 6.51800000 1896564468 1896564468 11.00000000
-4.37565279 -4.71041155 -0.33693889 10 12 22289 6.43800000 1896564471 1896564471 -3.00000000
-4.34709787 -4.67803478 1.47432923 13 13 22290 6.55400000 1896564473 1896564473 13.00000000
-4.36357546 -4.69412327 -0.11186992 6 14 22291 6.41000000 1896564475 1896564475 -1.00000000
-4.33522463 -4.66362476 1.70613515 9 15 22291 6.59200000 1896564478 1896564478 15.00000000
-1.30673492 -1.40179205 -0.51349699 5 0 22299 1.98400000 1896564498 1896564498 -15.00000000
-4.36412477 -4.67995071 0.11169540 31 1 22300 6.40000000 1896564501 1896564501 1.00000000
-1.51139855 -1.62020946 -0.51153868 4 2 22301 2.27400000 1896564503 1896564503 -13.00000000
-4.38224125 -4.69609070 0.33662486 27 3 22302 6.43200000 1896564505 1896564505 3.00000000
-1.75466299 -1.88032925 -0.49991956 3 4 22302 2.62000000 1896564508 1896564508 -11.00000000
-4.37101460 -4.68242168 0.56041145 13 5 22303 6.43000000 1896564510 1896564510 5.00000000
-2.09512138 -2.24360013 -0.48619831 2 6 22304 3.10800000 1896564512 1896564512 -9.00000000
-4.38509083 -4.69421482 0.78873837 10 7 22305 6.47200000 1896564514 1896564514 7.00000000
-4.41166210 -4.72100687 -0.79336941 4 8 22306 6.51000000 1896564517 1896564517 -7.00000000
-4.38279581 -4.68847609 1.01651120 10 9 22307 6.49800000 1896564519 1896564519 9.00000000
-3.46405077 -3.70565248 -0.44379705 3 10 22307 5.09200000 1896564521 1896564521 -5.00000000
-4.37414551 -4.67758560 1.24483788 12 11 22308 6.52400000 1896564524 1896564524 11.00000000
-4.40434837 -4.70823622 -0.33788094 10 12 22309 6.45600000 1896564526 1896564526 -3.00000000
-4.38204241 -4.68275261 1.48062789 14 13 22310 6.58200000 1896564528 1896564528 13.00000000
-4.38540077 -4.68470240 -0.11200955 15 14 22311 6.41800000 1896564531 1896564531 -1.00000000
-4.37077522 -4.66744518 1.71338212 9 15 22312 6.62000000 1896564533 1896564533 15.00000000
-1.31847608 -1.40403450 -0.51608515 5 0 22320 1.99400000 1896564554 1896564554 -15.00000000
-1.50398171 -1.60045803 -0.50703967 4 2 22322 2.25400000 1896564558 1896564558 -13.00000000
-1.76692164 -1.87960732 -0.50144607 3 4 22323 2.62800000 1896564563 1896564563 -11.00000000
-4.41953993 -4.69975233 0.56442058 13 5 22324 6.47600000 1896564565 1896564565 5.00000000
-2.09791636 -2.23015094 -0.48494685 2 6 22325 3.10000000 1896564567 1896564567 -9.00000000
-4.41314983 -4.68967628 0.79068828 10 7 22326 6.48800000 1896564570 1896564570 7.00000000
-2.61518097 -2.77807570 -0.46846575 1 8 22327 3.84400000 1896564572 1896564572 -7.00000000
-4.41620159 -4.68963814 1.02026558 10 9 22328 6.52200000 1896564574 1896564574 9.00000000
-3.48717070 -3.70308471 -0.44501722 3 10 22328 5.10600000 1896564577 1896564577 -5.00000000
-4.40876055 -4.68009949 1.24979889 12 11 22329 6.55000000 1896564579 1896564579 11.00000000
-4.42842436 -4.69932938 -0.33840430 10 12 22330 6.46600000 1896564581 1896564581 -3.00000000
-4.41521692 -4.68367624 1.48602664 14 13 22331 6.60600000 1896564584 1896564584 13.00000000
-4.43958378 -4.70787859 -0.11295197 15 14 22332 6.47200000 1896564586 1896564586 -1.00000000
-4.41752481 -4.68448639 1.72528780 9 15 22332 6.66600000 1896564588 1896564588 15.00000000
-1.32336915 -1.39942360 -0.51608515 5 0 22340 1.99400000 1896564609 1896564609 -15.00000000
-4.44147682 -4.69508839 0.11281236 11 1 22341 6.46400000 1896564611 1896564611 1.00000000
-1.52027476 -1.60652184 -0.51063889 4 2 22342 2.27000000 1896564613 1896564613 -13.00000000
-4.44237518 -4.69439650 0.33871830 10 3 22342 6.47200000 1896564616 1896564616 3.00000000
-1.76807332 -1.86772513 -0.49991956 3 4 22343 2.62000000 1896564618 1896564618 -11.00000000
-4.45509768 -4.70455027 0.56686097 13 5 22344 6.50400000 1896564620 1896564620 5.00000000
-2.11655641 -2.23428679 -0.48744980 2 6 22345 3.11600000 1896564623 1896564623 -9.00000000
-4.44314766 -4.68865156 0.79312569 10 7 22346 6.50800000 1896564625 1896564625 7.00000000
-4.46991396 -4.71524858 -0.79775673 2 8 22347 6.54600000 1896564627 1896564627 -7.00000000
-4.44613743 -4.68852758 1.02339423 10 9 22348 6.54200000 1896564630 1896564630 9.00000000
-3.52612400 -3.71835804 -0.44832915 3 10 22348 5.14400000 1896564632 1896564632 -5.00000000
-4.44128466 -4.68177366 1.25437832 12 11 22349 6.57400000 1896564634 1896564634 11.00000000
-4.44617558 -4.68529177 -0.33850896 10 12 22350 6.46800000 1896564637 1896564637 -3.00000000
-4.43690538 -4.67388916 1.48782623 14 13 22351 6.61400000 1896564639 1896564639 13.00000000
-4.46287537 -4.69960308 -0.11312650 15 14 22352 6.48200000 1896564641 1896564641 -1.00000000
-4.44316196 -4.67884350 1.72891128 9 15 22352 6.68000000 1896564643 1896564643 15.00000000
-1.32582438 -1.39176631 -0.51504987 5 0 22361 1.99000000 1896564664 1896564664 -15.00000000
-4.47520971 -4.69614935 0.11323121 17 1 22362 6.48800000 1896564666 1896564666 1.00000000
-1.52346349 -1.59811795 -0.50973910 4 2 22363 2.26600000 1896564669 1896564669 -13.00000000
-4.47690773 -4.69464922 0.33997437 7 3 22364 6.49600000 1896564671 1896564671 3.00000000
-1.77219713 -1.85839069 -0.49915633 3 4 22364 2.61600000 1896564673 1896564673 -11.00000000
-4.48056221 -4.69683933 0.56790680 13 5 22365 6.51600000 1896564676 1896564676 5.00000000
-2.12336755 -2.22508526 -0.48713693 1 6 22366 3.11400000 1896564678 1896564678 -9.00000000
-4.48086309 -4.69387341 0.79678178 10 7 22367 6.53800000 1896564680 1896564680 7.00000000
-4.50910139 -4.72180414 -0.80165654 2 8 22368 6.57800000 1896564683 1896564683 -7.00000000
-4.47748280 -4.68869400 1.02683580 10 9 22368 6.56400000 1896564685 1896564685 9.00000000
-3.51770878 -3.68235850 -0.44554016 3 10 22369 5.11200000 1896564687 1896564687 -5.00000000
-4.48011637 -4.68817377 1.26048422 12 11 22370 6.60600000 1896564690 1896564690 11.00000000
-4.49644136 -4.70361328 -0.34102109 10 12 22371 6.51600000 1896564692 1896564692 -3.00000000
-4.47016859 -4.67449617 1.49322510 12 13 22372 6.63800000 1896564694 1896564694 13.00000000
-4.48421717 -4.68754911 -0.11323121 9 14 22373 6.48800000 1896564696 1896564696 -1.00000000
-4.47044420 -4.67151880 1.73253465 9 15 22374 6.69400000 1896564699 1896564699 15.00000000
-1.32265031 -1.37876523 -0.51194406 4 0 22381 1.97800000 1896564719 1896564719 -15.00000000
-4.49988270 -4.68915653 0.11344064 17 1 22382 6.50000000 1896564722 1896564722 1.00000000
-1.53173184 -1.59560192 -0.51063889 4 2 22383 2.27000000 1896564724 1896564724 -13.00000000
-4.50628281 -4.69418573 0.34102109 7 3 22383 6.51600000 1896564726 1896564726 3.00000000
-1.78139305 -1.85502541 -0.49991956 3 4 22384 2.62000000 1896564729 1896564729 -11.00000000
-4.51211262 -4.69697571 0.56982422 9 5 22385 6.53800000 1896564731 1896564731 5.00000000
-2.12975287 -2.21623540 -0.48682407 2 6 22386 3.11200000 1896564733 1896564733 -9.00000000
-4.51785612 -4.69966984 0.80043787 10 7 22387 6.56800000 1896564736 1896564736 7.00000000
-4.54344368 -4.72463655 -0.80482513 2 8 22388 6.60400000 1896564738 1896564738 -7.00000000
-4.50559378 -4.68364048 1.02933884 10 9 22389 6.58000000 1896564740 1896564740 9.00000000
-3.51949096 -3.65857005 -0.44414568 3 10 22389 5.09600000 1896564743 1896564743 -5.00000000
-4.51142836 -4.68806744 1.26468205 12 11 22390 6.62800000 1896564745 1896564745 11.00000000
-4.53638029 -4.71234989 -0.34280053 10 12 22391 6.55000000 1896564747 1896564747 -3.00000000
-4.50267935 -4.67570829 1.49862397 13 13 22392 6.66200000 1896564749 1896564749 13.00000000
-4.51303864 -4.68482924 -0.11354536 6 14 22393 6.50600000 1896564752 1896564752 -1.00000000
-4.49342632 -4.66284084 1.73512292 9 15 22394 6.70400000 1896564754 1896564754 15.00000000
-1.33282387 -1.37969756 -0.51401460 5 0 22401 1.98600000 1896564775 1896564775 -15.00000000
-4.52733994 -4.68492413 0.11371988 20 1 22402 6.51600000 1896564777 1896564777 1.00000000
-1.53187442 -1.58464110 -0.50883931 4 2 22403 2.26200000 1896564779 1896564779 -13.00000000
-4.54485178 -4.70140266 0.34269583 10 3 22403 6.54800000 1896564782 1896564782 3.00000000
-1.79331660 -1.85444105 -0.50144607 3 4 22404 2.62800000 1896564784 1896564784 -11.00000000
-4.52986622 -4.68262911 0.56999856 9 5 22405 6.54000000 1896564786 1896564786 5.00000000
-2.13747597 -2.20878768 -0.48682407 2 6 22406 3.11200000 1896564789 1896564789 -9.00000000
-4.54527950 -4.69528103 0.80238777 10 7 22407 6.58400000 1896564791 1896564791 7.00000000
-2.66247821 -2.74938416 -0.46992818 1 8 22408 3.85600000 1896564793 1896564793 -7.00000000
-4.53759098 -4.68570232 1.03309321 10 9 22408 6.60400000 1896564796 1896564796 9.00000000
-3.54055786 -3.65484858 -0.44519153 3 10 22409 5.10800000 1896564798 1896564798 -5.00000000
-4.52639914 -4.67088127 1.26430035 12 11 22410 6.62600000 1896564800 1896564800 11.00000000
-4.55975246 -4.70365667 -0.34332389 10 12 22411 6.56000000 1896564802 1896564802 -3.00000000
-4.53525305 -4.67675018 1.50402272 12 13 22412 6.68600000 1896564805 1896564805 13.00000000
-4.55721188 -4.69775343 -0.11424346 6 14 22413 6.54600000 1896564807 1896564807 -1.00000000
-4.52043819 -4.65821838 1.73926401 9 15 22414 6.72000000 1896564809 1896564809 15.00000000
-1.33628476 -1.37365198 -0.51349699 5 0 22421 1.98400000 1896564830 1896564830 -15.00000000
-4.56040144 -4.68628979 0.11413874 14 1 22422 6.54000000 1896564832 1896564832 1.00000000
-1.52788126 -1.56950963 -0.50568998 3 2 22423 2.24800000 1896564835 1896564835 -13.00000000
-4.57098722 -4.69552755 0.34342855 15 3 22423 6.56200000 1896564837 1896564837 3.00000000
-1.79703951 -1.84535682 -0.50068283 3 4 22424 2.62400000 1896564839 1896564839 -11.00000000
-4.55869627 -4.67963266 0.57156736 9 5 22425 6.55800000 1896564842 1896564842 5.00000000
-2.13414383 -2.18999505 -0.48432112 2 6 22426 3.09600000 1896564844 1896564844 -9.00000000
-4.56441259 -4.68222952 0.80287522 10 7 22427 6.58800000 1896564846 1896564846 7.00000000
-2.67344499 -2.74149489 -0.47017193 1 8 22428 3.85800000 1896564849 1896564849 -7.00000000
-4.56495237 -4.68114853 1.03559613 10 9 22428 6.62000000 1896564851 1896564851 9.00000000
-3.54772902 -3.63676262 -0.44449428 3 10 22429 5.10000000 1896564853 1896564853 -5.00000000
-4.56461430 -4.67753410 1.27040625 12 11 22430 6.65800000 1896564855 1896564855 11.00000000
-4.58730507 -4.69914484 -0.34416124 10 12 22431 6.57600000 1896564858 1896564858 -3.00000000
-4.55971909 -4.66925621 1.50672221 12 13 22432 6.69800000 1896564860 1896564860 13.00000000
-4.59035063 -4.69898224 -0.11466231 9 14 22433 6.57000000 1896564862 1896564862 -1.00000000
-4.55692387 -4.66313601 1.74702859 9 15 22434 6.75000000 1896564865 1896564865 15.00000000
-1.34870207 -1.37773013 -0.51660281 5 0 22439 1.99600000 1896564885 1896564885 -15.00000000
-4.59468889 -4.69194174 0.11462741 14 1 22440 6.56800000 1896564888 1896564888 1.00000000
-1.54098666 -1.57305443 -0.50838935 4 2 22441 2.26000000 1896564890 1896564890 -13.00000000
-4.59689713 -4.69255829 0.34426591 17 3 22441 6.57800000 1896564892 1896564892 3.00000000
-1.80007970 -1.83689773 -0.49991956 3 4 22442 2.62000000 1896564895 1896564895 -11.00000000
-4.59569120 -4.68805265 0.57435632 9 5 22443 6.59000000 1896564897 1896564897 5.00000000
-2.16037655 -2.20302510 -0.48870125 2 6 22444 3.12400000 1896564899 1896564899 -9.00000000
-4.59717131 -4.68628883 0.80604386 10 7 22445 6.61400000 1896564901 1896564901 7.00000000
-2.66257930 -2.71324658 -0.46675959 1 8 22446 3.83000000 1896564904 1896564904 -7.00000000
-4.59762239 -4.68511295 1.03966343 10 9 22446 6.64600000 1896564906 1896564906 9.00000000
-4.61710787 -4.70332623 -0.57662237 4 10 22447 6.61600000 1896564908 1896564908 -5.00000000
-4.59854507 -4.68278170 1.27574897 12 11 22448 6.68600000 1896564911 1896564911 11.00000000
-4.61884069 -4.70180798 -0.34541732 10 12 22449 6.60000000 1896564913 1896564913 -3.00000000
-4.58665848 -4.66741753 1.51077127 10 13 22450 6.71600000 1896564915 1896564915 13.00000000
-4.61630487 -4.69594622 -0.11494155 6 14 22451 6.58600000 1896564918 1896564918 -1.00000000
-4.58969975 -4.66888189 1.75427544 9 15 22451 6.77800000 1896564920 1896564920 15.00000000
-1.34807813 -1.36751080 -0.51453227 4 0 22459 1.98800000 1896564941 1896564941 -15.00000000
-4.63210011 -4.69723225 0.11515098 11 1 22460 6.59800000 1896564943 1896564943 1.00000000
-1.55331099 -1.57460237 -0.51063889 4 2 22461 2.27000000 1896564945 1896564945 -13.00000000
-4.62447023 -4.68785810 0.34510329 15 3 22461 6.59400000 1896564948 1896564948 3.00000000
-1.80372274 -1.82780826 -0.49915633 3 4 22462 2.61600000 1896564950 1896564950 -11.00000000
-4.61902618 -4.67907143 0.57522792 9 5 22463 6.60000000 1896564952 1896564952 5.00000000
-2.15972543 -2.18703723 -0.48682407 2 6 22464 3.11200000 1896564954 1896564954 -9.00000000
-4.63442755 -4.69139671 0.80969989 10 7 22465 6.64400000 1896564957 1896564957 7.00000000
-2.68877769 -2.72087979 -0.46968445 1 8 22466 3.85400000 1896564959 1896564959 -7.00000000
-4.61950254 -4.67465591 1.04091489 10 9 22466 6.65400000 1896564961 1896564961 9.00000000
-4.65450764 -4.70843506 -0.57923704 8 10 22467 6.64600000 1896564964 1896564964 -5.00000000
-4.63833046 -4.69043255 1.28223646 15 11 22468 6.72000000 1896564966 1896564966 11.00000000
-4.65208054 -4.70269489 -0.34667337 10 12 22469 6.62400000 1896564968 1896564968 -3.00000000
-4.61663055 -4.66523075 1.51527035 11 13 22470 6.73600000 1896564971 1896564971 13.00000000
-4.64392328 -4.69117308 -0.11522079 6 14 22471 6.60200000 1896564973 1896564973 -1.00000000
-4.62717104 -4.67261887 1.76204002 9 15 22472 6.80800000 1896564975 1896564975 15.00000000
-1.34899747 -1.35844839 -0.51297933 5 0 22480 1.98200000 1896564996 1896564996 -15.00000000
-4.65492249 -4.68589783 0.11529060 8 1 22481 6.60600000 1896564998 1896564998 1.00000000
-1.55907178 -1.56889868 -0.51063889 4 2 22482 2.27000000 1896565001 1896565001 -13.00000000
-4.66074133 -4.68848085 0.34646404 10 3 22483 6.62000000 1896565003 1896565003 3.00000000
-1.81040990 -1.82118511 -0.49915633 3 4 22483 2.61600000 1896565005 1896565005 -11.00000000
-4.65721798 -4.68330193 0.57784259 9 5 22484 6.63000000 1896565007 1896565007 5.00000000
-2.16215420 -2.17350507 -0.48557258 2 6 22485 3.10400000 1896565010 1896565010 -9.00000000
-4.67679548 -4.69970703 0.81408721 10 7 22486 6.68000000 1896565012 1896565012 7.00000000
-2.69032931 -2.70256543 -0.46822202 1 8 22487 3.84200000 1896565014 1896565014 -7.00000000
-4.66447783 -4.68569231 1.04717231 10 9 22487 6.69400000 1896565017 1896565017 9.00000000
-3.56530738 -3.58027315 -0.44205391 3 10 22488 5.07200000 1896565019 1896565019 -5.00000000
-4.65687609 -4.67479181 1.28261805 12 11 22489 6.72200000 1896565021 1896565021 11.00000000
-4.68620300 -4.70258951 -0.34792945 10 12 22490 6.64800000 1896565024 1896565024 -3.00000000
-4.65708685 -4.67174053 1.52291858 11 13 22491 6.77000000 1896565026 1896565026 13.00000000
-4.67944241 -4.69252825 -0.11567455 9 14 22492 6.62800000 1896565028 1896565028 -1.00000000
-4.65436649 -4.66738176 1.76618111 9 15 22492 6.82400000 1896565031 1896565031 15.00000000
-1.35509717 -1.35509717 -0.51349699 5 0 22500 1.98400000 1896565051 1896565051 -15.00000000
-4.67973661 -4.67810345 0.11550003 8 1 22501 6.61800000 1896565054 1896565054 1.00000000
-1.56178188 -1.56069195 -0.50973910 4 2 22502 2.26600000 1896565056 1896565056 -13.00000000
-4.70109987 -4.69617939 0.34824345 10 3 22503 6.65400000 1896565058 1896565058 3.00000000
-1.81675601 -1.81485450 -0.49915633 3 4 22503 2.61600000 1896565060 1896565060 -11.00000000
-4.68622589 -4.67968750 0.57941139 13 5 22504 6.64800000 1896565063 1896565063 5.00000000
-2.17811608 -2.17431808 -0.48744980 2 6 22505 3.11600000 1896565065 1896565065 -9.00000000
-4.69879293 -4.68896198 0.81506217 10 7 22506 6.68800000 1896565067 1896565067 7.00000000
-2.69693589 -2.69035411 -0.46773455 1 8 22507 3.83800000 1896565070 1896565070 -7.00000000
-4.69420910 -4.68111849 1.04998815 10 9 22508 6.71200000 1896565072 1896565072 9.00000000
-4.69936752 -4.68626261 -0.58063155 8 10 22508 6.66200000 1896565074 1896565074 -5.00000000
-4.68706989 -4.67236805 1.28643429 12 11 22509 6.74200000 1896565077 1896565077 11.00000000
-4.69975996 -4.68338346 -0.34772009 10 12 22510 6.64400000 1896565079 1896565079 -3.00000000
-4.69683647 -4.67883635 1.53056693 11 13 22511 6.80400000 1896565081 1896565081 13.00000000
-4.71704817 -4.69733095 -0.11619812 13 14 22512 6.65800000 1896565084 1896565084 -1.00000000
-4.68650198 -4.66528368 1.77187514 9 15 22513 6.84600000 1896565086 1896565086 15.00000000
-1.36667299 -1.35716498 -0.51608515 5 0 22520 1.99400000 1896565107 1896565107 -15.00000000
-4.71306753 -4.67864513 0.11591888 8 1 22521 6.64200000 1896565109 1896565109 1.00000000
-1.56168723 -1.54974020 -0.50793946 4 2 22522 2.25800000 1896565111 1896565111 -13.00000000
-4.72738934 -4.68958712 0.34897617 10 3 22523 6.66800000 1896565113 1896565113 3.00000000
-1.83980548 -1.82509351 -0.50373572 3 4 22523 2.64000000 1896565116 1896565116 -11.00000000
-4.72375345 -4.68434477 0.58202606 13 5 22524 6.67800000 1896565118 1896565118 5.00000000
-2.17166376 -2.15279484 -0.48432112 2 6 22525 3.09600000 1896565120 1896565120 -9.00000000
-4.72077179 -4.67812061 0.81603712 10 7 22526 6.69600000 1896565123 1896565123 7.00000000
-2.70066953 -2.67533541 -0.46675959 1 8 22527 3.83000000 1896565125 1896565125 -7.00000000
-4.73356342 -4.68915987 1.05530691 10 9 22527 6.74600000 1896565127 1896565127 9.00000000
-4.74967384 -4.70347643 -0.58481503 8 10 22528 6.71000000 1896565130 1896565130 -5.00000000
-4.72288465 -4.67531538 1.29177690 12 11 22529 6.77000000 1896565132 1896565132 11.00000000
-4.73879385 -4.68942738 -0.34939486 10 12 22530 6.67600000 1896565134 1896565134 -3.00000000
-4.72560835 -4.67474699 1.53461611 11 13 22531 6.82200000 1896565137 1896565137 13.00000000
-4.74621296 -4.69349146 -0.11651227 12 14 22532 6.67600000 1896565139 1896565139 -1.00000000
-4.72392511 -4.67145109 1.78015745 9 15 22532 6.87800000 1896565141 1896565141 15.00000000
-1.37140214 -1.35238612 -0.51608515 5 0 22540 1.99400000 1896565162 1896565162 -15.00000000
-4.74930763 -4.68181896 0.11640755 8 1 22541 6.67000000 1896565164 1896565164 1.00000000
-1.57263947 -1.54975069 -0.50973910 4 2 22542 2.26600000 1896565166 1896565166 -13.00000000
-4.74657631 -4.67586040 0.34918550 7 3 22543 6.67200000 1896565169 1896565169 3.00000000
-1.83497608 -1.80763805 -0.50068283 3 4 22543 2.62400000 1896565171 1896565171 -11.00000000
-4.75711107 -4.68460274 0.58411777 13 5 22544 6.70200000 1896565173 1896565173 5.00000000
-2.19042706 -2.15628743 -0.48682407 2 6 22545 3.11200000 1896565176 1896565176 -9.00000000
-4.75971127 -4.68389130 0.81993693 10 7 22546 6.72800000 1896565178 1896565178 7.00000000
-4.78175545 -4.70394230 -0.82359302 2 8 22547 6.75800000 1896565180 1896565180 -7.00000000
-4.76057768 -4.68147421 1.05749702 10 9 22548 6.76000000 1896565183 1896565183 9.00000000
-4.79021311 -4.71061707 -0.58777833 4 10 22548 6.74400000 1896565185 1896565185 -5.00000000
-4.76157618 -4.68082190 1.29788280 12 11 22549 6.80200000 1896565187 1896565187 11.00000000
-4.77507782 -4.69245625 -0.35086024 10 12 22550 6.70400000 1896565189 1896565189 -3.00000000
-4.74745846 -4.66368580 1.53641570 10 13 22551 6.83000000 1896565192 1896565192 13.00000000
-4.77683544 -4.69090652 -0.11686131 12 14 22552 6.69600000 1896565194 1896565194 -1.00000000
-4.75342274 -4.66628551 1.78481615 9 15 22553 6.89600000 1896565196 1896565196 15.00000000
-1.37197375 -1.34353590 -0.51453227 6 0 22560 1.98800000 1896565217 1896565217 -15.00000000
-4.78848505 -4.68759394 0.11696603 8 1 22561 6.70200000 1896565219 1896565219 1.00000000
-1.57525384 -1.54152584 -0.50883931 4 2 22562 2.26200000 1896565222 1896565222 -13.00000000
-4.79713440 -4.69278288 0.35169762 7 3 22563 6.72000000 1896565224 1896565224 3.00000000
-1.83285427 -1.79298449 -0.49839309 3 4 22563 2.61200000 1896565226 1896565226 -11.00000000
-4.79337740 -4.68747091 0.58655816 13 5 22564 6.73000000 1896565229 1896565229 5.00000000
-2.20076585 -2.15139008 -0.48744980 2 6 22565 3.11600000 1896565231 1896565231 -9.00000000
-4.79874802 -4.68944693 0.82383674 10 7 22566 6.76000000 1896565233 1896565233 7.00000000
-4.83506584 -4.72328854 -0.82993025 2 8 22567 6.81000000 1896565236 1896565236 -7.00000000
-4.78314114 -4.67256355 1.05906129 10 9 22567 6.77000000 1896565238 1896565238 9.00000000
-4.81660509 -4.70361137 -0.58899850 4 10 22568 6.75800000 1896565240 1896565240 -5.00000000
-4.79193497 -4.67788649 1.30169892 12 11 22569 6.82200000 1896565242 1896565242 11.00000000
-4.81429958 -4.69807816 -0.35253501 10 12 22570 6.73600000 1896565245 1896565245 -3.00000000
-4.77905321 -4.66205454 1.54136467 10 13 22571 6.85200000 1896565247 1896565247 13.00000000
-4.80606556 -4.68676853 -0.11717546 14 14 22572 6.71400000 1896565249 1896565249 -1.00000000
-4.78270149 -4.66398430 1.78999257 9 15 22572 6.91600000 1896565252 1896565252 15.00000000
-1.37388527 -1.33604503 -0.51349699 5 0 22580 1.98400000 1896565272 1896565272 -15.00000000
-4.81198740 -4.67781973 0.11714055 11 1 22581 6.71200000 1896565275 1896565275 1.00000000
-1.58342028 -1.53873396 -0.50973910 4 2 22582 2.26600000 1896565277 1896565277 -13.00000000
-4.82208157 -4.68435907 0.35232565 7 3 22583 6.73200000 1896565279 1896565279 3.00000000
-1.84191823 -1.78931165 -0.49915633 3 4 22583 2.61600000 1896565282 1896565282 -11.00000000
-4.81828642 -4.67903852 0.58760405 13 5 22584 6.74200000 1896565284 1896565284 5.00000000
-2.18841887 -2.12443185 -0.48306963 2 6 22585 3.08800000 1896565286 1896565286 -9.00000000
-4.83788109 -4.69478655 0.82773656 10 7 22586 6.79200000 1896565289 1896565289 7.00000000
-2.74136043 -2.65934777 -0.46895322 1 8 22587 3.84800000 1896565291 1896565291 -7.00000000
-4.82576036 -4.67975473 1.06469297 10 9 22588 6.80600000 1896565293 1896565293 9.00000000
-3.62009716 -3.51056957 -0.44118237 3 10 22588 5.06200000 1896565295 1896565295 -5.00000000
-4.82937908 -4.68162870 1.30742323 12 11 22589 6.85200000 1896565298 1896565298 11.00000000
-4.84931517 -4.69931316 -0.35389572 10 12 22590 6.76200000 1896565300 1896565300 -3.00000000
-4.82049179 -4.66975021 1.54946291 10 13 22591 6.88800000 1896565302 1896565302 13.00000000
-4.83819771 -4.68526602 -0.11755941 12 14 22592 6.73600000 1896565305 1896565305 -1.00000000
-4.80531549 -4.65179825 1.79206312 9 15 22593 6.92400000 1896565307 1896565307 15.00000000
-1.37321329 -1.32563353 -0.51142645 5 0 22601 1.97600000 1896565328 1896565328 -15.00000000
-4.84780645 -4.67820311 0.11759432 11 1 22602 6.73800000 1896565330 1896565330 1.00000000
-1.58904946 -1.53292012 -0.50973910 4 2 22603 2.26600000 1896565332 1896565332 -13.00000000
-4.86509609 -4.69160938 0.35420975 7 3 22604 6.76800000 1896565335 1896565335 3.00000000
-1.85129035 -1.78527427 -0.49991956 3 4 22604 2.62000000 1896565337 1896565337 -11.00000000
-4.85261679 -4.67794037 0.58969575 13 5 22605 6.76600000 1896565339 1896565339 5.00000000
-2.20756984 -2.12736225 -0.48557258 2 6 22606 3.10400000 1896565342 1896565342 -9.00000000
-4.86792278 -4.68941832 0.82993025 10 7 22607 6.81000000 1896565344 1896565344 7.00000000
-2.73821998 -2.63688970 -0.46675959 1 8 22608 3.83000000 1896565346 1896565346 -7.00000000
-4.85487223 -4.67521286 1.06750882 10 9 22608 6.82400000 1896565348 1896565348 9.00000000
-3.62145686 -3.48622346 -0.43978786 3 10 22609 5.04600000 1896565351 1896565351 -5.00000000
-4.85640812 -4.67342567 1.31009459 12 11 22610 6.86600000 1896565353 1896565353 11.00000000
-4.87658215 -4.69120073 -0.35462844 10 12 22611 6.77600000 1896565355 1896565355 -3.00000000
-4.85723972 -4.67096186 1.55576146 11 13 22612 6.91600000 1896565358 1896565358 13.00000000
-4.87552023 -4.68690348 -0.11804808 8 14 22613 6.76400000 1896565360 1896565360 -1.00000000
-4.84241438 -4.65507889 1.79982769 9 15 22613 6.95400000 1896565362 1896565362 15.00000000
-1.38619959 -1.32885337 -0.51453227 5 0 22621 1.98800000 1896565383 1896565383 -15.00000000
-4.88432026 -4.68062258 0.11808299 11 1 22622 6.76600000 1896565385 1896565385 1.00000000
-1.59298337 -1.52601588 -0.50928921 4 2 22623 2.26400000 1896565388 1896565388 -13.00000000
-4.89298344 -4.68564939 0.35504714 7 3 22624 6.78400000 1896565390 1896565390 3.00000000
-1.86034679 -1.78151691 -0.50068283 3 4 22624 2.62400000 1896565392 1896565392 -11.00000000
-4.87755156 -4.66923952 0.59074163 10 5 22625 6.77800000 1896565395 1896565395 5.00000000
-2.22069097 -2.12510657 -0.48682407 2 6 22626 3.11200000 1896565397 1896565397 -9.00000000
-4.88426208 -4.67239761 0.82993025 10 7 22627 6.81000000 1896565399 1896565399 7.00000000
-4.93098736 -4.71544790 -0.83772987 2 8 22628 6.87400000 1896565401 1896565401 -7.00000000
-4.89482117 -4.67922783 1.07251465 10 9 22629 6.85600000 1896565404 1896565404 9.00000000
-3.66096759 -3.49971938 -0.44309980 3 10 22629 5.08400000 1896565406 1896565406 -5.00000000
-4.88688564 -4.67000914 1.31391072 12 11 22630 6.88600000 1896565408 1896565408 11.00000000
-4.90448093 -4.68518639 -0.35546583 10 12 22631 6.79200000 1896565411 1896565411 -3.00000000
-4.88056183 -4.66070747 1.55801105 11 13 22632 6.92600000 1896565413 1896565413 13.00000000
-4.92222595 -4.69885302 -0.11878107 6 14 22633 6.80600000 1896565415 1896565415 -1.00000000
-4.87901020 -4.65597105 1.80707455 9 15 22634 6.98200000 1896565418 1896565418 15.00000000
-1.39479566 -1.32824588 -0.51608515 5 0 22640 1.99400000 1896565438 1896565438 -15.00000000
-4.92154026 -4.68508148 0.11860655 11 1 22641 6.79600000 1896565441 1896565441 1.00000000
-1.59944677 -1.52206838 -0.50973910 4 2 22642 2.26600000 1896565443 1896565443 -13.00000000
-4.91862440 -4.67903423 0.35577983 10 3 22643 6.79800000 1896565445 1896565445 3.00000000
-1.86339939 -1.77263176 -0.49991956 3 4 22643 2.62000000 1896565448 1896565448 -11.00000000
-4.92332792 -4.68187237 0.59440219 10 5 22644 6.82000000 1896565450 1896565450 5.00000000
-2.23345280 -2.12317491 -0.48807552 2 6 22645 3.12000000 1896565452 1896565452 -9.00000000
-4.92563105 -4.68078899 0.83431751 10 7 22646 6.84600000 1896565454 1896565454 7.00000000
-2.76186204 -2.62365890 -0.46773455 1 8 22647 3.83800000 1896565457 1896565457 -7.00000000
-4.91522598 -4.66926908 1.07376611 10 9 22647 6.86400000 1896565459 1896565459 9.00000000
-3.66677403 -3.48207188 -0.44240254 3 10 22648 5.07600000 1896565461 1896565461 -5.00000000
-4.91943121 -4.66999817 1.31849015 12 11 22649 6.91000000 1896565464 1896565464 11.00000000
-4.94606829 -4.69364357 -0.35734990 10 12 22650 6.82800000 1896565466 1896565466 -3.00000000
-4.91154194 -4.65925026 1.56295991 12 13 22651 6.94800000 1896565468 1896565468 13.00000000
-4.94358492 -4.68800831 -0.11892070 6 14 22652 6.81400000 1896565471 1896565471 -1.00000000
-4.91744328 -4.66321850 1.81587446 9 15 22652 7.01600000 1896565473 1896565473 15.00000000
-1.39521265 -1.31938708 -0.51453227 6 0 22660 1.98800000 1896565494 1896565494 -15.00000000
-4.95820856 -4.68710566 0.11909522 11 1 22661 6.82400000 1896565496 1896565496 1.00000000
-1.60758281 -1.51915288 -0.51063889 4 2 22662 2.27000000 1896565498 1896565498 -13.00000000
-4.96106100 -4.68652391 0.35766393 12 3 22663 6.83400000 1896565501 1896565501 3.00000000
-1.86386704 -1.76072371 -0.49839309 3 4 22663 2.61200000 1896565503 1896565503 -11.00000000
-4.94253778 -4.66739368 0.59475076 10 5 22664 6.82400000 1896565505 1896565505 5.00000000
-2.23223162 -2.10722971 -0.48619831 2 6 22665 3.10800000 1896565507 1896565507 -9.00000000
-4.96215248 -4.68264103 0.83772987 10 7 22666 6.87400000 1896565510 1896565510 7.00000000
-2.75367570 -2.59765625 -0.46480969 1 8 22667 3.81400000 1896565512 1896565512 -7.00000000
-4.94011641 -4.66021633 1.07564342 10 9 22667 6.87600000 1896565514 1896565514 9.00000000
-3.67020917 -3.46104980 -0.44135669 3 10 22668 5.06400000 1896565517 1896565517 -5.00000000
-4.95713091 -4.67299795 1.32421446 12 11 22669 6.94000000 1896565519 1896565519 11.00000000
-4.98277187 -4.69552660 -0.35881531 10 12 22670 6.85600000 1896565521 1896565521 -3.00000000
-4.94337893 -4.65677595 1.56790888 12 13 22671 6.97000000 1896565524 1896565524 13.00000000
-4.97447681 -4.68443251 -0.11926974 6 14 22672 6.83400000 1896565526 1896565526 -1.00000000
-4.94494247 -4.65662003 1.82001555 9 15 22672 7.03200000 1896565528 1896565528 15.00000000
-1.39394808 -1.30946231 -0.51246172 6 0 22679 1.98000000 1896565549 1896565549 -15.00000000
-4.99121666 -4.68706465 0.11951408 11 1 22680 6.84800000 1896565551 1896565551 1.00000000
-1.61545324 -1.51648104 -0.51153868 4 2 22681 2.27400000 1896565554 1896565554 -13.00000000
-4.99842119 -4.69054747 0.35923401 10 3 22682 6.86400000 1896565556 1896565556 3.00000000
-1.86969554 -1.75453317 -0.49839309 3 4 22682 2.61200000 1896565558 1896565558 -11.00000000
-4.97978497 -4.67142487 0.59736544 10 5 22683 6.85400000 1896565560 1896565560 5.00000000
-2.24785280 -2.10792303 -0.48807552 2 6 22684 3.12000000 1896565563 1896565563 -9.00000000
-4.99213600 -4.67973614 0.84016722 10 7 22685 6.89400000 1896565565 1896565565 7.00000000
-2.77675962 -2.60208416 -0.46724707 1 8 22686 3.83400000 1896565567 1896565567 -7.00000000
-4.98086166 -4.66590166 1.08096218 10 9 22687 6.91000000 1896565570 1896565570 9.00000000
-3.68893647 -3.45567036 -0.44222823 3 10 22687 5.07400000 1896565572 1896565572 -5.00000000
-4.99122953 -4.67397881 1.32917547 12 11 22688 6.96600000 1896565574 1896565574 11.00000000
-5.00852203 -4.68853188 -0.35954803 10 12 22689 6.87000000 1896565577 1896565577 -3.00000000
-4.99009800 -4.66965103 1.57780671 11 13 22690 7.01400000 1896565579 1896565579 13.00000000
-5.01334906 -4.68976831 -0.11982822 6 14 22691 6.86600000 1896565581 1896565581 -1.00000000
-4.97728682 -4.65603352 1.82622719 9 15 22691 7.05600000 1896565583 1896565583 15.00000000
-1.39709783 -1.30327082 -0.51194406 5 0 22699 1.97800000 1896565604 1896565604 -15.00000000
-5.01485968 -4.67643261 0.11968860 8 1 22700 6.85800000 1896565607 1896565607 1.00000000
-1.61503518 -1.50551772 -0.50973910 4 2 22701 2.26600000 1896565609 1896565609 -13.00000000
-5.03375912 -4.69077206 0.36059475 12 3 22702 6.89000000 1896565611 1896565611 3.00000000
-1.88442647 -1.75602674 -0.50068283 3 4 22702 2.62400000 1896565613 1896565613 -11.00000000
-5.01938677 -4.67574263 0.60015446 10 5 22703 6.88600000 1896565616 1896565616 5.00000000
-2.23784947 -2.08390951 -0.48432112 2 6 22704 3.09600000 1896565618 1896565618 -9.00000000
-5.02442360 -4.67716026 0.84284836 10 7 22705 6.91600000 1896565620 1896565620 7.00000000
-2.80035782 -2.60589862 -0.46968445 1 8 22706 3.85400000 1896565623 1896565623 -7.00000000
-5.02025986 -4.67001390 1.08596802 10 9 22707 6.94200000 1896565625 1896565625 9.00000000
-3.68055344 -3.42377424 -0.43978786 3 10 22707 5.04600000 1896565627 1896565627 -5.00000000
-5.01326513 -4.66187525 1.33070195 12 11 22708 6.97400000 1896565630 1896565630 11.00000000
-5.04387474 -4.68869829 -0.36090875 10 12 22709 6.89600000 1896565632 1896565632 -3.00000000
-5.02064323 -4.66546965 1.58230567 10 13 22710 7.03400000 1896565634 1896565634 13.00000000
-5.04434013 -4.68584967 -0.12017727 8 14 22711 6.88600000 1896565636 1896565636 -1.00000000
-5.00989056 -4.65221977 1.83192122 9 15 22712 7.07800000 1896565639 1896565639 15.00000000
-1.40589035 -1.30232453 -0.51349699 4 0 22719 1.98400000 1896565660 1896565660 -15.00000000
-5.04875994 -4.67520285 0.12010746 8 1 22720 6.88200000 1896565662 1896565662 1.00000000
-1.61742032 -1.49722338 -0.50883931 4 2 22721 2.26200000 1896565664 1896565664 -13.00000000
-5.06182957 -4.68402433 0.36143211 12 3 22722 6.90600000 1896565666 1896565666 3.00000000
-1.89919043 -1.75743854 -0.50297248 3 4 22722 2.63600000 1896565669 1896565669 -11.00000000
-5.05907869 -4.67984009 0.60294342 10 5 22723 6.91800000 1896565671 1896565671 5.00000000
-2.24220943 -2.07340288 -0.48369536 2 6 22724 3.09200000 1896565673 1896565673 -9.00000000
-5.04800797 -4.66633081 0.84406710 10 7 22725 6.92600000 1896565676 1896565676 7.00000000
-2.80360532 -2.59071875 -0.46870950 1 8 22726 3.84600000 1896565678 1896565678 -7.00000000
-5.06555128 -4.67926931 1.09222543 10 9 22727 6.98200000 1896565680 1896565680 9.00000000
-3.71150804 -3.42848086 -0.44205391 6 10 22727 5.07200000 1896565683 1896565683 -5.00000000
-5.04825830 -4.66166210 1.33566296 12 11 22728 7.00000000 1896565685 1896565685 11.00000000
-5.07488632 -4.68461037 -0.36195546 10 12 22729 6.91600000 1896565687 1896565687 -3.00000000
-5.04978752 -4.65981007 1.58635485 9 13 22730 7.05200000 1896565689 1896565689 13.00000000
-5.08565331 -4.69126272 -0.12077066 12 14 22731 6.92000000 1896565692 1896565692 -1.00000000
-5.04800987 -4.65653849 1.84020340 9 15 22731 7.11000000 1896565694 1896565694 15.00000000
-1.41753674 -1.30394852 -0.51608515 5 0 22739 1.99400000 1896565715 1896565715 -15.00000000
-5.08565617 -4.67650080 0.12059613 8 1 22740 6.91000000 1896565717 1896565717 1.00000000
-1.62263680 -1.49156845 -0.50883931 4 2 22741 2.26200000 1896565719 1896565719 -13.00000000
-5.08403158 -4.67173243 0.36185080 10 3 22742 6.91400000 1896565722 1896565722 3.00000000
-1.89085734 -1.73751473 -0.49915633 3 4 22742 2.61600000 1896565724 1896565724 -11.00000000
-5.09005642 -4.67563057 0.60468656 13 5 22743 6.93800000 1896565726 1896565726 5.00000000
-2.26689339 -2.08159637 -0.48744980 2 6 22744 3.11600000 1896565729 1896565729 -9.00000000
-5.09058905 -4.67284441 0.84845436 10 7 22745 6.96200000 1896565731 1896565731 7.00000000
-2.81409431 -2.58225870 -0.46895322 1 8 22746 3.84800000 1896565733 1896565733 -7.00000000
-5.08767653 -4.66689968 1.09347689 10 9 22747 6.99000000 1896565736 1896565736 9.00000000
-3.71464348 -3.40742350 -0.44100806 6 10 22747 5.06000000 1896565738 1896565738 -5.00000000
-5.09054565 -4.66789579 1.34253204 12 11 22748 7.03600000 1896565740 1896565740 11.00000000
-5.12359810 -4.69655800 -0.36425826 10 12 22749 6.96000000 1896565742 1896565742 -3.00000000
-5.07464314 -4.65005350 1.58905423 9 13 22750 7.06400000 1896565745 1896565745 13.00000000
-5.11674356 -4.68698883 -0.12111970 14 14 22751 6.94000000 1896565747 1896565747 -1.00000000
-5.07847881 -4.65193796 1.84537983 9 15 22751 7.13000000 1896565749 1896565749 15.00000000
-1.41517353 -1.29223096 -0.51349699 5 0 22760 1.98400000 1896565770 1896565770 -15.00000000
-5.13820839 -4.69018459 0.12143385 8 1 22761 6.95800000 1896565772 1896565772 1.00000000
-1.63529038 -1.49217880 -0.51108879 4 2 22762 2.27200000 1896565775 1896565775 -13.00000000
-5.13129044 -4.68222857 0.36404890 10 3 22762 6.95600000 1896565777 1896565777 3.00000000
-1.89431202 -1.72792661 -0.49839309 3 4 22763 2.61200000 1896565779 1896565779 -11.00000000
-5.12188196 -4.67036772 0.60642964 13 5 22764 6.95800000 1896565782 1896565782 5.00000000
-2.28034711 -2.07859659 -0.48870125 2 6 22765 3.12400000 1896565784 1896565784 -9.00000000
-5.13702774 -4.68089533 0.85332912 10 7 22766 7.00200000 1896565786 1896565786 7.00000000
-2.80446172 -2.55454946 -0.46578464 1 8 22767 3.82200000 1896565788 1896565788 -7.00000000
-5.12146044 -4.66507483 1.09723139 10 9 22767 7.01400000 1896565791 1896565791 9.00000000
-3.72710752 -3.39378572 -0.44100806 9 10 22768 5.06000000 1896565793 1896565793 -5.00000000
-5.13230181 -4.67167282 1.34901965 12 11 22769 7.07000000 1896565795 1896565795 11.00000000
-5.14964104 -4.68581247 -0.36488628 10 12 22770 6.97200000 1896565798 1896565798 -3.00000000
-5.11615896 -4.65371466 1.59670258 9 13 22771 7.09800000 1896565800 1896565800 13.00000000
-5.14868307 -4.68165684 -0.12146875 14 14 22772 6.96000000 1896565802 1896565802 -1.00000000
-5.10550022 -4.64239073 1.84900331 9 15 22772 7.14400000 1896565805 1896565805 15.00000000
-1.41538227 -1.28339016 -0.51194406 5 0 22780 1.97800000 1896565825 1896565825 -15.00000000
-5.16047525 -4.67759228 0.12157346 8 1 22781 6.96600000 1896565828 1896565828 1.00000000
-1.64482129 -1.49038708 -0.51243848 4 2 22782 2.27800000 1896565830 1896565830 -13.00000000
-5.16766071 -4.68082047 0.36540964 7 3 22783 6.98200000 1896565832 1896565832 3.00000000
-1.90033209 -1.72130370 -0.49839309 3 4 22783 2.61200000 1896565835 1896565835 -11.00000000
-5.15882969 -4.67118263 0.60887003 13 5 22784 6.98600000 1896565837 1896565837 5.00000000
-2.27587271 -2.06001925 -0.48619831 2 6 22785 3.10800000 1896565839 1896565839 -9.00000000
-5.16952705 -4.67758608 0.85601026 10 7 22786 7.02400000 1896565841 1896565841 7.00000000
-2.83986115 -2.56871367 -0.47017193 1 8 22787 3.85800000 1896565844 1896565844 -7.00000000
-5.15757227 -4.66349554 1.10129869 10 9 22788 7.04000000 1896565846 1896565846 9.00000000
-3.72710848 -3.37006497 -0.43961358 9 10 22788 5.04400000 1896565848 1896565848 -5.00000000
-5.15877247 -4.66294479 1.35169089 12 11 22789 7.08400000 1896565851 1896565851 11.00000000
-5.19264078 -4.69191074 -0.36677039 11 12 22790 7.00800000 1896565853 1896565853 -3.00000000
-5.15117264 -4.65280867 1.60255134 9 13 22791 7.12400000 1896565855 1896565855 13.00000000
-5.18577242 -4.68241787 -0.12195741 14 14 22792 6.98800000 1896565858 1896565858 -1.00000000
-5.13538742 -4.63529682 1.85366201 9 15 22793 7.16200000 1896565860 1896565860 15.00000000
-1.42128909 -1.27973449 -0.51246172 5 0 22800 1.98000000 1896565881 1896565881 -15.00000000
-5.18420315 -4.66623926 0.12174799 14 1 22801 6.97600000 1896565883 1896565883 1.00000000
-1.64566779 -1.48072612 -0.51108879 4 2 22802 2.27200000 1896565885 1896565885 -13.00000000
-5.19948626 -4.67835331 0.36656103 7 3 22802 7.00400000 1896565888 1896565888 3.00000000
-1.91216767 -1.71991146 -0.49991956 3 4 22803 2.62000000 1896565890 1896565890 -11.00000000
-5.20029068 -4.67579269 0.61183333 16 5 22804 7.02000000 1896565892 1896565892 5.00000000
-2.26835823 -2.03885722 -0.48306963 2 6 22805 3.08800000 1896565894 1896565894 -9.00000000
-5.19911289 -4.67145300 0.85820389 10 7 22806 7.04200000 1896565897 1896565897 7.00000000
-5.25014067 -4.71564627 -0.86649102 2 8 22807 7.11000000 1896565899 1896565899 -7.00000000
-5.19586706 -4.66525984 1.10599172 10 9 22808 7.07000000 1896565901 1896565901 9.00000000
-3.74477959 -3.36235881 -0.44031081 6 10 22808 5.05200000 1896565904 1896565904 -5.00000000
-5.18524551 -4.65408850 1.35436225 9 11 22809 7.09800000 1896565906 1896565906 11.00000000
-5.23277187 -4.69509792 -0.36844513 11 12 22810 7.04000000 1896565908 1896565908 -3.00000000
-5.17028379 -4.63740158 1.60345113 4 13 22811 7.12800000 1896565911 1896565911 13.00000000
-5.22292948 -4.68297672 -0.12244608 14 14 22812 7.01600000 1896565913 1896565913 -1.00000000
-7.81455421 -7.00667620 2.81232786 16 15 22812 10.86600000 1896565915 1896565915 15.00000000
-1.43006802 -1.27862835 -0.51401460 5 0 22820 1.98600000 1896565936 1896565936 -15.00000000
-5.23177004 -4.67609930 0.12248099 18 1 22821 7.01800000 1896565938 1896565938 1.00000000
-1.64210737 -1.46718228 -0.50838935 4 2 22822 2.26000000 1896565940 1896565940 -13.00000000
-5.23067904 -4.67348242 0.36760774 5 3 22822 7.02400000 1896565943 1896565943 3.00000000
-1.92694509 -1.72107303 -0.50220925 3 4 22823 2.63200000 1896565945 1896565945 -11.00000000
-5.20766306 -4.64965010 0.61078745 3 5 22824 7.00800000 1896565947 1896565947 5.00000000
-2.29904127 -2.05197263 -0.48807552 2 6 22825 3.12000000 1896565950 1896565950 -9.00000000
-2.83698463 -2.53032684 -0.46675959 1 8 22827 3.83000000 1896565954 1896565954 -7.00000000
-3.75946784 -3.35191846 -0.44065943 9 10 22828 5.05600000 1896565959 1896565959 -5.00000000
-5.30728722 -4.72862053 -0.37252733 7 12 22830 7.11800000 1896565964 1896565964 -3.00000000
-7.70544291 -6.86288738 2.38223171 8 13 22831 10.59000000 1896565966 1896565966 13.00000000
-7.83319330 -6.97421694 2.81025720 33 15 22832 10.85800000 1896565970 1896565970 15.00000000
-1.44463503 -1.28260696 -0.51763809 5 0 22840 2.00000000 1896565991 1896565991 -15.00000000
-1.64284563 -1.45756137 -0.50703967 4 2 22842 2.25400000 1896565996 1896565996 -13.00000000
-1.91531539 -1.69870400 -0.49762985 3 4 22843 2.60800000 1896566000 1896566000 -11.00000000
-2.30618978 -2.04393506 -0.48807552 2 6 22845 3.12000000 1896566005 1896566005 -9.00000000
-2.84134150 -2.51646018 -0.46602836 1 8 22847 3.82400000 1896566010 1896566010 -7.00000000
-3.77114534 -3.33877492 -0.44065943 9 10 22848 5.05600000 1896566014 1896566014 -5.00000000
-5.52719736 -4.89005136 -0.38676271 7 12 22850 7.39000000 1896566019 1896566019 -3.00000000
-7.76000643 -6.86306000 2.39167953 11 13 22851 10.63200000 1896566021 1896566021 13.00000000
-7.86304474 -6.94929838 2.81181002 40 15 22853 10.86400000 1896566026 1896566026 15.00000000
-1.43171406 -1.26222575 -0.51142645 4 0 22860 1.97600000 1896566046 1896566046 -15.00000000
-1.65962124 -1.46212363 -0.51063889 4 2 22862 2.27000000 1896566051 1896566051 -13.00000000
-1.93596673 -1.70498347 -0.50144607 3 4 22863 2.62800000 1896566056 1896566056 -11.00000000
-2.30737901 -2.03065228 -0.48682407 2 6 22865 3.11200000 1896566060 1896566060 -9.00000000
-2.85010839 -2.50652671 -0.46602836 1 8 22867 3.82400000 1896566065 1896566065 -7.00000000
-3.77080607 -3.31506681 -0.43926495 6 10 22868 5.04000000 1896566070 1896566070 -5.00000000
-5.53523064 -4.86281872 -0.38613468 3 12 22870 7.37800000 1896566074 1896566074 -3.00000000
-7.81466484 -6.86293459 2.40112758 12 13 22871 10.67400000 1896566076 1896566076 13.00000000
-7.88870668 -6.92308283 2.81232786 40 15 22873 10.86600000 1896566081 1896566081 15.00000000
-1.43298519 -1.25492561 -0.51039118 4 0 22879 1.97200000 1896566102 1896566102 -15.00000000
-1.66592717 -1.45789540 -0.51108879 4 2 22881 2.27200000 1896566106 1896566106 -13.00000000
-1.93865466 -1.69596899 -0.50068283 3 4 22882 2.62400000 1896566111 1896566111 -11.00000000
-2.30963850 -2.01908922 -0.48588544 2 6 22884 3.10600000 1896566116 1896566116 -9.00000000
-2.87634444 -2.51273346 -0.46895322 1 8 22886 3.84800000 1896566120 1896566120 -7.00000000
-3.78177834 -3.30254412 -0.43926495 6 10 22887 5.04000000 1896566125 1896566125 -5.00000000
-5.56185961 -4.85362911 -0.38686737 3 12 22889 7.39200000 1896566129 1896566129 -3.00000000
-7.86381340 -6.86004162 2.40922570 13 13 22890 10.71000000 1896566132 1896566132 13.00000000
-7.90288353 -6.88926840 2.80922198 40 15 22892 10.85400000 1896566136 1896566136 15.00000000
-1.43881476 -1.25118351 -0.51090878 4 0 22899 1.97400000 1896566157 1896566157 -15.00000000
-1.66365123 -1.44568026 -0.50883931 4 2 22901 2.26200000 1896566162 1896566162 -13.00000000
