# .PCD v0.7 - Point Cloud Data file format
VERSION 0.7
FIELDS x y z intensity laser_id azimuth distance_m adjustedtime timestamp vertical_angle
SIZE 4 4 4 1 1 2 8 8 4 8
TYPE F F F U U U F U U F
COUNT 1 1 1 1 1 1 1 1 1 1
WIDTH 522
HEIGHT 1
VIEWPOINT 0 0 0 1 0 0 0
POINTS 522
DATA ascii
-1.61560810 4.79514456 -0.62128991 2 8 34138 5.09800000 1895897203 1895897203 -7.00000000
-3.59375191 10.67861748 2.19010568 59 11 34140 11.47800000 1895897210 1895897210 11.00000000
-3.42563796 10.19084358 2.48211002 51 13 34142 11.03400000 1895897214 1895897214 13.00000000
-2.95953131 8.81442070 2.49139214 36 15 34144 9.62600000 1895897219 1895897219 15.00000000
-0.69451261 2.07567930 -0.58648396 4 0 34150 2.26600000 1895897240 1895897240 -15.00000000
-0.81721604 2.44523764 -0.59522051 3 2 34152 2.64600000 1895897244 1895897244 -13.00000000
-3.69274640 11.04927158 0.61055124 2 3 34152 11.66600000 1895897247 1895897247 3.00000000
-0.96965873 2.90305519 -0.59494245 2 4 34153 3.11800000 1895897249 1895897249 -11.00000000
-3.68368030 11.03495598 1.01780474 12 5 34154 11.67800000 1895897251 1895897251 5.00000000
-1.20656121 3.61651635 -0.60383701 2 6 34155 3.86000000 1895897254 1895897254 -9.00000000
-1.58714640 4.76281023 -0.61641514 2 8 34157 5.05800000 1895897258 1895897258 -7.00000000
-3.55522037 10.68116188 2.18819761 59 11 34159 11.46800000 1895897265 1895897265 11.00000000
-3.39121032 10.20029831 2.48166013 50 13 34161 11.03200000 1895897270 1895897270 13.00000000
-2.92785025 8.81685257 2.48932147 36 15 34163 9.61800000 1895897274 1895897274 15.00000000
-0.68301678 2.06525207 -0.58286047 4 0 34170 2.25200000 1895897295 1895897295 -15.00000000
-0.80928683 2.44992566 -0.59567040 3 2 34172 2.64800000 1895897300 1895897300 -13.00000000
-3.68109274 11.14364243 0.61505216 2 3 34172 11.75200000 1895897302 1895897302 3.00000000
-0.96075022 2.91015077 -0.59570569 2 4 34173 3.12200000 1895897304 1895897304 -11.00000000
-3.67323112 11.13288975 1.02564883 8 5 34174 11.76800000 1895897307 1895897307 5.00000000
-1.18774366 3.60194588 -0.60070837 2 6 34175 3.84000000 1895897309 1895897309 -9.00000000
-1.57299542 4.77586317 -0.61739010 2 8 34177 5.06600000 1895897314 1895897314 -7.00000000
-3.51239276 10.67672253 2.18476295 56 11 34179 11.45000000 1895897320 1895897320 11.00000000
-3.35558391 10.21207333 2.48166013 47 13 34181 11.03200000 1895897325 1895897325 13.00000000
-2.89163399 8.81049919 2.48466277 40 15 34183 9.60000000 1895897330 1895897330 15.00000000
-0.68000484 2.08047724 -0.58648396 4 0 34190 2.26600000 1895897350 1895897350 -15.00000000
-0.79589182 2.43791556 -0.59207118 3 2 34192 2.63200000 1895897355 1895897355 -13.00000000
-3.69361830 11.31401157 0.62373990 5 3 34192 11.91800000 1895897357 1895897357 3.00000000
-0.95423985 2.92468524 -0.59799540 2 4 34193 3.13400000 1895897360 1895897360 -11.00000000
-1.17883563 3.61733890 -0.60258555 2 6 34195 3.85200000 1895897364 1895897364 -9.00000000
-1.55631495 4.78132486 -0.61739010 2 8 34197 5.06600000 1895897369 1895897369 -7.00000000
-3.47024655 10.67398167 2.18171000 56 11 34199 11.43400000 1895897376 1895897376 11.00000000
-3.32112050 10.22743130 2.48255992 46 13 34201 11.03600000 1895897380 1895897380 13.00000000
-2.86776829 8.83657742 2.48932147 40 15 34202 9.61800000 1895897385 1895897385 15.00000000
-0.67273843 2.08283830 -0.58648396 4 0 34210 2.26600000 1895897406 1895897406 -15.00000000
-0.78857368 2.44438815 -0.59297097 3 2 34212 2.63600000 1895897410 1895897410 -13.00000000
-0.94282007 2.92426133 -0.59723216 4 4 34213 3.13000000 1895897415 1895897415 -11.00000000
-1.16256857 3.61015010 -0.60070837 2 6 34215 3.84000000 1895897419 1895897419 -9.00000000
-1.54204679 4.79428768 -0.61836505 2 8 34217 5.07400000 1895897424 1895897424 -7.00000000
-3.42816257 10.67107677 2.17865705 53 11 34219 11.41800000 1895897431 1895897431 11.00000000
-3.28539991 10.23896217 2.48255992 46 13 34221 11.03600000 1895897436 1895897436 13.00000000
-2.83300304 8.83967018 2.48725104 38 15 34223 9.61000000 1895897440 1895897440 15.00000000
-0.66781330 2.09253550 -0.58855450 4 0 34230 2.27400000 1895897461 1895897461 -15.00000000
-0.78003633 2.44712591 -0.59297097 3 2 34232 2.63600000 1895897466 1895897466 -13.00000000
-0.93260676 2.92753458 -0.59723216 2 4 34233 3.13000000 1895897470 1895897470 -11.00000000
-1.15235543 3.62171578 -0.60195982 2 6 34235 3.84800000 1895897475 1895897475 -9.00000000
-1.51808763 4.77693892 -0.61544019 2 8 34237 5.05000000 1895897479 1895897479 -7.00000000
-3.38970470 10.67923546 2.17789388 53 11 34239 11.41400000 1895897486 1895897486 11.00000000
-3.24375010 10.23179150 2.47806072 50 13 34241 11.01600000 1895897491 1895897491 13.00000000
-2.80717492 8.86006641 2.49035692 40 15 34242 9.62200000 1895897496 1895897496 15.00000000
-0.66050488 2.09485388 -0.58855450 4 0 34250 2.27400000 1895897516 1895897516 -15.00000000
-0.77500165 2.46098614 -0.59567040 3 2 34252 2.64800000 1895897521 1895897521 -13.00000000
-0.92238206 2.93077207 -0.59723216 4 4 34253 3.13000000 1895897525 1895897525 -11.00000000
-1.14681470 3.64832973 -0.60571426 2 6 34255 3.87200000 1895897530 1895897530 -9.00000000
-1.50734985 4.80114794 -0.61787754 2 8 34257 5.07000000 1895897535 1895897535 -7.00000000
-3.34888196 10.67976284 2.17560410 56 11 34259 11.40200000 1895897542 1895897542 11.00000000
-3.21034431 10.25049019 2.47986031 48 13 34261 11.02400000 1895897546 1895897546 13.00000000
-2.77295208 8.86476421 2.48880386 40 15 34263 9.61600000 1895897551 1895897551 15.00000000
-0.64822912 2.08250427 -0.58441341 4 0 34271 2.25800000 1895897572 1895897572 -15.00000000
-0.76250529 2.45264482 -0.59297097 3 2 34273 2.63600000 1895897576 1895897576 -13.00000000
-0.90930402 2.92663383 -0.59570569 4 4 34274 3.12200000 1895897581 1895897581 -11.00000000
-1.13811874 3.66760159 -0.60821718 2 6 34276 3.88800000 1895897585 1895897585 -9.00000000
-1.49796999 4.83318615 -0.62128991 2 8 34278 5.09800000 1895897590 1895897590 -7.00000000
-3.30507183 10.67696190 2.17255116 56 11 34280 11.38600000 1895897597 1895897597 11.00000000
-3.17160177 10.25846481 2.47896051 48 13 34282 11.02000000 1895897602 1895897602 13.00000000
-2.73799944 8.86146927 2.48518038 40 15 34283 9.60200000 1895897606 1895897606 15.00000000
-0.64152360 2.08660078 -0.58493102 4 0 34291 2.26000000 1895897627 1895897627 -15.00000000
-0.75393927 2.45529151 -0.59297097 3 2 34293 2.63600000 1895897631 1895897631 -13.00000000
-0.89677876 2.92228246 -0.59417921 4 4 34294 3.11400000 1895897636 1895897636 -11.00000000
-1.11720538 3.64511085 -0.60383701 2 6 34296 3.86000000 1895897641 1895897641 -9.00000000
-1.48690033 4.85736704 -0.62372732 2 8 34298 5.11800000 1895897645 1895897645 -7.00000000
-3.26261616 10.67153645 2.16911674 59 11 34300 11.36800000 1895897652 1895897652 11.00000000
-3.13805008 10.27692795 2.48076034 47 13 34302 11.02800000 1895897657 1895897657 13.00000000
-2.70437503 8.86774921 2.48414516 38 15 34304 9.59800000 1895897661 1895897661 15.00000000
-0.63965499 2.10535264 -0.58958977 4 0 34310 2.27800000 1895897682 1895897682 -15.00000000
-0.74239802 2.44658971 -0.59027159 3 2 34312 2.62400000 1895897687 1895897687 -13.00000000
-0.89392006 2.94778538 -0.59875864 2 4 34313 3.13800000 1895897691 1895897691 -11.00000000
-1.09824049 3.62610865 -0.60008264 2 6 34315 3.83600000 1895897696 1895897696 -9.00000000
-1.46503711 4.84327030 -0.62128991 2 8 34317 5.09800000 1895897701 1895897701 -7.00000000
-3.22380352 10.67102051 2.16682696 59 11 34319 11.35600000 1895897707 1895897707 11.00000000
-3.10282755 10.28354645 2.47986031 48 13 34321 11.02400000 1895897712 1895897712 13.00000000
-2.67594504 8.87435246 2.48362756 38 15 34322 9.59600000 1895897717 1895897717 15.00000000
-0.63341236 2.11127329 -0.59062505 4 0 34330 2.28200000 1895897737 1895897737 -15.00000000
-0.74056536 2.47156715 -0.59567040 3 2 34332 2.64800000 1895897742 1895897742 -13.00000000
-0.88137221 2.94336486 -0.59723216 2 4 34333 3.13000000 1895897747 1895897747 -11.00000000
-1.08953834 3.64316821 -0.60227269 2 6 34335 3.85000000 1895897751 1895897751 -9.00000000
-1.44812202 4.84835482 -0.62128991 2 8 34337 5.09800000 1895897756 1895897756 -7.00000000
-3.18597388 10.68032742 2.16644526 56 11 34339 11.35400000 1895897763 1895897763 11.00000000
-3.06357384 10.28310871 2.47716093 50 13 34341 11.01200000 1895897767 1895897767 13.00000000
-2.64229918 8.88039684 2.48259234 40 15 34343 9.59200000 1895897772 1895897772 15.00000000
-0.62676656 2.11728549 -0.59166032 4 0 34351 2.28600000 1895897793 1895897793 -15.00000000
-0.73039663 2.47052717 -0.59477061 3 2 34353 2.64400000 1895897797 1895897797 -13.00000000
-0.86946571 2.94280982 -0.59646893 2 4 34354 3.12600000 1895897802 1895897802 -11.00000000
-1.08791828 3.68692398 -0.60884291 2 6 34356 3.89200000 1895897807 1895897807 -9.00000000
-1.43034220 4.85363007 -0.62128991 2 8 34358 5.09800000 1895897811 1895897811 -7.00000000
-3.14569855 10.68816662 2.16568208 56 11 34360 11.35000000 1895897818 1895897818 11.00000000
-3.02421498 10.28866005 2.47581124 51 13 34362 11.00600000 1895897823 1895897823 13.00000000
-2.61019588 8.88585949 2.48155689 40 15 34363 9.58800000 1895897827 1895897827 15.00000000
-0.61341137 2.09906316 -0.58596629 4 0 34371 2.26400000 1895897848 1895897848 -15.00000000
-0.72395229 2.48054457 -0.59657019 3 2 34373 2.65200000 1895897853 1895897853 -13.00000000
-0.86358577 2.96090484 -0.59952188 2 4 34374 3.14200000 1895897857 1895897857 -11.00000000
-1.07227969 3.68121624 -0.60727859 2 6 34376 3.88200000 1895897862 1895897862 -9.00000000
-1.41339111 4.85859346 -0.62128991 2 8 34378 5.09800000 1895897866 1895897866 -7.00000000
-3.10398889 10.68399906 2.16262913 56 11 34380 11.33400000 1895897873 1895897873 11.00000000
-2.98936868 10.30289650 2.47671103 51 13 34382 11.01000000 1895897878 1895897878 13.00000000
-2.57545924 8.88794422 2.47948647 40 15 34384 9.58000000 1895897883 1895897883 15.00000000
-0.60805440 2.10665393 -0.58751923 4 0 34390 2.27000000 1895897903 1895897903 -15.00000000
-0.71356350 2.47544169 -0.59477061 3 2 34392 2.64400000 1895897908 1895897908 -13.00000000
-0.85593611 2.97129846 -0.60104835 2 4 34393 3.15000000 1895897913 1895897913 -11.00000000
-1.05296648 3.66007280 -0.60321128 2 6 34395 3.85600000 1895897917 1895897917 -9.00000000
-1.40604234 4.89378023 -0.62518972 2 8 34397 5.13000000 1895897922 1895897922 -7.00000000
-3.06204462 10.67158890 2.15804982 53 11 34399 11.31000000 1895897929 1895897929 11.00000000
-2.95840740 10.32399273 2.47941041 55 13 34401 11.02200000 1895897933 1895897933 13.00000000
-2.54699254 8.89413452 2.47896886 40 15 34402 9.57800000 1895897938 1895897938 15.00000000
-0.60069710 2.10876369 -0.58751923 4 0 34410 2.27000000 1895897959 1895897959 -15.00000000
-0.70598471 2.48166609 -0.59567040 3 2 34412 2.64800000 1895897963 1895897963 -13.00000000
-0.84663284 2.97804499 -0.60181159 2 4 34413 3.15400000 1895897968 1895897968 -11.00000000
-1.05421150 3.71313334 -0.61134589 2 6 34415 3.90800000 1895897972 1895897972 -9.00000000
-1.38678527 4.89101887 -0.62421477 2 8 34417 5.12200000 1895897977 1895897977 -7.00000000
-3.02370548 10.67843437 2.15728641 50 11 34419 11.30600000 1895897984 1895897984 11.00000000
-2.91810966 10.31925488 2.47581124 57 13 34421 11.00600000 1895897989 1895897989 13.00000000
-2.51540518 8.90111160 2.47845125 40 15 34422 9.57600000 1895897993 1895897993 15.00000000
-0.59751457 2.12572575 -0.59166032 4 0 34430 2.28600000 1895898014 1895898014 -15.00000000
-0.69731778 2.48411536 -0.59567040 3 2 34432 2.64800000 1895898019 1895898019 -13.00000000
-0.83305079 2.96964049 -0.59952188 2 4 34433 3.14200000 1895898023 1895898023 -11.00000000
-1.03484929 3.69396472 -0.60759145 2 6 34435 3.88400000 1895898028 1895898028 -9.00000000
-1.36328602 4.87288952 -0.62128991 2 8 34437 5.09800000 1895898032 1895898032 -7.00000000
-2.98641229 10.68892384 2.15728641 53 11 34439 11.30600000 1895898039 1895898039 11.00000000
-2.87997603 10.32187080 2.47401166 57 13 34441 10.99800000 1895898044 1895898044 13.00000000
-2.48535705 8.91355991 2.47948647 40 15 34442 9.58000000 1895898048 1895898048 15.00000000
-0.58802575 2.12035227 -0.58958977 4 0 34450 2.27800000 1895898069 1895898069 -15.00000000
-0.68864232 2.48653412 -0.59567040 3 2 34452 2.64800000 1895898074 1895898074 -13.00000000
-0.81953770 2.96117735 -0.59723216 2 4 34453 3.13000000 1895898078 1895898078 -11.00000000
-1.02931583 3.72421050 -0.61197162 2 6 34455 3.91200000 1895898083 1895898083 -9.00000000
-1.34626818 4.87761879 -0.62128991 2 8 34457 5.09800000 1895898088 1895898088 -7.00000000
-2.94751763 10.69360542 2.15614176 46 11 34459 11.30000000 1895898095 1895898095 11.00000000
-2.84392858 10.33186054 2.47401166 57 13 34461 10.99800000 1895898099 1895898099 13.00000000
-2.44601393 8.89839363 2.47275710 40 15 34463 9.55400000 1895898104 1895898104 15.00000000
-0.57895076 2.11483741 -0.58751923 4 0 34469 2.27000000 1895898125 1895898125 -15.00000000
-0.68142068 2.49256372 -0.59657019 3 2 34471 2.65200000 1895898129 1895898129 -13.00000000
-0.80867881 2.96009111 -0.59646893 2 4 34472 3.12600000 1895898134 1895898134 -11.00000000
-1.01176107 3.70854592 -0.60884291 2 6 34474 3.89200000 1895898138 1895898138 -9.00000000
-1.33008599 4.88205624 -0.62128991 2 8 34476 5.09800000 1895898143 1895898143 -7.00000000
-2.90997863 10.69574356 2.15461516 43 11 34478 11.29200000 1895898150 1895898150 11.00000000
-2.80811834 10.33559322 2.47266197 59 13 34480 10.99200000 1895898154 1895898154 13.00000000
-2.41905904 8.90976238 2.47379231 40 15 34481 9.55800000 1895898159 1895898159 15.00000000
-0.57257229 2.12057543 -0.58855450 4 0 34489 2.27400000 1895898180 1895898180 -15.00000000
-0.67271590 2.49492717 -0.59657019 3 2 34491 2.65200000 1895898184 1895898184 -13.00000000
-0.80344898 2.98185229 -0.60028511 4 4 34492 3.14600000 1895898189 1895898189 -11.00000000
-0.99983621 3.71587014 -0.60946870 2 6 34494 3.89600000 1895898194 1895898194 -9.00000000
-1.32333863 4.92501116 -0.62616467 2 8 34496 5.13800000 1895898198 1895898198 -7.00000000
-2.87059069 10.69825077 2.15308881 40 11 34498 11.28400000 1895898205 1895898205 11.00000000
-2.77202344 10.34533215 2.47266197 56 13 34500 10.99200000 1895898210 1895898210 13.00000000
-2.38644457 8.91255379 2.47223949 40 15 34501 9.55200000 1895898214 1895898214 15.00000000
-0.56616074 2.12629485 -0.58958977 4 0 34509 2.27800000 1895898235 1895898235 -15.00000000
-0.66099834 2.48596025 -0.59387076 3 2 34511 2.64000000 1895898240 1895898240 -13.00000000
-0.79706872 2.99981809 -0.60333806 4 4 34512 3.16200000 1895898244 1895898244 -11.00000000
-0.99091214 3.73461223 -0.61197162 2 6 34514 3.91200000 1895898249 1895898249 -9.00000000
-1.30105484 4.91041183 -0.62372732 2 8 34516 5.11800000 1895898253 1895898253 -7.00000000
-2.83172274 10.70251179 2.15194392 46 11 34518 11.27800000 1895898260 1895898260 11.00000000
-2.73390341 10.34740829 2.47086239 59 13 34520 10.98400000 1895898265 1895898265 13.00000000
-2.35383987 8.91522598 2.47068667 38 15 34521 9.54600000 1895898270 1895898270 15.00000000
-0.56069732 2.13573241 -0.59166032 4 0 34529 2.28600000 1895898290 1895898290 -15.00000000
-0.65330505 2.49202251 -0.59477061 3 2 34531 2.64400000 1895898295 1895898295 -13.00000000
-0.78460240 2.99498534 -0.60181159 4 4 34532 3.15400000 1895898300 1895898300 -11.00000000
-0.98286921 3.75715899 -0.61510032 2 6 34534 3.93200000 1895898304 1895898304 -9.00000000
-1.28390646 4.91492367 -0.62372732 2 8 34536 5.11800000 1895898309 1895898309 -7.00000000
-2.79484224 10.71423149 2.15232539 43 11 34538 11.28000000 1895898316 1895898316 11.00000000
-2.69187284 10.33425903 2.46546364 57 13 34540 10.96000000 1895898320 1895898320 13.00000000
-2.32114816 8.92379379 2.47068667 42 15 34542 9.54600000 1895898325 1895898325 15.00000000
-0.55227077 2.13393593 -0.59062505 4 0 34549 2.28200000 1895898346 1895898346 -15.00000000
-0.64557743 2.49806142 -0.59567040 3 2 34551 2.64800000 1895898350 1895898350 -13.00000000
-0.77119780 2.98630071 -0.59952188 2 4 34552 3.14200000 1895898355 1895898355 -11.00000000
-0.96284264 3.73378778 -0.61072016 2 6 34554 3.90400000 1895898359 1895898359 -9.00000000
-1.26971245 4.93090963 -0.62518972 2 8 34556 5.13000000 1895898364 1895898364 -7.00000000
-2.76035905 10.73533058 2.15461516 40 11 34558 11.29200000 1895898371 1895898371 11.00000000
-2.65481400 10.33981705 2.46456385 59 13 34560 10.95600000 1895898376 1895898376 13.00000000
-2.28578162 8.90898705 2.46447492 40 15 34561 9.52200000 1895898380 1895898380 15.00000000
-0.54099864 2.12087560 -0.58648396 4 0 34569 2.26600000 1895898401 1895898401 -15.00000000
-0.63829666 2.50596499 -0.59702009 3 2 34571 2.65400000 1895898405 1895898405 -13.00000000
-0.76367456 3.00039005 -0.60181159 4 4 34572 3.15400000 1895898410 1895898410 -11.00000000
-0.94980341 3.73712587 -0.61072016 2 6 34574 3.90400000 1895898415 1895898415 -9.00000000
-1.25249255 4.93531179 -0.62518972 2 8 34576 5.13000000 1895898419 1895898419 -7.00000000
-2.71997523 10.73348141 2.15232539 46 11 34578 11.28000000 1895898426 1895898426 11.00000000
-2.61966109 10.35279942 2.46546364 57 13 34580 10.96000000 1895898431 1895898431 13.00000000
-2.25182819 8.90567398 2.46136904 40 15 34581 9.51000000 1895898435 1895898435 15.00000000
-0.53679025 2.13389874 -0.58958977 4 0 34588 2.27800000 1895898456 1895898456 -15.00000000
-0.63093257 2.51184797 -0.59791988 3 2 34590 2.65800000 1895898461 1895898461 -13.00000000
-0.75563246 3.01052260 -0.60333806 4 4 34591 3.16200000 1895898465 1895898465 -11.00000000
-0.93740547 3.74025512 -0.61072016 2 6 34593 3.90400000 1895898470 1895898470 -9.00000000
-1.23997498 4.95484352 -0.62713963 2 8 34595 5.14600000 1895898475 1895898475 -7.00000000
-2.68341494 10.73863316 2.15156221 43 11 34597 11.27600000 1895898482 1895898482 11.00000000
-2.58437204 10.35764885 2.46456385 59 13 34599 10.95600000 1895898486 1895898486 13.00000000
-2.22212887 8.91910362 2.46292210 40 15 34601 9.51600000 1895898491 1895898491 15.00000000
-0.53119725 2.14326000 -0.59166032 4 0 34608 2.28600000 1895898511 1895898511 -15.00000000
-0.61935192 2.50268483 -0.59522051 3 2 34610 2.64600000 1895898516 1895898516 -13.00000000
-0.74606174 3.01695371 -0.60410130 2 4 34611 3.16600000 1895898521 1895898521 -11.00000000
-0.92813212 3.75884676 -0.61322308 2 6 34613 3.92000000 1895898525 1895898525 -9.00000000
-1.22077096 4.95143223 -0.62616467 2 8 34615 5.13800000 1895898530 1895898530 -7.00000000
-2.64591384 10.74793434 2.15156221 40 11 34617 11.27600000 1895898537 1895898537 11.00000000
-2.54634070 10.35903740 2.46276402 57 13 34619 10.94800000 1895898541 1895898541 13.00000000
-2.18821907 8.91554928 2.45981622 38 15 34621 9.50400000 1895898546 1895898546 15.00000000
-0.52371264 2.14510107 -0.59166032 4 0 34628 2.28600000 1895898567 1895898567 -15.00000000
-0.61061215 2.50483155 -0.59522051 3 2 34630 2.64600000 1895898571 1895898571 -13.00000000
-0.73180896 3.00427961 -0.60104835 2 4 34631 3.15000000 1895898576 1895898576 -11.00000000
-0.91313827 3.75438595 -0.61197162 2 6 34633 3.91200000 1895898581 1895898581 -9.00000000
-1.20160592 4.94794703 -0.62518972 2 8 34635 5.13000000 1895898585 1895898585 -7.00000000
-2.60699248 10.75138092 2.15041733 40 11 34637 11.27000000 1895898592 1895898592 11.00000000
-2.50557971 10.34892178 2.45826507 59 13 34639 10.92800000 1895898597 1895898597 13.00000000
-2.15844655 8.92876625 2.46136904 40 15 34641 9.51000000 1895898601 1895898601 15.00000000
-0.51441509 2.13940287 -0.58958977 4 0 34648 2.27800000 1895898622 1895898622 -15.00000000
-0.60368460 2.51452732 -0.59702009 3 2 34650 2.65400000 1895898627 1895898627 -13.00000000
-0.72040164 3.00299764 -0.60028511 2 4 34651 3.14600000 1895898631 1895898631 -11.00000000
-0.90002745 3.75755048 -0.61197162 2 6 34653 3.91200000 1895898636 1895898636 -9.00000000
-1.19079125 4.97914028 -0.62860209 2 8 34655 5.15800000 1895898641 1895898641 -7.00000000
-2.56899118 10.75850582 2.15003586 40 11 34657 11.26800000 1895898647 1895898647 11.00000000
-2.46853614 10.35381413 2.45736527 60 13 34659 10.92400000 1895898652 1895898652 13.00000000
-2.12413454 8.92309093 2.45774555 38 15 34661 9.49600000 1895898657 1895898657 15.00000000
-0.50769144 2.14100838 -0.58958977 4 0 34666 2.27800000 1895898677 1895898677 -15.00000000
-0.59847581 2.52778935 -0.59971952 3 2 34668 2.66600000 1895898682 1895898682 -13.00000000
-0.71005994 3.00142503 -0.59952188 2 4 34669 3.14200000 1895898687 1895898687 -11.00000000
-0.88912654 3.76420426 -0.61259735 2 6 34671 3.91600000 1895898691 1895898691 -9.00000000
-1.17332029 4.97512865 -0.62762713 2 8 34673 5.15000000 1895898696 1895898696 -7.00000000
-2.53157997 10.75123596 2.14698291 40 11 34675 11.25200000 1895898703 1895898703 11.00000000
-2.43599653 10.36151791 2.45736527 60 13 34677 10.92400000 1895898707 1895898707 13.00000000
-2.09455729 8.91619015 2.45412207 42 15 34678 9.48200000 1895898712 1895898712 15.00000000
-0.50153238 2.14841151 -0.59114271 4 0 34686 2.28400000 1895898733 1895898733 -15.00000000
-0.58522511 2.51088428 -0.59522051 3 2 34688 2.64600000 1895898737 1895898737 -13.00000000
-0.70403177 3.02300620 -0.60333806 2 4 34689 3.16200000 1895898742 1895898742 -11.00000000
-0.87329727 3.75574088 -0.61072016 2 6 34691 3.90400000 1895898746 1895898746 -9.00000000
-1.15953803 4.99466324 -0.62957704 2 8 34693 5.16600000 1895898751 1895898751 -7.00000000
-2.49403572 10.76000690 2.14698291 40 11 34695 11.25200000 1895898758 1895898758 11.00000000
-2.39937377 10.36805916 2.45691538 54 13 34697 10.92200000 1895898763 1895898763 13.00000000
-2.06186366 8.92380714 2.45412207 38 15 34699 9.48200000 1895898767 1895898767 15.00000000
-0.49705815 2.16332865 -0.59476614 4 0 34706 2.29800000 1895898788 1895898788 -15.00000000
-0.57732832 2.51671076 -0.59612030 3 2 34708 2.65000000 1895898793 1895898793 -13.00000000
-0.69786155 3.04458165 -0.60715425 2 4 34709 3.18200000 1895898797 1895898797 -11.00000000
-0.86194468 3.76646876 -0.61197162 2 6 34711 3.91200000 1895898802 1895898802 -9.00000000
-1.12794721 4.93675327 -0.62177742 6 8 34713 5.10200000 1895898806 1895898806 -7.00000000
-2.45209479 10.74950695 2.14316654 40 11 34715 11.23200000 1895898813 1895898813 11.00000000
-2.36057162 10.36497116 2.45421600 52 13 34717 10.91000000 1895898818 1895898818 13.00000000
-2.03097391 8.92494392 2.45256925 40 15 34718 9.47600000 1895898823 1895898823 15.00000000
-0.48865163 2.16128182 -0.59373087 4 0 34726 2.29400000 1895898843 1895898843 -15.00000000
-0.57025623 2.52631426 -0.59791988 3 2 34728 2.65800000 1895898848 1895898848 -13.00000000
-0.68291026 3.02784753 -0.60333806 2 4 34729 3.16200000 1895898852 1895898852 -11.00000000
-0.85226351 3.78487134 -0.61447459 2 6 34731 3.92800000 1895898857 1895898857 -9.00000000
-1.12202835 4.99101591 -0.62811458 2 8 34733 5.15400000 1895898862 1895898862 -7.00000000
-2.41799664 10.77332497 2.14621949 40 11 34735 11.24800000 1895898869 1895898869 11.00000000
-2.32267237 10.36554146 2.45241642 57 13 34737 10.90200000 1895898873 1895898873 13.00000000
-2.00035763 8.94175434 2.45515752 40 15 34739 9.48600000 1895898878 1895898878 15.00000000
-0.47858772 2.15165973 -0.59062505 4 0 34746 2.28200000 1895898899 1895898899 -15.00000000
-0.56227916 2.53209424 -0.59881973 3 2 34748 2.66200000 1895898903 1895898903 -13.00000000
-0.67233694 3.03021288 -0.60333806 2 4 34749 3.16200000 1895898908 1895898908 -11.00000000
-0.84075552 3.79553795 -0.61572605 2 6 34751 3.93600000 1895898912 1895898912 -9.00000000
-1.11060059 5.02203798 -0.63152695 2 8 34753 5.18200000 1895898917 1895898917 -7.00000000
-2.37952948 10.77786541 2.14545631 40 11 34755 11.24400000 1895898924 1895898924 11.00000000
-2.28647566 10.37358570 2.45241642 51 13 34757 10.90200000 1895898929 1895898929 13.00000000
-1.96653962 8.92947197 2.44998097 38 15 34758 9.46600000 1895898933 1895898933 15.00000000
-0.46942264 2.14576840 -0.58855450 4 0 34766 2.27400000 1895898954 1895898954 -15.00000000
-0.55343705 2.53404140 -0.59881973 3 2 34768 2.66200000 1895898958 1895898958 -13.00000000
-0.65924400 3.02103257 -0.60104835 2 4 34769 3.15000000 1895898963 1895898963 -11.00000000
-0.82918340 3.80616999 -0.61697751 2 6 34771 3.94400000 1895898968 1895898968 -9.00000000
-2.33897734 10.77267647 2.14278507 37 11 34775 11.23000000 1895898979 1895898979 11.00000000
-2.24983835 10.37959957 2.45196652 51 13 34777 10.90000000 1895898984 1895898984 13.00000000
-1.93379831 8.93661976 2.44998097 38 15 34779 9.46600000 1895898988 1895898988 15.00000000
-0.46314847 2.15305996 -0.59010744 4 0 34786 2.28000000 1895899009 1895899009 -15.00000000
-0.54376996 2.53214741 -0.59791988 3 2 34788 2.65800000 1895899014 1895899014 -13.00000000
-0.65446079 3.05018926 -0.60639101 2 4 34789 3.17800000 1895899018 1895899018 -11.00000000
-0.80844504 3.77427292 -0.61134589 2 6 34791 3.90800000 1895899023 1895899023 -9.00000000
-2.29849052 10.76733494 2.14011359 37 11 34795 11.21600000 1895899034 1895899034 11.00000000
-2.21359301 10.38739014 2.45196652 53 13 34797 10.90000000 1895899039 1895899039 13.00000000
-1.90173888 8.93164635 2.44687533 36 15 34798 9.45400000 1895899044 1895899044 15.00000000
-0.45722878 2.16222358 -0.59217799 4 0 34806 2.28800000 1895899064 1895899064 -15.00000000
-0.53372025 2.52830982 -0.59657019 3 2 34808 2.65200000 1895899069 1895899069 -13.00000000
-0.64299929 3.04861331 -0.60562778 2 4 34809 3.17400000 1895899074 1895899074 -11.00000000
-0.79770738 3.78867006 -0.61322308 2 6 34811 3.92000000 1895899078 1895899078 -9.00000000
-1.06448305 5.06447458 -0.63542676 2 8 34813 5.21400000 1895899083 1895899083 -7.00000000
-2.25887561 10.76568604 2.13820553 40 11 34815 11.20600000 1895899090 1895899090 11.00000000
-2.17532325 10.38551617 2.44971704 54 13 34817 10.89000000 1895899094 1895899094 13.00000000
-1.86938536 8.94044781 2.44739294 40 15 34819 9.45600000 1895899099 1895899099 15.00000000
-0.45123628 2.16940212 -0.59373087 4 0 34825 2.29400000 1895899120 1895899120 -15.00000000
-0.52691787 2.53769803 -0.59836978 3 2 34827 2.66000000 1895899124 1895899124 -13.00000000
-0.63049346 3.03919482 -0.60333806 2 4 34828 3.16200000 1895899129 1895899129 -11.00000000
-0.78674167 3.79903173 -0.61447459 2 6 34830 3.92800000 1895899134 1895899134 -9.00000000
-1.04446781 5.05242491 -0.63347685 2 8 34832 5.19800000 1895899138 1895899138 -7.00000000
-2.22514677 10.78273106 2.14011359 43 11 34834 11.21600000 1895899145 1895899145 11.00000000
-2.13929892 10.38503838 2.44791746 52 13 34836 10.88200000 1895899150 1895899150 13.00000000
-1.84401500 8.95952129 2.45101643 40 15 34837 9.47000000 1895899154 1895899154 15.00000000
-0.44134009 2.15960765 -0.59062505 4 0 34845 2.28200000 1895899175 1895899175 -15.00000000
-0.51922500 2.54525018 -0.59971952 3 2 34847 2.66600000 1895899180 1895899180 -13.00000000
-0.61909670 3.03752971 -0.60257483 2 4 34848 3.15800000 1895899184 1895899184 -11.00000000
-0.77190048 3.79401207 -0.61322308 2 6 34850 3.92000000 1895899189 1895899189 -9.00000000
-2.18827462 10.79428101 2.14087701 43 11 34854 11.22000000 1895899200 1895899200 11.00000000
-2.10264897 10.39053249 2.44746757 53 13 34856 10.88000000 1895899205 1895899205 13.00000000
-1.80810428 8.95107079 2.44687533 40 15 34858 9.45400000 1895899210 1895899210 15.00000000
-0.43455935 2.16492319 -0.59166032 4 0 34865 2.28600000 1895899230 1895899230 -15.00000000
-0.51263434 2.55851150 -0.60241890 3 2 34867 2.67800000 1895899235 1895899235 -13.00000000
-0.60926068 3.04352236 -0.60333806 2 4 34868 3.16200000 1895899240 1895899240 -11.00000000
-0.76213580 3.81411719 -0.61603892 2 6 34870 3.93800000 1895899244 1895899244 -9.00000000
-2.14981556 10.79800224 2.14011359 43 11 34874 11.21600000 1895899256 1895899256 11.00000000
-2.06712604 10.40163136 2.44836736 50 13 34876 10.88400000 1895899260 1895899260 13.00000000
-1.77765906 8.95322800 2.44583988 40 15 34877 9.45000000 1895899265 1895899265 15.00000000
-0.42699972 2.16642690 -0.59166032 4 0 34885 2.28600000 1895899286 1895899286 -15.00000000
-0.50294799 2.55646133 -0.60151911 3 2 34887 2.67400000 1895899290 1895899290 -13.00000000
-0.60090494 3.05718899 -0.60562778 2 4 34888 3.17400000 1895899295 1895899295 -11.00000000
-0.74691588 3.80706215 -0.61447459 2 6 34890 3.92800000 1895899299 1895899299 -9.00000000
-0.98921365 5.05139685 -0.63201439 2 8 34892 5.18600000 1895899304 1895899304 -7.00000000
-2.10683751 10.77846622 2.13477111 46 11 34894 11.18800000 1895899311 1895899311 11.00000000
-2.03117824 10.41069698 2.44881725 55 13 34896 10.88600000 1895899316 1895899316 13.00000000
-1.74713492 8.96317101 2.44687533 40 15 34897 9.45400000 1895899320 1895899320 15.00000000
-0.42054781 2.17162418 -0.59269559 4 0 34904 2.29000000 1895899341 1895899341 -15.00000000
-0.49150902 2.54280853 -0.59791988 3 2 34906 2.65800000 1895899346 1895899346 -13.00000000
-0.59374166 3.07458591 -0.60868067 2 4 34907 3.19000000 1895899350 1895899350 -11.00000000
-0.73578262 3.81727672 -0.61572605 2 6 34909 3.93600000 1895899355 1895899355 -9.00000000
-2.07256436 10.79310513 2.13629746 46 11 34913 11.19600000 1895899366 1895899366 11.00000000
-1.99591017 10.41354752 2.44791746 53 13 34915 10.88200000 1895899371 1895899371 13.00000000
-1.71958220 8.98029995 2.44998097 38 15 34916 9.46600000 1895899375 1895899375 15.00000000
-0.41440755 2.18067050 -0.59476614 4 0 34924 2.29800000 1895899396 1895899396 -15.00000000
-0.48190364 2.54067945 -0.59702009 3 2 34926 2.65400000 1895899401 1895899401 -13.00000000
-0.58008158 3.06120825 -0.60562778 2 4 34927 3.17400000 1895899405 1895899405 -11.00000000
-0.71914941 3.80235314 -0.61291021 2 6 34929 3.91800000 1895899410 1895899410 -9.00000000
-0.95701659 5.06971693 -0.63347685 2 8 34931 5.19800000 1895899415 1895899415 -7.00000000
-2.03560376 10.80413342 2.13706064 50 11 34933 11.20000000 1895899422 1895899422 11.00000000
-1.95738709 10.40895939 2.44521785 52 13 34935 10.87000000 1895899426 1895899426 13.00000000
-1.68487442 8.97704887 2.44739294 38 15 34937 9.45600000 1895899431 1895899431 15.00000000
-0.40537691 2.17450714 -0.59269559 4 0 34944 2.29000000 1895899452 1895899452 -15.00000000
-0.47588384 2.55767298 -0.60061932 3 2 34946 2.67000000 1895899456 1895899456 -13.00000000
-0.56867486 3.05935407 -0.60486454 2 4 34947 3.17000000 1895899461 1895899461 -11.00000000
-0.71019626 3.82814717 -0.61666465 2 6 34949 3.94200000 1895899465 1895899465 -9.00000000
-0.93931413 5.07302666 -0.63347685 2 8 34951 5.19800000 1895899470 1895899470 -7.00000000
-1.99930489 10.81889534 2.13858724 46 11 34953 11.20800000 1895899477 1895899477 11.00000000
-1.92174804 10.41956139 2.44611788 55 13 34955 10.87400000 1895899481 1895899481 13.00000000
-1.65369594 8.97498703 2.44532228 40 15 34956 9.44800000 1895899486 1895899486 15.00000000
-0.39639434 2.16830754 -0.59062505 4 0 34964 2.28200000 1895899507 1895899507 -15.00000000
-0.46835211 2.56698680 -0.60241890 3 2 34966 2.67800000 1895899511 1895899511 -13.00000000
-0.56010449 3.07290912 -0.60715425 2 4 34967 3.18200000 1895899516 1895899516 -11.00000000
-0.69647563 3.82865930 -0.61635178 2 6 34969 3.94000000 1895899521 1895899521 -9.00000000
-0.92443705 5.09189987 -0.63542676 2 8 34971 5.21400000 1895899525 1895899525 -7.00000000
-1.35325885 7.46130657 -0.66342950 4 10 34972 7.61200000 1895899530 1895899530 -5.00000000
-1.96012759 10.81808090 2.13706064 43 11 34973 11.20000000 1895899532 1895899532 11.00000000
-1.88467169 10.42237091 2.44521785 51 13 34975 10.87000000 1895899537 1895899537 13.00000000
-1.62029684 8.96929836 2.44221640 42 15 34976 9.43600000 1895899541 1895899541 15.00000000
-0.38882312 2.16967797 -0.59062505 4 0 34984 2.28200000 1895899563 1895899563 -15.00000000
-0.45870262 2.56476951 -0.60151911 3 2 34986 2.67400000 1895899568 1895899568 -13.00000000
-0.54868406 3.07098031 -0.60639101 2 4 34987 3.17800000 1895899572 1895899572 -11.00000000
-0.68518740 3.84273529 -0.61822903 2 6 34989 3.95200000 1895899577 1895899577 -9.00000000
-0.91430849 5.13809252 -0.64078903 2 8 34991 5.25800000 1895899581 1895899581 -7.00000000
-1.32511353 7.45421505 -0.66238362 4 10 34992 7.60000000 1895899586 1895899586 -5.00000000
-1.91960728 10.80939293 2.13400769 46 11 34993 11.18400000 1895899588 1895899588 11.00000000
-1.84827936 10.42888641 2.44521785 55 13 34995 10.87000000 1895899593 1895899593 13.00000000
-1.58897817 8.97489929 2.44221640 42 15 34996 9.43600000 1895899598 1895899598 15.00000000
-0.38258371 2.17863297 -0.59269559 4 0 35004 2.29000000 1895899618 1895899618 -15.00000000
-0.44806519 2.55675769 -0.59926963 3 2 35006 2.66400000 1895899623 1895899623 -13.00000000
-0.54202360 3.09608293 -0.61097038 2 4 35007 3.20200000 1895899628 1895899628 -11.00000000
-0.66904986 3.82953644 -0.61572605 2 6 35009 3.93600000 1895899632 1895899632 -9.00000000
-0.88613898 5.08258486 -0.63347685 2 8 35011 5.19800000 1895899637 1895899637 -7.00000000
-1.88186383 10.81602764 2.13400769 46 11 35013 11.18400000 1895899644 1895899644 11.00000000
-1.81186450 10.43527508 2.44521785 54 13 35015 10.87000000 1895899648 1895899648 13.00000000
-1.55541325 8.97685623 2.44118118 45 15 35017 9.43200000 1895899653 1895899653 15.00000000
-0.37759644 2.19518638 -0.59683675 4 0 35024 2.30600000 1895899674 1895899674 -15.00000000
-0.44012675 2.56406808 -0.60061932 3 2 35026 2.67000000 1895899678 1895899678 -13.00000000
-0.52524054 3.06312585 -0.60410130 2 4 35027 3.16600000 1895899683 1895899683 -11.00000000
-0.65967625 3.85521340 -0.61948049 2 6 35029 3.96000000 1895899687 1895899687 -9.00000000
-0.87039679 5.09738779 -0.63493925 2 8 35031 5.21000000 1895899692 1895899692 -7.00000000
-1.29381216 7.58505392 -0.67319095 4 10 35032 7.72400000 1895899697 1895899697 -5.00000000
-1.84112942 10.80511284 2.13057327 50 11 35033 11.16600000 1895899699 1895899699 11.00000000
-1.77412093 10.43385124 2.44341826 53 13 35035 10.86200000 1895899704 1895899704 13.00000000
-1.52563643 8.98196507 2.44118118 42 15 35036 9.43200000 1895899708 1895899708 15.00000000
-0.36800647 2.18506074 -0.59373087 4 0 35044 2.29400000 1895899729 1895899729 -15.00000000
-0.43278870 2.57519770 -0.60286885 3 2 35046 2.68000000 1895899733 1895899733 -13.00000000
-0.51454502 3.06494069 -0.60410130 2 4 35047 3.16600000 1895899738 1895899738 -11.00000000
-0.64588869 3.85554457 -0.61916763 2 6 35049 3.95800000 1895899743 1895899743 -9.00000000
-0.85587126 5.11997414 -0.63737667 2 8 35051 5.23000000 1895899747 1895899747 -7.00000000
-1.80630839 10.82890224 2.13400769 40 11 35053 11.18400000 1895899754 1895899754 11.00000000
-1.73800910 10.44190216 2.44386816 55 13 35055 10.86400000 1895899759 1895899759 13.00000000
-1.49173939 8.97198963 2.43704009 40 15 35056 9.41600000 1895899763 1895899763 15.00000000
-0.35887137 2.17483282 -0.59062505 4 0 35063 2.28200000 1895899784 1895899784 -15.00000000
-0.42424664 2.57661867 -0.60286885 3 2 35065 2.68000000 1895899789 1895899789 -13.00000000
-0.50565302 3.07437897 -0.60562778 4 4 35066 3.17400000 1895899793 1895899793 -11.00000000
-0.63150012 3.84791875 -0.61760324 2 6 35068 3.94800000 1895899798 1895899798 -9.00000000
-0.83888811 5.12278414 -0.63737667 2 8 35070 5.23000000 1895899803 1895899803 -7.00000000
-1.76912224 10.82708168 2.13248134 43 11 35072 11.17600000 1895899810 1895899810 11.00000000
-1.70243227 10.44183826 2.44251847 54 13 35074 10.85800000 1895899814 1895899814 13.00000000
-1.45731020 8.95807457 2.43186378 40 15 35076 9.39600000 1895899819 1895899819 15.00000000
-0.35250908 2.18370080 -0.59269559 4 0 35083 2.29000000 1895899839 1895899839 -15.00000000
-0.41277087 2.56269240 -0.59926963 3 2 35085 2.66400000 1895899844 1895899844 -13.00000000
-0.49866062 3.09938526 -0.61020714 2 4 35086 3.19800000 1895899849 1895899849 -11.00000000
-0.62150866 3.87155390 -0.62104481 2 6 35088 3.97000000 1895899853 1895899853 -9.00000000
-0.82288486 5.13744211 -0.63883913 2 8 35090 5.24200000 1895899858 1895899858 -7.00000000
-1.72821951 10.81380463 2.12866521 43 11 35092 11.15600000 1895899865 1895899865 11.00000000
-1.66658676 10.45156670 2.44341826 53 13 35094 10.86200000 1895899869 1895899869 13.00000000
-1.42724597 8.97073841 2.43393421 40 15 35096 9.40400000 1895899874 1895899874 15.00000000
-0.34608924 2.19255090 -0.59476614 4 0 35103 2.29800000 1895899895 1895899895 -15.00000000
-0.40351972 2.56219268 -0.59881973 3 2 35105 2.66200000 1895899899 1895899899 -13.00000000
-0.48600817 3.08947062 -0.60791749 2 4 35106 3.18600000 1895899904 1895899904 -11.00000000
-0.60707176 3.86784554 -0.62010622 2 6 35108 3.96400000 1895899909 1895899909 -9.00000000
-0.80310416 5.12851572 -0.63737667 2 8 35110 5.23000000 1895899913 1895899913 -7.00000000
-1.18910897 7.60217142 -0.67319095 4 10 35111 7.72400000 1895899918 1895899918 -5.00000000
-1.69106793 10.82365131 2.12942839 43 11 35112 11.16000000 1895899920 1895899920 11.00000000
-1.62949359 10.45346928 2.44251847 55 13 35114 10.85800000 1895899925 1895899925 13.00000000
-1.39562666 8.97375679 2.43341660 45 15 35116 9.40200000 1895899929 1895899929 15.00000000
-0.33961189 2.20138264 -0.59683675 4 0 35123 2.30600000 1895899950 1895899950 -15.00000000
-0.39724159 2.58091998 -0.60286885 3 2 35125 2.68000000 1895899955 1895899955 -13.00000000
-0.47581759 3.09502912 -0.60868067 2 4 35126 3.19000000 1895899959 1895899959 -11.00000000
-0.59416568 3.87384605 -0.62073195 2 6 35128 3.96800000 1895899964 1895899964 -9.00000000
-0.78940111 5.15875959 -0.64078903 2 8 35130 5.25800000 1895899969 1895899969 -7.00000000
-1.65268350 10.82560635 2.12866521 43 11 35132 11.15600000 1895899975 1895899975 11.00000000
-1.59182048 10.45138741 2.44071889 55 13 35134 10.85000000 1895899980 1895899980 13.00000000
-1.36458409 8.98048401 2.43393421 42 15 35136 9.40400000 1895899985 1895899985 15.00000000
-0.33019826 2.19109297 -0.59373087 4 0 35143 2.29400000 1895900005 1895900005 -15.00000000
-0.38794035 2.58036399 -0.60241890 3 2 35145 2.67800000 1895900010 1895900010 -13.00000000
-0.46442792 3.09278822 -0.60791749 2 4 35146 3.18600000 1895900015 1895900015 -11.00000000
-0.58356643 3.89543223 -0.62386066 2 6 35148 3.98800000 1895900019 1895900019 -9.00000000
-0.77256256 5.16933680 -0.64176399 2 8 35150 5.26600000 1895900024 1895900024 -7.00000000
-1.61604297 10.83907700 2.13019156 40 11 35152 11.16400000 1895900031 1895900031 11.00000000
-1.55446851 10.45109749 2.43936920 54 13 35154 10.84400000 1895900035 1895900035 13.00000000
-1.33252525 8.96967220 2.42979312 40 15 35155 9.38800000 1895900040 1895900040 15.00000000
-0.32086065 2.18076468 -0.59062505 4 0 35163 2.28200000 1895900061 1895900061 -15.00000000
-0.37893084 2.58170223 -0.60241890 3 2 35165 2.67800000 1895900065 1895900065 -13.00000000
-0.45533785 3.10604548 -0.61020714 2 4 35166 3.19800000 1895900070 1895900070 -11.00000000
-0.56910777 3.89158177 -0.62292206 2 6 35168 3.98200000 1895900074 1895900074 -9.00000000
-0.75565976 5.17985916 -0.64273894 2 8 35170 5.27400000 1895900079 1895900079 -7.00000000
-1.10943544 7.61420679 -0.67319095 4 10 35171 7.72400000 1895900084 1895900084 -5.00000000
-1.57650137 10.83299541 2.12790203 43 11 35172 11.15200000 1895900086 1895900086 11.00000000
-1.51797795 10.45646000 2.43936920 54 13 35174 10.84400000 1895900091 1895900091 13.00000000
-1.29797959 8.96302509 2.42668748 45 15 35176 9.37600000 1895900095 1895900095 15.00000000
-0.31538403 2.19132257 -0.59321326 4 0 35181 2.29200000 1895900116 1895900116 -15.00000000
-0.37081832 2.58288002 -0.60241890 3 2 35183 2.67800000 1895900121 1895900121 -13.00000000
-0.44669232 3.11523414 -0.61173362 2 4 35184 3.20600000 1895900125 1895900125 -11.00000000
-0.55436194 3.87575126 -0.62010622 2 6 35186 3.96400000 1895900130 1895900130 -9.00000000
-0.73826146 5.17434692 -0.64176399 2 8 35188 5.26600000 1895900134 1895900134 -7.00000000
-1.08550930 7.61765432 -0.67319095 4 10 35189 7.72400000 1895900139 1895900139 -5.00000000
-1.54080105 10.82623196 2.12561226 43 11 35190 11.14000000 1895900141 1895900141 11.00000000
-1.48539448 10.46310711 2.43981910 55 13 35192 10.84600000 1895900146 1895900146 13.00000000
-1.27138007 8.96683693 2.42668748 42 15 35193 9.37600000 1895900151 1895900151 15.00000000
-0.30827001 2.19623637 -0.59424853 4 0 35201 2.29600000 1895900171 1895900171 -15.00000000
-0.36098954 2.57836890 -0.60106921 3 2 35203 2.67200000 1895900176 1895900176 -13.00000000
-0.43472791 3.10899711 -0.61020714 2 4 35204 3.19800000 1895900180 1895900180 -11.00000000
-0.54164827 3.88353205 -0.62104481 2 6 35206 3.97000000 1895900185 1895900185 -9.00000000
-0.72128922 5.18475676 -0.64273894 2 8 35208 5.27400000 1895900190 1895900190 -7.00000000
-1.05891204 7.62139702 -0.67319095 4 10 35209 7.72400000 1895900194 1895900194 -5.00000000
-1.50300097 10.83154488 2.12561226 43 11 35210 11.14000000 1895900197 1895900197 11.00000000
-1.44725931 10.45664597 2.43711972 55 13 35212 10.83400000 1895900201 1895900201 13.00000000
-1.23956311 8.97909069 2.42875791 40 15 35214 9.38400000 1895900206 1895900206 15.00000000
-0.30166307 2.21080256 -0.59787202 4 0 35223 2.31000000 1895900227 1895900227 -15.00000000
-0.35056108 2.57587409 -0.60016942 3 2 35225 2.66800000 1895900231 1895900231 -13.00000000
-0.42225823 3.10675263 -0.60944390 2 4 35226 3.19400000 1895900236 1895900236 -11.00000000
-0.52859014 3.89928532 -0.62323493 2 6 35228 3.98400000 1895900240 1895900240 -9.00000000
-0.70243984 5.19535685 -0.64371389 2 8 35230 5.28200000 1895900245 1895900245 -7.00000000
-1.02964032 7.62540674 -0.67319095 4 10 35231 7.72400000 1895900250 1895900250 -5.00000000
-1.46087515 10.83334446 2.12484908 43 11 35232 11.13600000 1895900252 1895900252 11.00000000
-1.40657866 10.45826340 2.43621993 55 13 35234 10.83000000 1895900257 1895900257 13.00000000
-1.20664477 8.98357391 2.42875791 42 15 35235 9.38400000 1895900261 1895900261 15.00000000
-0.29292613 2.20418215 -0.59580141 4 0 35243 2.30200000 1895900282 1895900282 -15.00000000
-0.34361586 2.59253693 -0.60376865 3 2 35245 2.68400000 1895900286 1895900286 -13.00000000
-0.41141105 3.10820770 -0.60944390 2 4 35246 3.19400000 1895900291 1895900291 -11.00000000
-0.51290768 3.88543963 -0.62073195 2 6 35248 3.96800000 1895900296 1895900296 -9.00000000
-0.68378216 5.19384098 -0.64322639 2 8 35250 5.27800000 1895900300 1895900300 -7.00000000
-1.00301635 7.62895441 -0.67319095 4 10 35251 7.72400000 1895900305 1895900305 -5.00000000
-1.42407310 10.84616470 2.12637544 43 11 35252 11.14400000 1895900307 1895900307 11.00000000
-1.36930490 10.45731258 2.43487024 54 13 35254 10.82400000 1895900312 1895900312 13.00000000
-1.17170906 8.97261143 2.42461681 45 15 35256 9.36800000 1895900316 1895900316 15.00000000
-0.28462261 2.19747806 -0.59373087 4 0 35262 2.29400000 1895900337 1895900337 -15.00000000
-0.33501679 2.59366202 -0.60376865 3 2 35264 2.68400000 1895900342 1895900342 -13.00000000
-0.40160394 3.11344910 -0.61020714 2 4 35265 3.19800000 1895900346 1895900346 -11.00000000
-0.50052434 3.89103770 -0.62135768 2 6 35267 3.97200000 1895900351 1895900351 -9.00000000
-0.66554469 5.18820429 -0.64225143 2 8 35269 5.27000000 1895900356 1895900356 -7.00000000
-1.38510871 10.82745838 2.12179613 43 11 35271 11.12000000 1895900362 1895900362 11.00000000
-1.33585262 10.47146130 2.43711972 56 13 35273 10.83400000 1895900367 1895900367 13.00000000
-1.14156199 8.96091747 2.42047572 42 15 35274 9.35200000 1895900372 1895900372 15.00000000
-0.27598441 2.19079137 -0.59166032 4 0 35282 2.28600000 1895900392 1895900392 -15.00000000
-0.32401806 2.57934737 -0.60016942 3 2 35284 2.66800000 1895900397 1895900397 -13.00000000
-0.38975608 3.10704017 -0.60868067 2 4 35285 3.19000000 1895900402 1895900402 -11.00000000
-0.48742941 3.89668131 -0.62198341 2 6 35287 3.97600000 1895900406 1895900406 -9.00000000
-0.64595622 5.17867708 -0.64078903 2 8 35289 5.25800000 1895900411 1895900411 -7.00000000
-1.34512448 10.81469345 2.11836147 40 11 35291 11.10200000 1895900418 1895900418 11.00000000
-1.29977202 10.47992802 2.43801951 55 13 35293 10.83800000 1895900422 1895900422 13.00000000
-1.10871089 8.96504116 2.42047572 42 15 35295 9.35200000 1895900427 1895900427 15.00000000
-0.26974401 2.20324659 -0.59476614 4 0 35302 2.29800000 1895900448 1895900448 -15.00000000
-0.31619319 2.59013462 -0.60241890 3 2 35304 2.67800000 1895900452 1895900452 -13.00000000
-0.38080859 3.12397218 -0.61173362 2 4 35305 3.20600000 1895900457 1895900457 -11.00000000
-0.47334778 3.89443707 -0.62135768 2 6 35307 3.97200000 1895900462 1895900462 -9.00000000
-0.62978590 5.19666529 -0.64273894 2 8 35309 5.27400000 1895900466 1895900466 -7.00000000
-1.30736601 10.81932259 2.11836147 40 11 35311 11.10200000 1895900473 1895900473 11.00000000
-1.26178372 10.47279263 2.43532014 57 13 35313 10.82600000 1895900478 1895900478 13.00000000
-1.07851422 8.96483231 2.41944051 42 15 35314 9.34800000 1895900482 1895900482 15.00000000
-0.26296389 2.21184802 -0.59683675 4 0 35322 2.30600000 1895900503 1895900503 -15.00000000
-0.30692062 2.58928728 -0.60196900 3 2 35324 2.67600000 1895900508 1895900508 -13.00000000
-0.36944005 3.12138319 -0.61097038 2 4 35325 3.20200000 1895900512 1895900512 -11.00000000
-0.46113977 3.90783620 -0.62323493 2 6 35327 3.98400000 1895900517 1895900517 -9.00000000
-0.60885900 5.17517424 -0.63981408 2 8 35329 5.25000000 1895900521 1895900521 -7.00000000
-1.26913404 10.81992054 2.11759830 40 11 35331 11.09800000 1895900528 1895900528 11.00000000
-1.22386110 10.46551991 2.43262076 59 13 35333 10.81400000 1895900533 1895900533 13.00000000
-1.04699147 8.98023796 2.42254615 45 15 35335 9.36000000 1895900538 1895900538 15.00000000
-0.25518426 2.20886970 -0.59580141 4 0 35341 2.30200000 1895900558 1895900558 -15.00000000
-0.29967034 2.60190654 -0.60466844 3 2 35343 2.68800000 1895900563 1895900563 -13.00000000
-0.35818997 3.11478949 -0.60944390 2 4 35344 3.19400000 1895900568 1895900568 -11.00000000
-0.44907832 3.91719413 -0.62448639 2 6 35346 3.99200000 1895900572 1895900572 -9.00000000
-0.59259576 5.18505383 -0.64078903 2 8 35348 5.25800000 1895900577 1895900577 -7.00000000
-0.87238866 7.64499378 -0.67319095 4 10 35349 7.72400000 1895900581 1895900581 -5.00000000
-1.23391366 10.82992172 2.11874318 40 11 35350 11.10400000 1895900584 1895900584 11.00000000
-1.18914938 10.46952152 2.43262076 59 13 35352 10.81400000 1895900588 1895900588 13.00000000
-1.01746798 8.97196579 2.41944051 45 15 35353 9.34800000 1895900593 1895900593 15.00000000
-0.24575227 2.19438815 -0.59166032 4 0 35361 2.28600000 1895900614 1895900614 -15.00000000
-0.29058617 2.60293674 -0.60466844 3 2 35363 2.68800000 1895900618 1895900618 -13.00000000
-0.34775013 3.11992335 -0.61020714 2 4 35364 3.19800000 1895900623 1895900623 -11.00000000
-0.43278438 3.89517832 -0.62073195 2 6 35366 3.96800000 1895900627 1895900627 -9.00000000
-0.57536703 5.19498301 -0.64176399 2 8 35368 5.26600000 1895900632 1895900632 -7.00000000
-0.84569734 7.64799213 -0.67319095 4 10 35369 7.72400000 1895900637 1895900637 -5.00000000
-1.19524097 10.82635689 2.11721659 43 11 35370 11.09600000 1895900639 1895900639 11.00000000
-1.15302312 10.47748280 2.43352056 60 13 35372 10.81800000 1895900644 1895900644 13.00000000
-0.98487788 8.96394062 2.41633463 40 15 35373 9.33600000 1895900648 1895900648 15.00000000
-0.23996566 2.21251798 -0.59631908 3 0 35381 2.30400000 1895900669 1895900669 -15.00000000
-0.28087011 2.59812284 -0.60331875 3 2 35383 2.68200000 1895900674 1895900674 -13.00000000
-0.33559343 3.10940671 -0.60791749 2 4 35384 3.18600000 1895900678 1895900678 -11.00000000
-0.42087531 3.91237760 -0.62323493 2 6 35386 3.98400000 1895900683 1895900683 -9.00000000
-0.55765289 5.20090723 -0.64225143 2 8 35388 5.27000000 1895900687 1895900687 -7.00000000
-1.15660810 10.82265472 2.11569023 43 11 35390 11.08800000 1895900694 1895900694 11.00000000
-1.11644280 10.48144341 2.43352056 57 13 35392 10.81800000 1895900699 1895900699 13.00000000
-0.95317328 8.96348190 2.41529942 42 15 35393 9.33200000 1895900703 1895900703 15.00000000
-0.23203948 2.21142077 -0.59580141 4 0 35401 2.30200000 1895900724 1895900724 -15.00000000
-0.27200195 2.60102558 -0.60376865 3 2 35403 2.68400000 1895900729 1895900729 -13.00000000
-0.32677606 3.13008547 -0.61173362 2 4 35404 3.20600000 1895900733 1895900733 -11.00000000
