# .PCD v0.7 - Point Cloud Data file format
VERSION 0.7
FIELDS x y z intensity laser_id azimuth distance_m adjustedtime timestamp vertical_angle
SIZE 4 4 4 1 1 2 8 8 4 8
TYPE F F F U U U F U U F
COUNT 1 1 1 1 1 1 1 1 1 1
WIDTH 518
HEIGHT 1
VIEWPOINT 0 0 0 1 0 0 0
POINTS 518
DATA ascii
-1.86740708 -1.15964711 -0.50748956 4 2 23816 2.25600000 1896868631 1896868631 -13.00000000
-2.18509793 -1.35640252 -0.49991956 3 4 23817 2.62000000 1896868636 1896868636 -11.00000000
-2.60194850 -1.61390519 -0.48494685 2 6 23819 3.10000000 1896868640 1896868640 -9.00000000
-3.26154709 -2.02145672 -0.47114688 1 8 23821 3.86600000 1896868645 1896868645 -7.00000000
-4.25792027 -2.63796544 -0.43821907 6 10 23822 5.02800000 1896868650 1896868650 -5.00000000
-6.25103807 -3.86976886 -0.38529730 3 12 23824 7.36200000 1896868654 1896868654 -3.00000000
-9.85854626 -6.09827471 -0.20234320 14 14 23826 11.59400000 1896868659 1896868659 -1.00000000
-7.91485643 -4.89404202 2.49346256 36 15 23827 9.63400000 1896868661 1896868661 15.00000000
-1.62937462 -1.00514412 -0.51297933 4 0 23833 1.98200000 1896868682 1896868682 -15.00000000
-1.86294782 -1.14833534 -0.50524008 4 2 23835 2.24600000 1896868686 1896868686 -13.00000000
-2.19626951 -1.35326862 -0.50144607 3 4 23836 2.62800000 1896868691 1896868691 -11.00000000
-2.61401463 -1.60941064 -0.48619831 2 6 23838 3.10800000 1896868696 1896868696 -9.00000000
-3.25132489 -2.00022840 -0.46870950 1 8 23840 3.84600000 1896868700 1896868700 -7.00000000
-4.28191948 -2.63322425 -0.43978786 3 10 23841 5.04600000 1896868705 1896868705 -5.00000000
-6.24681997 -3.83856201 -0.38425058 3 12 23843 7.34200000 1896868709 1896868709 -3.00000000
-9.86337852 -6.05613184 -0.20202906 12 14 23845 11.57600000 1896868714 1896868714 -1.00000000
-7.92774916 -4.86574745 2.49242735 36 15 23846 9.63000000 1896868716 1896868716 15.00000000
-1.65099800 -1.01054418 -0.51867336 5 0 23853 2.00400000 1896868737 1896868737 -15.00000000
-1.87858212 -1.14894283 -0.50838935 4 2 23855 2.26000000 1896868742 1896868742 -13.00000000
-2.18757987 -1.33740151 -0.49839309 3 4 23856 2.61200000 1896868746 1896868746 -11.00000000
-2.61961651 -1.60027623 -0.48619831 2 6 23858 3.10800000 1896868751 1896868751 -9.00000000
-3.24812102 -1.98266149 -0.46724707 1 8 23860 3.83400000 1896868756 1896868756 -7.00000000
-4.29788780 -2.62241244 -0.44048512 3 10 23861 5.05400000 1896868760 1896868760 -5.00000000
-6.26188612 -3.81777263 -0.38435528 3 12 23863 7.34400000 1896868765 1896868765 -3.00000000
-9.85713387 -6.00501966 -0.20147058 17 14 23865 11.54400000 1896868769 1896868769 -1.00000000
-7.94798565 -4.84005404 2.49346256 36 15 23866 9.63400000 1896868772 1896868772 15.00000000
-1.64130569 -0.99675280 -0.51453227 5 0 23873 1.98800000 1896868792 1896868792 -15.00000000
-1.88757920 -1.14541113 -0.50973910 4 2 23875 2.26600000 1896868797 1896868797 -13.00000000
-2.19559216 -1.33179367 -0.49915633 3 4 23876 2.61600000 1896868802 1896868802 -11.00000000
-2.63363314 -1.59624171 -0.48776266 2 6 23878 3.11800000 1896868806 1896868806 -9.00000000
-3.24992800 -1.96822631 -0.46651584 1 8 23880 3.82800000 1896868811 1896868811 -7.00000000
-4.29849386 -2.60223508 -0.43961358 6 10 23881 5.04400000 1896868815 1896868815 -5.00000000
-6.27688360 -3.79692507 -0.38445994 3 12 23883 7.34600000 1896868820 1896868820 -3.00000000
-9.85065365 -5.95402479 -0.20091210 17 14 23885 11.51200000 1896868825 1896868825 -1.00000000
-7.96068525 -4.81167269 2.49242735 36 15 23885 9.63000000 1896868827 1896868827 15.00000000
-1.64146566 -0.98902351 -0.51349699 5 0 23893 1.98400000 1896868848 1896868848 -15.00000000
-1.90158308 -1.14484608 -0.51243848 4 2 23895 2.27800000 1896868852 1896868852 -13.00000000
-2.20359182 -1.32614625 -0.49991956 3 4 23896 2.62000000 1896868857 1896868857 -11.00000000
-2.63411045 -1.58398497 -0.48682407 2 6 23898 3.11200000 1896868861 1896868861 -9.00000000
-3.24997234 -1.95278037 -0.46554089 1 8 23900 3.82000000 1896868866 1896868866 -7.00000000
-4.29388714 -2.57900786 -0.43821907 9 10 23901 5.02800000 1896868871 1896868871 -5.00000000
-6.29181147 -3.77601933 -0.38456461 3 12 23903 7.34800000 1896868875 1896868875 -3.00000000
-9.85251236 -5.90829039 -0.20052814 19 14 23905 11.49000000 1896868880 1896868880 -1.00000000
-7.96501207 -4.77451706 2.48828626 38 15 23906 9.61400000 1896868882 1896868882 15.00000000
-1.64342117 -0.98200965 -0.51297933 4 0 23914 1.98200000 1896868903 1896868903 -15.00000000
-1.89405406 -1.13087571 -0.50928921 4 2 23916 2.26400000 1896868908 1896868908 -13.00000000
-2.20843744 -1.31806076 -0.49991956 3 4 23917 2.62000000 1896868912 1896868912 -11.00000000
-2.63989830 -1.57431984 -0.48682407 2 6 23919 3.11200000 1896868917 1896868917 -9.00000000
-3.27757144 -1.95304942 -0.46846575 1 8 23921 3.84400000 1896868921 1896868921 -7.00000000
-4.31529284 -2.57038975 -0.43943927 9 10 23922 5.04200000 1896868926 1896868926 -5.00000000
-6.29187870 -3.74476147 -0.38372722 3 12 23924 7.33200000 1896868931 1896868931 -3.00000000
-9.85691357 -5.86191845 -0.20017910 17 14 23926 11.47000000 1896868935 1896868935 -1.00000000
-7.98162985 -4.74668455 2.48828626 38 15 23926 9.61400000 1896868938 1896868938 15.00000000
-1.65680981 -0.98217785 -0.51608515 5 0 23934 1.99400000 1896868958 1896868958 -15.00000000
-1.88960660 -1.11929154 -0.50703967 4 2 23936 2.25400000 1896868963 1896868963 -13.00000000
-2.21640372 -1.31234431 -0.50068283 3 4 23937 2.62400000 1896868967 1896868967 -11.00000000
-2.65217805 -1.56911862 -0.48807552 2 6 23939 3.12000000 1896868972 1896868972 -9.00000000
-3.28436875 -1.94159663 -0.46846575 1 8 23941 3.84400000 1896868977 1896868977 -7.00000000
-4.33109999 -2.55936527 -0.44013649 6 10 23942 5.05000000 1896868981 1896868981 -5.00000000
-6.31523132 -3.72886896 -0.38435528 3 12 23944 7.34400000 1896868986 1896868986 -3.00000000
-9.85492516 -5.81426573 -0.19972534 12 14 23946 11.44400000 1896868991 1896868991 -1.00000000
-8.00230122 -4.71936131 2.48932147 36 15 23947 9.61800000 1896868993 1896868993 15.00000000
-1.66505289 -0.97961712 -0.51763809 4 0 23953 2.00000000 1896869014 1896869014 -15.00000000
-1.89834774 -1.11598206 -0.50838935 4 2 23955 2.26000000 1896869018 1896869018 -13.00000000
-2.21058750 -1.29901934 -0.49839309 3 4 23956 2.61200000 1896869023 1896869023 -11.00000000
-2.65395999 -1.55831468 -0.48744980 2 6 23958 3.11600000 1896869027 1896869027 -9.00000000
-3.28051639 -1.92466748 -0.46700332 1 8 23960 3.83200000 1896869032 1896869032 -7.00000000
-4.33784485 -2.54398084 -0.43996218 6 10 23961 5.04800000 1896869037 1896869037 -5.00000000
-6.33962393 -3.71497464 -0.38508797 3 12 23963 7.35800000 1896869041 1896869041 -3.00000000
-9.85344410 -5.76942873 -0.19930649 12 14 23965 11.42000000 1896869046 1896869046 -1.00000000
-8.01708794 -4.69419813 2.48932147 38 15 23965 9.61800000 1896869048 1896869048 15.00000000
-1.65511453 -0.96600866 -0.51349699 5 0 23973 1.98400000 1896869069 1896869069 -15.00000000
-1.90728188 -1.11229396 -0.50973910 4 2 23975 2.26600000 1896869073 1896869073 -13.00000000
-2.22189283 -1.29524994 -0.49991956 3 4 23976 2.62000000 1896869078 1896869078 -11.00000000
-2.66279721 -1.55102968 -0.48807552 2 6 23978 3.12000000 1896869083 1896869083 -9.00000000
-3.27692056 -1.90721333 -0.46554089 1 8 23980 3.82000000 1896869087 1896869087 -7.00000000
-4.35358715 -2.53283119 -0.44065943 6 10 23981 5.05600000 1896869092 1896869092 -5.00000000
-6.34219313 -3.68680024 -0.38445994 3 12 23983 7.34600000 1896869096 1896869096 -3.00000000
-9.42044926 -5.47403097 2.51540279 2 13 23984 11.18200000 1896869099 1896869099 13.00000000
-9.84412766 -5.71792459 -0.19871309 14 14 23985 11.38600000 1896869101 1896869101 -1.00000000
-8.03758049 -4.66672277 2.49035692 36 15 23986 9.62200000 1896869103 1896869103 15.00000000
-1.65195596 -0.95606518 -0.51142645 4 0 23994 1.97600000 1896869124 1896869124 -15.00000000
-1.91640675 -1.10822260 -0.51108879 4 2 23996 2.27200000 1896869129 1896869129 -13.00000000
-2.22662520 -1.28709769 -0.49991956 3 4 23997 2.62000000 1896869133 1896869133 -11.00000000
-2.64793754 -1.52940369 -0.48432112 2 6 23999 3.09600000 1896869138 1896869138 -9.00000000
-3.31139803 -1.91106594 -0.46944070 1 8 24001 3.85200000 1896869143 1896869143 -7.00000000
-4.35766363 -2.51387072 -0.44013649 6 10 24002 5.05000000 1896869147 1896869147 -5.00000000
-6.35047197 -3.66053772 -0.38414592 3 12 24004 7.34000000 1896869152 1896869152 -3.00000000
-9.84942341 -5.67282295 -0.19839896 12 14 24006 11.36800000 1896869156 1896869156 -1.00000000
-8.04042912 -4.63092422 2.48621583 38 15 24006 9.60600000 1896869159 1896869159 15.00000000
-1.66198468 -0.95414031 -0.51349699 4 0 24014 1.98400000 1896869179 1896869179 -15.00000000
-1.91350210 -1.09764767 -0.50928921 4 2 24016 2.26400000 1896869184 1896869184 -13.00000000
-2.22769833 -1.27736425 -0.49915633 3 4 24017 2.61600000 1896869189 1896869189 -11.00000000
-2.67382789 -1.53193545 -0.48807552 2 6 24019 3.12000000 1896869193 1896869193 -9.00000000
-3.31977129 -1.90048158 -0.46968445 1 8 24021 3.85400000 1896869198 1896869198 -7.00000000
-4.36987066 -2.50062346 -0.44048512 6 10 24022 5.05400000 1896869202 1896869202 -5.00000000
-10.09541416 -5.77468061 2.26070499 12 11 24023 11.84800000 1896869205 1896869205 11.00000000
-6.36841249 -3.64132237 -0.38445994 3 12 24024 7.34600000 1896869207 1896869207 -3.00000000
-9.85006618 -5.62749577 -0.19801500 14 14 24026 11.34600000 1896869212 1896869212 -1.00000000
-8.07412434 -4.61100388 2.49139214 36 15 24027 9.62600000 1896869214 1896869214 15.00000000
-1.67386520 -0.95282084 -0.51608515 5 0 24035 1.99400000 1896869235 1896869235 -15.00000000
-1.90734875 -1.08484626 -0.50658977 4 2 24037 2.25200000 1896869239 1896869239 -13.00000000
-2.23919177 -1.27307212 -0.50068283 3 4 24038 2.62400000 1896869244 1896869244 -11.00000000
-2.65537858 -1.50846505 -0.48369536 2 6 24040 3.09200000 1896869249 1896869249 -9.00000000
-3.32498837 -1.88732135 -0.46944070 1 8 24042 3.85200000 1896869253 1896869253 -7.00000000
-4.37727404 -2.48360705 -0.44031081 6 10 24043 5.05200000 1896869258 1896869258 -5.00000000
-10.15578842 -5.75991678 2.26948214 12 11 24044 11.89400000 1896869260 1896869260 11.00000000
-6.37824106 -3.61598659 -0.38425058 3 12 24045 7.34200000 1896869262 1896869262 -3.00000000
-9.87932491 -5.59628391 -0.19818953 8 14 24047 11.35600000 1896869267 1896869267 -1.00000000
-8.09689426 -4.58660078 2.49346256 36 15 24047 9.63400000 1896869269 1896869269 15.00000000
-1.67886317 -0.94792199 -0.51660281 5 0 24055 1.99600000 1896869290 1896869290 -15.00000000
-1.92470217 -1.08584201 -0.51018900 4 2 24057 2.26800000 1896869295 1896869295 -13.00000000
-2.24020195 -1.26331937 -0.49991956 3 4 24058 2.62000000 1896869299 1896869299 -11.00000000
-2.67783785 -1.50888407 -0.48682407 2 6 24060 3.11200000 1896869304 1896869304 -9.00000000
-3.30214977 -1.85914743 -0.46529716 1 8 24062 3.81800000 1896869308 1896869308 -7.00000000
-4.41196108 -2.48296976 -0.44292548 6 10 24063 5.08200000 1896869313 1896869313 -5.00000000
-10.09883404 -5.68111515 2.25230932 12 11 24064 11.80400000 1896869315 1896869315 11.00000000
-6.39952850 -3.59859490 -0.38477394 3 12 24065 7.35200000 1896869318 1896869318 -3.00000000
-9.54369068 -5.36443377 2.52754998 41 13 24066 11.23600000 1896869320 1896869320 13.00000000
-9.92669296 -5.57743692 -0.19874801 6 14 24067 11.38800000 1896869322 1896869322 -1.00000000
-8.11365032 -4.55689335 2.49346256 36 15 24068 9.63400000 1896869325 1896869325 15.00000000
-1.68216181 -0.94205588 -0.51660281 4 0 24075 1.99600000 1896869345 1896869345 -15.00000000
-1.93358254 -1.08197176 -0.51153868 4 2 24077 2.27400000 1896869350 1896869350 -13.00000000
-2.24117112 -1.25357509 -0.49915633 3 4 24078 2.61600000 1896869355 1896869355 -11.00000000
-2.69688320 -1.50723708 -0.48932701 2 6 24080 3.12800000 1896869359 1896869359 -9.00000000
-3.32248473 -1.85535216 -0.46724707 1 8 24082 3.83400000 1896869364 1896869364 -7.00000000
-4.38580751 -2.44813204 -0.43943927 6 10 24083 5.04200000 1896869368 1896869368 -5.00000000
-10.09460068 -5.63243675 2.24696684 12 11 24084 11.77600000 1896869371 1896869371 11.00000000
-6.40507412 -3.57234311 -0.38435528 3 12 24085 7.34400000 1896869373 1896869373 -3.00000000
-9.54193306 -5.31970024 2.52215123 48 13 24086 11.21200000 1896869375 1896869375 13.00000000
-8.13377953 -4.53278351 2.49501562 33 15 24087 9.64000000 1896869380 1896869380 15.00000000
-1.67192936 -0.92867386 -0.51246172 5 0 24095 1.98000000 1896869401 1896869401 -15.00000000
-1.93223572 -1.07237875 -0.51018900 4 2 24097 2.26800000 1896869405 1896869405 -13.00000000
-2.25240040 -1.24955392 -0.50068283 3 4 24098 2.62400000 1896869410 1896869410 -11.00000000
-2.67794013 -1.48440647 -0.48494685 2 6 24100 3.10000000 1896869414 1896869414 -9.00000000
-3.34804273 -1.85432291 -0.46992818 1 8 24102 3.85600000 1896869419 1896869419 -7.00000000
-4.39432621 -2.43280792 -0.43943927 6 10 24103 5.04200000 1896869424 1896869424 -5.00000000
-10.09702301 -5.58765984 2.24315047 12 11 24104 11.75600000 1896869426 1896869426 11.00000000
-6.41750479 -3.54996347 -0.38435528 3 12 24105 7.34400000 1896869428 1896869428 -3.00000000
-9.56385517 -5.28824615 2.52305102 47 13 24106 11.21600000 1896869431 1896869431 13.00000000
-8.16815090 -4.51464319 2.50070953 38 15 24107 9.66200000 1896869435 1896869435 15.00000000
-1.68176746 -0.92685419 -0.51453227 4 0 24114 1.98800000 1896869456 1896869456 -15.00000000
-1.92895317 -1.06220531 -0.50838935 4 2 24116 2.26000000 1896869461 1896869461 -13.00000000
-2.25309181 -1.24018443 -0.49991956 3 4 24117 2.62000000 1896869465 1896869465 -11.00000000
-2.69669485 -1.48313355 -0.48744980 2 6 24119 3.11600000 1896869470 1896869470 -9.00000000
-3.34547496 -1.83843005 -0.46870950 1 8 24121 3.84600000 1896869474 1896869474 -7.00000000
-4.41808605 -2.42685556 -0.44100806 6 10 24122 5.06000000 1896869479 1896869479 -5.00000000
-10.07591534 -5.53241348 2.23437333 12 11 24123 11.71000000 1896869481 1896869481 11.00000000
-6.44324875 -3.53635049 -0.38519263 3 12 24124 7.36000000 1896869484 1896869484 -3.00000000
-9.58133888 -5.25650263 2.52305102 47 13 24125 11.21600000 1896869486 1896869486 13.00000000
-8.22881126 -4.51261234 2.51468587 38 15 24126 9.71600000 1896869490 1896869490 15.00000000
-1.69007802 -0.92375773 -0.51608515 5 0 24134 1.99400000 1896869511 1896869511 -15.00000000
-1.92922854 -1.05359745 -0.50748956 4 2 24136 2.25600000 1896869516 1896869516 -13.00000000
-2.26085353 -1.23419356 -0.50068283 3 4 24137 2.62400000 1896869520 1896869520 -11.00000000
-2.68798208 -1.46614408 -0.48494685 2 6 24139 3.10000000 1896869525 1896869525 -9.00000000
-3.34664273 -1.82389116 -0.46797827 3 8 24141 3.84000000 1896869530 1896869530 -7.00000000
-4.41078377 -2.40284061 -0.43943927 3 10 24142 5.04200000 1896869534 1896869534 -5.00000000
-10.08654499 -5.49251366 2.23246527 25 11 24143 11.70000000 1896869537 1896869537 11.00000000
-6.43274879 -3.50142479 -0.38383189 3 12 24144 7.33400000 1896869539 1896869539 -3.00000000
-9.59962940 -5.22302532 2.52305102 47 13 24145 11.21600000 1896869541 1896869541 13.00000000
-8.28433323 -4.50364399 2.52659154 38 15 24147 9.76200000 1896869546 1896869546 15.00000000
-1.69838738 -0.92061448 -0.51763809 5 0 24154 2.00000000 1896869567 1896869567 -15.00000000
-1.93632162 -1.04871285 -0.50838935 4 2 24156 2.26000000 1896869571 1896869571 -13.00000000
-2.26169491 -1.22442484 -0.49991956 3 4 24157 2.62000000 1896869576 1896869576 -11.00000000
-2.70698333 -1.46427107 -0.48744980 2 6 24159 3.11600000 1896869580 1896869580 -9.00000000
-3.35124254 -1.81125426 -0.46773455 3 8 24161 3.83800000 1896869585 1896869585 -7.00000000
-4.44017982 -2.39879346 -0.44153100 3 10 24162 5.06600000 1896869590 1896869590 -5.00000000
-10.10911083 -5.45913744 2.23322845 12 11 24163 11.70400000 1896869592 1896869592 11.00000000
-6.46426487 -3.48938489 -0.38498330 3 12 24164 7.35600000 1896869594 1896869594 -3.00000000
-9.60751247 -5.18393230 2.52035165 50 13 24165 11.20400000 1896869596 1896869596 13.00000000
-8.35023117 -4.50365877 2.54212070 38 15 24166 9.82200000 1896869601 1896869601 15.00000000
-1.70159066 -0.91468036 -0.51763809 5 0 24174 2.00000000 1896869622 1896869622 -15.00000000
-1.94855452 -1.04655790 -0.51063889 4 2 24176 2.27000000 1896869626 1896869626 -13.00000000
-2.25903630 -1.21280801 -0.49839309 3 4 24177 2.61200000 1896869631 1896869631 -11.00000000
-2.72252250 -1.46041560 -0.48932701 2 6 24179 3.12800000 1896869636 1896869636 -9.00000000
-3.35754466 -1.79954517 -0.46773455 3 8 24181 3.83800000 1896869640 1896869640 -7.00000000
-4.43096352 -2.37387085 -0.43978786 6 10 24182 5.04600000 1896869645 1896869645 -5.00000000
-6.46584034 -3.46114349 -0.38435528 3 12 24184 7.34400000 1896869649 1896869649 -3.00000000
-9.62898540 -5.15220308 2.52125144 50 13 24185 11.20800000 1896869652 1896869652 13.00000000
-8.40678501 -4.49635029 2.55454397 29 15 24186 9.87000000 1896869656 1896869656 15.00000000
-1.68772531 -0.89964777 -0.51246172 5 0 24194 1.98000000 1896869677 1896869677 -15.00000000
-1.95047581 -1.03883374 -0.51018900 4 2 24196 2.26800000 1896869682 1896869682 -13.00000000
-2.26672196 -1.20676029 -0.49915633 3 4 24197 2.61600000 1896869686 1896869686 -11.00000000
-2.71713996 -1.44533730 -0.48744980 2 6 24199 3.11600000 1896869691 1896869691 -9.00000000
-3.36906433 -1.79060912 -0.46846575 1 8 24201 3.84400000 1896869695 1896869695 -7.00000000
-4.41634941 -2.34623766 -0.43752182 9 10 24202 5.02000000 1896869700 1896869700 -5.00000000
-6.48846722 -3.44417095 -0.38498330 3 12 24204 7.35600000 1896869705 1896869705 -3.00000000
-9.65379715 -5.12221384 2.52305102 48 13 24205 11.21600000 1896869707 1896869707 13.00000000
-8.44461632 -4.47874498 2.56127334 13 15 24206 9.89600000 1896869712 1896869712 15.00000000
-1.70110297 -0.89916772 -0.51556754 4 0 24214 1.99200000 1896869732 1896869732 -15.00000000
-1.95064378 -1.03019881 -0.50928921 4 2 24216 2.26400000 1896869737 1896869737 -13.00000000
-2.26744819 -1.19700754 -0.49839309 3 4 24217 2.61200000 1896869742 1896869742 -11.00000000
-2.71168518 -1.43031430 -0.48557258 2 6 24219 3.10400000 1896869746 1896869746 -9.00000000
-3.39812398 -1.79086971 -0.47163436 1 8 24221 3.87000000 1896869751 1896869751 -7.00000000
-4.46505594 -2.35216546 -0.44153100 3 10 24222 5.06600000 1896869755 1896869755 -5.00000000
-6.51105452 -3.42708254 -0.38561133 3 12 24224 7.36800000 1896869760 1896869760 -3.00000000
-9.67506695 -5.09029913 2.52395082 46 13 24225 11.22000000 1896869762 1896869762 13.00000000
-8.19250774 -4.30663633 2.48000407 6 15 24227 9.58200000 1896869767 1896869767 15.00000000
-1.70065355 -0.89172751 -0.51453227 4 0 24233 1.98800000 1896869788 1896869788 -15.00000000
-1.95232308 -1.02282023 -0.50883931 4 2 24235 2.26200000 1896869792 1896869792 -13.00000000
-2.29227567 -1.20041120 -0.50297248 3 4 24236 2.63600000 1896869797 1896869797 -11.00000000
-2.72691488 -1.42680895 -0.48744980 2 6 24238 3.11600000 1896869801 1896869801 -9.00000000
-3.37941527 -1.76671565 -0.46822202 1 8 24240 3.84200000 1896869806 1896869806 -7.00000000
-4.47106552 -2.33642316 -0.44135669 3 10 24241 5.06400000 1896869811 1896869811 -5.00000000
-6.50467873 -3.39622831 -0.38456461 3 12 24243 7.34800000 1896869815 1896869815 -3.00000000
-9.68498325 -5.05458069 2.52215123 48 13 24244 11.21200000 1896869818 1896869818 13.00000000
-8.13405991 -4.24334955 2.45826340 2 15 24245 9.49800000 1896869822 1896869822 15.00000000
-1.71575427 -0.89202362 -0.51815575 5 0 24253 2.00200000 1896869843 1896869843 -15.00000000
-1.96106946 -1.01869404 -0.51018900 4 2 24255 2.26800000 1896869847 1896869847 -13.00000000
-2.28425527 -1.18606937 -0.50030118 3 4 24256 2.62200000 1896869852 1896869852 -11.00000000
-2.72837186 -1.41546214 -0.48682407 2 6 24258 3.11200000 1896869857 1896869857 -9.00000000
-3.39084888 -1.75764918 -0.46895322 1 8 24260 3.84800000 1896869861 1896869861 -7.00000000
-4.46857977 -2.31530237 -0.44031081 3 10 24261 5.05200000 1896869866 1896869866 -5.00000000
-6.53245735 -3.38176608 -0.38550666 3 12 24263 7.36600000 1896869871 1896869871 -3.00000000
-9.69564533 -5.01716089 2.52035165 50 13 24264 11.20400000 1896869873 1896869873 13.00000000
-8.11965179 -4.19984245 2.44946337 2 15 24265 9.46400000 1896869877 1896869877 15.00000000
-1.70542705 -0.87835264 -0.51401460 4 0 24275 1.98600000 1896869898 1896869898 -15.00000000
-1.96496654 -1.01115656 -0.51018900 4 2 24277 2.26800000 1896869903 1896869903 -13.00000000
-2.29053855 -1.17818773 -0.50068283 3 4 24278 2.62400000 1896869907 1896869907 -11.00000000
-2.75486994 -1.41581082 -0.49057847 2 6 24280 3.13600000 1896869912 1896869912 -9.00000000
-3.40816808 -1.75005686 -0.47041565 3 8 24282 3.86000000 1896869917 1896869917 -7.00000000
-4.47566462 -2.29721737 -0.44013649 3 10 24283 5.05000000 1896869921 1896869921 -5.00000000
-6.56138897 -3.36486077 -0.38644871 3 12 24285 7.38400000 1896869926 1896869926 -3.00000000
-9.71830654 -4.98167324 2.52125144 50 13 24286 11.20800000 1896869928 1896869928 13.00000000
-8.14676285 -4.17249823 2.45256925 2 15 24288 9.47600000 1896869933 1896869933 15.00000000
-1.70676219 -0.87151575 -0.51349699 4 0 24295 1.98400000 1896869953 1896869953 -15.00000000
-1.97022009 -1.00517702 -0.51063889 4 2 24297 2.27000000 1896869958 1896869958 -13.00000000
-2.29113913 -1.16840124 -0.49991956 3 4 24298 2.62000000 1896869963 1896869963 -11.00000000
-2.73515415 -1.39363074 -0.48619831 2 6 24300 3.10800000 1896869967 1896869967 -9.00000000
-3.41248727 -1.73724890 -0.47017193 1 8 24302 3.85800000 1896869972 1896869972 -7.00000000
-4.47122622 -2.27525520 -0.43891633 6 10 24303 5.03600000 1896869977 1896869977 -5.00000000
-6.54994965 -3.33016944 -0.38508797 3 12 24305 7.35800000 1896869981 1896869981 -3.00000000
-9.73911095 -4.94948530 2.52215123 48 13 24306 11.21200000 1896869983 1896869983 13.00000000
-8.82789135 -4.48252010 2.65289521 9 15 24308 10.25000000 1896869988 1896869988 15.00000000
-1.71151757 -0.86642522 -0.51401460 4 0 24315 1.98600000 1896870009 1896870009 -15.00000000
-1.97023880 -0.99653447 -0.50973910 4 2 24317 2.26600000 1896870013 1896870013 -13.00000000
-2.29520369 -1.16039658 -0.49991956 3 4 24318 2.62000000 1896870018 1896870018 -11.00000000
-2.74352860 -1.38585603 -0.48682407 2 6 24320 3.11200000 1896870023 1896870023 -9.00000000
-3.42207479 -1.72711539 -0.47065940 3 8 24322 3.86200000 1896870027 1896870027 -7.00000000
-4.48625612 -2.26322341 -0.43961358 9 10 24323 5.04400000 1896870032 1896870032 -5.00000000
-6.55261660 -3.30279088 -0.38456461 3 12 24325 7.34800000 1896870036 1896870036 -3.00000000
-9.76329041 -4.91896677 2.52395082 48 13 24326 11.22000000 1896870039 1896870039 13.00000000
-8.90042782 -4.48034191 2.66997719 28 15 24328 10.31600000 1896870043 1896870043 15.00000000
-1.72661781 -0.86651123 -0.51763809 4 0 24335 2.00000000 1896870064 1896870064 -15.00000000
-1.97893143 -0.99227142 -0.51108879 4 2 24337 2.27200000 1896870069 1896870069 -13.00000000
-2.30626082 -1.15589654 -0.50144607 3 4 24338 2.62800000 1896870073 1896870073 -11.00000000
-2.74481678 -1.37450194 -0.48619831 2 6 24340 3.10800000 1896870078 1896870078 -9.00000000
-3.42098165 -1.71160662 -0.46968445 3 8 24342 3.85400000 1896870083 1896870083 -7.00000000
-4.51194859 -2.25646162 -0.44135669 9 10 24343 5.06400000 1896870087 1896870087 -5.00000000
-6.55695915 -3.27632689 -0.38414592 3 12 24345 7.34000000 1896870092 1896870092 -3.00000000
-9.78040123 -4.88485670 2.52395082 48 13 24346 11.22000000 1896870094 1896870094 13.00000000
-8.96959877 -4.47598696 2.68602395 35 15 24348 10.37800000 1896870099 1896870099 15.00000000
-1.72948182 -0.86078078 -0.51763809 4 0 24354 2.00000000 1896870119 1896870119 -15.00000000
-1.98046613 -0.98483586 -0.51063889 4 2 24356 2.27000000 1896870124 1896870124 -13.00000000
-2.30304909 -1.14474690 -0.49991956 3 4 24357 2.62000000 1896870129 1896870129 -11.00000000
-2.75997519 -1.37066400 -0.48807552 2 6 24359 3.12000000 1896870133 1896870133 -9.00000000
-3.41241288 -1.69319415 -0.46773455 3 8 24361 3.83800000 1896870138 1896870138 -7.00000000
-4.50869703 -2.23617530 -0.44031081 9 10 24362 5.05200000 1896870142 1896870142 -5.00000000
-6.58568382 -3.26343322 -0.38519263 3 12 24364 7.36000000 1896870147 1896870147 -3.00000000
-9.78956127 -4.84893703 2.52215123 50 13 24365 11.21200000 1896870149 1896870149 13.00000000
-9.04767323 -4.47950077 2.70517659 42 15 24366 10.45200000 1896870154 1896870154 15.00000000
-1.72554600 -0.85131955 -0.51556754 5 0 24374 1.99200000 1896870175 1896870175 -15.00000000
-1.98389184 -0.97791678 -0.51063889 4 2 24376 2.27000000 1896870179 1896870179 -13.00000000
-2.29646444 -1.13149452 -0.49762985 3 4 24377 2.60800000 1896870184 1896870184 -11.00000000
-2.76474285 -1.36102152 -0.48807552 2 6 24379 3.12000000 1896870188 1896870188 -9.00000000
-3.41473985 -1.67952013 -0.46724707 3 8 24381 3.83400000 1896870193 1896870193 -7.00000000
-4.51289940 -2.21866536 -0.43996218 9 10 24382 5.04800000 1896870198 1896870198 -5.00000000
-6.57910824 -3.23161936 -0.38414592 3 12 24384 7.34000000 1896870202 1896870202 -3.00000000
-9.80992603 -4.81645298 2.52305102 47 13 24385 11.21600000 1896870205 1896870205 13.00000000
-9.11779785 -4.47268438 2.72122335 42 15 24387 10.51400000 1896870209 1896870209 15.00000000
-1.72865462 -0.84498942 -0.51556754 5 0 24395 1.99200000 1896870230 1896870230 -15.00000000
-1.98746276 -0.97063887 -0.51063889 4 2 24397 2.27000000 1896870235 1896870235 -13.00000000
-2.31118155 -1.12823749 -0.49991956 3 4 24398 2.62000000 1896870239 1896870239 -11.00000000
-2.76616168 -1.34914720 -0.48744980 2 6 24400 3.11600000 1896870244 1896870244 -9.00000000
-3.44228649 -1.67742825 -0.47017193 3 8 24402 3.85800000 1896870248 1896870248 -7.00000000
-4.51383591 -2.19862008 -0.43926495 9 10 24403 5.04000000 1896870253 1896870253 -5.00000000
-6.61784697 -3.22059369 -0.38571599 3 12 24405 7.37000000 1896870258 1896870258 -3.00000000
-9.83452320 -4.78387547 2.52485061 46 13 24406 11.22400000 1896870260 1896870260 13.00000000
-9.18721294 -4.46701717 2.73727012 45 15 24407 10.57600000 1896870265 1896870265 15.00000000
-1.72811663 -0.83726549 -0.51453227 4 0 24415 1.98800000 1896870285 1896870285 -15.00000000
-1.98908472 -0.96284634 -0.51018900 4 2 24417 2.26800000 1896870290 1896870290 -13.00000000
-2.31157136 -1.11845291 -0.49915633 3 4 24418 2.61600000 1896870294 1896870294 -11.00000000
-2.75306964 -1.33088577 -0.48432112 2 6 24420 3.09600000 1896870299 1896870299 -9.00000000
-3.44990849 -1.66626549 -0.47041565 3 8 24422 3.86000000 1896870304 1896870304 -7.00000000
-4.52148342 -2.18285036 -0.43926495 9 10 24423 5.04000000 1896870308 1896870308 -5.00000000
-6.59666777 -3.18185496 -0.38383189 3 12 24425 7.33400000 1896870313 1896870313 -3.00000000
-9.85467243 -4.75120974 2.52575040 46 13 24426 11.22800000 1896870315 1896870315 13.00000000
-9.27488232 -4.46768761 2.75849342 42 15 24428 10.65800000 1896870320 1896870320 15.00000000
-1.73436630 -0.83320338 -0.51556754 5 0 24434 1.99200000 1896870341 1896870341 -15.00000000
-1.98699617 -0.95371526 -0.50883931 4 2 24436 2.26200000 1896870345 1896870345 -13.00000000
-2.33296847 -1.11927354 -0.50297248 3 4 24437 2.63600000 1896870350 1896870350 -11.00000000
-2.77884340 -1.33199513 -0.48807552 2 6 24439 3.12000000 1896870354 1896870354 -9.00000000
-3.44467282 -1.64967155 -0.46895322 3 8 24441 3.84800000 1896870359 1896870359 -7.00000000
-4.53229094 -2.16956520 -0.43961358 9 10 24442 5.04400000 1896870364 1896870364 -5.00000000
-6.60718298 -3.15996218 -0.38383189 3 12 24444 7.33400000 1896870368 1896870368 -3.00000000
-9.85982513 -4.71346140 2.52305102 47 13 24445 11.21600000 1896870371 1896870371 13.00000000
-9.35859585 -4.47184372 2.77919888 42 15 24446 10.73800000 1896870375 1896870375 15.00000000
-1.74598527 -0.83129650 -0.51815575 5 0 24454 2.00200000 1896870396 1896870396 -15.00000000
-1.99559247 -0.94928485 -0.51018900 4 2 24456 2.26800000 1896870400 1896870400 -13.00000000
-2.33686113 -1.11112309 -0.50297248 3 4 24457 2.63600000 1896870405 1896870405 -11.00000000
-2.78704476 -1.32398224 -0.48870125 2 6 24459 3.12400000 1896870410 1896870410 -9.00000000
-3.44503021 -1.63508379 -0.46822202 1 8 24461 3.84200000 1896870414 1896870414 -7.00000000
-4.54703712 -2.15714717 -0.44031081 9 10 24462 5.05200000 1896870419 1896870419 -5.00000000
-6.63441610 -3.14457846 -0.38477394 3 12 24464 7.35200000 1896870423 1896870423 -3.00000000
-9.87621784 -4.67901564 2.52305102 46 13 24465 11.21600000 1896870426 1896870426 13.00000000
-9.44651413 -4.47139931 2.80042195 47 15 24467 10.82000000 1896870430 1896870430 15.00000000
-1.74028409 -0.82077128 -0.51556754 4 0 24475 1.99200000 1896870451 1896870451 -15.00000000
-2.00082135 -0.94279492 -0.51063889 4 2 24477 2.27000000 1896870456 1896870456 -13.00000000
-2.33026123 -1.09753144 -0.50068283 3 4 24478 2.62400000 1896870460 1896870460 -11.00000000
-2.78830385 -1.31207621 -0.48807552 2 6 24480 3.12000000 1896870465 1896870465 -9.00000000
-3.45279646 -1.62329078 -0.46846575 1 8 24482 3.84400000 1896870470 1896870470 -7.00000000
-4.55491304 -2.14046693 -0.44031081 9 10 24483 5.05200000 1896870474 1896870474 -5.00000000
-6.61877871 -3.10750866 -0.38320386 3 12 24485 7.32200000 1896870479 1896870479 -3.00000000
-9.89330101 -4.64278603 2.52305102 47 13 24486 11.21600000 1896870481 1896870481 13.00000000
-9.50753784 -4.45972824 2.81388068 42 15 24487 10.87200000 1896870486 1896870486 15.00000000
-1.73613799 -0.81141967 -0.51349699 5 0 24495 1.98400000 1896870506 1896870506 -15.00000000
-2.01116300 -0.93910301 -0.51243848 4 2 24497 2.27800000 1896870511 1896870511 -13.00000000
-2.33407807 -1.08939064 -0.50068283 3 4 24498 2.62400000 1896870516 1896870516 -11.00000000
-2.78570557 -1.29899585 -0.48682407 2 6 24500 3.11200000 1896870520 1896870520 -9.00000000
-3.48363328 -1.62296462 -0.47187811 1 8 24502 3.87200000 1896870525 1896870525 -7.00000000
-4.56235695 -2.12455440 -0.44031081 6 10 24503 5.05200000 1896870529 1896870529 -5.00000000
-6.64950514 -3.09365344 -0.38435528 3 12 24505 7.34400000 1896870534 1896870534 -3.00000000
-9.91298103 -4.60986710 2.52395082 47 13 24506 11.22000000 1896870536 1896870536 13.00000000
-9.51330853 -4.41996765 2.81077480 40 15 24508 10.86000000 1896870541 1896870541 15.00000000
-1.74421871 -0.80779004 -0.51504987 5 0 24515 1.99000000 1896870562 1896870562 -15.00000000
-2.00204849 -0.92634869 -0.50928921 4 2 24517 2.26400000 1896870566 1896870566 -13.00000000
-2.33430290 -1.07958829 -0.49991956 3 4 24518 2.62000000 1896870571 1896870571 -11.00000000
-2.78663659 -1.28760684 -0.48619831 2 6 24520 3.10800000 1896870576 1896870576 -9.00000000
-3.49107957 -1.61162663 -0.47212183 1 8 24522 3.87400000 1896870580 1896870580 -7.00000000
-4.57879066 -2.11278963 -0.44118237 6 10 24523 5.06200000 1896870585 1896870585 -5.00000000
-6.66751862 -3.07376814 -0.38477394 3 12 24525 7.35200000 1896870589 1896870589 -3.00000000
-9.93963146 -4.58012962 2.52665019 46 13 24526 11.23200000 1896870592 1896870592 13.00000000
-9.53142262 -4.39001226 2.81181002 26 15 24527 10.86400000 1896870596 1896870596 15.00000000
-1.75229526 -0.80411381 -0.51660281 5 0 24535 1.99600000 1896870617 1896870617 -15.00000000
-2.00349855 -0.91854244 -0.50883931 4 2 24537 2.26200000 1896870622 1896870622 -13.00000000
-2.35233521 -1.07797658 -0.50297248 3 4 24538 2.63600000 1896870626 1896870626 -11.00000000
-2.79829860 -1.28116107 -0.48744980 2 6 24540 3.11600000 1896870631 1896870631 -9.00000000
-3.47863197 -1.59117341 -0.46968445 1 8 24542 3.85400000 1896870635 1896870635 -7.00000000
-4.58613777 -2.09679389 -0.44118237 3 10 24543 5.06200000 1896870640 1896870640 -5.00000000
-6.66185713 -3.04300690 -0.38383189 3 12 24545 7.33400000 1896870645 1896870645 -3.00000000
-9.95201302 -4.54378700 2.52575040 47 13 24546 11.22800000 1896870647 1896870647 13.00000000
-7.96558094 -3.63348293 2.34593582 6 15 24548 9.06400000 1896870652 1896870652 15.00000000
-1.75143516 -0.79669881 -0.51556754 5 0 24554 1.99200000 1896870672 1896870672 -15.00000000
-2.01540422 -0.91592491 -0.51108879 4 2 24556 2.27200000 1896870677 1896870677 -13.00000000
-2.35232210 -1.06854606 -0.50220925 3 4 24557 2.63200000 1896870682 1896870682 -11.00000000
-2.80253172 -1.27187455 -0.48744980 2 6 24559 3.11600000 1896870686 1896870686 -9.00000000
-3.48388934 -1.57962918 -0.46968445 1 8 24561 3.85400000 1896870691 1896870691 -7.00000000
-4.59125090 -2.08075166 -0.44100806 3 10 24562 5.06000000 1896870695 1896870695 -5.00000000
-6.68100834 -3.02501774 -0.38435528 3 12 24564 7.34400000 1896870700 1896870700 -3.00000000
-9.95992470 -4.50754595 2.52395082 47 13 24565 11.22000000 1896870702 1896870702 13.00000000
-8.00335884 -3.62038374 2.35370040 9 15 24566 9.09400000 1896870707 1896870707 15.00000000
-1.75596678 -0.79137403 -0.51608515 5 0 24574 1.99400000 1896870728 1896870728 -15.00000000
-2.01858902 -0.90888429 -0.51108879 4 2 24576 2.27200000 1896870732 1896870732 -13.00000000
-2.33813453 -1.05227125 -0.49839309 3 4 24577 2.61200000 1896870737 1896870737 -11.00000000
-2.80335093 -1.26046407 -0.48682407 2 6 24579 3.11200000 1896870741 1896870741 -9.00000000
-3.46765256 -1.55769742 -0.46675959 1 8 24581 3.83000000 1896870746 1896870746 -7.00000000
-4.58394527 -2.05818367 -0.43961358 3 10 24582 5.04400000 1896870751 1896870751 -5.00000000
-6.68788242 -3.00004339 -0.38414592 3 12 24584 7.34000000 1896870755 1896870755 -3.00000000
-10.00049305 -4.48391390 2.53024936 47 13 24585 11.24800000 1896870758 1896870758 13.00000000
-8.05649471 -3.61059618 2.36560607 9 15 24586 9.14000000 1896870762 1896870762 15.00000000
-1.75546384 -0.78305179 -0.51504987 5 0 24596 1.99000000 1896870783 1896870783 -15.00000000
-2.02740383 -0.90350652 -0.51243848 4 2 24598 2.27800000 1896870788 1896870788 -13.00000000
-2.34933138 -1.04648101 -0.49991956 3 4 24599 2.62000000 1896870792 1896870792 -11.00000000
-2.81538916 -1.25290322 -0.48807552 2 6 24601 3.12000000 1896870797 1896870797 -9.00000000
-3.50081658 -1.55646801 -0.47041565 1 8 24603 3.86000000 1896870801 1896870801 -7.00000000
-4.59181452 -2.04056764 -0.43961358 6 10 24604 5.04400000 1896870806 1896870806 -5.00000000
-6.70482874 -2.97677302 -0.38445994 3 12 24606 7.34600000 1896870811 1896870811 -3.00000000
-10.06751060 -4.46761465 2.54284668 48 13 24607 11.30400000 1896870813 1896870813 13.00000000
-8.11621284 -3.60000038 2.37906456 9 15 24608 9.19200000 1896870817 1896870817 15.00000000
-1.75465250 -0.77535766 -0.51401460 4 0 24616 1.98600000 1896870838 1896870838 -15.00000000
-2.03054547 -0.89642406 -0.51243848 4 2 24618 2.27800000 1896870843 1896870843 -13.00000000
-2.36015463 -1.04144430 -0.50144607 3 4 24619 2.62800000 1896870847 1896870847 -11.00000000
-2.80528522 -1.23669338 -0.48557258 2 6 24621 3.10400000 1896870852 1896870852 -9.00000000
-3.49896145 -1.54103792 -0.46944070 1 8 24623 3.85200000 1896870857 1896870857 -7.00000000
-4.59890938 -2.02452660 -0.43961358 6 10 24624 5.04400000 1896870861 1896870861 -5.00000000
-6.72066355 -2.95576286 -0.38477394 3 12 24626 7.35200000 1896870866 1896870866 -3.00000000
-10.14369965 -4.45910883 2.55814338 50 13 24627 11.37200000 1896870868 1896870868 13.00000000
-9.55499649 -4.19633961 2.79628086 30 15 24629 10.80400000 1896870873 1896870873 15.00000000
-1.76619697 -0.77310133 -0.51660281 5 0 24636 1.99600000 1896870894 1896870894 -15.00000000
-2.00866532 -0.87839949 -0.50613987 4 2 24638 2.25000000 1896870898 1896870898 -13.00000000
-2.36377549 -1.03319943 -0.50144607 3 4 24639 2.62800000 1896870903 1896870903 -11.00000000
-2.82044673 -1.23163664 -0.48744980 2 6 24641 3.11600000 1896870907 1896870907 -9.00000000
-3.49704146 -1.52563977 -0.46846575 1 8 24643 3.84400000 1896870912 1896870912 -7.00000000
-4.62969017 -2.01881409 -0.44187963 3 10 24644 5.07000000 1896870917 1896870917 -5.00000000
-6.72544718 -2.92989230 -0.38445994 3 12 24646 7.34600000 1896870921 1896870921 -3.00000000
-10.23067093 -4.45479345 2.57613945 46 13 24647 11.45200000 1896870923 1896870923 13.00000000
-9.87006569 -4.29572439 -0.18789260 4 14 24648 10.76600000 1896870926 1896870926 -1.00000000
-9.56708813 -4.16385984 2.79576325 33 15 24648 10.80200000 1896870928 1896870928 15.00000000
-1.77242970 -0.76846838 -0.51763809 5 0 24656 2.00000000 1896870949 1896870949 -15.00000000
-2.02602506 -0.87757903 -0.50973910 4 2 24658 2.26600000 1896870953 1896870953 -13.00000000
-2.36736774 -1.02494204 -0.50144607 3 4 24659 2.62800000 1896870958 1896870958 -11.00000000
-2.84648538 -1.23119438 -0.49120423 2 6 24661 3.14000000 1896870963 1896870963 -9.00000000
-3.50599003 -1.51499844 -0.46895322 1 8 24663 3.84800000 1896870967 1896870967 -7.00000000
-4.63853836 -2.00343108 -0.44205391 3 10 24664 5.07200000 1896870972 1896870972 -5.00000000
-6.73746729 -2.90718937 -0.38456461 3 12 24666 7.34800000 1896870976 1896870976 -3.00000000
-10.31236649 -4.44760942 2.59278584 51 13 24667 11.52600000 1896870979 1896870979 13.00000000
-9.87765598 -4.25807858 -0.18775299 4 14 24668 10.75800000 1896870981 1896870981 -1.00000000
-9.59220886 -4.13502789 2.79886913 40 15 24668 10.81400000 1896870983 1896870983 15.00000000
-1.77128553 -0.76137054 -0.51660281 4 0 24674 1.99600000 1896871004 1896871004 -15.00000000
-2.03593445 -0.87428558 -0.51153868 4 2 24676 2.27400000 1896871009 1896871009 -13.00000000
-2.35975146 -1.01285362 -0.49915633 3 4 24677 2.61600000 1896871013 1896871013 -11.00000000
-2.81766009 -1.20823288 -0.48557258 2 6 24679 3.10400000 1896871018 1896871018 -9.00000000
-3.50708294 -1.50241315 -0.46846575 3 8 24681 3.84400000 1896871022 1896871022 -7.00000000
-4.62649393 -1.98100638 -0.44031081 3 10 24682 5.05200000 1896871027 1896871027 -5.00000000
-10.12188625 -4.33197403 2.14011359 12 11 24683 11.21600000 1896871029 1896871029 11.00000000
-6.74473095 -2.88522339 -0.38445994 3 12 24684 7.34600000 1896871032 1896871032 -3.00000000
-10.41050434 -4.45119810 2.61393118 47 13 24685 11.62000000 1896871034 1896871034 13.00000000
-9.59094048 -4.09879923 2.79472804 40 15 24686 10.79800000 1896871039 1896871039 15.00000000
-1.75971246 -0.74912941 -0.51246172 5 0 24694 1.98000000 1896871059 1896871059 -15.00000000
-2.03180075 -0.86412275 -0.50973910 4 2 24696 2.26600000 1896871064 1896871064 -13.00000000
-2.37049961 -1.00768256 -0.50068283 3 4 24697 2.62400000 1896871069 1896871069 -11.00000000
-2.85458827 -1.21228886 -0.49120423 2 6 24699 3.14000000 1896871073 1896871073 -9.00000000
-4.64438629 -1.96951199 -0.44135669 3 10 24702 5.06400000 1896871082 1896871082 -5.00000000
-10.12790775 -4.29278469 2.13820553 12 11 24703 11.20600000 1896871085 1896871085 11.00000000
-6.77315140 -2.86945319 -0.38550666 3 12 24704 7.36600000 1896871087 1896871087 -3.00000000
-10.50673008 -4.44902563 2.63417673 53 13 24705 11.71000000 1896871089 1896871089 13.00000000
-9.86148167 -4.17376852 -0.18691528 4 14 24706 10.71000000 1896871092 1896871092 -1.00000000
-9.59344482 -4.05835056 2.79110456 40 15 24707 10.78400000 1896871094 1896871094 15.00000000
-1.76943719 -0.74598426 -0.51453227 4 0 24714 1.98800000 1896871115 1896871115 -15.00000000
-2.03839660 -0.85853803 -0.51063889 4 2 24716 2.27000000 1896871119 1896871119 -13.00000000
-2.37762165 -1.00092530 -0.50144607 3 4 24717 2.62800000 1896871124 1896871124 -11.00000000
-2.84059358 -1.19465899 -0.48807552 2 6 24719 3.12000000 1896871128 1896871128 -9.00000000
-4.67695045 -1.96408820 -0.44379705 3 10 24722 5.09200000 1896871138 1896871138 -5.00000000
-10.11748695 -4.24676752 2.13286304 12 11 24723 11.17800000 1896871140 1896871140 11.00000000
-6.76286697 -2.83729362 -0.38435528 3 12 24724 7.34400000 1896871142 1896871142 -3.00000000
-10.62283611 -4.45452452 2.65937138 55 13 24725 11.82200000 1896871145 1896871145 13.00000000
-9.61041355 -4.02800846 2.79213977 42 15 24726 10.78800000 1896871149 1896871149 15.00000000
-1.78272676 -0.74426883 -0.51763809 4 0 24734 2.00000000 1896871170 1896871170 -15.00000000
-2.03418660 -0.84841686 -0.50883931 4 2 24736 2.26200000 1896871174 1896871174 -13.00000000
-2.38472509 -0.99413061 -0.50220925 3 4 24737 2.63200000 1896871179 1896871179 -11.00000000
-2.84109926 -1.18321729 -0.48744980 2 6 24739 3.11600000 1896871184 1896871184 -9.00000000
-3.52628922 -1.46713042 -0.46895322 3 8 24741 3.84800000 1896871188 1896871188 -7.00000000
-4.69113636 -1.95081067 -0.44449428 3 10 24742 5.10000000 1896871193 1896871193 -5.00000000
-10.11230755 -4.20313644 2.12866521 9 11 24743 11.15600000 1896871195 1896871195 11.00000000
-6.77457428 -2.81443572 -0.38445994 3 12 24744 7.34600000 1896871198 1896871198 -3.00000000
-10.69591236 -4.44133139 2.67376828 48 13 24745 11.88600000 1896871200 1896871200 13.00000000
-9.61727810 -3.99147534 2.79006934 38 15 24746 10.78000000 1896871204 1896871204 15.00000000
-1.77817261 -0.73508924 -0.51556754 4 0 24754 1.99200000 1896871225 1896871225 -15.00000000
-2.03713584 -0.84131104 -0.50883931 4 2 24756 2.26200000 1896871230 1896871230 -13.00000000
-2.38092184 -0.98280394 -0.50068283 3 4 24757 2.62400000 1896871234 1896871234 -11.00000000
-2.87077904 -1.18383586 -0.49182996 3 6 24759 3.14400000 1896871239 1896871239 -9.00000000
-3.52221179 -1.45103180 -0.46773455 3 8 24761 3.83800000 1896871244 1896871244 -7.00000000
-4.69054842 -1.93138933 -0.44379705 3 10 24762 5.09200000 1896871248 1896871248 -5.00000000
-6.78805161 -2.79229045 -0.38466927 3 12 24764 7.35000000 1896871253 1896871253 -3.00000000
-10.79065323 -4.43657398 2.69356394 51 13 24765 11.97400000 1896871255 1896871255 13.00000000
-9.62112141 -3.95179558 2.78696346 28 15 24767 10.76800000 1896871260 1896871260 15.00000000
-1.78430355 -0.73034137 -0.51660281 4 0 24774 1.99600000 1896871280 1896871280 -15.00000000
-2.04727507 -0.83714527 -0.51063889 4 2 24776 2.27000000 1896871285 1896871285 -13.00000000
-2.37343407 -0.97003049 -0.49839309 3 4 24777 2.61200000 1896871290 1896871290 -11.00000000
-2.84563279 -1.16186070 -0.48682407 2 6 24779 3.11200000 1896871294 1896871294 -9.00000000
-3.52909327 -1.43947780 -0.46797827 3 8 24781 3.84000000 1896871299 1896871299 -7.00000000
-4.71202135 -1.92102182 -0.44519153 3 10 24782 5.10800000 1896871304 1896871304 -5.00000000
-6.79775715 -2.76857877 -0.38466927 3 12 24784 7.35000000 1896871308 1896871308 -3.00000000
-9.63485718 -3.91818738 2.78696346 40 15 24787 10.76800000 1896871315 1896871315 15.00000000
-1.78326118 -0.72265744 -0.51556754 5 0 24794 1.99200000 1896871336 1896871336 -15.00000000
-2.05741024 -0.83291894 -0.51243848 4 2 24796 2.27800000 1896871340 1896871340 -13.00000000
-2.38772511 -0.96615815 -0.50068283 3 4 24797 2.62400000 1896871345 1896871345 -11.00000000
-2.86798525 -1.15932357 -0.48995274 2 6 24799 3.13200000 1896871350 1896871350 -9.00000000
-3.54698133 -1.43235338 -0.46968445 3 8 24801 3.85400000 1896871354 1896871354 -7.00000000
-4.68544197 -1.89113915 -0.44205391 3 10 24802 5.07200000 1896871359 1896871359 -5.00000000
-10.11207104 -4.07938433 2.11950636 6 11 24803 11.10800000 1896871361 1896871361 11.00000000
-6.81849384 -2.74931455 -0.38529730 3 12 24804 7.36200000 1896871363 1896871363 -3.00000000
-9.64309883 -3.88236713 2.78541064 42 15 24807 10.76200000 1896871370 1896871370 15.00000000
-1.78935874 -0.71786690 -0.51660281 5 0 24814 1.99600000 1896871391 1896871391 -15.00000000
-2.05126071 -0.82210737 -0.51018900 4 2 24816 2.26800000 1896871396 1896871396 -13.00000000
-2.39472795 -0.95927763 -0.50144607 3 4 24817 2.62800000 1896871400 1896871400 -11.00000000
-2.85000682 -1.14049840 -0.48619831 2 6 24819 3.10800000 1896871405 1896871405 -9.00000000
-3.55933261 -1.42291093 -0.47065940 3 8 24821 3.86200000 1896871410 1896871410 -7.00000000
-4.68091345 -1.87033677 -0.44100806 3 10 24822 5.06000000 1896871414 1896871414 -5.00000000
-10.12807274 -4.04478979 2.11988783 9 11 24823 11.11000000 1896871416 1896871416 11.00000000
-6.81135464 -2.71883321 -0.38435528 3 12 24824 7.34400000 1896871419 1896871419 -3.00000000
-9.65659237 -3.84868288 2.78541064 42 15 24827 10.76200000 1896871426 1896871426 15.00000000
-1.79389763 -0.71170342 -0.51712048 5 0 24836 1.99800000 1896871446 1896871446 -15.00000000
-2.04896736 -0.81207103 -0.50883931 4 2 24838 2.26200000 1896871451 1896871451 -13.00000000
-2.40569472 -0.95296764 -0.50297248 3 4 24839 2.63600000 1896871456 1896871456 -11.00000000
-2.86538577 -1.13390803 -0.48807552 2 6 24841 3.12000000 1896871460 1896871460 -9.00000000
-3.56476998 -1.40923357 -0.47065940 3 8 24843 3.86200000 1896871465 1896871465 -7.00000000
-4.71029663 -1.86113548 -0.44309980 3 10 24844 5.08400000 1896871469 1896871469 -5.00000000
-6.83289051 -2.69705915 -0.38498330 3 12 24846 7.35600000 1896871474 1896871474 -3.00000000
-9.67063332 -3.81326389 2.78541064 42 15 24848 10.76200000 1896871481 1896871481 15.00000000
-1.79816914 -0.70614338 -0.51763809 4 0 24856 2.00000000 1896871502 1896871502 -15.00000000
-2.04997540 -0.80420214 -0.50838935 4 2 24858 2.26000000 1896871506 1896871506 -13.00000000
-2.40535092 -0.94313109 -0.50220925 3 4 24859 2.63200000 1896871511 1896871511 -11.00000000
-2.88036203 -1.12822175 -0.48995274 2 6 24861 3.13200000 1896871515 1896871515 -9.00000000
-3.55672693 -1.39171827 -0.46895322 3 8 24863 3.84800000 1896871520 1896871520 -7.00000000
-4.73531961 -1.85193896 -0.44484290 3 10 24864 5.10400000 1896871525 1896871525 -5.00000000
-6.83854294 -2.67173791 -0.38477394 3 12 24866 7.35200000 1896871529 1896871529 -3.00000000
-9.49736881 -3.70477915 2.73157620 30 15 24869 10.55400000 1896871536 1896871536 15.00000000
-1.79329896 -0.69737583 -0.51556754 5 0 24875 1.99200000 1896871557 1896871557 -15.00000000
-2.06171346 -0.80092812 -0.51063889 4 2 24877 2.27000000 1896871562 1896871562 -13.00000000
-2.40297484 -0.93301767 -0.50106442 3 4 24878 2.62600000 1896871566 1896871566 -11.00000000
-2.89145446 -1.12152123 -0.49120423 2 6 24880 3.14000000 1896871571 1896871571 -9.00000000
-3.57983255 -1.38708818 -0.47139063 3 8 24882 3.86800000 1896871575 1896871575 -7.00000000
-4.70427656 -1.82183540 -0.44135669 3 10 24883 5.06400000 1896871580 1896871580 -5.00000000
-6.86599255 -2.65625215 -0.38582066 3 12 24885 7.37200000 1896871585 1896871585 -3.00000000
-9.70897865 -3.75222492 2.78903413 42 15 24887 10.77600000 1896871592 1896871592 15.00000000
-1.79391932 -0.69041789 -0.51504987 5 0 24895 1.99000000 1896871612 1896871612 -15.00000000
-2.06813455 -0.79512513 -0.51153868 4 2 24897 2.27400000 1896871617 1896871617 -13.00000000
-2.41171503 -0.92673665 -0.50220925 3 4 24898 2.63200000 1896871621 1896871621 -11.00000000
-2.88428664 -1.10717392 -0.48932701 2 6 24900 3.12800000 1896871626 1896871626 -9.00000000
-3.58465266 -1.37458372 -0.47139063 3 8 24902 3.86800000 1896871631 1896871631 -7.00000000
-4.70130491 -1.80183816 -0.44048512 3 10 24903 5.05400000 1896871635 1896871635 -5.00000000
-6.85283995 -2.62369967 -0.38456461 3 12 24905 7.34800000 1896871640 1896871640 -3.00000000
-9.71544838 -3.71385527 2.78696346 38 15 24908 10.76800000 1896871647 1896871647 15.00000000
-1.79800427 -0.68515319 -0.51556754 5 0 24914 1.99200000 1896871668 1896871668 -15.00000000
-2.06529617 -0.78618270 -0.51018900 4 2 24916 2.26800000 1896871672 1896871672 -13.00000000
-2.40743518 -0.91594154 -0.50068283 3 4 24917 2.62400000 1896871677 1896871677 -11.00000000
-2.87686324 -1.09339237 -0.48744980 2 6 24919 3.11600000 1896871681 1896871681 -9.00000000
-3.59290290 -1.36409819 -0.47187811 3 8 24921 3.87200000 1896871686 1896871686 -7.00000000
-4.73147058 -1.79542732 -0.44275117 3 10 24922 5.08000000 1896871691 1896871691 -5.00000000
-6.85776758 -2.59954453 -0.38435528 3 12 24924 7.34400000 1896871695 1896871695 -3.00000000
-9.73429489 -3.68605161 2.78903413 42 15 24926 10.77600000 1896871702 1896871702 15.00000000
-1.81484580 -0.68432558 -0.51970863 4 0 24934 2.00800000 1896871723 1896871723 -15.00000000
-2.05343843 -0.77347332 -0.50658977 4 2 24936 2.25200000 1896871727 1896871727 -13.00000000
-2.42164183 -0.91168272 -0.50297248 3 4 24937 2.63600000 1896871732 1896871732 -11.00000000
-2.89545393 -1.08890641 -0.48995274 2 6 24939 3.13200000 1896871737 1896871737 -9.00000000
-3.58835125 -1.34805775 -0.47065940 3 8 24941 3.86200000 1896871741 1896871741 -7.00000000
-4.75822639 -1.78660440 -0.44466859 3 10 24942 5.10200000 1896871746 1896871746 -5.00000000
