# .PCD v0.7 - Point Cloud Data file format
VERSION 0.7
FIELDS x y z intensity laser_id azimuth distance_m adjustedtime timestamp vertical_angle
SIZE 4 4 4 1 1 2 8 8 4 8
TYPE F F F U U U F U U F
COUNT 1 1 1 1 1 1 1 1 1 1
WIDTH 539
HEIGHT 1
VIEWPOINT 0 0 0 1 0 0 0
POINTS 539
DATA ascii
8.20314693 3.96379018 0.15902632 21 1 6421 9.11200000 1896620404 1896620404 1.00000000
8.18781853 3.95462084 -2.09924316 8 2 6422 9.33200000 1896620407 1896620407 -13.00000000
8.21971512 3.96825719 0.47835064 10 3 6423 9.14000000 1896620409 1896620409 3.00000000
2.90836310 1.40407944 -0.62776160 5 4 6423 3.29000000 1896620411 1896620411 -11.00000000
8.20933628 3.96148014 0.79747504 75 5 6424 9.15000000 1896620414 1896620414 5.00000000
3.65807271 1.76444483 -0.64325851 4 6 6425 4.11200000 1896620416 1896620416 -9.00000000
8.22177410 3.96394444 1.12071049 92 7 6426 9.19600000 1896620418 1896620418 7.00000000
4.93383694 2.37767792 -0.67247504 6 8 6427 5.51800000 1896620421 1896620421 -7.00000000
7.56410742 3.64361143 -0.73454863 13 10 6428 8.42800000 1896620425 1896620425 -5.00000000
8.19576168 3.94435382 -0.47667590 17 12 6430 9.10800000 1896620430 1896620430 -3.00000000
8.26953316 3.97808027 2.11858892 70 13 6431 9.41800000 1896620432 1896620432 13.00000000
8.19992924 3.94283462 -0.15881690 18 14 6432 9.10000000 1896620434 1896620434 -1.00000000
7.94502974 3.81856227 2.36198258 45 15 6433 9.12600000 1896620437 1896620437 15.00000000
2.05406165 0.98414147 -0.61029530 4 0 6440 2.35800000 1896620457 1896620457 -15.00000000
8.20791531 3.93081307 0.15885180 21 1 6441 9.10200000 1896620460 1896620460 1.00000000
8.19102669 3.92096734 -2.09654379 8 2 6442 9.32000000 1896620462 1896620462 -13.00000000
8.20760822 3.92890477 0.47688523 10 3 6442 9.11200000 1896620464 1896620464 3.00000000
2.90616274 1.39052939 -0.62623513 5 4 6443 3.28200000 1896620467 1896620467 -11.00000000
8.20693779 3.92506361 0.79590625 75 5 6444 9.13200000 1896620469 1896620469 5.00000000
3.66064525 1.74996114 -0.64263278 6 6 6445 4.10800000 1896620471 1896620471 -9.00000000
8.22481441 3.93008566 1.11924803 92 7 6446 9.18400000 1896620474 1896620474 7.00000000
4.93852425 2.35873008 -0.67198753 9 8 6447 5.51400000 1896620476 1896620476 -7.00000000
7.59835577 3.62748599 -0.73664033 13 10 6448 8.45200000 1896620481 1896620481 -5.00000000
8.19145393 3.90712285 -0.47562918 17 12 6450 9.08800000 1896620485 1896620485 -3.00000000
8.26226044 3.93912625 2.11319017 72 13 6451 9.39400000 1896620487 1896620487 13.00000000
8.19197941 3.90386438 -0.15839805 18 14 6452 9.07600000 1896620490 1896620490 -1.00000000
7.96179867 3.79246736 2.36301780 45 15 6453 9.13000000 1896620492 1896620492 15.00000000
2.05050397 0.97365087 -0.60822475 4 0 6460 2.35000000 1896620513 1896620513 -15.00000000
8.20352173 3.89356375 0.15850276 18 1 6461 9.08200000 1896620515 1896620515 1.00000000
8.18705654 3.88399887 -2.09204483 8 2 6462 9.30000000 1896620517 1896620517 -13.00000000
8.20864105 3.89423847 0.47615254 13 3 6462 9.09800000 1896620520 1896620520 3.00000000
2.91454673 1.38205886 -0.62699836 5 4 6463 3.28600000 1896620522 1896620522 -11.00000000
8.22058964 3.89639211 0.79590625 78 5 6464 9.13200000 1896620524 1896620524 5.00000000
3.67387199 1.74055541 -0.64388424 4 6 6465 4.11600000 1896620527 1896620527 -9.00000000
8.23489475 3.89965272 1.11876059 90 7 6466 9.18000000 1896620529 1896620529 7.00000000
4.94672775 2.34147716 -0.67198753 6 8 6467 5.51400000 1896620531 1896620531 -7.00000000
7.58935976 3.59071565 -0.73454863 13 10 6468 8.42800000 1896620536 1896620536 -5.00000000
8.19781971 3.87509131 -0.47521049 17 12 6470 9.08000000 1896620540 1896620540 -3.00000000
8.26538849 3.90526652 2.11049080 75 13 6471 9.38200000 1896620543 1896620543 13.00000000
8.18747520 3.86670566 -0.15804899 16 14 6472 9.05600000 1896620545 1896620545 -1.00000000
7.98022938 3.76712632 2.36457086 47 15 6473 9.13600000 1896620547 1896620547 15.00000000
2.04689813 0.96319717 -0.60615420 4 0 6480 2.34200000 1896620568 1896620568 -15.00000000
8.19534779 3.85469103 0.15808390 21 1 6481 9.05800000 1896620570 1896620570 1.00000000
8.18998337 3.85042238 -2.08934546 8 2 6482 9.28800000 1896620573 1896620573 -13.00000000
8.21133995 3.86046267 0.47552449 13 3 6482 9.08600000 1896620575 1896620575 3.00000000
2.92290688 1.37354672 -0.62776160 5 4 6483 3.29000000 1896620577 1896620577 -11.00000000
8.20348263 3.85327315 0.79294294 78 5 6484 9.09800000 1896620580 1896620580 5.00000000
3.67634916 1.72604156 -0.64325851 6 6 6485 4.11200000 1896620582 1896620582 -9.00000000
8.23048592 3.86245036 1.11632323 92 7 6486 9.16000000 1896620584 1896620584 7.00000000
4.95846510 2.32588148 -0.67247504 9 8 6487 5.51800000 1896620587 1896620587 -7.00000000
8.32142735 3.90335584 1.45577908 2 9 6487 9.30600000 1896620589 1896620589 9.00000000
7.59102392 3.55912709 -0.73350275 13 10 6488 8.41600000 1896620591 1896620591 -5.00000000
8.21129608 3.84645200 -0.47521049 17 12 6490 9.08000000 1896620596 1896620596 -3.00000000
8.26308632 3.86895394 2.10644174 74 13 6491 9.36400000 1896620598 1896620598 13.00000000
8.19367790 3.83471179 -0.15790938 16 14 6492 9.04800000 1896620600 1896620600 -1.00000000
7.98108149 3.73351717 2.36094737 45 15 6493 9.12200000 1896620603 1896620603 15.00000000
2.06408668 0.96293807 -0.61029530 4 0 6499 2.35800000 1896620623 1896620623 -15.00000000
8.18271255 3.81566167 0.15759523 15 1 6500 9.03000000 1896620626 1896620626 1.00000000
8.17444611 3.81007004 -2.08214688 8 2 6501 9.25600000 1896620628 1896620628 -13.00000000
8.22228622 3.83236790 0.47541982 13 3 6501 9.08400000 1896620630 1896620630 3.00000000
2.92388654 1.36218834 -0.62699836 5 4 6502 3.28600000 1896620633 1896620633 -11.00000000
8.20537853 3.82100177 0.79189706 75 5 6503 9.08600000 1896620635 1896620635 5.00000000
3.66414380 1.70550501 -0.64012980 6 6 6504 4.09200000 1896620637 1896620637 -9.00000000
8.22885036 3.82843709 1.11437333 95 7 6505 9.14400000 1896620639 1896620639 7.00000000
4.96075106 2.30691481 -0.67174381 9 8 6506 5.51200000 1896620642 1896620642 -7.00000000
7.59555769 3.53057551 -0.73280549 13 10 6507 8.40800000 1896620646 1896620646 -5.00000000
8.19864559 3.80742407 -0.47374508 17 12 6509 9.05200000 1896620651 1896620651 -3.00000000
8.26703262 3.83742881 2.10419226 75 13 6510 9.35400000 1896620653 1896620653 13.00000000
8.19727898 3.80331159 -0.15773486 14 14 6511 9.03800000 1896620656 1896620656 -1.00000000
8.00679016 3.71493006 2.36508846 45 15 6511 9.13800000 1896620658 1896620658 15.00000000
2.06217480 0.95329529 -0.60874242 4 0 6519 2.35200000 1896620679 1896620679 -15.00000000
8.19235134 3.78539777 0.15752542 12 1 6520 9.02600000 1896620681 1896620681 1.00000000
8.16823483 3.77252460 -2.07719803 8 2 6521 9.23400000 1896620683 1896620683 -13.00000000
8.21566772 3.79443169 0.47426844 13 3 6521 9.06200000 1896620686 1896620686 3.00000000
2.93040609 1.35279655 -0.62737995 5 4 6522 3.28800000 1896620688 1896620688 -11.00000000
8.21323967 3.78983212 0.79137415 75 5 6523 9.08000000 1896620690 1896620690 5.00000000
3.68801260 1.70097768 -0.64325851 6 6 6524 4.11200000 1896620692 1896620692 -9.00000000
8.21512318 3.78722358 1.11071718 99 7 6525 9.11400000 1896620695 1896620695 7.00000000
4.97598457 2.29290748 -0.67271876 9 8 6526 5.52000000 1896620697 1896620697 -7.00000000
7.61869335 3.50904155 -0.73385137 13 10 6527 8.42000000 1896620702 1896620702 -5.00000000
8.19192791 3.76959825 -0.47259369 17 12 6529 9.03000000 1896620706 1896620706 -3.00000000
8.25559139 3.79714775 2.09789348 78 13 6530 9.32600000 1896620709 1896620709 13.00000000
8.19960403 3.76966262 -0.15752542 16 14 6531 9.02600000 1896620711 1896620711 -1.00000000
8.01684189 3.68394542 2.36405325 45 15 6532 9.13400000 1896620713 1896620713 15.00000000
2.06900263 0.94770014 -0.60977769 4 0 6539 2.35600000 1896620734 1896620734 -15.00000000
8.19278812 3.75095105 0.15728109 12 1 6540 9.01200000 1896620736 1896620736 1.00000000
8.18312550 3.74480009 -2.07764792 8 2 6541 9.23600000 1896620739 1896620739 -13.00000000
8.22043896 3.76014042 0.47374508 13 3 6542 9.05200000 1896620741 1896620741 3.00000000
2.92261291 1.33684289 -0.62470865 5 4 6542 3.27400000 1896620743 1896620743 -11.00000000
8.22098255 3.75865412 0.79085124 78 5 6543 9.07400000 1896620745 1896620745 5.00000000
3.70470762 1.69302011 -0.64513576 4 6 6544 4.12400000 1896620748 1896620748 -9.00000000
8.21565342 3.75275087 1.10901105 97 7 6545 9.10000000 1896620750 1896620750 7.00000000
4.97131777 2.26975274 -0.67101258 9 8 6546 5.50600000 1896620752 1896620752 -7.00000000
8.31086540 3.79448915 1.44701874 2 9 6546 9.25000000 1896620755 1896620755 9.00000000
7.63452101 3.48408031 -0.73420000 13 10 6547 8.42400000 1896620757 1896620757 -5.00000000
8.19413280 3.73600864 -0.47196564 17 12 6549 9.01800000 1896620762 1896620762 -3.00000000
8.24219608 3.75618529 2.09114504 73 13 6550 9.29600000 1896620764 1896620764 13.00000000
8.19633484 3.73355722 -0.15721127 16 14 6551 9.00800000 1896620766 1896620766 -1.00000000
8.03604603 3.66054368 2.36612368 45 15 6551 9.14200000 1896620769 1896620769 15.00000000
2.06702065 0.93807715 -0.60822475 4 0 6559 2.35000000 1896620789 1896620789 -15.00000000
8.20218945 3.72067785 0.15721127 12 1 6560 9.00800000 1896620792 1896620792 1.00000000
8.18194866 3.70977497 -2.07404876 8 2 6561 9.22000000 1896620794 1896620794 -13.00000000
8.21532249 3.72317839 0.47269836 13 3 6562 9.03200000 1896620796 1896620796 3.00000000
2.92726159 1.32663286 -0.62470865 5 4 6562 3.27400000 1896620798 1896620798 -11.00000000
8.21045876 3.71924710 0.78858519 78 5 6563 9.04800000 1896620801 1896620801 5.00000000
3.70339680 1.67681885 -0.64388424 6 6 6564 4.11600000 1896620803 1896620803 -9.00000000
8.22146893 3.72077608 1.10803604 95 7 6565 9.09200000 1896620805 1896620805 7.00000000
4.97559309 2.25074959 -0.67052513 6 8 6566 5.50200000 1896620808 1896620808 -7.00000000
7.64300537 3.45576811 -0.73385137 13 10 6567 8.42000000 1896620812 1896620812 -5.00000000
8.19802284 3.70327210 -0.47144228 17 12 6569 9.00800000 1896620817 1896620817 -3.00000000
8.25348186 3.72658992 2.09069514 68 13 6570 9.29400000 1896620819 1896620819 13.00000000
8.19473553 3.69834328 -0.15693204 16 14 6571 8.99200000 1896620822 1896620822 -1.00000000
8.03884315 3.62629938 2.36301780 45 15 6572 9.13000000 1896620824 1896620824 15.00000000
2.06307268 0.92804742 -0.60615420 4 0 6578 2.34200000 1896620845 1896620845 -15.00000000
8.19441986 3.68443751 0.15682733 12 1 6579 8.98600000 1896620847 1896620847 1.00000000
8.18176365 3.67703056 -2.07089949 8 2 6580 9.20600000 1896620849 1896620849 -13.00000000
8.21487045 3.69018602 0.47196564 13 3 6581 9.01800000 1896620851 1896620851 3.00000000
2.93164468 1.31691837 -0.62470865 5 4 6581 3.27400000 1896620854 1896620854 -11.00000000
8.20275402 3.68302274 0.78666770 86 5 6582 9.02600000 1896620856 1896620856 5.00000000
3.69451928 1.65805817 -0.64138132 6 6 6583 4.10000000 1896620858 1896620858 -9.00000000
8.21927261 3.68699241 1.10608613 97 7 6584 9.07600000 1896620861 1896620861 7.00000000
4.99027491 2.23748612 -0.67150009 9 8 6585 5.51000000 1896620863 1896620863 -7.00000000
7.64715052 3.42714453 -0.73315412 13 10 6586 8.41200000 1896620868 1896620868 -5.00000000
8.20843601 3.67524981 -0.47133762 17 12 6588 9.00600000 1896620872 1896620872 -3.00000000
8.25334263 3.69362760 2.08754587 74 13 6589 9.28000000 1896620875 1896620875 13.00000000
8.19782829 3.66706562 -0.15675752 14 14 6590 8.98200000 1896620877 1896620877 -1.00000000
7.12261581 3.18610001 2.09074020 24 15 6590 8.07800000 1896620879 1896620879 15.00000000
2.07688713 0.92555851 -0.60926002 4 0 6598 2.35400000 1896620900 1896620900 -15.00000000
8.19627094 3.65092921 0.15661789 12 1 6599 8.97400000 1896620902 1896620902 1.00000000
8.18030739 3.64210725 -2.06730008 8 2 6600 9.19000000 1896620904 1896620904 -13.00000000
8.21675301 3.65661597 0.47133762 13 3 6601 9.00600000 1896620907 1896620907 3.00000000
2.94877934 1.31226456 -0.62737995 6 4 6601 3.28800000 1896620909 1896620909 -11.00000000
8.21191978 3.65274787 0.78631914 86 5 6602 9.02200000 1896620911 1896620911 5.00000000
3.70389462 1.64675689 -0.64200705 6 6 6603 4.10400000 1896620914 1896620914 -9.00000000
8.21032333 3.64860559 1.10316133 95 7 6604 9.05200000 1896620916 1896620916 7.00000000
5.00893974 2.22488809 -0.67296249 9 8 6605 5.52200000 1896620918 1896620918 -7.00000000
7.66817188 3.40447259 -0.73402566 13 10 6606 8.42200000 1896620923 1896620923 -5.00000000
8.20843506 3.64090610 -0.47060493 17 12 6608 8.99200000 1896620927 1896620927 -3.00000000
8.25193405 3.65847683 2.08394647 74 13 6609 9.26400000 1896620930 1896620930 13.00000000
8.18863964 3.62870550 -0.15633866 18 14 6610 8.95800000 1896620932 1896620932 -1.00000000
7.12188101 3.15449643 2.08711672 47 15 6611 8.06400000 1896620934 1896620934 15.00000000
2.07303596 0.91518235 -0.60718948 4 0 6618 2.34600000 1896620955 1896620955 -15.00000000
8.19067001 3.61422396 0.15626885 12 1 6619 8.95400000 1896620957 1896620957 1.00000000
8.17514038 3.60566664 -2.06280112 8 2 6620 9.17000000 1896620960 1896620960 -13.00000000
8.20570946 3.61743832 0.46997687 13 3 6621 8.98000000 1896620962 1896620962 3.00000000
2.94974923 1.30037951 -0.62661672 5 4 6621 3.28400000 1896620964 1896620964 -11.00000000
8.20638752 3.61602688 0.78457600 86 5 6622 9.00200000 1896620967 1896620967 5.00000000
3.70600462 1.63222539 -0.64138132 6 6 6623 4.10000000 1896620969 1896620969 -9.00000000
8.20484161 3.61192608 1.10072386 97 7 6624 9.03200000 1896620971 1896620971 7.00000000
5.01304150 2.20579123 -0.67247504 9 8 6625 5.51800000 1896620974 1896620974 -7.00000000
7.67636108 3.37608075 -0.73367703 13 10 6626 8.41800000 1896620978 1896620978 -5.00000000
8.19183731 3.59937620 -0.46893016 17 12 6628 8.96000000 1896620983 1896620983 -3.00000000
8.25216389 3.62416482 2.08079720 68 13 6629 9.25000000 1896620985 1896620985 13.00000000
8.19393158 3.59688473 -0.15619904 20 14 6630 8.95000000 1896620987 1896620987 -1.00000000
7.13584042 3.13241506 2.08815217 45 15 6630 8.06800000 1896620990 1896620990 15.00000000
2.08329797 0.91103667 -0.60926002 4 0 6638 2.35400000 1896621010 1896621010 -15.00000000
8.18674564 3.57840300 0.15595470 15 1 6639 8.93600000 1896621013 1896621013 1.00000000
8.18053341 3.57398725 -2.06100154 8 2 6640 9.16200000 1896621015 1896621015 -13.00000000
8.20181274 3.58157945 0.46903485 13 3 6641 8.96200000 1896621017 1896621017 3.00000000
2.95067215 1.28850365 -0.62585348 5 4 6641 3.28000000 1896621020 1896621020 -11.00000000
8.20435143 3.58098316 0.78318149 75 5 6642 8.98600000 1896621022 1896621022 5.00000000
3.71711135 1.62164879 -0.64231992 6 6 6643 4.10600000 1896621024 1896621024 -9.00000000
8.20648193 3.57850289 1.09926152 95 7 6644 9.02000000 1896621027 1896621027 7.00000000
5.00069332 2.17955446 -0.66979390 9 8 6645 5.49600000 1896621029 1896621029 -7.00000000
7.69357872 3.35165191 -0.73420000 13 10 6646 8.42400000 1896621033 1896621033 -5.00000000
8.18603802 3.56278896 -0.46788344 17 12 6648 8.94000000 1896621038 1896621038 -3.00000000
8.25046921 3.58911824 2.07719803 64 13 6649 9.23400000 1896621040 1896621040 13.00000000
8.19176674 3.56188154 -0.15591981 18 14 6650 8.93400000 1896621043 1896621043 -1.00000000
7.14727354 3.10623980 2.08815217 42 15 6651 8.06800000 1896621045 1896621045 15.00000000
2.07921743 0.90105057 -0.60718948 4 0 6657 2.34600000 1896621066 1896621066 -15.00000000
8.19306183 3.54885054 0.15584999 18 1 6658 8.93000000 1896621068 1896621068 1.00000000
8.17803383 3.54064608 -2.05740237 8 2 6659 9.14600000 1896621070 1896621070 -13.00000000
8.20631313 3.55118871 0.46861616 13 3 6660 8.95400000 1896621073 1896621073 3.00000000
2.95673037 1.27949154 -0.62623513 6 4 6660 3.28200000 1896621075 1896621075 -11.00000000
8.19058037 3.54268336 0.78074116 78 5 6661 8.95800000 1896621077 1896621077 5.00000000
3.72428155 1.61009729 -0.64263278 6 6 6662 4.10800000 1896621080 1896621080 -9.00000000
8.21465874 3.54969478 1.09877396 95 7 6663 9.01600000 1896621082 1896621082 7.00000000
5.02065039 2.16846919 -0.67150009 9 8 6664 5.51000000 1896621084 1896621084 -7.00000000
7.69184637 3.32059288 -0.73297977 13 10 6665 8.41000000 1896621089 1896621089 -5.00000000
8.19597340 3.53483248 -0.46777877 17 12 6667 8.93800000 1896621093 1896621093 -3.00000000
8.25874615 3.56019616 2.07629824 66 13 6668 9.23000000 1896621096 1896621096 13.00000000
8.18516827 3.52678418 -0.15557075 18 14 6669 8.91400000 1896621098 1896621098 -1.00000000
7.15167427 3.08147740 2.08659911 45 15 6669 8.06200000 1896621100 1896621100 15.00000000
2.08767557 0.89607310 -0.60874242 4 0 6677 2.35200000 1896621121 1896621121 -15.00000000
8.19253635 3.51471114 0.15560566 21 1 6678 8.91600000 1896621123 1896621123 1.00000000
8.18855190 3.51130986 -2.05695248 8 2 6679 9.14400000 1896621126 1896621126 -13.00000000
8.20213699 3.51544046 0.46767411 10 3 6680 8.93600000 1896621128 1896621128 3.00000000
2.95576525 1.26684260 -0.62509024 6 4 6680 3.27600000 1896621130 1896621130 -11.00000000
8.18458271 3.50622559 0.77899802 78 5 6681 8.93800000 1896621133 1896621133 5.00000000
3.71898365 1.59242201 -0.64075559 6 6 6682 4.09600000 1896621135 1896621135 -9.00000000
8.22334957 3.51943660 1.09828651 97 7 6683 9.01200000 1896621137 1896621137 7.00000000
5.04278994 2.15717649 -0.67344999 9 8 6684 5.52600000 1896621139 1896621139 -7.00000000
7.69056702 3.28823996 -0.73175961 13 10 6685 8.39600000 1896621144 1896621144 -5.00000000
8.20275307 3.50384808 -0.46746477 17 12 6687 8.93200000 1896621149 1896621149 -3.00000000
8.26395416 3.52828526 2.07449865 68 13 6688 9.22200000 1896621151 1896621151 13.00000000
8.19191170 3.49583650 -0.15546604 20 14 6689 8.90800000 1896621153 1896621153 -1.00000000
7.15403557 3.05145478 2.08401084 45 15 6690 8.05200000 1896621156 1896621156 15.00000000
2.08367920 0.88575727 -0.60667187 4 0 6697 2.34400000 1896621176 1896621176 -15.00000000
8.18451023 3.47749043 0.15522170 15 1 6698 8.89400000 1896621179 1896621179 1.00000000
8.17923450 3.47356415 -2.05155373 8 2 6699 9.12000000 1896621181 1896621181 -13.00000000
8.21068192 3.48522758 0.46746477 10 3 6700 8.93200000 1896621183 1896621183 3.00000000
2.96920514 1.26035285 -0.62699836 6 4 6700 3.28600000 1896621186 1896621186 -11.00000000
8.18943501 3.47452211 0.77830076 75 5 6701 8.93000000 1896621188 1896621188 5.00000000
3.72451973 1.57943070 -0.64075559 6 6 6702 4.09600000 1896621190 1896621190 -9.00000000
8.20816898 3.47908998 1.09463048 87 7 6703 8.98200000 1896621192 1896621192 7.00000000
5.05028915 2.13956070 -0.67344999 6 8 6704 5.52600000 1896621195 1896621195 -7.00000000
7.70750237 3.26370549 -0.73228258 13 10 6705 8.40200000 1896621199 1896621199 -5.00000000
8.18366241 3.46196532 -0.46568534 17 12 6707 8.89800000 1896621204 1896621204 -3.00000000
8.26904011 3.49638152 2.07269907 68 13 6708 9.21400000 1896621206 1896621206 13.00000000
8.18748760 3.46021414 -0.15515189 16 14 6709 8.89000000 1896621209 1896621209 -1.00000000
7.17123318 3.03072262 2.08608150 42 15 6709 8.06000000 1896621211 1896621211 15.00000000
2.09209991 0.88072711 -0.60822475 4 0 6717 2.35000000 1896621232 1896621232 -15.00000000
8.18922615 3.44579792 0.15508208 15 1 6718 8.88600000 1896621234 1896621234 1.00000000
2.47535634 1.04105246 -0.61996508 4 2 6719 2.75600000 1896621236 1896621236 -13.00000000
8.20254421 3.44803190 0.46631336 13 3 6720 8.91000000 1896621239 1896621239 3.00000000
2.96453738 1.24617672 -0.62509024 6 4 6720 3.27600000 1896621241 1896621241 -11.00000000
8.20335007 3.44668627 0.77847511 82 5 6721 8.93200000 1896621243 1896621243 5.00000000
3.73365283 1.56794977 -0.64138132 6 6 6722 4.10000000 1896621245 1896621245 -9.00000000
8.20378971 3.44350243 1.09243679 92 7 6723 8.96400000 1896621248 1896621248 7.00000000
5.04674387 2.11731100 -0.67198753 6 8 6724 5.51400000 1896621250 1896621250 -7.00000000
7.72435999 3.23909307 -0.73280549 13 10 6725 8.40800000 1896621255 1896621255 -5.00000000
8.18464470 3.42874742 -0.46505731 17 12 6727 8.88600000 1896621259 1896621259 -3.00000000
8.25962448 3.45846391 2.06730008 70 13 6728 9.19000000 1896621262 1896621262 13.00000000
8.19398212 3.42929721 -0.15504718 16 14 6729 8.88400000 1896621264 1896621264 -1.00000000
7.18889713 3.00865507 2.08815217 42 15 6729 8.06800000 1896621266 1896621266 15.00000000
2.09500909 0.87378460 -0.60822475 4 0 6736 2.35000000 1896621287 1896621287 -15.00000000
8.19137859 3.41477513 0.15490755 12 1 6737 8.87600000 1896621289 1896621289 1.00000000
2.47159958 1.02983999 -0.61816549 4 2 6738 2.74800000 1896621292 1896621292 -13.00000000
8.19918251 3.41466951 0.46547601 13 3 6739 8.89400000 1896621294 1896621294 3.00000000
2.97046590 1.23709393 -0.62547189 6 4 6739 3.27800000 1896621296 1896621296 -11.00000000
8.20369816 3.41487002 0.77742922 82 5 6740 8.92000000 1896621298 1896621298 5.00000000
3.73336029 1.55328345 -0.64044273 6 6 6741 4.09400000 1896621301 1896621301 -9.00000000
8.21149826 3.41475415 1.09194934 92 7 6742 8.96000000 1896621303 1896621303 7.00000000
5.04273891 2.09599233 -0.67052513 6 8 6743 5.50200000 1896621305 1896621305 -7.00000000
7.73321867 3.21269584 -0.73263115 13 10 6744 8.40600000 1896621310 1896621310 -5.00000000
8.17567825 3.39316583 -0.46390593 17 12 6746 8.86400000 1896621315 1896621315 -3.00000000
8.25664806 3.42508149 2.06370091 70 13 6747 9.17400000 1896621317 1896621317 13.00000000
8.18129444 3.39214969 -0.15459342 18 14 6748 8.85800000 1896621319 1896621319 -1.00000000
7.19883442 2.98479939 2.08815217 45 15 6748 8.06800000 1896621321 1896621321 15.00000000
2.09447527 0.86499155 -0.60718948 4 0 6756 2.34600000 1896621342 1896621342 -15.00000000
8.19400692 3.38234615 0.15473303 12 1 6757 8.86600000 1896621345 1896621345 1.00000000
2.47878242 1.02269268 -0.61906528 4 2 6758 2.75200000 1896621347 1896621347 -13.00000000
8.19812775 3.38069820 0.46474329 13 3 6759 8.88000000 1896621349 1896621349 3.00000000
2.97295117 1.22596908 -0.62509024 6 4 6759 3.27600000 1896621351 1896621351 -11.00000000
8.19714832 3.37862062 0.77568609 75 5 6760 8.90000000 1896621354 1896621354 5.00000000
3.75885057 1.54851902 -0.64388424 6 6 6761 4.11600000 1896621356 1896621356 -9.00000000
8.21602535 3.38304663 1.09097433 95 7 6762 8.95200000 1896621358 1896621358 7.00000000
5.05369616 2.07988811 -0.67101258 6 8 6763 5.50600000 1896621361 1896621361 -7.00000000
7.74622869 3.18644023 -0.73280549 13 10 6764 8.40800000 1896621365 1896621365 -5.00000000
8.18932056 3.36536574 -0.46401060 17 12 6766 8.86600000 1896621370 1896621370 -3.00000000
8.25773716 3.39179707 2.06100154 70 13 6767 9.16200000 1896621372 1896621372 13.00000000
8.17273712 3.35521698 -0.15420946 16 14 6768 8.83600000 1896621374 1896621374 -1.00000000
7.19900274 2.95399404 2.08504629 42 15 6769 8.05600000 1896621377 1896621377 15.00000000
2.09733224 0.85804123 -0.60718948 4 0 6775 2.34600000 1896621398 1896621398 -15.00000000
8.18481731 3.34682989 0.15434909 12 1 6776 8.84400000 1896621400 1896621400 1.00000000
2.49839520 1.02110255 -0.62311441 4 2 6777 2.77000000 1896621402 1896621402 -13.00000000
8.20744419 3.35273838 0.46463862 13 3 6778 8.87800000 1896621404 1896621404 3.00000000
2.97518277 1.21536124 -0.62470865 6 4 6778 3.27400000 1896621407 1896621407 -11.00000000
8.19170570 3.34464121 0.77411729 78 5 6779 8.88200000 1896621409 1896621409 5.00000000
3.74567556 1.52858186 -0.64075559 6 6 6780 4.09600000 1896621411 1896621411 -9.00000000
8.21617031 3.35128427 1.08951187 95 7 6781 8.94000000 1896621414 1896621414 7.00000000
5.07159472 2.06761456 -0.67247504 6 8 6782 5.51800000 1896621416 1896621416 -7.00000000
7.76413298 3.16374278 -0.73350275 13 10 6783 8.41600000 1896621421 1896621421 -5.00000000
8.18748569 3.33291936 -0.46327788 17 12 6785 8.85200000 1896621425 1896621425 -3.00000000
8.26893997 3.36439490 2.06100154 68 13 6786 9.16200000 1896621427 1896621427 13.00000000
8.17640877 3.32508349 -0.15406984 16 14 6787 8.82800000 1896621430 1896621430 -1.00000000
7.21182632 2.93281865 2.08608150 42 15 6787 8.06000000 1896621432 1896621432 15.00000000
2.10031462 0.85071498 -0.60718948 4 0 6795 2.34600000 1896621453 1896621453 -15.00000000
8.17606163 3.30998492 0.15396513 12 1 6796 8.82200000 1896621455 1896621455 1.00000000
2.49110556 1.00798953 -0.62041503 4 2 6797 2.75800000 1896621457 1896621457 -13.00000000
8.20058155 3.31658030 0.46359190 13 3 6798 8.85800000 1896621460 1896621460 3.00000000
2.98122692 1.20570457 -0.62509024 6 4 6798 3.27600000 1896621462 1896621462 -11.00000000
8.19040012 3.31079960 0.77289712 78 5 6799 8.86800000 1896621464 1896621464 5.00000000
3.74366236 1.51253784 -0.63950408 6 6 6800 4.08800000 1896621467 1896621467 -9.00000000
8.20573044 3.31366444 1.08658707 95 7 6801 8.91600000 1896621469 1896621469 7.00000000
5.07141781 2.04692674 -0.67150009 6 8 6802 5.51000000 1896621471 1896621471 -7.00000000
7.76404285 3.13214922 -0.73245686 13 10 6803 8.40400000 1896621476 1896621476 -5.00000000
8.18424988 3.29834676 -0.46244052 17 12 6805 8.83600000 1896621480 1896621480 -3.00000000
8.26978779 3.33114171 2.05830216 66 13 6806 9.15000000 1896621483 1896621483 13.00000000
8.18240070 3.29428172 -0.15396513 18 14 6807 8.82200000 1896621485 1896621485 -1.00000000
7.22560406 2.90906978 2.08711672 42 15 6807 8.06400000 1896621487 1896621487 15.00000000
2.11059117 0.84588593 -0.60926002 4 0 6816 2.35400000 1896621508 1896621508 -15.00000000
8.17700005 3.27553415 0.15375569 12 1 6817 8.81000000 1896621510 1896621510 1.00000000
2.48935580 0.99667937 -0.61906528 4 2 6818 2.75200000 1896621513 1896621513 -13.00000000
8.20654678 3.28570771 0.46327788 13 3 6818 8.85200000 1896621515 1896621515 3.00000000
2.98744893 1.19549918 -0.62547189 6 4 6819 3.27800000 1896621517 1896621517 -11.00000000
8.20063019 3.28001809 0.77272284 86 5 6820 8.86600000 1896621520 1896621520 5.00000000
3.75651789 1.50173950 -0.64075559 6 6 6821 4.09600000 1896621522 1896621522 -9.00000000
8.19754314 3.27546453 1.08390594 99 7 6822 8.89400000 1896621524 1896621524 7.00000000
5.06966829 2.02464414 -0.67028141 6 8 6823 5.50000000 1896621526 1896621526 -7.00000000
7.78842354 3.10884190 -0.73367703 13 10 6824 8.41800000 1896621531 1896621531 -5.00000000
8.18700886 3.26462889 -0.46191716 17 12 6826 8.82600000 1896621536 1896621536 -3.00000000
8.27108002 3.29647994 2.05560279 66 13 6827 9.13800000 1896621538 1896621538 13.00000000
8.18698883 3.26130962 -0.15382551 16 14 6828 8.81400000 1896621540 1896621540 -1.00000000
7.23262835 2.88113713 2.08608150 42 15 6828 8.06000000 1896621543 1896621543 15.00000000
2.11353111 0.83851343 -0.60926002 4 0 6836 2.35400000 1896621563 1896621563 -15.00000000
8.18652534 3.24623418 0.15372080 12 1 6837 8.80800000 1896621566 1896621566 1.00000000
2.49281979 0.98798382 -0.61906528 4 2 6838 2.75200000 1896621568 1896621568 -13.00000000
8.19810867 3.24751592 0.46212649 13 3 6839 8.83000000 1896621570 1896621570 3.00000000
2.99342895 1.18578672 -0.62585348 6 4 6839 3.28000000 1896621573 1896621573 -11.00000000
8.19906235 3.24623847 0.77150261 82 5 6840 8.85200000 1896621575 1896621575 5.00000000
3.75990033 1.48789084 -0.64044273 6 6 6841 4.09400000 1896621577 1896621577 -9.00000000
8.19600487 3.24171901 1.08219981 95 7 6842 8.88000000 1896621579 1896621579 7.00000000
5.08593512 2.01058435 -0.67150009 6 8 6843 5.51000000 1896621582 1896621582 -7.00000000
7.80664015 3.08456492 -0.73437428 13 10 6844 8.42600000 1896621586 1896621586 -5.00000000
8.19278049 3.23383117 -0.46160313 17 12 6846 8.82000000 1896621591 1896621591 -3.00000000
8.26803398 3.26186705 2.05200362 60 13 6847 9.12200000 1896621593 1896621593 13.00000000
8.17786026 3.22464275 -0.15344156 18 14 6848 8.79200000 1896621596 1896621596 -1.00000000
7.24853134 2.85673404 2.08763433 40 15 6849 8.06600000 1896621598 1896621598 15.00000000
2.10191560 0.82584846 -0.60511893 4 0 6855 2.33800000 1896621619 1896621619 -15.00000000
8.18421650 3.21395206 0.15347646 15 1 6856 8.79400000 1896621621 1896621621 1.00000000
2.50152421 0.98184794 -0.62041503 4 2 6857 2.75800000 1896621623 1896621623 -13.00000000
8.18967819 3.21444750 0.46107978 13 3 6857 8.81000000 1896621626 1896621626 3.00000000
2.99186182 1.17370272 -0.62470865 5 4 6858 3.27400000 1896621628 1896621628 -11.00000000
8.19865322 3.21466780 0.77045679 93 5 6859 8.84000000 1896621630 1896621630 5.00000000
3.77217031 1.47829735 -0.64169419 6 6 6860 4.10200000 1896621632 1896621632 -9.00000000
8.19561958 3.21017838 1.08073735 95 7 6861 8.86800000 1896621635 1896621635 7.00000000
5.08887768 1.99226046 -0.67101258 6 8 6862 5.50600000 1896621637 1896621637 -7.00000000
7.80383825 3.05357814 -0.73315412 13 10 6863 8.41200000 1896621642 1896621642 -5.00000000
8.18671799 3.20010090 -0.46066108 17 12 6865 8.80200000 1896621646 1896621646 -3.00000000
8.28243542 3.23584962 2.05290341 64 13 6866 9.12600000 1896621649 1896621649 13.00000000
8.17733192 3.19314218 -0.15323213 16 14 6867 8.78000000 1896621651 1896621651 -1.00000000
7.24847269 2.83043456 2.08504629 40 15 6867 8.05600000 1896621653 1896621653 15.00000000
2.09758353 0.81570566 -0.60304838 4 0 6875 2.33000000 1896621674 1896621674 -15.00000000
8.17860985 3.17884445 0.15316232 15 1 6876 8.77600000 1896621676 1896621676 1.00000000
2.49948692 0.97099298 -0.61906528 4 2 6877 2.75200000 1896621678 1896621678 -13.00000000
8.20271111 3.18656397 0.46118444 13 3 6877 8.81200000 1896621681 1896621681 3.00000000
2.99045014 1.16112018 -0.62356383 6 4 6878 3.26800000 1896621683 1896621683 -11.00000000
8.17267609 3.17161298 0.76697052 78 5 6879 8.80000000 1896621685 1896621685 5.00000000
3.76073241 1.45869195 -0.63887835 6 6 6880 4.08400000 1896621688 1896621688 -9.00000000
8.20862675 3.18226838 1.08098114 99 7 6881 8.87000000 1896621690 1896621690 7.00000000
5.09209919 1.97305036 -0.67052513 9 8 6882 5.50200000 1896621692 1896621692 -7.00000000
7.82559729 3.03063607 -0.73420000 13 10 6883 8.42400000 1896621697 1896621697 -5.00000000
8.19411278 3.17006326 -0.46045175 17 12 6885 8.79800000 1896621702 1896621702 -3.00000000
8.29731560 3.20832443 2.05380321 57 13 6886 9.13000000 1896621704 1896621704 13.00000000
8.17910194 3.16097426 -0.15305761 16 14 6887 8.77000000 1896621706 1896621706 -1.00000000
7.24749708 2.80093694 2.08194041 42 15 6887 8.04400000 1896621708 1896621708 15.00000000
2.10416532 0.80939931 -0.60408366 4 0 6896 2.33400000 1896621729 1896621729 -15.00000000
8.16967487 3.14095330 0.15277837 15 1 6897 8.75400000 1896621731 1896621731 1.00000000
2.49939084 0.96042740 -0.61816549 4 2 6898 2.74800000 1896621734 1896621734 -13.00000000
8.20556355 3.15146399 0.46066108 13 3 6899 8.80200000 1896621736 1896621736 3.00000000
3.00568223 1.15437520 -0.62585348 5 4 6899 3.28000000 1896621738 1896621738 -11.00000000
8.17494488 3.13806748 0.76609898 75 5 6900 8.79000000 1896621741 1896621741 5.00000000
3.76974201 1.44631362 -0.63950408 4 6 6901 4.08800000 1896621743 1896621743 -9.00000000
8.19984627 3.14434266 1.07830000 97 7 6902 8.84800000 1896621745 1896621745 7.00000000
5.09188175 1.95153201 -0.66955018 6 8 6903 5.49400000 1896621748 1896621748 -7.00000000
8.29860115 3.18055010 1.40759730 2 9 6903 8.99800000 1896621750 1896621750 9.00000000
7.82548904 2.99765730 -0.73315412 13 10 6904 8.41200000 1896621752 1896621752 -5.00000000
8.31294918 3.18272161 1.73025596 3 11 6905 9.06800000 1896621755 1896621755 11.00000000
8.19448471 3.13572621 -0.45982370 17 12 6906 8.78600000 1896621757 1896621757 -3.00000000
8.31629944 3.18067646 2.05560279 56 13 6907 9.13800000 1896621759 1896621759 13.00000000
8.17942619 3.12669086 -0.15284817 18 14 6908 8.75800000 1896621761 1896621761 -1.00000000
7.26180744 2.77446699 2.08297563 45 15 6909 8.04800000 1896621764 1896621764 15.00000000
2.11600518 0.80548584 -0.60667187 4 0 6916 2.34400000 1896621784 1896621784 -15.00000000
8.17124367 3.10886121 0.15260383 15 1 6917 8.74400000 1896621787 1896621787 1.00000000
2.50637102 0.95308232 -0.61906528 4 2 6918 2.75200000 1896621789 1896621789 -13.00000000
8.19356632 3.11571717 0.45940503 13 3 6918 8.77800000 1896621791 1896621791 3.00000000
3.00602293 1.14248145 -0.62509024 5 4 6919 3.27600000 1896621794 1896621794 -11.00000000
8.18957424 3.11092734 0.76644760 78 5 6920 8.79400000 1896621796 1896621796 5.00000000
3.77846122 1.43454826 -0.64012980 4 6 6921 4.09200000 1896621798 1896621798 -9.00000000
8.19406891 3.10936213 1.07610631 99 7 6922 8.83000000 1896621801 1896621801 7.00000000
5.10979939 1.93796980 -0.67101258 6 8 6923 5.50600000 1896621803 1896621803 -7.00000000
7.84149408 2.97244167 -0.73367703 13 10 6924 8.41800000 1896621808 1896621808 -5.00000000
8.18109894 3.09790826 -0.45846298 17 12 6926 8.76000000 1896621812 1896621812 -3.00000000
8.33464146 3.15438676 2.05740237 56 13 6927 9.14600000 1896621814 1896621814 13.00000000
8.17906761 3.09387541 -0.15263875 14 14 6928 8.74600000 1896621817 1896621817 -1.00000000
7.27144814 2.74910164 2.08297563 42 15 6929 8.04800000 1896621819 1896621819 15.00000000
2.12408781 0.80050832 -0.60822475 4 0 6935 2.35000000 1896621840 1896621840 -15.00000000
8.17028046 3.07751799 0.15239441 18 1 6936 8.73200000 1896621842 1896621842 1.00000000
2.50039887 0.94133264 -0.61681581 4 2 6937 2.74200000 1896621844 1896621844 -13.00000000
8.19263840 3.08430719 0.45877698 10 3 6937 8.76600000 1896621847 1896621847 3.00000000
3.01163268 1.13319826 -0.62547189 5 4 6938 3.27800000 1896621849 1896621849 -11.00000000
8.18679142 3.07884336 0.76522744 78 5 6939 8.78000000 1896621851 1896621851 5.00000000
3.79059386 1.42479062 -0.64138132 4 6 6940 4.10000000 1896621854 1896621854 -9.00000000
8.19504356 3.07868195 1.07488763 97 7 6941 8.82000000 1896621856 1896621856 7.00000000
5.10504770 1.91682768 -0.66955018 9 8 6942 5.49400000 1896621858 1896621858 -7.00000000
7.85130835 2.94642186 -0.73367703 13 10 6943 8.41800000 1896621863 1896621863 -5.00000000
8.18384647 3.06795740 -0.45804429 17 12 6945 8.75200000 1896621867 1896621867 -3.00000000
8.33775711 3.12399578 2.05560279 57 13 6946 9.13800000 1896621870 1896621870 13.00000000
8.18179226 3.06393051 -0.15249912 14 14 6947 8.73800000 1896621872 1896621872 -1.00000000
7.28776169 2.72768235 2.08504629 42 15 6948 8.05600000 1896621874 1896621874 15.00000000
2.11962867 0.79038912 -0.60615420 4 0 6955 2.34200000 1896621895 1896621895 -15.00000000
8.18097305 3.04897976 0.15239441 12 1 6956 8.73200000 1896621897 1896621897 1.00000000
2.52193117 0.93940121 -0.62131482 4 2 6957 2.76200000 1896621900 1896621900 -13.00000000
8.19025326 3.05081058 0.45804429 10 3 6957 8.75200000 1896621902 1896621902 3.00000000
3.00637031 1.11925387 -0.62356383 5 4 6958 3.26800000 1896621904 1896621904 -11.00000000
8.17881584 3.04329920 0.76348430 78 5 6959 8.76000000 1896621907 1896621907 5.00000000
3.80665302 1.41568160 -0.64325851 4 6 6960 4.11200000 1896621909 1896621909 -9.00000000
8.19457531 3.04590750 1.07342517 95 7 6961 8.80800000 1896621911 1896621911 7.00000000
5.10426426 1.89623094 -0.66857523 6 8 6962 5.48600000 1896621914 1896621914 -7.00000000
8.26795292 3.07153940 1.39695978 2 9 6962 8.93000000 1896621916 1896621916 9.00000000
7.87088442 2.92246532 -0.73454863 13 10 6963 8.42800000 1896621918 1896621918 -5.00000000
8.22748280 3.05323696 1.70583236 9 11 6964 8.94000000 1896621920 1896621920 11.00000000
8.18326950 3.03520441 -0.45741627 17 12 6965 8.74000000 1896621923 1896621923 -3.00000000
8.27552223 3.06777811 2.03760672 45 13 6966 9.05800000 1896621925 1896621925 13.00000000
8.16993523 3.02701497 -0.15208027 14 14 6967 8.71400000 1896621927 1896621927 -1.00000000
7.28455687 2.69753051 2.08142281 45 15 6968 8.04200000 1896621930 1896621930 15.00000000
2.11512494 0.78031081 -0.60408366 4 0 6975 2.33400000 1896621950 1896621950 -15.00000000
8.17468071 3.01417804 0.15208027 12 1 6976 8.71400000 1896621953 1896621953 1.00000000
2.51970935 0.92857075 -0.61996508 10 2 6977 2.75600000 1896621955 1896621955 -13.00000000
8.18960857 3.01805878 0.45741627 10 3 6977 8.74000000 1896621957 1896621957 3.00000000
3.01762795 1.11146700 -0.62509024 5 4 6978 3.27600000 1896621960 1896621960 -11.00000000
8.17817020 3.01060152 0.76243842 78 5 6979 8.74800000 1896621962 1896621962 5.00000000
3.78561735 1.39283597 -0.63887835 4 6 6980 4.08400000 1896621964 1896621964 -9.00000000
8.21261024 3.02002501 1.07440019 92 7 6981 8.81600000 1896621966 1896621966 7.00000000
5.11085224 1.87840211 -0.66857523 9 8 6982 5.48600000 1896621969 1896621969 -7.00000000
7.86046553 2.88741612 -0.73263115 13 10 6983 8.40600000 1896621973 1896621973 -5.00000000
8.18818951 3.00455689 -0.45710224 12 12 6985 8.73400000 1896621978 1896621978 -3.00000000
8.19287109 3.00465250 2.01466155 72 13 6986 8.95600000 1896621980 1896621980 13.00000000
8.17294216 2.99572539 -0.15194064 10 14 6987 8.70600000 1896621983 1896621983 -1.00000000
7.28983450 2.67202950 2.08038759 45 15 6987 8.03800000 1896621985 1896621985 15.00000000
2.12509513 0.77557218 -0.60615420 4 0 6995 2.34200000 1896622006 1896622006 -15.00000000
8.15885162 2.97603106 0.15159160 12 1 6996 8.68600000 1896622008 1896622008 1.00000000
2.51744270 0.91776729 -0.61861539 11 2 6997 2.75000000 1896622010 1896622010 -13.00000000
8.18883514 2.98534894 0.45678821 13 3 6997 8.72800000 1896622013 1896622013 3.00000000
3.01595545 1.09891045 -0.62394542 5 4 6998 3.27000000 1896622015 1896622015 -11.00000000
8.17926884 2.97862720 0.76156688 75 5 6999 8.73800000 1896622017 1896622017 5.00000000
3.77560616 1.37420821 -0.63637543 4 6 7000 4.06800000 1896622019 1896622019 -9.00000000
8.19698524 2.98183870 1.07098782 90 7 7001 8.78800000 1896622022 1896622022 7.00000000
5.13603401 1.86733341 -0.67101258 6 8 7002 5.50600000 1896622024 1896622024 -7.00000000
8.22236156 2.98944497 1.38569653 100 9 7002 8.85800000 1896622026 1896622026 9.00000000
7.88547707 2.86540413 -0.73402566 13 10 7003 8.42200000 1896622029 1896622029 -5.00000000
8.20615578 2.98031020 1.69705522 84 11 7004 8.89400000 1896622031 1896622031 11.00000000
8.15920258 2.96164584 -0.45490414 12 12 7005 8.69200000 1896622033 1896622033 -3.00000000
8.21613312 2.98068786 2.01781106 90 13 7006 8.97000000 1896622036 1896622036 13.00000000
8.17206955 2.96308827 -0.15173122 14 14 7007 8.69400000 1896622038 1896622038 -1.00000000
7.30321169 2.64660954 2.08142281 45 15 7008 8.04200000 1896622040 1896622040 15.00000000
2.12778926 0.76814950 -0.60615420 4 0 7015 2.34200000 1896622061 1896622061 -15.00000000
8.17107105 2.94821191 0.15162651 12 1 7016 8.68800000 1896622063 1896622063 1.00000000
2.51513147 0.90699095 -0.61726570 9 2 7017 2.74400000 1896622066 1896622066 -13.00000000
8.18656921 2.95057487 0.45605552 10 3 7018 8.71400000 1896622068 1896622068 3.00000000
3.02716088 1.09103882 -0.62547189 5 4 7018 3.27800000 1896622070 1896622070 -11.00000000
8.17836952 2.94600677 0.76052099 75 5 7019 8.72600000 1896622072 1896622072 5.00000000
3.78409719 1.36235881 -0.63700116 6 6 7020 4.07200000 1896622075 1896622075 -9.00000000
8.19240093 2.94783092 1.06903791 92 7 7021 8.77200000 1896622077 1896622077 7.00000000
5.13131285 1.84536326 -0.66955018 6 8 7022 5.49400000 1896622079 1896622079 -7.00000000
8.20672321 2.95136642 1.38131630 86 9 7022 8.83000000 1896622082 1896622082 9.00000000
7.90293121 2.84055686 -0.73472291 13 10 7023 8.43000000 1896622084 1896622084 -5.00000000
8.19803238 2.94500971 1.69323897 84 11 7024 8.87400000 1896622086 1896622086 11.00000000
8.15633202 2.92842245 -0.45417142 12 12 7025 8.67800000 1896622089 1896622089 -3.00000000
8.20814514 2.94540811 2.01331186 106 13 7026 8.95000000 1896622091 1896622091 13.00000000
8.16730404 2.92914391 -0.15145199 14 14 7027 8.67800000 1896622093 1896622093 -1.00000000
7.30831099 2.62107229 2.08038759 45 15 7027 8.03800000 1896622096 1896622096 15.00000000
2.14319324 0.76526487 -0.60977769 4 0 7035 2.35600000 1896622116 1896622116 -15.00000000
8.17189503 2.91631103 0.15145199 12 1 7036 8.67800000 1896622119 1896622119 1.00000000
2.51828218 0.89820600 -0.61726570 4 2 7037 2.74400000 1896622121 1896622121 -13.00000000
8.17800617 2.91527390 0.45500880 13 3 7038 8.69400000 1896622123 1896622123 3.00000000
3.02355385 1.07782853 -0.62394542 5 4 7038 3.27000000 1896622125 1896622125 -11.00000000
8.18484974 2.91610360 0.76017237 75 5 7039 8.72200000 1896622128 1896622128 5.00000000
3.80743885 1.35576797 -0.64012980 4 6 7040 4.09200000 1896622130 1896622130 -9.00000000
8.19141960 2.91522264 1.06757545 92 7 7041 8.76000000 1896622132 1896622132 7.00000000
5.14146376 1.82877088 -0.67003763 6 8 7042 5.49800000 1896622135 1896622135 -7.00000000
8.20631790 2.91729760 1.37943912 91 9 7043 8.81800000 1896622137 1896622137 9.00000000
7.93908024 2.82229638 -0.73716325 13 10 7043 8.45800000 1896622139 1896622139 -5.00000000
8.20086288 2.91374612 1.69171250 78 11 7044 8.86600000 1896622142 1896622142 11.00000000
8.15897655 2.89726043 -0.45375273 12 12 7045 8.67000000 1896622144 1896622144 -3.00000000
8.18899250 2.90630984 2.00611353 106 13 7046 8.91800000 1896622146 1896622146 13.00000000
8.16994095 2.89794278 -0.15131237 14 14 7047 8.67000000 1896622149 1896622149 -1.00000000
7.32333136 2.59620476 2.08194041 42 15 7048 8.04400000 1896622151 1896622151 15.00000000
2.13479018 0.75429201 -0.60667187 4 0 7054 2.34400000 1896622172 1896622172 -15.00000000
8.17963600 2.88853025 0.15141708 12 1 7055 8.67600000 1896622174 1896622174 1.00000000
2.52308464 0.89049870 -0.61771560 4 2 7056 2.74600000 1896622176 1896622176 -13.00000000
8.18386173 2.88680983 0.45479947 13 3 7057 8.69000000 1896622178 1896622178 3.00000000
3.02896285 1.06844914 -0.62432700 5 4 7057 3.27200000 1896622181 1896622181 -11.00000000
8.17944241 2.88364601 0.75877792 75 5 7058 8.70600000 1896622183 1896622183 5.00000000
3.81191373 1.34313464 -0.64012980 4 6 7059 4.09200000 1896622185 1896622185 -9.00000000
8.20104218 2.88804293 1.06757545 92 7 7060 8.76000000 1896622188 1896622188 7.00000000
5.15499020 1.81434727 -0.67101258 6 8 7061 5.50600000 1896622190 1896622190 -7.00000000
8.19308186 2.88363242 1.37568474 84 9 7061 8.79400000 1896622192 1896622192 9.00000000
7.94839573 2.79595375 -0.73716325 13 10 7062 8.45800000 1896622195 1896622195 -5.00000000
8.21418381 2.88783741 1.69247580 84 11 7063 8.87000000 1896622197 1896622197 11.00000000
8.16665459 2.86952615 -0.45364806 12 12 7064 8.66800000 1896622199 1896622199 -3.00000000
8.19490814 2.87784672 2.00521374 108 13 7065 8.91400000 1896622202 1896622202 13.00000000
8.15875053 2.86354971 -0.15092841 12 14 7066 8.64800000 1896622204 1896622204 -1.00000000
7.31869125 2.56870675 2.07831693 45 15 7066 8.03000000 1896622206 1896622206 15.00000000
2.13558626 0.74619836 -0.60615420 4 0 7074 2.34200000 1896622227 1896622227 -15.00000000
8.16512585 2.85138965 0.15096332 12 1 7075 8.65000000 1896622229 1896622229 1.00000000
2.52801752 0.88232821 -0.61816549 4 2 7076 2.74800000 1896622231 1896622231 -13.00000000
8.19200230 2.85756755 0.45469478 13 3 7077 8.68800000 1896622234 1896622234 3.00000000
3.02896667 1.05657637 -0.62356383 5 4 7077 3.26800000 1896622236 1896622236 -11.00000000
8.17440796 2.84982967 0.75738341 78 5 7078 8.69000000 1896622238 1896622238 5.00000000
3.81284833 1.32852042 -0.63950408 4 6 7079 4.08800000 1896622241 1896622241 -9.00000000
8.20732403 2.85809255 1.06708801 92 7 7080 8.75600000 1896622243 1896622243 7.00000000
5.14629364 1.79112196 -0.66906267 6 8 7081 5.49000000 1896622245 1896622245 -7.00000000
8.19986439 2.85228586 1.37505889 86 9 7082 8.79000000 1896622248 1896622248 9.00000000
7.99386120 2.78062868 -0.74047518 13 10 7082 8.49600000 1896622250 1896622250 -5.00000000
8.20567036 2.85270023 1.68865967 81 11 7083 8.85000000 1896622252 1896622252 11.00000000
8.16341496 2.83641315 -0.45291537 12 12 7084 8.65400000 1896622254 1896622254 -3.00000000
8.19753933 2.84666657 2.00341415 106 13 7085 8.90600000 1896622257 1896622257 13.00000000
8.16491795 2.83374166 -0.15085860 12 14 7086 8.64400000 1896622259 1896622259 -1.00000000
7.31345558 2.53680038 2.07417583 45 15 7087 8.01400000 1896622261 1896622261 15.00000000
2.13439751 0.73785001 -0.60511893 4 0 7093 2.33800000 1896622282 1896622282 -15.00000000
8.16130638 2.81972647 0.15071899 12 1 7094 8.63600000 1896622284 1896622284 1.00000000
2.52724552 0.87266803 -0.61726570 3 2 7095 2.74400000 1896622287 1896622287 -13.00000000
8.19576931 2.82843137 0.45438078 10 3 7096 8.68200000 1896622289 1896622289 3.00000000
3.03802109 1.04844761 -0.62470865 5 4 7096 3.27400000 1896622291 1896622291 -11.00000000
8.17816257 2.82075787 0.75686049 78 5 7097 8.68400000 1896622294 1896622294 5.00000000
3.80976272 1.31329417 -0.63825262 4 6 7098 4.08000000 1896622296 1896622296 -9.00000000
8.19048119 2.82180786 1.06367564 95 7 7099 8.72800000 1896622298 1896622298 7.00000000
5.16722059 1.77921665 -0.67101258 6 8 7100 5.50600000 1896622301 1896622301 -7.00000000
8.20878506 2.82651114 1.37505889 84 9 7100 8.79000000 1896622303 1896622303 9.00000000
8.02564526 2.76188469 -0.74256694 13 10 7101 8.52000000 1896622305 1896622305 -5.00000000
8.19651985 2.81908822 1.68484342 75 11 7102 8.83000000 1896622307 1896622307 11.00000000
8.15577698 2.80348349 -0.45197332 12 12 7103 8.63600000 1896622310 1896622310 -3.00000000
8.20324898 2.81820059 2.00251436 104 13 7104 8.90200000 1896622312 1896622312 13.00000000
8.16670513 2.80405259 -0.15071899 12 14 7105 8.63600000 1896622314 1896622314 -1.00000000
7.33600664 2.51883078 2.07831693 45 15 7105 8.03000000 1896622317 1896622317 15.00000000
2.15158415 0.73539352 -0.60926002 4 0 7113 2.35400000 1896622337 1896622337 -15.00000000
8.16353035 2.78863525 0.15057936 12 1 7114 8.62800000 1896622340 1896622340 1.00000000
2.52658772 0.86258173 -0.61636591 3 2 7115 2.74000000 1896622342 1896622342 -13.00000000
8.18858051 2.79400086 0.45343873 15 3 7116 8.66400000 1896622344 1896622344 3.00000000
3.03423023 1.03530049 -0.62318218 5 4 7116 3.26600000 1896622347 1896622347 -11.00000000
8.18230152 2.79026437 0.75633752 82 5 7117 8.67800000 1896622349 1896622349 5.00000000
3.82180285 1.30253661 -0.63950408 4 6 7118 4.08800000 1896622351 1896622351 -9.00000000
8.18900681 2.78936028 1.06221318 95 7 7119 8.71600000 1896622354 1896622354 7.00000000
5.16212416 1.75733054 -0.66955018 6 8 7120 5.49400000 1896622356 1896622356 -7.00000000
8.20786858 2.79258800 1.37318170 89 9 7121 8.77800000 1896622358 1896622358 9.00000000
8.03901005 2.73513651 -0.74291557 13 10 7121 8.52400000 1896622360 1896622360 -5.00000000
8.20259285 2.78919578 1.68408024 78 11 7122 8.82600000 1896622363 1896622363 11.00000000
8.15794945 2.77242661 -0.45155463 12 12 7123 8.62800000 1896622365 1896622365 -3.00000000
8.19827461 2.78453493 1.99891508 104 13 7124 8.88600000 1896622367 1896622367 13.00000000
8.16318798 2.77102900 -0.15047465 14 14 7125 8.62200000 1896622370 1896622370 -1.00000000
7.33421230 2.48820210 2.07521105 47 15 7126 8.01800000 1896622372 1896622372 15.00000000
2.14877415 0.72564834 -0.60770714 4 0 7134 2.34800000 1896622393 1896622393 -15.00000000
8.17369652 2.75869584 0.15057936 12 1 7135 8.62800000 1896622395 1896622395 1.00000000
2.53711843 0.85580701 -0.61816549 3 2 7136 2.74800000 1896622397 1896622397 -13.00000000
8.17984009 2.75758910 0.45239201 13 3 7137 8.64400000 1896622400 1896622400 3.00000000
3.03800440 1.02417254 -0.62318218 4 4 7137 3.26600000 1896622402 1896622402 -11.00000000
8.18303299 2.75707531 0.75546598 78 5 7138 8.66800000 1896622404 1896622404 5.00000000
3.82280707 1.28725946 -0.63887835 4 6 7139 4.08400000 1896622407 1896622407 -9.00000000
8.18600559 2.75489521 1.06050706 99 7 7140 8.70200000 1896622409 1896622409 7.00000000
5.15724134 1.73460150 -0.66808772 6 8 7141 5.48200000 1896622411 1896622411 -7.00000000
8.20258808 2.75888228 1.37067878 89 9 7141 8.76200000 1896622413 1896622413 9.00000000
8.05653477 2.70819306 -0.74361283 13 10 7142 8.53200000 1896622416 1896622416 -5.00000000
8.20159531 2.75536180 1.68179047 81 11 7143 8.81400000 1896622418 1896622418 11.00000000
8.16994953 2.74314356 -0.45165929 12 12 7144 8.63000000 1896622420 1896622420 -3.00000000
8.18994999 2.74826837 1.99441600 92 13 7145 8.86600000 1896622423 1896622423 13.00000000
8.16001797 2.73663998 -0.15023032 12 14 7146 8.60800000 1896622425 1896622425 -1.00000000
7.34651661 2.46381426 2.07624626 45 15 7146 8.02200000 1896622427 1896622427 15.00000000
