# .PCD v0.7 - Point Cloud Data file format
VERSION 0.7
FIELDS x y z intensity laser_id azimuth distance_m adjustedtime timestamp vertical_angle
SIZE 4 4 4 1 1 2 8 8 4 8
TYPE F F F U U U F U U F
COUNT 1 1 1 1 1 1 1 1 1 1
WIDTH 528
HEIGHT 1
VIEWPOINT 0 0 0 1 0 0 0
POINTS 528
DATA ascii
3.40302253 -1.50659108 -0.58944505 6 6 11388 3.76800000 1895234143 1895234143 -9.00000000
8.04960823 -3.56541491 1.08098114 85 7 11389 8.87000000 1895234145 1895234145 7.00000000
4.50089884 -1.99452376 -0.60447192 4 8 11390 4.96000000 1895234148 1895234148 -7.00000000
9.42910480 -4.17840433 1.63348866 57 9 11390 10.44200000 1895234150 1895234150 9.00000000
6.51518011 -2.88849092 -0.62351221 28 10 11391 7.15400000 1895234152 1895234152 -5.00000000
6.39317417 -2.83707070 -0.36656103 15 12 11393 7.00400000 1895234157 1895234157 -3.00000000
8.03744030 -3.57009792 -0.15351136 12 14 11395 8.79600000 1895234161 1895234161 -1.00000000
8.10020256 -3.59797597 2.37492347 47 15 11395 9.17600000 1895234164 1895234164 15.00000000
1.97615337 -0.88108027 -0.57975465 4 0 11403 2.24000000 1895234184 1895234184 -15.00000000
8.03364944 -3.58353329 0.15354627 12 1 11404 8.79800000 1895234187 1895234187 1.00000000
2.31522107 -1.03322470 -0.58532262 3 2 11405 2.60200000 1895234189 1895234189 -13.00000000
8.03720093 -3.58848214 0.46128911 10 3 11406 8.81400000 1895234191 1895234191 3.00000000
2.75356412 -1.22942245 -0.58616525 5 4 11406 3.07200000 1895234194 1895234194 -11.00000000
3.39774275 -1.51846063 -0.58944505 4 6 11408 3.76800000 1895234198 1895234198 -9.00000000
8.05161190 -3.59997344 1.08293104 83 7 11409 8.88600000 1895234201 1895234201 7.00000000
4.46672821 -1.99806404 -0.60081589 4 8 11410 4.93000000 1895234203 1895234203 -7.00000000
9.42995453 -4.22019768 1.63630450 60 9 11411 10.46000000 1895234205 1895234205 9.00000000
6.52142477 -2.91854024 -0.62508100 28 10 11411 7.17200000 1895234207 1895234207 -5.00000000
6.39234591 -2.86345220 -0.36708438 41 12 11413 7.01400000 1895234212 1895234212 -3.00000000
8.02128029 -3.59649587 -0.15344156 12 14 11415 8.79200000 1895234217 1895234217 -1.00000000
8.10458755 -3.63554716 2.38010001 47 15 11416 9.19600000 1895234219 1895234219 15.00000000
1.96601915 -0.88480163 -0.57768410 4 0 11423 2.23200000 1895234240 1895234240 -15.00000000
8.04114819 -3.62058520 0.15393023 12 1 11424 8.82000000 1895234242 1895234242 1.00000000
2.30804658 -1.03969920 -0.58442283 3 2 11425 2.59800000 1895234244 1895234244 -13.00000000
6.27293777 -2.82706952 0.36059475 2 3 11426 6.89000000 1895234247 1895234247 3.00000000
2.73672652 -1.23338008 -0.58349389 5 4 11426 3.05800000 1895234249 1895234249 -11.00000000
3.40322542 -1.53518534 -0.59132230 4 6 11428 3.78000000 1895234254 1895234254 -9.00000000
8.06432724 -3.63948917 1.08634329 87 7 11429 8.91400000 1895234256 1895234256 7.00000000
4.46877241 -2.01772809 -0.60203457 4 8 11430 4.94000000 1895234258 1895234258 -7.00000000
9.43031025 -4.25794840 1.63880742 66 9 11430 10.47600000 1895234260 1895234260 9.00000000
6.34596634 -2.86664701 -0.60921866 8 10 11431 6.99000000 1895234263 1895234263 -5.00000000
6.35501337 -2.87340546 -0.36551431 10 12 11433 6.98400000 1895234267 1895234267 -3.00000000
8.01960850 -3.62942052 -0.15365098 14 14 11435 8.80400000 1895234272 1895234272 -1.00000000
8.10128689 -3.66638565 2.38268805 45 15 11435 9.20600000 1895234274 1895234274 15.00000000
1.95236528 -0.88686508 -0.57457829 4 0 11443 2.22000000 1895234295 1895234295 -15.00000000
8.03210258 -3.65028667 0.15400003 12 1 11444 8.82400000 1895234297 1895234297 1.00000000
2.31504726 -1.05258894 -0.58712226 3 2 11445 2.61000000 1895234300 1895234300 -13.00000000
6.29393721 -2.86300755 0.36237416 27 3 11446 6.92400000 1895234302 1895234302 3.00000000
2.73597884 -1.24455130 -0.58425713 5 4 11446 3.06200000 1895234304 1895234304 -11.00000000
3.39425039 -1.54541838 -0.59069651 4 6 11448 3.77600000 1895234309 1895234309 -9.00000000
8.06421947 -3.67337680 1.08804953 78 7 11449 8.92800000 1895234311 1895234311 7.00000000
4.47254038 -2.03825402 -0.60349697 4 8 11450 4.95200000 1895234313 1895234313 -7.00000000
9.43980408 -4.30395651 1.64318764 63 9 11451 10.50400000 1895234316 1895234316 9.00000000
6.22896290 -2.84001493 -0.59893429 8 10 11451 6.87200000 1895234318 1895234318 -5.00000000
6.23410797 -2.84498978 -0.35912934 3 12 11453 6.86200000 1895234323 1895234323 -3.00000000
8.51079750 -3.88577175 2.15998006 24 13 11454 9.60200000 1895234325 1895234325 13.00000000
8.02689838 -3.66653132 -0.15403494 10 14 11455 8.82600000 1895234327 1895234327 -1.00000000
8.08955193 -3.69685674 2.38320565 47 15 11456 9.20800000 1895234330 1895234330 15.00000000
1.95979416 -0.89850539 -0.57768410 4 0 11463 2.23200000 1895234350 1895234350 -15.00000000
8.01931190 -3.67830157 0.15400003 12 1 11464 8.82400000 1895234353 1895234353 1.00000000
2.30073214 -1.05578697 -0.58442283 3 2 11465 2.59800000 1895234355 1895234355 -13.00000000
6.21674633 -2.85412717 0.35850132 25 3 11466 6.85000000 1895234357 1895234357 3.00000000
2.73697042 -1.25655150 -0.58540201 6 4 11466 3.06800000 1895234360 1895234360 -11.00000000
3.37088585 -1.54900885 -0.58756787 4 6 11468 3.75600000 1895234364 1895234364 -9.00000000
8.05315113 -3.70233297 1.08829319 85 7 11469 8.93000000 1895234366 1895234366 7.00000000
4.46539831 -2.05385375 -0.60349697 6 8 11470 4.95200000 1895234369 1895234369 -7.00000000
9.46496201 -4.35339642 1.65007079 54 9 11470 10.54800000 1895234371 1895234371 9.00000000
6.17557240 -2.84175181 -0.59475076 12 10 11471 6.82400000 1895234373 1895234373 -5.00000000
6.18967152 -2.85085821 -0.35714057 14 12 11473 6.82400000 1895234378 1895234378 -3.00000000
8.48302269 -3.90893173 2.15638089 33 13 11474 9.58600000 1895234380 1895234380 13.00000000
8.02857876 -3.70122552 -0.15431418 8 14 11475 8.84200000 1895234383 1895234383 -1.00000000
8.10356426 -3.73579407 2.39097023 45 15 11475 9.23800000 1895234385 1895234385 15.00000000
1.94787955 -0.90128464 -0.57509589 4 0 11483 2.22200000 1895234406 1895234406 -15.00000000
6.05744314 -2.80406523 0.11651227 5 1 11484 6.67600000 1895234408 1895234408 1.00000000
2.28288627 -1.05726004 -0.58082360 3 2 11485 2.58200000 1895234410 1895234410 -13.00000000
6.16325331 -2.85565877 0.35598919 40 3 11486 6.80200000 1895234413 1895234413 3.00000000
2.73613024 -1.26774836 -0.58616525 5 4 11486 3.07200000 1895234415 1895234415 -11.00000000
6.10976887 -2.83217287 0.58917284 10 5 11487 6.76000000 1895234417 1895234417 5.00000000
3.35829020 -1.55744171 -0.58631635 4 6 11488 3.74800000 1895234419 1895234419 -9.00000000
8.04918194 -3.73459864 1.08951187 80 7 11489 8.94000000 1895234422 1895234422 7.00000000
4.45640087 -2.06859255 -0.60325325 6 8 11490 4.95000000 1895234424 1895234424 -7.00000000
6.15115881 -2.85657787 -0.59335631 12 10 11491 6.80800000 1895234429 1895234429 -5.00000000
6.15975952 -2.86318636 -0.35598919 14 12 11493 6.80200000 1895234433 1895234433 -3.00000000
8.46932602 -3.93851924 2.15638089 39 13 11494 9.58600000 1895234436 1895234436 13.00000000
8.03374100 -3.73766327 -0.15466322 6 14 11495 8.86200000 1895234438 1895234438 -1.00000000
8.09572887 -3.76650286 2.39252329 45 15 11495 9.24400000 1895234440 1895234440 15.00000000
1.95697451 -0.91380000 -0.57871938 4 0 11503 2.23600000 1895234461 1895234461 -15.00000000
6.02587748 -2.81503606 0.11609340 31 1 11504 6.65200000 1895234463 1895234463 1.00000000
2.28977442 -1.07017303 -0.58352304 3 2 11505 2.59400000 1895234466 1895234466 -13.00000000
6.12068081 -2.86192751 0.35410509 85 3 11506 6.76600000 1895234468 1895234468 3.00000000
2.72635293 -1.27479684 -0.58502036 5 4 11506 3.06600000 1895234470 1895234470 -11.00000000
6.11428261 -2.86023641 0.59056729 10 5 11507 6.77600000 1895234472 1895234472 5.00000000
3.37072444 -1.57752812 -0.58944505 4 6 11508 3.76800000 1895234475 1895234475 -9.00000000
8.05047989 -3.76940680 1.09146190 80 7 11509 8.95600000 1895234477 1895234477 7.00000000
4.44016504 -2.07992530 -0.60203457 4 8 11510 4.94000000 1895234479 1895234479 -7.00000000
9.48365116 -4.44448566 1.65883112 25 9 11511 10.60400000 1895234482 1895234482 9.00000000
6.11589289 -2.86619520 -0.59091592 12 10 11511 6.78000000 1895234484 1895234484 -5.00000000
6.11537170 -2.86855507 -0.35400042 10 12 11513 6.76400000 1895234489 1895234489 -3.00000000
8.44670582 -3.96391940 2.15413141 42 13 11514 9.57600000 1895234491 1895234491 13.00000000
5.94443655 -2.79090595 -0.11462741 24 14 11515 6.56800000 1895234493 1895234493 -1.00000000
8.10526562 -3.80541253 2.39925265 45 15 11515 9.27000000 1895234495 1895234495 15.00000000
1.95726800 -0.92227244 -0.57975465 4 0 11523 2.24000000 1895234516 1895234516 -15.00000000
6.01420546 -2.83520055 0.11605851 63 1 11524 6.65000000 1895234519 1895234519 1.00000000
2.29307508 -1.08148444 -0.58532262 3 2 11525 2.60200000 1895234521 1895234521 -13.00000000
6.11065388 -2.88327527 0.35410509 25 3 11526 6.76600000 1895234523 1895234523 3.00000000
2.71300888 -1.28011692 -0.58311230 5 4 11526 3.05600000 1895234525 1895234525 -11.00000000
6.05201149 -2.85689664 0.58551228 37 5 11527 6.71800000 1895234528 1895234528 5.00000000
3.37234211 -1.59265888 -0.59069651 4 6 11528 3.77600000 1895234530 1895234530 -9.00000000
8.05522060 -3.80596566 1.09389925 76 7 11529 8.97600000 1895234532 1895234532 7.00000000
4.43467236 -2.09626007 -0.60227829 6 8 11530 4.94200000 1895234535 1895234535 -7.00000000
6.09144163 -2.88071203 -0.58952147 8 10 11531 6.76400000 1895234539 1895234539 -5.00000000
6.02047491 -2.84972310 -0.34908083 7 12 11533 6.67000000 1895234544 1895234544 -3.00000000
8.43634033 -3.99504781 2.15503120 45 13 11534 9.58000000 1895234546 1895234546 13.00000000
5.89490128 -2.79280329 -0.11385950 36 14 11535 6.52400000 1895234548 1895234548 -1.00000000
8.09475422 -3.83674908 2.40028787 45 15 11536 9.27400000 1895234551 1895234551 15.00000000
1.93135595 -0.91831481 -0.57302535 4 0 11543 2.21400000 1895234572 1895234572 -15.00000000
6.00066090 -2.85445857 0.11598869 74 1 11544 6.64600000 1895234574 1895234574 1.00000000
2.29104567 -1.09031951 -0.58577257 4 2 11545 2.60400000 1895234576 1895234576 -13.00000000
2.70497870 -1.28789139 -0.58234906 5 4 11546 3.05200000 1895234581 1895234581 -11.00000000
5.99163675 -2.85401416 0.58063155 55 5 11547 6.66200000 1895234583 1895234583 5.00000000
3.34892964 -1.59592283 -0.58756787 4 6 11548 3.75600000 1895234585 1895234585 -9.00000000
4.42016125 -2.10830879 -0.60130334 6 8 11550 4.93400000 1895234590 1895234590 -7.00000000
6.07415628 -2.89852524 -0.58882421 4 10 11551 6.75600000 1895234595 1895234595 -5.00000000
5.96903944 -2.85092306 -0.34667337 3 12 11553 6.62400000 1895234599 1895234599 -3.00000000
8.42761803 -4.02699232 2.15638089 45 13 11554 9.58600000 1895234601 1895234601 13.00000000
5.86346674 -2.80301380 -0.11344064 60 14 11555 6.50000000 1895234604 1895234604 -1.00000000
8.08198738 -3.86357117 2.40028787 45 15 11555 9.27400000 1895234606 1895234606 15.00000000
1.93162227 -0.92672217 -0.57406062 4 0 11563 2.21800000 1895234627 1895234627 -15.00000000
5.98885727 -2.87452221 0.11595379 100 1 11564 6.64400000 1895234629 1895234629 1.00000000
2.28371239 -1.09662306 -0.58487272 4 2 11565 2.60000000 1895234631 1895234631 -13.00000000
8.05269051 -3.86857653 0.46819746 7 3 11566 8.94600000 1895234634 1895234634 3.00000000
2.70577550 -1.29987609 -0.58349389 5 4 11566 3.05800000 1895234636 1895234636 -11.00000000
5.99241257 -2.88009000 0.58167744 70 5 11567 6.67400000 1895234638 1895234638 5.00000000
3.34689903 -1.60931504 -0.58819360 4 6 11568 3.76000000 1895234641 1895234641 -9.00000000
5.95157480 -2.86302018 0.81091863 10 7 11569 6.65400000 1895234643 1895234643 7.00000000
4.40204239 -2.11856008 -0.59984088 6 8 11570 4.92200000 1895234645 1895234645 -7.00000000
6.06400156 -2.91971040 -0.58882421 4 10 11571 6.75600000 1895234650 1895234650 -5.00000000
5.88348389 -2.83532453 -0.34227714 3 12 11573 6.54000000 1895234654 1895234654 -3.00000000
8.41702080 -4.05807829 2.15728068 46 13 11574 9.59000000 1895234657 1895234657 13.00000000
5.85364676 -2.82346416 -0.11344064 58 14 11575 6.50000000 1895234659 1895234659 -1.00000000
8.09107113 -3.90266967 2.40701723 47 15 11575 9.30000000 1895234661 1895234661 15.00000000
1.93201649 -0.93480539 -0.57509589 4 0 11582 2.22200000 1895234683 1895234683 -15.00000000
5.96669292 -2.88826728 0.11570945 40 1 11583 6.63000000 1895234685 1895234685 1.00000000
2.26427817 -1.09654570 -0.58082360 4 2 11584 2.58200000 1895234688 1895234688 -13.00000000
8.05308056 -3.89994931 0.46893016 7 3 11584 8.96000000 1895234690 1895234690 3.00000000
2.70145011 -1.30884159 -0.58349389 5 4 11585 3.05800000 1895234692 1895234692 -11.00000000
8.03746510 -3.89585161 0.78143841 30 5 11586 8.96600000 1895234695 1895234695 5.00000000
3.34509873 -1.62212884 -0.58881932 6 6 11587 3.76400000 1895234697 1895234697 -9.00000000
5.89025354 -2.85761309 0.80385017 31 7 11588 6.59600000 1895234699 1895234699 7.00000000
4.40213633 -2.13661313 -0.60081589 6 8 11589 4.93000000 1895234701 1895234701 -7.00000000
6.11522293 -2.96939278 -0.59475076 4 10 11590 6.82400000 1895234706 1895234706 -5.00000000
5.83812237 -2.83735871 -0.34018371 3 12 11592 6.50000000 1895234711 1895234711 -3.00000000
8.40001202 -4.08426332 2.15638089 46 13 11593 9.58600000 1895234713 1895234713 13.00000000
8.09198284 -3.93623948 2.41115832 47 15 11594 9.31600000 1895234718 1895234718 15.00000000
1.93915784 -0.94662851 -0.57820177 4 0 11602 2.23400000 1895234738 1895234738 -15.00000000
5.93680906 -2.89942431 0.11532550 60 1 11603 6.60800000 1895234741 1895234741 1.00000000
2.26393843 -1.10615373 -0.58172345 3 2 11604 2.58600000 1895234743 1895234743 -13.00000000
8.04411507 -3.93207049 0.46924418 7 3 11605 8.96600000 1895234745 1895234745 3.00000000
2.69686484 -1.31826341 -0.58349389 5 4 11605 3.05800000 1895234748 1895234748 -11.00000000
8.06140423 -3.94226480 0.78509891 45 5 11606 9.00800000 1895234750 1895234750 5.00000000
3.33941603 -1.63379550 -0.58881932 6 6 11607 3.76400000 1895234752 1895234752 -9.00000000
5.86419630 -2.87030220 0.80165654 76 7 11608 6.57800000 1895234754 1895234754 7.00000000
4.37325764 -2.14149046 -0.59789097 6 8 11609 4.90600000 1895234757 1895234757 -7.00000000
5.87529850 -2.87827897 1.03622186 5 9 11610 6.62400000 1895234759 1895234759 9.00000000
6.17638969 -3.02578211 -0.60172325 4 10 11610 6.90400000 1895234761 1895234761 -5.00000000
5.82100916 -2.85420299 -0.33976504 3 12 11612 6.49200000 1895234766 1895234766 -3.00000000
8.38220501 -4.11184359 2.15548110 47 13 11613 9.58200000 1895234768 1895234768 13.00000000
5.96893024 -2.92931771 -0.11605851 4 14 11614 6.65000000 1895234771 1895234771 -1.00000000
8.09831142 -3.97608852 2.41736984 47 15 11615 9.34000000 1895234773 1895234773 15.00000000
1.92560875 -0.94793445 -0.57509589 4 0 11621 2.22200000 1895234794 1895234794 -15.00000000
5.91281033 -2.91202736 0.11504626 69 1 11622 6.59200000 1895234796 1895234796 1.00000000
2.27074647 -1.11882293 -0.58442283 3 2 11623 2.59800000 1895234798 1895234798 -13.00000000
8.04426384 -3.96350145 0.46997687 7 3 11623 8.98000000 1895234801 1895234801 3.00000000
2.68191290 -1.32199121 -0.58120418 5 4 11624 3.04600000 1895234803 1895234803 -11.00000000
8.04113865 -3.96545076 0.78440166 37 5 11625 9.00000000 1895234805 1895234805 5.00000000
3.33752298 -1.64660835 -0.58944505 6 6 11626 3.76800000 1895234807 1895234807 -9.00000000
5.86176586 -2.89324713 0.80263150 47 7 11627 6.58600000 1895234810 1895234810 7.00000000
4.36969185 -2.15773869 -0.59837848 6 8 11628 4.91000000 1895234812 1895234812 -7.00000000
5.83030033 -2.88024783 1.02996457 10 9 11629 6.58400000 1895234814 1895234814 9.00000000
6.48071146 -3.20155978 -0.63240206 8 10 11629 7.25600000 1895234817 1895234817 -5.00000000
5.76496315 -2.85047412 -0.33704355 3 12 11631 6.44000000 1895234821 1895234821 -3.00000000
8.37551117 -4.14307356 2.15728068 48 13 11632 9.59000000 1895234824 1895234824 13.00000000
5.94484568 -2.94199967 -0.11577927 4 14 11633 6.63400000 1895234826 1895234826 -1.00000000
8.09270573 -4.00493813 2.41944051 49 15 11633 9.34800000 1895234828 1895234828 15.00000000
1.91363692 -0.95035392 -0.57250774 4 0 11641 2.21200000 1895234849 1895234849 -15.00000000
5.89007330 -2.92642093 0.11480193 66 1 11642 6.57800000 1895234851 1895234851 1.00000000
2.27031732 -1.12847733 -0.58532262 3 2 11643 2.60200000 1895234853 1895234853 -13.00000000
8.03753376 -3.99511313 0.47039557 7 3 11643 8.98800000 1895234856 1895234856 3.00000000
2.67728186 -1.33134484 -0.58120418 5 4 11644 3.04600000 1895234858 1895234858 -11.00000000
8.03438282 -3.99704528 0.78509891 37 5 11645 9.00800000 1895234860 1895234860 5.00000000
3.32821798 -1.65648818 -0.58881932 6 6 11646 3.76400000 1895234863 1895234863 -9.00000000
8.05687618 -4.01174450 1.10511124 35 7 11647 9.06800000 1895234865 1895234865 7.00000000
4.36746407 -2.17563391 -0.59910971 4 8 11648 4.91600000 1895234867 1895234867 -7.00000000
5.76540327 -2.87326765 1.02026558 17 9 11649 6.52200000 1895234870 1895234870 9.00000000
6.45879698 -3.21883011 -0.63135618 8 10 11649 7.24400000 1895234872 1895234872 -5.00000000
5.70850897 -2.84740186 -0.33432209 3 12 11651 6.38800000 1895234877 1895234877 -3.00000000
8.37145996 -4.17750502 2.15998006 47 13 11652 9.60200000 1895234879 1895234879 13.00000000
5.95779848 -2.97434473 -0.11623303 2 14 11653 6.66000000 1895234881 1895234881 -1.00000000
8.09250355 -4.04006529 2.42358160 47 15 11653 9.36400000 1895234883 1895234883 15.00000000
1.91877615 -0.96168941 -0.57509589 4 0 11662 2.22200000 1895234904 1895234904 -15.00000000
5.88645840 -2.95157480 0.11494155 66 1 11663 6.58600000 1895234906 1895234906 1.00000000
2.25745654 -1.13242197 -0.58307314 4 2 11664 2.59200000 1895234909 1895234909 -13.00000000
8.03641510 -4.03311205 0.47123295 5 3 11665 9.00400000 1895234911 1895234911 3.00000000
2.68642187 -1.34819341 -0.58425713 5 4 11665 3.06200000 1895234913 1895234913 -11.00000000
8.03748512 -4.03540564 0.78684205 37 5 11666 9.02800000 1895234916 1895234916 5.00000000
3.30623746 -1.66069567 -0.58600348 6 6 11667 3.74600000 1895234918 1895234918 -9.00000000
8.04921341 -4.04481268 1.10608613 38 7 11668 9.07600000 1895234920 1895234920 7.00000000
4.36832809 -2.19608498 -0.60032839 6 8 11669 4.92600000 1895234923 1895234923 -7.00000000
5.72533512 -2.87829161 1.01494682 57 9 11669 6.48800000 1895234925 1895234925 9.00000000
6.47187519 -3.25501418 -0.63379657 12 10 11670 7.27200000 1895234927 1895234927 -5.00000000
5.63737917 -2.83777237 -0.33076325 3 12 11672 6.32000000 1895234932 1895234932 -3.00000000
8.35609245 -4.20815992 2.15998006 46 13 11673 9.60200000 1895234934 1895234934 13.00000000
5.94328547 -2.99436164 -0.11616322 2 14 11674 6.65600000 1895234936 1895234936 -1.00000000
8.08728218 -4.07632589 2.42668748 47 15 11675 9.37600000 1895234939 1895234939 15.00000000
1.92230380 -0.97186786 -0.57716650 4 0 11682 2.23000000 1895234959 1895234959 -15.00000000
5.88682604 -2.97751975 0.11515098 63 1 11683 6.59800000 1895234962 1895234962 1.00000000
2.24479604 -1.13589573 -0.58082360 3 2 11684 2.58200000 1895234964 1895234964 -13.00000000
8.03012466 -4.06334686 0.47165164 7 3 11684 9.01200000 1895234966 1895234966 3.00000000
2.67644453 -1.35490239 -0.58311230 5 4 11685 3.05600000 1895234969 1895234969 -11.00000000
8.04112434 -4.07243919 0.78858519 37 5 11686 9.04800000 1895234971 1895234971 5.00000000
3.29689622 -1.67044091 -0.58537775 6 6 11687 3.74200000 1895234973 1895234973 -9.00000000
8.04389858 -4.07737255 1.10730481 40 7 11688 9.08600000 1895234976 1895234976 7.00000000
4.33761978 -2.19964838 -0.59715980 6 8 11689 4.90000000 1895234978 1895234978 -7.00000000
5.74821854 -2.91623759 1.02089131 27 9 11690 6.52600000 1895234980 1895234980 9.00000000
6.47468805 -3.28479671 -0.63519102 12 10 11690 7.28800000 1895234983 1895234983 -5.00000000
10.25892830 -5.20690298 2.23628139 9 11 11691 11.72000000 1895234985 1895234985 11.00000000
5.64524746 -2.86647582 -0.33180997 3 12 11692 6.34000000 1895234987 1895234987 -3.00000000
8.34135246 -4.23730278 2.15998006 46 13 11693 9.60200000 1895234989 1895234989 13.00000000
5.97914696 -3.03864479 -0.11707074 2 14 11694 6.70800000 1895234992 1895234992 -1.00000000
8.10055637 -4.11853933 2.43496966 47 15 11695 9.40800000 1895234994 1895234994 15.00000000
1.91889954 -0.97857207 -0.57716650 4 0 11702 2.23000000 1895235015 1895235015 -15.00000000
5.89420938 -3.00713825 0.11550003 63 1 11703 6.61800000 1895235017 1895235017 1.00000000
2.24428868 -1.14549649 -0.58172345 3 2 11704 2.58600000 1895235019 1895235019 -13.00000000
8.03723907 -4.10224819 0.47290769 7 3 11704 9.03600000 1895235022 1895235022 3.00000000
2.66470480 -1.36066532 -0.58158582 5 4 11705 3.04800000 1895235024 1895235024 -11.00000000
8.05524826 -4.11498499 0.79137415 37 5 11706 9.08000000 1895235026 1895235026 5.00000000
3.29808092 -1.68553483 -0.58662927 6 6 11707 3.75000000 1895235029 1895235029 -9.00000000
8.04198933 -4.11175203 1.10901105 38 7 11708 9.10000000 1895235031 1895235031 7.00000000
4.31931162 -2.20935225 -0.59569734 4 8 11709 4.88800000 1895235033 1895235033 -7.00000000
6.02166080 -3.08011341 1.07126319 10 9 11709 6.84800000 1895235036 1895235036 9.00000000
6.46140909 -3.30646992 -0.63501674 12 10 11710 7.28600000 1895235038 1895235038 -5.00000000
10.18127346 -5.21226311 2.22330642 6 11 11711 11.65200000 1895235040 1895235040 11.00000000
5.57476664 -2.85520816 -0.32825112 3 12 11712 6.27200000 1895235042 1895235042 -3.00000000
8.31957340 -4.26283884 2.15818048 48 13 11713 9.59400000 1895235045 1895235045 13.00000000
6.03078651 -3.09142423 -0.11829241 4 14 11714 6.77800000 1895235047 1895235047 -1.00000000
8.10332108 -4.15560627 2.44014597 47 15 11715 9.42800000 1895235049 1895235049 15.00000000
1.91375411 -0.98438066 -0.57664883 4 0 11722 2.22800000 1895235070 1895235070 -15.00000000
5.89790106 -3.03501439 0.11577927 66 1 11723 6.63400000 1895235072 1895235072 1.00000000
2.24374175 -1.15510750 -0.58262324 3 2 11724 2.59000000 1895235075 1895235075 -13.00000000
8.04240417 -4.14033461 0.47405910 7 3 11724 9.05800000 1895235077 1895235077 3.00000000
2.65470290 -1.36726189 -0.58044094 5 4 11725 3.04200000 1895235079 1895235079 -11.00000000
8.04083538 -4.14307785 0.79137415 37 5 11726 9.08000000 1895235082 1895235082 5.00000000
3.30095649 -1.70156240 -0.58819360 6 6 11727 3.76000000 1895235084 1895235084 -9.00000000
8.05228806 -4.15253687 1.11242342 38 7 11728 9.12800000 1895235086 1895235086 7.00000000
4.29393148 -2.21531439 -0.59325999 4 8 11729 4.86800000 1895235089 1895235089 -7.00000000
6.02140570 -3.10654855 1.07314038 15 9 11729 6.86000000 1895235091 1895235091 9.00000000
6.44628716 -3.32717681 -0.63466811 12 10 11730 7.28200000 1895235093 1895235093 -5.00000000
10.16127300 -5.24687004 2.22292471 3 11 11731 11.65000000 1895235095 1895235095 11.00000000
5.50088501 -2.84165049 -0.32448292 3 12 11732 6.20000000 1895235098 1895235098 -3.00000000
8.31156731 -4.29543257 2.15998006 48 13 11733 9.60200000 1895235100 1895235100 13.00000000
6.08568287 -3.14643741 -0.11958389 2 14 11734 6.85200000 1895235102 1895235102 -1.00000000
8.09048176 -4.18475437 2.44066358 47 15 11735 9.43000000 1895235105 1895235105 15.00000000
1.90001738 -0.98571706 -0.57354301 4 0 11742 2.21600000 1895235125 1895235125 -15.00000000
5.88372135 -3.05374098 0.11570945 31 1 11743 6.63000000 1895235128 1895235128 1.00000000
2.24315500 -1.16472864 -0.58352304 3 2 11744 2.59400000 1895235130 1895235130 -13.00000000
8.04208279 -4.17574549 0.47489646 7 3 11744 9.07400000 1895235132 1895235132 3.00000000
2.64642954 -1.37471008 -0.57967770 5 4 11745 3.03800000 1895235135 1895235135 -11.00000000
8.03693199 -4.17663288 0.79242003 37 5 11746 9.09200000 1895235137 1895235137 5.00000000
3.28272820 -1.70669615 -0.58600348 6 6 11747 3.74600000 1895235139 1895235139 -9.00000000
8.06239891 -4.19344330 1.11583567 35 7 11748 9.15600000 1895235141 1895235141 7.00000000
4.31786966 -2.24678302 -0.59764725 4 8 11749 4.90400000 1895235144 1895235144 -7.00000000
6.02279139 -3.13393092 1.07533050 15 9 11749 6.87400000 1895235146 1895235146 9.00000000
6.40105534 -3.33217859 -0.63135618 12 10 11750 7.24400000 1895235148 1895235148 -5.00000000
8.17177868 -4.25577164 1.79093325 3 11 11751 9.38600000 1895235151 1895235151 11.00000000
5.44842148 -2.83868647 -0.32197079 3 12 11752 6.15200000 1895235153 1895235153 -3.00000000
8.30343533 -4.32802200 2.16177964 48 13 11753 9.61000000 1895235155 1895235155 13.00000000
8.08683777 -4.21691942 2.44376945 45 15 11754 9.44200000 1895235160 1895235160 15.00000000
1.90170014 -0.99503022 -0.57509589 4 0 11762 2.22200000 1895235181 1895235181 -15.00000000
2.23217034 -1.16893542 -0.58172345 3 2 11764 2.58600000 1895235185 1895235185 -13.00000000
8.03453541 -4.20749855 0.47531515 7 3 11764 9.08200000 1895235188 1895235188 3.00000000
2.65204906 -1.38940597 -0.58196741 5 4 11765 3.05000000 1895235190 1895235190 -11.00000000
8.04171562 -4.21483564 0.79433745 37 5 11766 9.11400000 1895235192 1895235192 5.00000000
3.26800346 -1.71355796 -0.58443916 6 6 11767 3.73600000 1895235194 1895235194 -9.00000000
8.05474377 -4.22524929 1.11681068 38 7 11768 9.16400000 1895235197 1895235197 7.00000000
4.31000090 -2.26184154 -0.59764725 4 8 11769 4.90400000 1895235199 1895235199 -7.00000000
6.04330015 -3.17145801 1.08096218 17 9 11769 6.91000000 1895235201 1895235201 9.00000000
6.38232899 -3.35079765 -0.63065898 12 10 11770 7.23600000 1895235204 1895235204 -5.00000000
8.13601589 -4.27331543 1.78635383 3 11 11771 9.36200000 1895235206 1895235206 11.00000000
5.40135098 -2.83817816 -0.31977269 3 12 11772 6.11000000 1895235208 1895235208 -3.00000000
8.28827667 -4.35697985 2.16177964 48 13 11773 9.61000000 1895235211 1895235211 13.00000000
6.19276857 -3.25679326 -0.12213194 6 14 11774 6.99800000 1895235213 1895235213 -1.00000000
8.08842468 -4.25552607 2.44894576 47 15 11775 9.46200000 1895235215 1895235215 15.00000000
1.90027368 -1.00190067 -0.57561356 4 0 11780 2.22400000 1895235236 1895235236 -15.00000000
5.88986969 -3.10668993 0.11623303 57 1 11781 6.66000000 1895235238 1895235238 1.00000000
2.22503996 -1.17412329 -0.58082360 3 2 11782 2.58200000 1895235241 1895235241 -13.00000000
8.03643513 -4.24251032 0.47625721 7 3 11783 9.10000000 1895235243 1895235243 3.00000000
2.63725400 -1.39223158 -0.57967770 5 4 11783 3.03800000 1895235245 1895235245 -11.00000000
8.04076672 -4.24659204 0.79555762 37 5 11784 9.12800000 1895235247 1895235247 5.00000000
3.27657652 -1.73119867 -0.58694214 4 6 11785 3.75200000 1895235250 1895235250 -9.00000000
8.04845047 -4.25424337 1.11778557 35 7 11786 9.17200000 1895235252 1895235252 7.00000000
4.28181553 -2.26423502 -0.59472239 4 8 11787 4.88000000 1895235254 1895235254 -7.00000000
6.05600786 -3.20243239 1.08502948 15 9 11787 6.93600000 1895235257 1895235257 9.00000000
6.37177038 -3.37083173 -0.63065898 12 10 11788 7.23600000 1895235259 1895235259 -5.00000000
8.16766644 -4.32273197 1.79627585 3 11 11789 9.41400000 1895235261 1895235261 11.00000000
5.32709885 -2.82055354 -0.31589982 6 12 11790 6.03600000 1895235264 1895235264 -3.00000000
8.26938152 -4.38026047 2.16042995 51 13 11791 9.60400000 1895235266 1895235266 13.00000000
6.19664240 -3.28372312 -0.12241118 2 14 11792 7.01400000 1895235268 1895235268 -1.00000000
8.09112549 -4.28764725 2.45360446 47 15 11792 9.48000000 1895235271 1895235271 15.00000000
1.89164770 -1.00580692 -0.57406062 4 0 11800 2.21800000 1895235291 1895235291 -15.00000000
5.90194082 -3.13943887 0.11668679 63 1 11801 6.68600000 1895235294 1895235294 1.00000000
2.22092795 -1.18188286 -0.58082360 3 2 11802 2.58200000 1895235296 1895235296 -13.00000000
8.04625893 -4.28367710 0.47772262 7 3 11803 9.12800000 1895235298 1895235298 3.00000000
2.63237810 -1.40142882 -0.57967770 5 4 11803 3.03800000 1895235300 1895235300 -11.00000000
8.05754757 -4.29149246 0.79869521 41 5 11804 9.16400000 1895235303 1895235303 5.00000000
3.25656676 -1.73519433 -0.58443916 4 6 11805 3.73600000 1895235305 1895235305 -9.00000000
8.05106831 -4.29164982 1.12022305 35 7 11806 9.19200000 1895235307 1895235307 7.00000000
4.27388573 -2.27916765 -0.59472239 4 8 11807 4.88000000 1895235310 1895235310 -7.00000000
6.04771566 -3.22646689 1.08565521 15 9 11808 6.94000000 1895235312 1895235312 9.00000000
6.35996532 -3.39305282 -0.63065898 12 10 11808 7.23600000 1895235314 1895235314 -5.00000000
8.15599155 -4.35306501 1.79703915 3 11 11809 9.41800000 1895235317 1895235317 11.00000000
5.30664968 -2.83348703 -0.31527179 6 12 11810 6.02400000 1895235319 1895235319 -3.00000000
8.24716568 -4.40542650 2.15863037 53 13 11811 9.59600000 1895235321 1895235321 13.00000000
5.45851564 -2.91702509 -0.10803039 6 14 11812 6.19000000 1895235324 1895235324 -1.00000000
8.09579945 -4.32820368 2.45981622 49 15 11813 9.50400000 1895235326 1895235326 15.00000000
1.88982773 -1.01331675 -0.57457829 4 0 11820 2.22000000 1895235347 1895235347 -15.00000000
5.89975691 -3.16474771 0.11686131 60 1 11821 6.69600000 1895235349 1895235349 1.00000000
2.21678877 -1.18962824 -0.58082360 3 2 11822 2.58200000 1895235351 1895235351 -13.00000000
8.03477573 -4.31362724 0.47793195 7 3 11823 9.13200000 1895235353 1895235353 3.00000000
2.62228107 -1.40782309 -0.57853287 5 4 11823 3.03200000 1895235356 1895235356 -11.00000000
8.04427338 -4.32053518 0.79886955 37 5 11824 9.16600000 1895235358 1895235358 5.00000000
3.26441073 -1.75403118 -0.58694214 4 6 11825 3.75200000 1895235360 1895235360 -9.00000000
8.05002689 -4.32724619 1.12217295 40 7 11826 9.20800000 1895235363 1895235363 7.00000000
4.25891066 -2.29031157 -0.59374744 4 8 11827 4.87200000 1895235365 1895235365 -7.00000000
6.04220247 -3.24931097 1.08659375 17 9 11827 6.94600000 1895235367 1895235367 9.00000000
6.33755493 -3.40956879 -0.62961310 12 10 11828 7.22400000 1895235370 1895235370 -5.00000000
8.16840744 -4.39639521 1.80314505 3 11 11829 9.45000000 1895235372 1895235372 11.00000000
5.28441668 -2.84536529 -0.31453910 6 12 11830 6.01000000 1895235374 1895235374 -3.00000000
8.23860073 -4.43788433 2.16042995 55 13 11831 9.60400000 1895235377 1895235377 13.00000000
5.39901018 -2.90949893 -0.10705306 22 14 11832 6.13400000 1895235379 1895235379 -1.00000000
8.08480358 -4.35685921 2.46085143 47 15 11832 9.50800000 1895235381 1895235381 15.00000000
1.88118100 -1.01715076 -0.57302535 4 0 11840 2.21400000 1895235402 1895235402 -15.00000000
5.89219141 -3.18722534 0.11693113 57 1 11841 6.70000000 1895235404 1895235404 1.00000000
2.21947837 -1.20106888 -0.58262324 3 2 11842 2.59000000 1895235406 1895235406 -13.00000000
8.03196430 -4.34830332 0.47866467 2 3 11843 9.14600000 1895235409 1895235409 3.00000000
2.62080383 -1.41883731 -0.57929611 6 4 11843 3.03600000 1895235411 1895235411 -11.00000000
8.03439903 -4.35143518 0.79939246 41 5 11844 9.17200000 1895235413 1895235413 5.00000000
3.25479460 -1.76353335 -0.58631635 4 6 11845 3.74800000 1895235416 1895235416 -9.00000000
8.05581474 -4.36667156 1.12509775 35 7 11846 9.23200000 1895235418 1895235418 7.00000000
4.25612545 -2.30800271 -0.59447867 6 8 11847 4.87800000 1895235420 1895235420 -7.00000000
6.05629730 -3.28556442 1.09128678 15 9 11848 6.97600000 1895235423 1895235423 9.00000000
6.32211208 -3.42976999 -0.62926447 12 10 11848 7.22000000 1895235425 1895235425 -5.00000000
5.09541607 -2.76543403 1.12691796 3 11 11849 5.90600000 1895235427 1895235427 11.00000000
5.27269745 -2.86284113 -0.31443444 9 12 11850 6.00800000 1895235429 1895235429 -3.00000000
8.23333359 -4.47219658 2.16312933 55 13 11851 9.61600000 1895235432 1895235432 13.00000000
5.36949396 -2.91782475 -0.10666911 27 14 11852 6.11200000 1895235434 1895235434 -1.00000000
8.07896423 -4.39199829 2.46395731 49 15 11853 9.52000000 1895235436 1895235436 15.00000000
1.87913632 -1.02496386 -0.57354301 4 0 11861 2.21600000 1895235457 1895235457 -15.00000000
5.88398123 -3.21071553 0.11700093 48 1 11862 6.70400000 1895235459 1895235459 1.00000000
2.20821929 -1.20546067 -0.58082360 3 2 11863 2.58200000 1895235462 1895235462 -13.00000000
2.62075520 -1.43125653 -0.58044094 8 4 11864 3.04200000 1895235466 1895235466 -11.00000000
8.02888680 -4.38658476 0.80043834 37 5 11865 9.18400000 1895235469 1895235469 5.00000000
3.23790884 -1.76976645 -0.58443916 4 6 11866 3.73600000 1895235471 1895235471 -9.00000000
8.03975677 -4.39616823 1.12509775 35 7 11867 9.23200000 1895235473 1895235473 7.00000000
4.24415445 -2.32168150 -0.59399116 6 8 11868 4.87400000 1895235476 1895235476 -7.00000000
6.05865574 -3.31426883 1.09378982 17 9 11868 6.99200000 1895235478 1895235478 9.00000000
6.31299448 -3.45483160 -0.62961310 12 10 11869 7.22400000 1895235480 1895235480 -5.00000000
5.02669621 -2.75203586 1.11394286 21 11 11870 5.83800000 1895235482 1895235482 11.00000000
5.21662426 -2.85720181 -0.31171295 9 12 11871 5.95600000 1895235485 1895235485 -3.00000000
8.22030544 -4.50421572 2.16402912 56 13 11872 9.62000000 1895235487 1895235487 13.00000000
5.32018614 -2.91633844 -0.10590120 29 14 11873 6.06800000 1895235489 1895235489 -1.00000000
8.07036018 -4.42388678 2.46602798 47 15 11873 9.52800000 1895235492 1895235492 15.00000000
1.87893260 -1.03337896 -0.57457829 4 0 11881 2.22000000 1895235512 1895235512 -15.00000000
5.88675356 -3.23894668 0.11728017 34 1 11882 6.72000000 1895235515 1895235515 1.00000000
2.20058370 -1.21128201 -0.57992381 3 2 11883 2.57800000 1895235517 1895235517 -13.00000000
5.11565304 -2.81700659 0.30606067 2 3 11884 5.84800000 1895235519 1895235519 3.00000000
2.62090230 -1.44323695 -0.58158582 12 4 11884 3.04800000 1895235522 1895235522 -11.00000000
8.04144764 -4.42996597 0.80322731 37 5 11885 9.21600000 1895235524 1895235524 5.00000000
3.23863173 -1.78487182 -0.58569062 4 6 11886 3.74400000 1895235526 1895235526 -9.00000000
8.03826904 -4.43187284 1.12704766 38 7 11887 9.24800000 1895235529 1895235529 7.00000000
4.23254776 -2.33456469 -0.59350371 6 8 11888 4.87000000 1895235531 1895235531 -7.00000000
6.06030416 -3.34408760 1.09629273 22 9 11889 7.00800000 1895235533 1895235533 9.00000000
6.29915237 -3.47588444 -0.62943876 12 10 11889 7.22200000 1895235535 1895235535 -5.00000000
4.99127769 -2.75533342 1.10821867 30 11 11890 5.80800000 1895235538 1895235538 11.00000000
5.17339993 -2.85704851 -0.30972418 9 12 11891 5.91800000 1895235540 1895235540 -3.00000000
8.20112133 -4.53099775 2.16312933 56 13 11892 9.61600000 1895235542 1895235542 13.00000000
5.28897190 -2.92328358 -0.10548235 31 14 11893 6.04400000 1895235545 1895235545 -1.00000000
8.06761646 -4.46091509 2.47016907 45 15 11894 9.54400000 1895235547 1895235547 15.00000000
1.88074625 -1.04208565 -0.57613117 4 0 11899 2.22600000 1895235568 1895235568 -15.00000000
5.88179636 -3.26033282 0.11738489 37 1 11900 6.72600000 1895235570 1895235570 1.00000000
2.19335890 -1.21629918 -0.57902402 3 2 11901 2.57400000 1895235572 1895235572 -13.00000000
5.07184792 -2.81368589 0.30396724 2 3 11902 5.80800000 1895235575 1895235575 3.00000000
2.60948825 -1.44765401 -0.58005935 5 4 11902 3.04000000 1895235577 1895235577 -11.00000000
8.05362225 -4.46970987 0.80584198 41 5 11903 9.24600000 1895235579 1895235579 5.00000000
3.22610021 -1.79120195 -0.58443916 4 6 11904 3.73600000 1895235582 1895235582 -9.00000000
8.04513073 -4.46867085 1.12997258 40 7 11905 9.27200000 1895235584 1895235584 7.00000000
4.21131134 -2.34013629 -0.59155381 6 8 11906 4.85400000 1895235586 1895235586 -7.00000000
6.06244230 -3.36877060 1.09848285 25 9 11906 7.02200000 1895235588 1895235588 9.00000000
6.28994274 -3.49662471 -0.62961310 12 10 11907 7.22400000 1895235591 1895235591 -5.00000000
4.97573376 -2.76718354 1.10669219 33 11 11908 5.80000000 1895235593 1895235593 11.00000000
5.16265345 -2.87231612 -0.30961952 12 12 11909 5.91600000 1895235595 1895235595 -3.00000000
8.19025135 -4.55863571 2.16402912 57 13 11910 9.62000000 1895235598 1895235598 13.00000000
5.24481964 -2.92042828 -0.10478425 31 14 11911 6.00400000 1895235600 1895235600 -1.00000000
8.06953621 -4.49329090 2.47482777 45 15 11911 9.56200000 1895235602 1895235602 15.00000000
1.86529160 -1.04204905 -0.57250774 4 0 11919 2.21200000 1895235623 1895235623 -15.00000000
5.88958120 -3.29157567 0.11776884 40 1 11920 6.74800000 1895235625 1895235625 1.00000000
2.19590354 -1.22775209 -0.58082360 3 2 11921 2.58200000 1895235628 1895235628 -13.00000000
5.00447273 -2.79919815 0.30051306 2 3 11922 5.74200000 1895235630 1895235630 3.00000000
2.59585190 -1.45196199 -0.57815129 6 4 11922 3.03000000 1895235632 1895235632 -11.00000000
8.04492569 -4.50168657 0.80653924 41 5 11923 9.25400000 1895235635 1895235635 5.00000000
3.20948601 -1.79666281 -0.58256197 4 6 11924 3.72400000 1895235637 1895235637 -9.00000000
8.04507065 -4.50545597 1.13216615 40 7 11925 9.29000000 1895235639 1895235639 7.00000000
4.19272614 -2.34900069 -0.59009135 6 8 11926 4.84200000 1895235641 1895235641 -7.00000000
6.05522394 -3.39386535 1.09942138 30 9 11927 7.02800000 1895235644 1895235644 9.00000000
6.27074671 -3.51466298 -0.62891585 12 10 11927 7.21600000 1895235646 1895235646 -5.00000000
4.95405722 -2.77781391 1.10402083 12 11 11928 5.78600000 1895235648 1895235648 11.00000000
5.13691854 -2.88152552 -0.30867746 12 12 11929 5.89800000 1895235651 1895235651 -3.00000000
8.18448544 -4.59291935 2.16672850 56 13 11930 9.63200000 1895235653 1895235653 13.00000000
5.19448853 -2.91620326 -0.10398144 36 14 11931 5.95800000 1895235655 1895235655 -1.00000000
8.05806637 -4.52567530 2.47638059 45 15 11932 9.56800000 1895235658 1895235658 15.00000000
1.85827637 -1.04665768 -0.57147247 4 0 11939 2.20800000 1895235678 1895235678 -15.00000000
5.88850832 -3.31800389 0.11797827 51 1 11940 6.76000000 1895235681 1895235681 1.00000000
2.19499969 -1.23732364 -0.58172345 3 2 11941 2.58600000 1895235683 1895235683 -13.00000000
4.97727394 -2.80683923 0.29946634 38 3 11942 5.72200000 1895235685 1895235685 3.00000000
2.58905768 -1.46004999 -0.57776964 6 4 11942 3.02800000 1895235688 1895235688 -11.00000000
8.03783894 -4.53463602 0.80741078 41 5 11943 9.26400000 1895235690 1895235690 5.00000000
3.20663548 -1.80979681 -0.58318770 4 6 11944 3.72800000 1895235692 1895235692 -9.00000000
8.06040955 -4.55107927 1.13655353 38 7 11945 9.32600000 1895235694 1895235694 7.00000000
4.19141483 -2.36752701 -0.59106630 6 8 11946 4.85000000 1895235697 1895235697 -7.00000000
6.06113577 -3.42364168 1.10255015 35 9 11946 7.04800000 1895235699 1895235699 9.00000000
6.23415565 -3.52280784 -0.62647545 12 10 11947 7.18800000 1895235701 1895235701 -5.00000000
5.12335205 -2.89747286 -0.30846813 21 12 11949 5.89400000 1895235706 1895235706 -3.00000000
8.18027592 -4.62817764 2.16987777 54 13 11950 9.64600000 1895235708 1895235708 13.00000000
5.15295267 -2.91658759 -0.10335315 42 14 11951 5.92200000 1895235711 1895235711 -1.00000000
1.85461152 -1.05313790 -0.57147247 4 0 11959 2.20800000 1895235734 1895235734 -15.00000000
5.88210678 -3.34150171 0.11808299 48 1 11960 6.76600000 1895235736 1895235736 1.00000000
2.19405580 -1.24690378 -0.58262324 3 2 11961 2.59000000 1895235738 1895235738 -13.00000000
4.97439098 -2.82814455 0.29988503 7 3 11962 5.73000000 1895235741 1895235741 3.00000000
2.59247899 -1.47393024 -0.57967770 6 4 11962 3.03800000 1895235743 1895235743 -11.00000000
8.03581619 -4.57054615 0.80880529 37 5 11963 9.28000000 1895235745 1895235745 5.00000000
3.20716619 -1.82488680 -0.58443916 4 6 11964 3.73600000 1895235747 1895235747 -9.00000000
8.04964924 -4.58213377 1.13728476 38 7 11965 9.33200000 1895235750 1895235750 7.00000000
4.19002485 -2.38607264 -0.59204125 6 8 11966 4.85800000 1895235752 1895235752 -7.00000000
6.04571486 -3.44282317 1.10192442 15 9 11966 7.04400000 1895235754 1895235754 9.00000000
6.23220778 -3.55046511 -0.62752134 16 10 11967 7.20000000 1895235757 1895235757 -5.00000000
5.12899208 -2.92315292 1.14752531 3 11 11968 6.01400000 1895235759 1895235759 11.00000000
5.09759140 -2.90643573 -0.30752608 21 12 11969 5.87600000 1895235761 1895235761 -3.00000000
8.16745663 -4.65863514 2.17077756 52 13 11970 9.65000000 1895235764 1895235764 13.00000000
5.13058233 -2.92761946 -0.10310882 47 14 11971 5.90800000 1895235766 1895235766 -1.00000000
6.95489597 -3.96861172 2.14560986 11 15 11971 8.29000000 1895235768 1895235768 15.00000000
1.86079752 -1.06568873 -0.57457829 4 0 11980 2.22000000 1895235789 1895235789 -15.00000000
5.88370085 -3.37099099 0.11836222 43 1 11981 6.78200000 1895235791 1895235791 1.00000000
2.16241956 -1.23943198 -0.57542479 3 2 11982 2.55800000 1895235794 1895235794 -13.00000000
4.97265530 -2.85132527 0.30040839 7 3 11983 5.74000000 1895235796 1895235796 3.00000000
2.58705926 -1.48342228 -0.57967770 6 4 11983 3.03800000 1895235798 1895235798 -11.00000000
8.03456497 -4.60889053 0.81037408 37 5 11984 9.29800000 1895235800 1895235800 5.00000000
3.19702959 -1.83466291 -0.58381343 6 6 11985 3.73200000 1895235803 1895235803 -9.00000000
8.04313087 -4.61753654 1.13874710 36 7 11986 9.34400000 1895235805 1895235805 7.00000000
4.16403723 -2.39152741 -0.58960390 6 8 11987 4.83800000 1895235807 1895235807 -7.00000000
7.25709629 -4.16964531 1.32562566 7 9 11988 8.47400000 1895235810 1895235810 9.00000000
6.20878744 -3.56732798 -0.62647545 16 10 11988 7.18800000 1895235812 1895235812 -5.00000000
5.05696774 -2.90671110 1.13378704 3 11 11989 5.94200000 1895235814 1895235814 11.00000000
5.07132149 -2.91613913 -0.30658403 28 12 11990 5.85800000 1895235817 1895235817 -3.00000000
8.14694881 -4.68659544 2.16987777 51 13 11991 9.64600000 1895235819 1895235819 13.00000000
5.11288500 -2.94241452 -0.10296920 60 14 11992 5.90000000 1895235821 1895235821 -1.00000000
8.00018597 -4.60402775 2.47327471 29 15 11992 9.55600000 1895235823 1895235823 15.00000000
1.86041224 -1.07410955 -0.57561356 4 0 12000 2.22400000 1895235844 1895235844 -15.00000000
5.88921404 -3.40151000 0.11871127 40 1 12001 6.80200000 1895235847 1895235847 1.00000000
2.17495322 -1.25672233 -0.57992381 3 2 12002 2.57800000 1895235849 1895235849 -13.00000000
4.95575523 -2.86466742 0.29998970 2 3 12003 5.73200000 1895235851 1895235851 3.00000000
2.57336688 -1.48753119 -0.57776964 5 4 12003 3.02800000 1895235853 1895235853 -11.00000000
8.03567505 -4.64688206 0.81211722 33 5 12004 9.31800000 1895235856 1895235856 5.00000000
3.18376637 -1.84185481 -0.58256197 6 6 12005 3.72400000 1895235858 1895235858 -9.00000000
8.04758072 -4.65751600 1.14167202 33 7 12006 9.36800000 1895235860 1895235860 7.00000000
4.16253567 -2.41002655 -0.59057885 6 8 12007 4.84600000 1895235863 1895235863 -7.00000000
7.24420691 -4.19594193 1.32593858 7 9 12008 8.47600000 1895235865 1895235865 9.00000000
6.19284916 -3.58698177 -0.62612689 16 10 12008 7.18400000 1895235867 1895235867 -5.00000000
5.02640629 -2.91253400 1.12920761 3 11 12009 5.91800000 1895235870 1895235870 11.00000000
5.07493496 -2.94183683 -0.30742142 43 12 12010 5.87400000 1895235872 1895235872 -3.00000000
8.12548256 -4.71207237 2.16852808 51 13 12011 9.64000000 1895235874 1895235874 13.00000000
5.09912348 -2.95823717 -0.10289939 72 14 12012 5.89600000 1895235876 1895235876 -1.00000000
7.99829531 -4.64204645 2.47793365 33 15 12013 9.57400000 1895235879 1895235879 15.00000000
1.85350049 -1.07833004 -0.57457829 4 0 12019 2.22000000 1895235900 1895235900 -15.00000000
5.88654327 -3.42604995 0.11888579 28 1 12020 6.81200000 1895235902 1895235902 1.00000000
2.17414188 -1.26588893 -0.58082360 3 2 12021 2.58200000 1895235904 1895235904 -13.00000000
4.87546921 -2.83986974 0.29569817 15 3 12022 5.65000000 1895235906 1895235906 3.00000000
2.56841993 -1.49605656 -0.57776964 5 4 12022 3.02800000 1895235909 1895235909 -11.00000000
8.02882862 -4.67851925 0.81298876 23 5 12023 9.32800000 1895235911 1895235911 5.00000000
3.18105435 -1.85439205 -0.58318770 4 6 12024 3.72800000 1895235913 1895235913 -9.00000000
8.04238033 -4.69017744 1.14313447 33 7 12025 9.38000000 1895235916 1895235916 7.00000000
4.14423323 -2.41781473 -0.58911639 6 8 12026 4.83400000 1895235918 1895235918 -7.00000000
7.22684050 -4.21795034 1.32531273 7 9 12027 8.47200000 1895235920 1895235920 9.00000000
6.17747879 -3.60548949 -0.62577826 16 10 12027 7.18000000 1895235923 1895235923 -5.00000000
4.99298477 -2.91532707 1.12386501 9 11 12028 5.89000000 1895235925 1895235925 11.00000000
5.07032537 -2.96167183 -0.30773541 34 12 12029 5.88000000 1895235927 1895235927 -3.00000000
8.12327194 -4.74685669 2.17212749 51 13 12030 9.65600000 1895235929 1895235929 13.00000000
5.08065367 -2.97008419 -0.10272487 78 14 12031 5.88600000 1895235932 1895235932 -1.00000000
1.83972669 -1.07892966 -0.57147247 4 0 12039 2.20800000 1895235955 1895235955 -15.00000000
4.80174446 -2.81716681 0.09717500 26 1 12040 5.56800000 1895235957 1895235957 1.00000000
2.17643261 -1.27741599 -0.58262324 3 2 12041 2.59000000 1895235959 1895235959 -13.00000000
4.83452511 -2.83866787 0.29381406 27 3 12042 5.61400000 1895235962 1895235962 3.00000000
2.56487513 -1.50600696 -0.57815129 5 4 12042 3.03000000 1895235964 1895235964 -11.00000000
3.16774940 -1.86148155 -0.58193618 4 6 12044 3.72000000 1895235969 1895235969 -9.00000000
8.04991722 -4.73230648 1.14654684 33 7 12045 9.40800000 1895235971 1895235971 7.00000000
4.14261293 -2.43629146 -0.59009135 6 8 12046 4.84200000 1895235973 1895235973 -7.00000000
7.22399139 -4.25016260 1.32750285 10 9 12047 8.48600000 1895235976 1895235976 9.00000000
6.15111780 -3.61894846 -0.62438375 16 10 12047 7.16400000 1895235978 1895235978 -5.00000000
5.00646496 -2.94667983 1.12920761 3 11 12048 5.91800000 1895235980 1895235980 11.00000000
5.05823517 -2.97833920 -0.30763075 28 12 12049 5.87800000 1895235982 1895235982 -3.00000000
8.11672783 -4.78111792 2.17482686 51 13 12050 9.66800000 1895235985 1895235985 13.00000000
5.08231497 -2.99490738 -0.10296920 69 14 12051 5.90000000 1895235987 1895235987 -1.00000000
6.70407677 -3.95057917 2.08504629 9 15 12051 8.05600000 1895235989 1895235989 15.00000000
1.83594930 -1.08534491 -0.57147247 4 0 12059 2.20800000 1895236010 1895236010 -15.00000000
4.74885130 -2.80846262 0.09630238 40 1 12060 5.51800000 1895236012 1895236012 1.00000000
2.15518832 -1.27508259 -0.57812423 3 2 12061 2.57000000 1895236015 1895236015 -13.00000000
4.79586315 -2.83739543 0.29203463 6 3 12061 5.58000000 1895236017 1895236017 3.00000000
2.55791306 -1.51395094 -0.57776964 5 4 12062 3.02800000 1895236019 1895236019 -11.00000000
4.89461756 -2.89812922 0.49765930 12 5 12063 5.71000000 1895236022 1895236022 5.00000000
3.16463161 -1.87454116 -0.58256197 4 6 12064 3.72400000 1895236024 1895236024 -9.00000000
8.04359627 -4.76644897 1.14800918 33 7 12065 9.42000000 1895236026 1895236026 7.00000000
4.12725306 -2.44668794 -0.58911639 6 8 12066 4.83400000 1895236028 1895236028 -7.00000000
7.22345114 -4.28215361 1.33000576 10 9 12066 8.50200000 1895236031 1895236031 9.00000000
6.13330698 -3.63734889 -0.62386084 16 10 12067 7.15800000 1895236033 1895236033 -5.00000000
5.02654076 -2.98216891 1.13607681 3 11 12068 5.95400000 1895236035 1895236035 11.00000000
5.04265547 -2.99291945 -0.30731672 21 12 12069 5.87200000 1895236038 1895236038 -3.00000000
8.11506939 -4.81837559 2.17887592 52 13 12070 9.68600000 1895236040 1895236040 13.00000000
5.08558416 -3.02079964 -0.10324844 63 14 12071 5.91600000 1895236042 1895236042 -1.00000000
6.66034889 -3.95619822 2.07572865 9 15 12071 8.02000000 1895236045 1895236045 15.00000000
1.83712816 -1.09471369 -0.57302535 4 0 12079 2.21400000 1895236065 1895236065 -15.00000000
2.15407181 -1.28459406 -0.57902402 3 2 12081 2.57400000 1895236070 1895236070 -13.00000000
4.56931496 -2.72602057 0.27884597 2 3 12082 5.32800000 1895236072 1895236072 3.00000000
2.55429864 -1.52387631 -0.57815129 5 4 12082 3.03000000 1895236075 1895236075 -11.00000000
4.89815855 -2.92336559 0.49905378 33 5 12083 5.72600000 1895236077 1895236077 5.00000000
3.14789248 -1.87950039 -0.58068472 3 6 12084 3.71200000 1895236079 1895236079 -9.00000000
8.03372574 -4.79856873 1.14898419 33 7 12085 9.42800000 1895236081 1895236081 7.00000000
4.11868715 -2.46107984 -0.58911639 6 8 12086 4.83400000 1895236084 1895236084 -7.00000000
7.21448994 -4.31265450 1.33125734 10 9 12087 8.51000000 1895236086 1895236086 9.00000000
6.12570333 -3.66180277 -0.62438375 16 10 12087 7.16400000 1895236088 1895236088 -5.00000000
5.02284050 -3.00372720 1.13760328 3 11 12088 5.96200000 1895236091 1895236091 11.00000000
