# .PCD v0.7 - Point Cloud Data file format
VERSION 0.7
FIELDS x y z intensity laser_id azimuth distance_m adjustedtime timestamp vertical_angle
SIZE 4 4 4 1 1 2 8 8 4 8
TYPE F F F U U U F U U F
COUNT 1 1 1 1 1 1 1 1 1 1
WIDTH 526
HEIGHT 1
VIEWPOINT 0 0 0 1 0 0 0
POINTS 526
DATA ascii
2.93295836 -4.97123575 -0.50498039 14 10 14946 5.79400000 1896444086 1896444086 -5.00000000
2.91813636 -4.94808626 1.11661422 12 11 14947 5.85200000 1896444088 1896444088 11.00000000
2.92824435 -4.96720695 -0.30218780 12 12 14948 5.77400000 1896444091 1896444091 -3.00000000
2.90573096 -4.93098402 1.32136250 8 13 14949 5.87400000 1896444093 1896444093 13.00000000
2.91993093 -4.95705891 -0.10042115 9 14 14950 5.75400000 1896444095 1896444095 -1.00000000
2.90334725 -4.93087339 1.53324401 8 15 14951 5.92400000 1896444098 1896444098 15.00000000
1.03978801 -1.77085924 -0.55024928 4 0 14958 2.12600000 1896444118 1896444118 -15.00000000
2.91922641 -4.97371149 0.10066548 10 1 14959 5.76800000 1896444121 1896444121 1.00000000
1.20800722 -2.05899835 -0.55113006 3 2 14960 2.45000000 1896444123 1896444123 -13.00000000
2.91177058 -4.96299267 0.30155978 9 3 14960 5.76200000 1896444125 1896444125 3.00000000
1.41726422 -2.41663456 -0.54456890 2 4 14961 2.85400000 1896444128 1896444128 -11.00000000
2.90798092 -4.96049976 0.50306296 12 5 14962 5.77200000 1896444130 1896444130 5.00000000
1.75274491 -2.99106860 -0.54908496 7 6 14963 3.51000000 1896444132 1896444132 -9.00000000
2.90363169 -4.95704603 0.70537978 10 7 14964 5.78800000 1896444134 1896444134 7.00000000
2.25480962 -3.85092568 -0.54792458 2 8 14965 4.49600000 1896444137 1896444137 -7.00000000
2.89454818 -4.94351721 0.90731990 9 9 14965 5.80000000 1896444139 1896444139 9.00000000
2.91558766 -4.98144341 -0.50498039 14 10 14966 5.79400000 1896444141 1896444141 -5.00000000
2.89588952 -4.94976950 1.11470616 12 11 14967 5.84200000 1896444144 1896444144 11.00000000
2.90786290 -4.97222567 -0.30187380 12 12 14968 5.76800000 1896444146 1896444146 -3.00000000
2.88063312 -4.92763805 1.31776333 8 13 14969 5.85800000 1896444148 1896444148 13.00000000
2.89756536 -4.95858860 -0.10024662 9 14 14970 5.74400000 1896444151 1896444151 -1.00000000
2.87723327 -4.92379475 1.52806759 8 15 14970 5.90400000 1896444153 1896444153 15.00000000
1.02776623 -1.76446211 -0.54714346 4 0 14978 2.11400000 1896444174 1896444174 -15.00000000
2.89178514 -4.96659040 0.10031644 10 1 14979 5.74800000 1896444176 1896444176 1.00000000
1.20277309 -2.06657100 -0.55202991 3 2 14980 2.45400000 1896444178 1896444178 -13.00000000
2.88639140 -4.95931721 0.30072239 9 3 14980 5.74600000 1896444181 1896444181 3.00000000
1.41079450 -2.42496109 -0.54533213 3 4 14981 2.85800000 1896444183 1896444183 -11.00000000
2.87562370 -4.94478559 0.50044829 6 5 14982 5.74200000 1896444185 1896444185 5.00000000
1.73137307 -2.97838283 -0.54564339 3 6 14983 3.48800000 1896444187 1896444187 -9.00000000
2.88830543 -4.97058439 0.70586723 10 7 14984 5.79200000 1896444190 1896444190 7.00000000
2.24534178 -3.86563897 -0.54889953 2 8 14985 4.50400000 1896444192 1896444192 -7.00000000
2.87429810 -4.94846630 0.90638131 9 9 14985 5.79400000 1896444194 1896444194 9.00000000
2.88617659 -4.97091436 -0.50288862 14 10 14986 5.77000000 1896444197 1896444197 -5.00000000
2.87268114 -4.94965982 1.11241639 12 11 14987 5.83000000 1896444199 1896444199 11.00000000
2.88247085 -4.96852541 -0.30103642 12 12 14988 5.75200000 1896444201 1896444201 -3.00000000
2.86048198 -4.93260622 1.31641352 8 13 14989 5.85200000 1896444204 1896444204 13.00000000
2.86619878 -4.94445229 -0.09975795 9 14 14990 5.71600000 1896444206 1896444206 -1.00000000
2.85238743 -4.92260647 1.52444422 8 15 14991 5.89000000 1896444208 1896444208 15.00000000
1.02546692 -1.77472973 -0.54921401 4 0 14998 2.12200000 1896444229 1896444229 -15.00000000
2.86042881 -4.95241165 0.09982777 5 1 14999 5.72000000 1896444231 1896444231 1.00000000
1.18970585 -2.06063104 -0.54933047 3 2 15000 2.44200000 1896444234 1896444234 -13.00000000
2.85921025 -4.95429420 0.29978037 7 3 15001 5.72800000 1896444236 1896444236 3.00000000
1.40232122 -2.42987084 -0.54533213 3 4 15001 2.85800000 1896444238 1896444238 -11.00000000
2.85436320 -4.94788980 0.49975103 30 5 15002 5.73400000 1896444240 1896444240 5.00000000
1.70616424 -2.95873976 -0.54095036 1 6 15003 3.45800000 1896444243 1896444243 -9.00000000
2.85408425 -4.95139885 0.70172369 10 7 15004 5.75800000 1896444245 1896444245 7.00000000
2.21597791 -3.84593320 -0.54499972 2 8 15005 4.47200000 1896444247 1896444247 -7.00000000
2.85306239 -4.95162296 0.90512979 9 9 15005 5.78600000 1896444250 1896444250 9.00000000
2.86284089 -4.97059965 -0.50184274 14 10 15006 5.75800000 1896444252 1896444252 -5.00000000
2.83775401 -4.92903185 1.10554731 12 11 15007 5.79400000 1896444254 1896444254 11.00000000
2.86212134 -4.97336340 -0.30072239 6 12 15008 5.74600000 1896444257 1896444257 -3.00000000
2.83935976 -4.93580437 1.31461394 10 13 15009 5.84400000 1896444259 1896444259 13.00000000
2.83995056 -4.93882513 -0.09944381 9 14 15010 5.69800000 1896444261 1896444261 -1.00000000
2.83123279 -4.92366457 1.52185595 23 15 15010 5.88000000 1896444264 1896444264 15.00000000
1.01926565 -1.77829850 -0.54921401 4 0 15018 2.12200000 1896444284 1896444284 -15.00000000
2.83119512 -4.94154501 0.09940891 28 1 15019 5.69600000 1896444287 1896444287 1.00000000
1.17863178 -2.05800700 -0.54753089 3 2 15020 2.43400000 1896444289 1896444289 -13.00000000
2.83792996 -4.95731115 0.29936168 23 3 15021 5.72000000 1896444291 1896444291 3.00000000
1.39968312 -2.44497395 -0.54762185 3 4 15021 2.87000000 1896444293 1896444293 -11.00000000
2.83014750 -4.94571877 0.49853083 9 5 15022 5.72000000 1896444296 1896444296 5.00000000
1.69974911 -2.97153592 -0.54220188 3 6 15023 3.46600000 1896444298 1896444298 -9.00000000
2.83776879 -4.96305466 0.70196742 10 7 15024 5.76000000 1896444300 1896444300 7.00000000
2.19465923 -3.83985734 -0.54304981 4 8 15025 4.45600000 1896444303 1896444303 -7.00000000
2.82999492 -4.95347071 0.90356547 9 9 15026 5.77600000 1896444305 1896444305 9.00000000
2.84151936 -4.97364235 -0.50114554 14 10 15026 5.75000000 1896444307 1896444307 -5.00000000
2.81566334 -4.93038321 1.10363925 21 11 15027 5.78400000 1896444310 1896444310 11.00000000
2.82395005 -4.94689846 -0.29852429 30 12 15028 5.70400000 1896444312 1896444312 -3.00000000
2.82114744 -4.94399261 1.31416404 42 13 15029 5.84200000 1896444314 1896444314 13.00000000
2.82764745 -4.95739365 -0.09961834 20 14 15030 5.70800000 1896444317 1896444317 -1.00000000
2.82943439 -4.96253872 1.53065586 38 15 15031 5.91400000 1896444319 1896444319 15.00000000
1.00923276 -1.77512789 -0.54714346 4 0 15038 2.11400000 1896444340 1896444340 -15.00000000
1.17144084 -2.06210876 -0.54753089 3 2 15040 2.43400000 1896444344 1896444344 -13.00000000
2.82396579 -4.97309971 -1.11165321 5 4 15041 5.82600000 1896444349 1896444349 -11.00000000
2.80401492 -4.93997288 0.49696204 6 5 15042 5.70200000 1896444351 1896444351 5.00000000
1.68839133 -2.97573304 -0.54188901 1 6 15043 3.46400000 1896444353 1896444353 -9.00000000
2.80965471 -4.95393610 0.69928628 10 7 15044 5.73800000 1896444356 1896444356 7.00000000
2.18026328 -3.84576774 -0.54280603 2 8 15045 4.45400000 1896444358 1896444358 -7.00000000
2.82119393 -4.97833061 -0.50062257 14 10 15046 5.74400000 1896444363 1896444363 -5.00000000
2.81295061 -4.96580505 1.10936356 39 11 15047 5.81400000 1896444365 1896444365 11.00000000
2.81827092 -4.97924900 1.32091260 41 13 15049 5.87200000 1896444370 1896444370 13.00000000
2.82437778 -4.99207115 1.53686750 38 15 15050 5.93800000 1896444374 1896444374 15.00000000
1.00492811 -1.78200543 -0.54817873 4 0 15058 2.11800000 1896444395 1896444395 -15.00000000
2.78680825 -4.94376993 0.09905986 10 1 15059 5.67600000 1896444397 1896444397 1.00000000
1.16614890 -2.06958079 -0.54843068 3 2 15060 2.43800000 1896444399 1896444399 -13.00000000
2.78462958 -4.94393873 0.29737291 7 3 15061 5.68200000 1896444402 1896444402 3.00000000
1.37679923 -2.44442248 -0.54533213 3 4 15061 2.85800000 1896444404 1896444404 -11.00000000
2.80434847 -4.98098135 0.50009966 3 5 15062 5.73800000 1896444406 1896444406 5.00000000
1.68961966 -3.00226617 -0.54564339 1 6 15063 3.48800000 1896444409 1896444409 -9.00000000
2.80986404 -4.99485588 0.70367360 7 7 15064 5.77400000 1896444411 1896444411 7.00000000
2.17363667 -3.86546683 -0.54451221 2 8 15065 4.46800000 1896444413 1896444413 -7.00000000
2.80599165 -4.99204922 0.90700704 42 9 15066 5.79800000 1896444416 1896444416 9.00000000
2.79403663 -4.97077990 -0.49887946 14 10 15066 5.72400000 1896444418 1896444418 -5.00000000
2.82252645 -5.02351809 1.12004876 42 11 15067 5.87000000 1896444420 1896444420 11.00000000
2.78152156 -4.95256138 -0.29768690 6 12 15068 5.68800000 1896444422 1896444422 -3.00000000
2.81613660 -5.01624489 1.32811105 42 13 15069 5.90400000 1896444425 1896444425 13.00000000
2.76850414 -4.93341637 -0.09874572 4 14 15070 5.65800000 1896444427 1896444427 -1.00000000
2.82401919 -5.03440189 1.54670262 40 15 15071 5.97600000 1896444429 1896444429 15.00000000
0.99492943 -1.77875841 -0.54610819 4 0 15078 2.11000000 1896444450 1896444450 -15.00000000
1.16081893 -2.07704091 -0.54933047 3 2 15080 2.44200000 1896444455 1896444455 -13.00000000
2.78586268 -4.98675776 0.29936168 2 3 15081 5.72000000 1896444457 1896444457 3.00000000
1.36825824 -2.44921350 -0.54533213 3 4 15081 2.85800000 1896444459 1896444459 -11.00000000
2.78888726 -4.99421883 0.50044829 12 5 15082 5.74200000 1896444462 1896444462 5.00000000
1.68105507 -3.01159549 -0.54626918 1 6 15083 3.49200000 1896444464 1896444464 -9.00000000
2.81369090 -5.04277086 0.70903581 7 7 15084 5.81800000 1896444466 1896444466 7.00000000
2.17076659 -3.89210129 -0.54719335 2 8 15085 4.49000000 1896444469 1896444469 -7.00000000
2.80770373 -5.03410530 0.91295153 42 9 15085 5.83600000 1896444471 1896444471 9.00000000
2.77472782 -4.97702217 -0.49853083 14 10 15086 5.72000000 1896444473 1896444473 -5.00000000
2.81835389 -5.05734921 1.12539148 45 11 15087 5.89800000 1896444475 1896444475 11.00000000
2.78559971 -5.00062656 -0.29998970 3 12 15088 5.73200000 1896444478 1896444478 -3.00000000
2.82136250 -5.06690645 1.33890867 43 13 15089 5.95200000 1896444480 1896444480 13.00000000
2.77460694 -4.98498487 -0.09958343 4 14 15090 5.70600000 1896444482 1896444482 -1.00000000
2.82140207 -5.06905890 1.55446720 38 15 15090 6.00600000 1896444485 1896444485 15.00000000
0.99058867 -1.78559911 -0.54714346 4 0 15098 2.11400000 1896444505 1896444505 -15.00000000
2.76968265 -4.99458361 0.09968814 10 1 15099 5.71200000 1896444508 1896444508 1.00000000
1.15734076 -2.08789802 -0.55113006 3 2 15100 2.45000000 1896444510 1896444510 -13.00000000
2.78779817 -5.03139210 0.30145511 9 3 15101 5.76000000 1896444512 1896444512 3.00000000
1.36160350 -2.45740914 -0.54609537 2 4 15101 2.86200000 1896444515 1896444515 -11.00000000
2.79170895 -5.04052496 0.50410879 9 5 15102 5.78400000 1896444517 1896444517 5.00000000
1.65713751 -2.99325037 -0.54188901 1 6 15103 3.46400000 1896444519 1896444519 -9.00000000
2.80760527 -5.07340384 0.71196073 7 7 15104 5.84200000 1896444522 1896444522 7.00000000
2.15524578 -3.89618087 -0.54670590 2 8 15105 4.48600000 1896444524 1896444524 -7.00000000
2.80643964 -5.07547855 0.91858315 42 9 15106 5.87200000 1896444526 1896444526 9.00000000
2.77469182 -5.01806259 -0.50166845 10 10 15106 5.75600000 1896444528 1896444528 -5.00000000
2.81018019 -5.08433867 1.12920761 45 11 15107 5.91800000 1896444531 1896444531 11.00000000
2.76522970 -5.00507498 -0.29967567 12 12 15108 5.72600000 1896444533 1896444533 -3.00000000
2.82626867 -5.11766529 1.34970629 43 13 15109 6.00000000 1896444535 1896444535 13.00000000
2.76975274 -5.01739836 -0.10003719 9 14 15110 5.73200000 1896444538 1896444538 -1.00000000
2.81960416 -5.10981178 1.56378472 36 15 15111 6.04200000 1896444540 1896444540 15.00000000
0.98807484 -1.79581630 -0.54921401 4 0 15118 2.12200000 1896444561 1896444561 -15.00000000
2.78788710 -5.06905174 0.10097963 8 1 15119 5.78600000 1896444563 1896444563 1.00000000
1.13877988 -2.07143283 -0.54573125 3 2 15120 2.42600000 1896444565 1896444565 -13.00000000
2.78945613 -5.07610035 0.30354854 7 3 15121 5.80000000 1896444568 1896444568 3.00000000
1.35301721 -2.46214700 -0.54609537 3 4 15121 2.86200000 1896444570 1896444570 -11.00000000
2.79615951 -5.09040356 0.50811797 9 5 15122 5.83000000 1896444572 1896444572 5.00000000
1.64762974 -3.00074816 -0.54220188 1 6 15123 3.46600000 1896444575 1896444575 -9.00000000
2.80516052 -5.11101675 0.71586055 7 7 15124 5.87400000 1896444577 1896444577 7.00000000
2.10344005 -3.83406496 -0.53695631 4 8 15125 4.40600000 1896444579 1896444579 -7.00000000
2.81239653 -5.12632227 0.92609203 42 9 15125 5.92000000 1896444581 1896444581 9.00000000
2.77344489 -5.05741549 -0.50463176 10 10 15126 5.79000000 1896444584 1896444584 -5.00000000
2.81506443 -5.13543463 1.13836646 45 11 15127 5.96600000 1896444586 1896444586 11.00000000
2.77749395 -5.06899500 -0.30292052 9 12 15128 5.78800000 1896444588 1896444588 -3.00000000
2.81868482 -5.14630032 1.35465527 11 13 15129 6.02200000 1896444591 1896444591 13.00000000
2.78295135 -5.08316469 -0.10115415 6 14 15130 5.79600000 1896444593 1896444593 -1.00000000
2.82119823 -5.15302420 1.57413745 38 15 15130 6.08200000 1896444595 1896444595 15.00000000
0.97994953 -1.79586279 -0.54817873 4 0 15138 2.11800000 1896444616 1896444616 -15.00000000
2.79124165 -5.11737394 0.10174753 8 1 15139 5.83000000 1896444618 1896444618 1.00000000
1.13154221 -2.07539535 -0.54573125 3 2 15140 2.42600000 1896444621 1896444621 -13.00000000
2.78605676 -5.11211205 0.30511862 7 3 15141 5.83000000 1896444623 1896444623 3.00000000
1.34065652 -2.45995951 -0.54456890 2 4 15141 2.85400000 1896444625 1896444625 -11.00000000
2.80410814 -5.14737272 0.51282442 9 5 15142 5.88400000 1896444628 1896444628 5.00000000
1.64659202 -3.02382946 -0.54533052 1 6 15143 3.48600000 1896444630 1896444630 -9.00000000
2.80248713 -5.14867449 0.71976036 7 7 15144 5.90600000 1896444632 1896444632 7.00000000
2.05209470 -3.77163577 -0.52720678 12 8 15145 4.32600000 1896444634 1896444634 -7.00000000
2.81246448 -5.17130232 0.93234938 11 9 15146 5.96000000 1896444637 1896444637 9.00000000
2.77862000 -5.10907269 -0.50881523 10 10 15146 5.83800000 1896444639 1896444639 -5.00000000
2.81587481 -5.17972708 1.14599884 43 11 15147 6.00600000 1896444641 1896444641 11.00000000
2.78266978 -5.12077665 -0.30543265 9 12 15148 5.83600000 1896444644 1896444644 -3.00000000
2.81651640 -5.18521929 1.36230361 25 13 15149 6.05600000 1896444646 1896444646 13.00000000
2.78045774 -5.12096596 -0.10171262 6 14 15150 5.82800000 1896444648 1896444648 -1.00000000
2.82533002 -5.20577717 1.58707833 38 15 15151 6.13200000 1896444651 1896444651 15.00000000
0.97275537 -1.79757345 -0.54766113 4 0 15158 2.11600000 1896444671 1896444671 -15.00000000
2.78858423 -5.15522814 0.10230601 8 1 15159 5.86200000 1896444674 1896444674 1.00000000
1.12985206 -2.08961773 -0.54843068 3 2 15160 2.43800000 1896444676 1896444676 -13.00000000
2.79288578 -5.16748953 0.30784011 7 3 15161 5.88200000 1896444678 1896444678 3.00000000
1.32832766 -2.45771575 -0.54304242 2 4 15161 2.84600000 1896444681 1896444681 -11.00000000
2.80127573 -5.18517637 0.51561338 9 5 15162 5.91600000 1896444683 1896444683 5.00000000
1.62664068 -3.01217747 -0.54220188 1 6 15163 3.46600000 1896444685 1896444685 -9.00000000
2.81655788 -5.21781826 0.72804743 7 7 15164 5.97400000 1896444687 1896444687 7.00000000
2.08039284 -3.85564423 -0.53793126 12 8 15165 4.41400000 1896444690 1896444690 -7.00000000
2.81124663 -5.21015406 0.93766820 9 9 15165 5.99400000 1896444692 1896444692 9.00000000
2.76928139 -5.13452291 -0.51038402 11 10 15166 5.85600000 1896444694 1896444694 -5.00000000
2.82013702 -5.23099947 1.15515769 40 11 15167 6.05400000 1896444697 1896444697 11.00000000
2.79225540 -5.18144703 -0.30846813 12 12 15168 5.89400000 1896444699 1896444699 -3.00000000
2.81318617 -5.22246981 1.36950207 45 13 15169 6.08800000 1896444701 1896444701 13.00000000
2.78626609 -5.17465782 -0.10258525 15 14 15170 5.87800000 1896444704 1896444704 -1.00000000
2.82178950 -5.24063206 1.59484291 38 15 15170 6.16200000 1896444706 1896444706 15.00000000
0.96099383 -1.79074466 -0.54455525 4 0 15178 2.10400000 1896444727 1896444727 -15.00000000
2.78380585 -5.18960094 0.10279468 8 1 15179 5.89000000 1896444729 1896444729 1.00000000
1.12255108 -2.09354877 -0.54843068 3 2 15180 2.43800000 1896444731 1896444731 -13.00000000
2.79747486 -5.21945572 0.31035221 7 3 15181 5.93000000 1896444734 1896444734 3.00000000
1.32345021 -2.46925902 -0.54456890 3 4 15181 2.85400000 1896444736 1896444736 -11.00000000
2.79350877 -5.21424150 0.51753080 9 5 15182 5.93800000 1896444738 1896444738 5.00000000
1.61425114 -3.01435447 -0.54157615 1 6 15183 3.46200000 1896444740 1896444740 -9.00000000
2.81519008 -5.25911999 0.73243475 7 7 15184 6.01000000 1896444743 1896444743 7.00000000
2.11655736 -3.95564771 -0.55084944 6 8 15185 4.52000000 1896444745 1896444745 -7.00000000
2.81074977 -5.25302839 0.94361269 20 9 15185 6.03200000 1896444747 1896444747 9.00000000
2.76825547 -5.17578220 -0.51352161 11 10 15186 5.89200000 1896444750 1896444750 -5.00000000
2.81389332 -5.26331902 1.16011870 31 11 15187 6.08000000 1896444752 1896444752 11.00000000
2.77697563 -5.19644690 -0.30878213 12 12 15188 5.90000000 1896444754 1896444754 -3.00000000
2.81330276 -5.26663542 1.37850010 45 13 15189 6.12800000 1896444757 1896444757 13.00000000
2.77477932 -5.19670010 -0.10282958 20 14 15190 5.89200000 1896444759 1896444759 -1.00000000
2.81530809 -5.27260351 1.60157228 40 15 15190 6.18800000 1896444761 1896444761 15.00000000
0.95899588 -1.80057526 -0.54662585 4 0 15196 2.11200000 1896444782 1896444782 -15.00000000
2.78628302 -5.23362350 0.10349277 11 1 15197 5.93000000 1896444784 1896444784 1.00000000
1.11413753 -2.09362459 -0.54753089 3 2 15198 2.43400000 1896444787 1896444787 -13.00000000
2.79794693 -5.25995779 0.31223631 7 3 15199 5.96600000 1896444789 1896444789 3.00000000
1.31568635 -2.47340465 -0.54456890 2 4 15199 2.85400000 1896444791 1896444791 -11.00000000
2.79769206 -5.26169348 0.52136564 9 5 15200 5.98200000 1896444793 1896444793 5.00000000
1.61126292 -3.03162098 -0.54376620 1 6 15201 3.47600000 1896444796 1896444796 -9.00000000
2.80796742 -5.28546906 0.73487216 7 7 15202 6.03000000 1896444798 1896444798 7.00000000
2.12925768 -4.00961447 -0.55743039 6 8 15203 4.57400000 1896444800 1896444800 -7.00000000
2.80535460 -5.28500271 0.94768000 10 9 15204 6.05800000 1896444803 1896444803 9.00000000
2.77346706 -5.22492933 -0.51753080 11 10 15204 5.93800000 1896444805 1896444805 -5.00000000
2.80838633 -5.29294443 1.16469812 40 11 15205 6.10400000 1896444807 1896444807 11.00000000
2.76344442 -5.21043873 -0.30909616 31 12 15206 5.90600000 1896444810 1896444810 -3.00000000
2.81865001 -5.31676960 1.38929772 17 13 15207 6.17600000 1896444812 1896444812 13.00000000
2.75375819 -5.19655657 -0.10265505 24 14 15208 5.88200000 1896444814 1896444814 -1.00000000
2.82405782 -5.32921791 1.61606610 36 15 15208 6.24400000 1896444816 1896444816 15.00000000
0.95180267 -1.80220354 -0.54610819 4 0 15216 2.11000000 1896444837 1896444837 -15.00000000
2.78853559 -5.28222275 0.10426068 8 1 15217 5.97400000 1896444840 1896444840 1.00000000
1.10500371 -2.09405375 -0.54663104 3 2 15218 2.43000000 1896444842 1896444842 -13.00000000
2.79261446 -5.29442453 0.31370172 7 3 15219 5.99400000 1896444844 1896444844 3.00000000
1.31070828 -2.48492813 -0.54609537 2 4 15219 2.86200000 1896444846 1896444846 -11.00000000
2.79510522 -5.30138874 0.52432895 9 5 15220 6.01600000 1896444849 1896444849 5.00000000
2.74913812 -5.21641111 -0.93391377 2 6 15221 5.97000000 1896444851 1896444851 -9.00000000
2.80060315 -5.31631374 0.73779702 7 7 15222 6.05400000 1896444853 1896444853 7.00000000
2.07270312 -3.93622541 -0.54621840 2 8 15223 4.48200000 1896444856 1896444856 -7.00000000
2.80529094 -5.32972336 0.95393735 10 9 15224 6.09800000 1896444858 1896444858 9.00000000
2.78026748 -5.28218174 -0.52223718 11 10 15224 5.99200000 1896444860 1896444860 -5.00000000
2.80726171 -5.33572674 1.17194879 43 11 15225 6.14200000 1896444863 1896444863 11.00000000
2.73315430 -5.19707298 -0.30773541 31 12 15226 5.88000000 1896444865 1896444865 -3.00000000
2.82092929 -5.36624956 1.39964545 15 13 15227 6.22200000 1896444867 1896444867 13.00000000
2.73188138 -5.19905663 -0.10251544 24 14 15228 5.87400000 1896444869 1896444869 -1.00000000
2.82157397 -5.37202835 1.62590122 38 15 15229 6.28200000 1896444872 1896444872 15.00000000
0.94819462 -1.81064916 -0.54766113 4 0 15236 2.11600000 1896444893 1896444893 -15.00000000
2.78862786 -5.32735729 0.10495877 8 1 15237 6.01400000 1896444895 1896444895 1.00000000
1.09407353 -2.09099150 -0.54483145 3 2 15238 2.42200000 1896444897 1896444897 -13.00000000
2.78522396 -5.32537794 0.31495780 7 3 15239 6.01800000 1896444899 1896444899 3.00000000
1.30202627 -2.48948812 -0.54609537 3 4 15239 2.86200000 1896444902 1896444902 -11.00000000
2.80150557 -5.35878611 0.52903533 9 5 15240 6.07000000 1896444904 1896444904 5.00000000
2.72633839 -5.21722174 -0.93234938 2 6 15241 5.96000000 1896444906 1896444906 -9.00000000
2.79857206 -5.35772896 0.74218428 7 7 15242 6.09000000 1896444909 1896444909 7.00000000
2.04976273 -3.92583990 -0.54378098 2 8 15243 4.46200000 1896444911 1896444911 -7.00000000
2.80951858 -5.38326359 0.96175909 10 9 15244 6.14800000 1896444913 1896444913 9.00000000
2.77748346 -5.32188177 -0.52520049 11 10 15244 6.02600000 1896444916 1896444916 -5.00000000
2.81222868 -5.39074993 1.18187094 46 11 15245 6.19400000 1896444918 1896444918 11.00000000
2.70668530 -5.19064331 -0.30679336 31 12 15246 5.86200000 1896444920 1896444920 -3.00000000
2.80758476 -5.38643217 1.40234482 32 13 15247 6.23400000 1896444922 1896444922 13.00000000
2.70262885 -5.18728018 -0.10209658 24 14 15248 5.85000000 1896444925 1896444925 -1.00000000
2.82248950 -5.41733408 1.63677168 40 15 15248 6.32400000 1896444927 1896444927 15.00000000
0.94186848 -1.81394792 -0.54766113 4 0 15256 2.11600000 1896444948 1896444948 -15.00000000
2.78106904 -5.35835743 0.10537763 8 1 15257 6.03800000 1896444950 1896444950 1.00000000
1.09394729 -2.10863638 -0.54843068 3 2 15258 2.43800000 1896444952 1896444952 -13.00000000
2.79236245 -5.38471317 0.31788859 7 3 15259 6.07400000 1896444955 1896444955 3.00000000
1.28429043 -2.47658944 -0.54227918 2 4 15259 2.84200000 1896444957 1896444957 -11.00000000
2.79928708 -5.40037203 0.53217298 9 5 15260 6.10600000 1896444959 1896444959 5.00000000
2.71628904 -5.24249220 -0.93516523 2 6 15261 5.97800000 1896444962 1896444962 -9.00000000
2.80724072 -5.42034626 0.74949646 7 7 15262 6.15000000 1896444964 1896444964 7.00000000
2.03239608 -3.92591953 -0.54280603 2 8 15263 4.45400000 1896444966 1896444966 -7.00000000
2.80614376 -5.42286301 0.96707785 40 9 15264 6.18200000 1896444969 1896444969 9.00000000
2.77170897 -5.35631800 -0.52764088 11 10 15264 6.05400000 1896444971 1896444971 -5.00000000
2.82135534 -5.45459127 1.19370103 40 11 15265 6.25600000 1896444973 1896444973 11.00000000
2.68671536 -5.19651127 -0.30658403 31 12 15266 5.85800000 1896444975 1896444975 -3.00000000
2.81292224 -5.44294262 1.41449225 45 13 15267 6.28800000 1896444978 1896444978 13.00000000
2.67716312 -5.18246937 -0.10181734 24 14 15268 5.83400000 1896444980 1896444980 -1.00000000
2.81508851 -5.44946623 1.64350092 38 15 15268 6.35000000 1896444982 1896444982 15.00000000
0.92991006 -1.80708134 -0.54455525 4 0 15277 2.10400000 1896445003 1896445003 -15.00000000
2.77787519 -5.40052271 0.10600591 8 1 15278 6.07400000 1896445005 1896445005 1.00000000
1.08977568 -2.11956406 -0.55023026 3 2 15279 2.44600000 1896445008 1896445008 -13.00000000
2.79364085 -5.43350458 0.32019138 7 3 15279 6.11800000 1896445010 1896445010 3.00000000
1.27879429 -2.48826456 -0.54380566 3 4 15280 2.85000000 1896445012 1896445012 -11.00000000
2.79039979 -5.43186235 0.53426468 9 5 15281 6.13000000 1896445015 1896445015 5.00000000
2.68622828 -5.23132563 -0.93141079 2 6 15282 5.95400000 1896445017 1896445017 -9.00000000
2.81092310 -5.47651625 0.75583369 7 7 15283 6.20200000 1896445019 1896445019 7.00000000
2.02343011 -3.94393945 -0.54426849 2 8 15284 4.46600000 1896445021 1896445021 -7.00000000
2.80523157 -5.46777630 0.97333527 40 9 15284 6.22200000 1896445024 1896445024 9.00000000
2.75933194 -5.38062334 -0.52903533 11 10 15285 6.07000000 1896445026 1896445026 -5.00000000
2.81119561 -5.48411369 1.19789886 40 11 15286 6.27800000 1896445028 1896445028 11.00000000
2.66582966 -5.20276880 -0.30637470 31 12 15287 5.85400000 1896445031 1896445031 -3.00000000
2.81072092 -5.48790550 1.42349029 48 13 15288 6.32800000 1896445033 1896445033 13.00000000
2.65632796 -5.18868685 -0.10174753 24 14 15289 5.83000000 1896445035 1896445035 -1.00000000
2.81710505 -5.50273752 1.65644193 42 15 15289 6.40000000 1896445038 1896445038 15.00000000
0.92535239 -1.81375790 -0.54559052 4 0 15297 2.10800000 1896445058 1896445058 -15.00000000
2.77717638 -5.44581509 0.10670401 8 1 15298 6.11400000 1896445061 1896445061 1.00000000
1.07352018 -2.10599327 -0.54573125 3 2 15299 2.42600000 1896445063 1896445063 -13.00000000
2.79184222 -5.47929859 0.32228482 7 3 15300 6.15800000 1896445065 1896445065 3.00000000
1.27188349 -2.49621177 -0.54456890 3 4 15300 2.85400000 1896445068 1896445068 -11.00000000
2.79131484 -5.48062849 0.53809953 9 5 15301 6.17400000 1896445070 1896445070 5.00000000
2.65450835 -5.21426487 -0.92671776 2 6 15302 5.92400000 1896445072 1896445072 -9.00000000
2.80439353 -5.51106358 0.75924599 7 7 15303 6.23000000 1896445074 1896445074 7.00000000
2.00245118 -3.93682361 -0.54231858 2 8 15304 4.45000000 1896445077 1896445077 -7.00000000
2.80039191 -5.50795603 0.97865403 37 9 15305 6.25600000 1896445079 1896445079 9.00000000
2.45609570 -4.83077621 -0.47412723 13 10 15305 5.44000000 1896445081 1896445081 -5.00000000
2.80626678 -5.52189636 1.20400476 43 11 15306 6.31000000 1896445084 1896445084 11.00000000
2.62594295 -5.16930628 -0.30386257 30 12 15307 5.80600000 1896445086 1896445086 -3.00000000
2.81448674 -5.54286051 1.43518770 46 13 15308 6.38000000 1896445088 1896445088 13.00000000
2.63638973 -5.19436121 -0.10167772 24 14 15309 5.82600000 1896445091 1896445091 -1.00000000
2.81265020 -5.54403639 1.66575933 36 15 15310 6.43600000 1896445093 1896445093 15.00000000
0.92424715 -1.82732034 -0.54869640 4 0 15317 2.12000000 1896445114 1896445114 -15.00000000
2.78341269 -5.50544453 0.10768135 8 1 15318 6.17000000 1896445116 1896445116 1.00000000
1.06792033 -2.11320639 -0.54663104 3 2 15319 2.43000000 1896445118 1896445118 -13.00000000
2.78716922 -5.51526499 0.32385489 7 3 15319 6.18800000 1896445121 1896445121 3.00000000
1.26316226 -2.50063634 -0.54456890 3 4 15320 2.85400000 1896445123 1896445123 -11.00000000
2.78833103 -5.52235222 0.54123718 6 5 15321 6.21000000 1896445125 1896445125 5.00000000
1.53442454 -3.04028082 -0.53938603 1 6 15322 3.44800000 1896445127 1896445127 -9.00000000
2.79944491 -5.54917669 0.76314580 10 7 15323 6.26200000 1896445130 1896445130 7.00000000
1.98154640 -3.92960954 -0.54036868 2 8 15324 4.43400000 1896445132 1896445132 -7.00000000
2.80426550 -5.56356049 0.98678863 37 9 15325 6.30800000 1896445134 1896445134 9.00000000
2.76384926 -5.48337650 -0.53722799 11 10 15325 6.16400000 1896445137 1896445137 -5.00000000
5.21795893 -10.35673714 2.25421739 21 11 15326 11.81400000 1896445139 1896445139 11.00000000
2.64201975 -5.24622631 -0.30784011 28 12 15327 5.88200000 1896445141 1896445141 -3.00000000
4.64918947 -9.23585129 2.38718057 48 13 15328 10.61200000 1896445144 1896445144 13.00000000
2.74946880 -5.46433401 -0.10677382 24 14 15329 6.11800000 1896445146 1896445146 -1.00000000
3.58789349 -7.13063145 2.13888049 20 15 15329 8.26400000 1896445148 1896445148 15.00000000
0.91786295 -1.83053541 -0.54869640 4 0 15337 2.12000000 1896445169 1896445169 -15.00000000
2.77493024 -5.53657961 0.10810021 5 1 15338 6.19400000 1896445171 1896445171 1.00000000
1.05704582 -2.10995173 -0.54483145 3 2 15339 2.42200000 1896445173 1896445173 -13.00000000
2.77774096 -5.54460335 0.32500628 2 3 15339 6.21000000 1896445176 1896445176 3.00000000
1.24915135 -2.49449754 -0.54227918 3 4 15340 2.84200000 1896445178 1896445178 -11.00000000
2.78419805 -5.56233978 0.54420048 13 5 15341 6.24400000 1896445180 1896445180 5.00000000
1.53264141 -3.06328464 -0.54251474 1 6 15342 3.46800000 1896445183 1896445183 -9.00000000
2.73026919 -5.46174192 -0.74974018 4 8 15344 6.15200000 1896445187 1896445187 -7.00000000
2.65741754 -5.31832743 -0.52014548 11 10 15345 5.96800000 1896445192 1896445192 -5.00000000
5.18440676 -10.38015747 2.25536227 37 11 15346 11.82000000 1896445194 1896445194 11.00000000
2.74501753 -5.49844170 -0.32207549 32 12 15347 6.15400000 1896445197 1896445197 -3.00000000
4.62040234 -9.25899887 2.38898015 47 13 15348 10.62000000 1896445199 1896445199 13.00000000
2.73751855 -5.48821354 -0.10705306 24 14 15349 6.13400000 1896445201 1896445201 -1.00000000
3.56384349 -7.14484072 2.13939834 15 15 15349 8.26600000 1896445203 1896445203 15.00000000
0.90662658 -1.82319033 -0.54559052 4 0 15356 2.10800000 1896445224 1896445224 -15.00000000
2.77168632 -5.57619286 0.10869358 11 1 15357 6.22800000 1896445226 1896445226 1.00000000
1.05524564 -2.12391686 -0.54753089 3 2 15358 2.43400000 1896445229 1896445229 -13.00000000
2.76903009 -5.57573128 0.32626235 7 3 15359 6.23400000 1896445231 1896445231 3.00000000
1.24087238 -2.49862623 -0.54227918 3 4 15359 2.84200000 1896445233 1896445233 -11.00000000
1.51457262 -3.05242443 -0.53969890 3 6 15361 3.45000000 1896445238 1896445238 -9.00000000
2.71919608 -5.48499393 -0.75169009 4 8 15363 6.16800000 1896445243 1896445243 -7.00000000
2.68399858 -5.41637135 -0.52886105 11 10 15364 6.06800000 1896445247 1896445247 -5.00000000
5.16738462 -10.43247795 2.26299477 34 11 15365 11.86000000 1896445250 1896445250 11.00000000
2.72499657 -5.50393438 -0.32186612 32 12 15366 6.15000000 1896445252 1896445252 -3.00000000
4.60004520 -9.29522800 2.39437914 48 13 15367 10.64400000 1896445254 1896445254 13.00000000
2.71221066 -5.48292208 -0.10677382 24 14 15368 6.11800000 1896445256 1896445256 -1.00000000
3.53288770 -7.14511538 2.13577485 13 15 15369 8.25200000 1896445259 1896445259 15.00000000
0.89684039 -1.81941295 -0.54351997 4 0 15376 2.10000000 1896445279 1896445279 -15.00000000
1.04782546 -2.12758732 -0.54753089 3 2 15378 2.43400000 1896445284 1896445284 -13.00000000
1.23040879 -2.49941969 -0.54151595 3 4 15379 2.83800000 1896445289 1896445289 -11.00000000
1.50739586 -3.06478286 -0.54095036 1 6 15381 3.45800000 1896445293 1896445293 -9.00000000
2.70616174 -5.50692368 -0.75339627 6 8 15383 6.18200000 1896445298 1896445298 -7.00000000
2.75730801 -5.61347914 -0.54716372 19 10 15384 6.27800000 1896445303 1896445303 -5.00000000
5.14131975 -10.47159958 2.26757407 37 11 15385 11.88400000 1896445305 1896445305 11.00000000
2.69872832 -5.49906921 -0.32102877 32 12 15386 6.13400000 1896445307 1896445307 -3.00000000
4.57615328 -9.32872486 2.39887810 47 13 15387 10.66400000 1896445309 1896445309 13.00000000
2.69305515 -5.49235630 -0.10677382 24 14 15388 6.11800000 1896445312 1896445312 -1.00000000
3.49857306 -7.13832235 2.13008070 9 15 15389 8.23000000 1896445314 1896445314 15.00000000
0.89186144 -1.82615960 -0.54455525 4 0 15397 2.10400000 1896445335 1896445335 -15.00000000
1.04172957 -2.13491631 -0.54843068 3 2 15399 2.43800000 1896445339 1896445339 -13.00000000
1.22468233 -2.51097083 -0.54304242 3 4 15400 2.84600000 1896445344 1896445344 -11.00000000
1.48403811 -3.04542661 -0.53657019 1 6 15402 3.43000000 1896445349 1896445349 -9.00000000
2.68769765 -5.52037477 -0.75388378 6 8 15404 6.18600000 1896445353 1896445353 -7.00000000
2.75066447 -5.65221167 -0.54995275 27 10 15405 6.31000000 1896445358 1896445358 -5.00000000
4.52322435 -9.29868603 2.00998187 9 11 15406 10.53400000 1896445360 1896445360 11.00000000
2.67331505 -5.49814653 -0.32040071 32 12 15407 6.12200000 1896445362 1896445362 -3.00000000
4.55215311 -9.36646652 2.40427685 47 13 15408 10.68800000 1896445365 1896445365 13.00000000
2.66416883 -5.48420286 -0.10642477 24 14 15409 6.09800000 1896445367 1896445367 -1.00000000
3.47069860 -7.14762163 2.12904549 9 15 15410 8.22600000 1896445369 1896445369 15.00000000
0.88884836 -1.83621693 -0.54662585 4 0 15417 2.11200000 1896445390 1896445390 -15.00000000
1.02578640 -2.12099624 -0.54393166 3 2 15419 2.41800000 1896445395 1896445395 -13.00000000
1.48198974 -3.06837606 -0.53969890 1 6 15422 3.45000000 1896445404 1896445404 -9.00000000
2.65460777 -5.50111771 -0.74998397 6 8 15424 6.15400000 1896445409 1896445409 -7.00000000
2.74390173 -5.68869686 -0.55256742 23 10 15425 6.34000000 1896445413 1896445413 -5.00000000
4.48988581 -9.31265068 2.00960040 3 11 15426 10.53200000 1896445415 1896445415 11.00000000
2.63676524 -5.47145987 -0.31830728 35 12 15427 6.08200000 1896445418 1896445418 -3.00000000
4.52619600 -9.39634514 2.40787601 50 13 15428 10.70400000 1896445420 1896445420 13.00000000
2.63633418 -5.47545195 -0.10607573 40 14 15429 6.07800000 1896445422 1896445422 -1.00000000
3.43818760 -7.14402628 2.12438679 9 15 15430 8.20800000 1896445425 1896445425 15.00000000
0.88410467 -1.84279203 -0.54766113 4 0 15437 2.11600000 1896445445 1896445445 -15.00000000
1.02343047 -2.13510776 -0.54663104 3 2 15439 2.43000000 1896445450 1896445450 -13.00000000
1.20542610 -2.51591825 -0.54227918 3 4 15440 2.84200000 1896445455 1896445455 -11.00000000
1.47127008 -3.07353044 -0.53969890 1 6 15442 3.45000000 1896445459 1896445459 -9.00000000
2.61654663 -5.47095251 -0.74462169 9 8 15444 6.11000000 1896445464 1896445464 -7.00000000
2.73004293 -5.71082306 -0.55378759 15 10 15445 6.35400000 1896445468 1896445468 -5.00000000
5.06170940 -10.59305573 2.28207564 28 11 15446 11.96000000 1896445471 1896445471 11.00000000
2.61765003 -5.48063087 -0.31830728 42 12 15447 6.08200000 1896445473 1896445473 -3.00000000
4.50176477 -9.42967319 2.41237521 48 13 15448 10.72400000 1896445475 1896445475 13.00000000
2.61117673 -5.47198772 -0.10583139 29 14 15449 6.06400000 1896445478 1896445478 -1.00000000
3.41281438 -7.15190125 2.12335134 6 15 15449 8.20400000 1896445480 1896445480 15.00000000
0.87268943 -1.83539879 -0.54455525 4 0 15457 2.10400000 1896445501 1896445501 -15.00000000
1.01429892 -2.13514662 -0.54573125 3 2 15459 2.42600000 1896445505 1896445505 -13.00000000
1.19832075 -2.52365780 -0.54304242 3 4 15460 2.84600000 1896445510 1896445510 -11.00000000
1.46137917 -3.08043218 -0.54001176 3 6 15462 3.45200000 1896445514 1896445514 -9.00000000
2.60083437 -5.48722792 -0.74559665 9 8 15464 6.11800000 1896445519 1896445519 -7.00000000
2.70156145 -5.70231247 -0.55204445 15 10 15465 6.33400000 1896445524 1896445524 -5.00000000
5.03814602 -10.63904953 2.28818154 34 11 15466 11.99200000 1896445526 1896445526 11.00000000
2.59423065 -5.48070860 -0.31778392 35 12 15467 6.07200000 1896445528 1896445528 -3.00000000
4.47965574 -9.46823025 2.41822386 53 13 15468 10.75000000 1896445531 1896445531 13.00000000
2.59035015 -5.47745371 -0.10576158 31 14 15469 6.06000000 1896445533 1896445533 -1.00000000
3.38327599 -7.15737581 2.12128091 6 15 15470 8.19600000 1896445535 1896445535 15.00000000
0.86609495 -1.83638406 -0.54403764 4 0 15475 2.10200000 1896445556 1896445556 -15.00000000
1.00758612 -2.13832259 -0.54573125 3 2 15477 2.42600000 1896445561 1896445561 -13.00000000
1.18704045 -2.52030540 -0.54151595 3 4 15478 2.83800000 1896445565 1896445565 -11.00000000
1.44160163 -3.06355953 -0.53625733 3 6 15480 3.42800000 1896445570 1896445570 -9.00000000
2.58865047 -5.50615025 -0.74705905 6 8 15482 6.13000000 1896445574 1896445574 -7.00000000
2.67770219 -5.69814920 -0.55082428 15 10 15483 6.32000000 1896445579 1896445579 -5.00000000
2.57869744 -5.49244738 -0.31799328 35 12 15485 6.07600000 1896445584 1896445584 -3.00000000
4.46892977 -9.52283192 2.42857170 52 13 15486 10.79600000 1896445586 1896445586 13.00000000
2.57312965 -5.48556471 -0.10576158 33 14 15487 6.06000000 1896445588 1896445588 -1.00000000
3.35464120 -7.15164137 2.11662221 6 15 15487 8.17800000 1896445591 1896445591 15.00000000
0.85886157 -1.83764601 -0.54351997 4 0 15495 2.10000000 1896445611 1896445611 -15.00000000
0.99846685 -2.13829517 -0.54483145 3 2 15497 2.42200000 1896445616 1896445616 -13.00000000
1.43674290 -3.08110499 -0.53844744 1 6 15500 3.44200000 1896445625 1896445625 -9.00000000
2.56438470 -5.50435638 -0.74559665 9 8 15502 6.11800000 1896445630 1896445630 -7.00000000
2.65611339 -5.70384884 -0.55047566 15 10 15503 6.31600000 1896445634 1896445634 -5.00000000
2.55613947 -5.49417162 -0.31757459 35 12 15505 6.06800000 1896445639 1896445639 -3.00000000
4.44716597 -9.56311131 2.43487024 53 13 15506 10.82400000 1896445641 1896445641 13.00000000
2.55059409 -5.48725939 -0.10562196 31 14 15507 6.05200000 1896445644 1896445644 -1.00000000
3.59620929 -7.74029398 2.28692508 20 15 15508 8.83600000 1896445646 1896445646 15.00000000
0.85504413 -1.84794331 -0.54559052 4 0 15517 2.10800000 1896445667 1896445667 -15.00000000
0.99024904 -2.14211345 -0.54483145 3 2 15519 2.42200000 1896445671 1896445671 -13.00000000
1.17182791 -2.53606796 -0.54304242 3 4 15520 2.84600000 1896445676 1896445676 -11.00000000
1.42241788 -3.08121848 -0.53750885 1 6 15522 3.43600000 1896445680 1896445680 -9.00000000
2.53990507 -5.50695181 -0.74462169 9 8 15524 6.11000000 1896445685 1896445685 -7.00000000
2.62918782 -5.70314932 -0.54942977 11 10 15525 6.30400000 1896445690 1896445690 -5.00000000
2.53251791 -5.49850368 -0.31726056 39 12 15527 6.06200000 1896445694 1896445694 -3.00000000
4.41448832 -9.58896732 2.43711972 49 13 15528 10.83400000 1896445697 1896445697 13.00000000
2.53034163 -5.49882936 -0.10565687 33 14 15529 6.05400000 1896445699 1896445699 -1.00000000
3.57104588 -7.76044226 2.28899574 29 15 15529 8.84400000 1896445701 1896445701 15.00000000
0.84697819 -1.84740448 -0.54455525 4 0 15537 2.10400000 1896445722 1896445722 -15.00000000
0.98276561 -2.14555693 -0.54483145 3 2 15539 2.42200000 1896445726 1896445726 -13.00000000
1.41329706 -3.08975768 -0.53813457 1 6 15542 3.44000000 1896445736 1896445736 -9.00000000
2.51736641 -5.50856256 -0.74364674 6 8 15544 6.10200000 1896445740 1896445740 -7.00000000
2.61588669 -5.72679043 -0.55082428 11 10 15545 6.32000000 1896445745 1896445745 -5.00000000
2.51248002 -5.50549316 -0.31715590 35 12 15547 6.06000000 1896445749 1896445749 -3.00000000
4.38179827 -9.60609150 2.43756962 50 13 15548 10.83600000 1896445752 1896445752 13.00000000
2.50698400 -5.49853086 -0.10548235 31 14 15549 6.04400000 1896445754 1896445754 -1.00000000
3.54578280 -7.78051043 2.29106617 33 15 15550 8.85200000 1896445756 1896445756 15.00000000
0.84276938 -1.85357344 -0.54559052 4 0 15555 2.10800000 1896445777 1896445777 -15.00000000
0.97763228 -2.15218234 -0.54573125 3 2 15557 2.42600000 1896445782 1896445782 -13.00000000
1.40603149 -3.09957933 -0.53907317 3 6 15560 3.44600000 1896445791 1896445791 -9.00000000
2.50332618 -5.52367592 -0.74462169 9 8 15562 6.11000000 1896445796 1896445796 -7.00000000
2.58883929 -5.71501684 -0.54890686 11 10 15563 6.29800000 1896445800 1896445800 -5.00000000
2.49517155 -5.51335907 -0.31715590 35 12 15565 6.06000000 1896445805 1896445805 -3.00000000
4.36284256 -9.64466763 2.44386816 47 13 15566 10.86400000 1896445807 1896445807 13.00000000
2.48475432 -5.49544716 -0.10527292 33 14 15567 6.03200000 1896445809 1896445809 -1.00000000
3.52427387 -7.79451752 2.29210138 31 15 15567 8.85600000 1896445812 1896445812 15.00000000
0.83153337 -1.84593570 -0.54248470 4 0 15575 2.09600000 1896445832 1896445832 -15.00000000
0.97171330 -2.15913582 -0.54663104 3 2 15577 2.43000000 1896445837 1896445837 -13.00000000
1.13965261 -2.53347659 -0.53998947 3 4 15578 2.83000000 1896445842 1896445842 -11.00000000
1.38791561 -3.08825231 -0.53625733 3 6 15580 3.42800000 1896445846 1896445846 -9.00000000
2.48565578 -5.53600264 -0.74510914 9 8 15582 6.11400000 1896445851 1896445851 -7.00000000
2.56642699 -5.71856546 -0.54838395 11 10 15583 6.29200000 1896445855 1896445855 -5.00000000
2.47427702 -5.51839066 -0.31694654 35 12 15585 6.05600000 1896445860 1896445860 -3.00000000
4.33711958 -9.67762089 2.44836736 50 13 15586 10.88400000 1896445862 1896445862 13.00000000
2.46882653 -5.51138687 -0.10541254 31 14 15587 6.04000000 1896445865 1896445865 -1.00000000
3.49252415 -7.80032921 2.29003096 31 15 15588 8.84800000 1896445867 1896445867 15.00000000
0.82791007 -1.85602820 -0.54455525 4 0 15596 2.10400000 1896445888 1896445888 -15.00000000
0.96220666 -2.15912294 -0.54573125 3 2 15598 2.42600000 1896445892 1896445892 -13.00000000
1.13674998 -2.55198359 -0.54304242 3 4 15599 2.84600000 1896445897 1896445897 -11.00000000
1.36935902 -3.07707596 -0.53344154 3 6 15601 3.41000000 1896445902 1896445902 -9.00000000
2.46050978 -5.53419209 -0.74364674 9 8 15603 6.10200000 1896445906 1896445906 -7.00000000
2.54706836 -5.73157501 -0.54873258 11 10 15604 6.29600000 1896445911 1896445911 -5.00000000
2.44917178 -5.51646948 -0.31631851 35 12 15606 6.04400000 1896445915 1896445915 -3.00000000
4.31347704 -9.72017097 2.45511580 51 13 15607 10.91400000 1896445918 1896445918 13.00000000
2.44942045 -5.52222633 -0.10544744 36 14 15608 6.04200000 1896445920 1896445920 -1.00000000
3.46684122 -7.81600475 2.29106617 33 15 15608 8.85200000 1896445922 1896445922 15.00000000
0.82454956 -1.86597490 -0.54662585 4 0 15616 2.11200000 1896445943 1896445943 -15.00000000
0.94994187 -2.15177202 -0.54303187 3 2 15618 2.41400000 1896445948 1896445948 -13.00000000
1.12624991 -2.55234385 -0.54227918 3 4 15619 2.84200000 1896445952 1896445952 -11.00000000
1.36817169 -3.10352755 -0.53719598 1 6 15621 3.43400000 1896445957 1896445957 -9.00000000
2.43877649 -5.53729725 -0.74291551 9 8 15623 6.09600000 1896445961 1896445961 -7.00000000
2.53025699 -5.74772501 -0.54942977 7 10 15624 6.30400000 1896445966 1896445966 -5.00000000
2.42990065 -5.52498531 -0.31631851 39 12 15626 6.04400000 1896445971 1896445971 -3.00000000
4.23403597 -9.63169765 2.42902160 39 13 15627 10.79800000 1896445973 1896445973 13.00000000
2.43012929 -5.53074265 -0.10544744 36 14 15628 6.04200000 1896445975 1896445975 -1.00000000
3.44127798 -7.83573389 2.29313684 31 15 15629 8.86000000 1896445978 1896445978 15.00000000
0.81958038 -1.87238121 -0.54766113 4 0 15636 2.11600000 1896445998 1896445998 -15.00000000
0.94398659 -2.15864587 -0.54393166 3 2 15638 2.41800000 1896446003 1896446003 -13.00000000
1.11576104 -2.55266166 -0.54151595 3 4 15639 2.83800000 1896446008 1896446008 -11.00000000
1.35179639 -3.09561229 -0.53500587 1 6 15641 3.42000000 1896446012 1896446012 -9.00000000
2.41705155 -5.54031801 -0.74218428 9 8 15643 6.09000000 1896446017 1896446017 -7.00000000
2.50858545 -5.75286961 -0.54908121 7 10 15644 6.30000000 1896446021 1896446021 -5.00000000
2.41060019 -5.53343344 -0.31631851 35 12 15646 6.04400000 1896446026 1896446026 -3.00000000
4.25796080 -9.77863503 2.46231413 51 13 15647 10.94600000 1896446028 1896446028 13.00000000
2.40921259 -5.53552485 -0.10537763 36 14 15648 6.03800000 1896446031 1896446031 -1.00000000
3.41681671 -7.85064554 2.29417205 31 15 15648 8.86400000 1896446033 1896446033 15.00000000
0.80842876 -1.86459613 -0.54455525 4 0 15656 2.10400000 1896446054 1896446054 -15.00000000
0.93644577 -2.16192770 -0.54393166 3 2 15658 2.41800000 1896446058 1896446058 -13.00000000
1.10060370 -2.54212761 -0.53846300 3 4 15659 2.82200000 1896446063 1896446063 -11.00000000
1.34490347 -3.10937738 -0.53657019 1 6 15661 3.43000000 1896446067 1896446067 -9.00000000
2.39612269 -5.54507685 -0.74169683 9 8 15663 6.08600000 1896446072 1896446072 -7.00000000
2.47584915 -5.73232603 -0.54629219 7 10 15664 6.26800000 1896446077 1896446077 -5.00000000
2.38968754 -5.53814650 -0.31610918 32 12 15666 6.04000000 1896446081 1896446081 -3.00000000
4.24000788 -9.83101559 2.47176218 53 13 15667 10.98800000 1896446084 1896446084 13.00000000
2.38037610 -5.52186489 -0.10495877 9 14 15668 6.01400000 1896446086 1896446086 -1.00000000
3.39092159 -7.86607265 2.29520726 33 15 15668 8.86800000 1896446088 1896446088 15.00000000
0.80071592 -1.86371672 -0.54351997 4 0 15675 2.10000000 1896446109 1896446109 -15.00000000
0.93234593 -2.17218423 -0.54573125 3 2 15677 2.42600000 1896446114 1896446114 -13.00000000
1.09990799 -2.56380558 -0.54227918 3 4 15678 2.84200000 1896446118 1896446118 -11.00000000
1.33769774 -3.12108254 -0.53782171 1 6 15680 3.43800000 1896446123 1896446123 -9.00000000
1.71199071 -3.99822736 -0.53403145 2 8 15682 4.38200000 1896446127 1896446127 -7.00000000
2.45682645 -5.74050474 -0.54629219 7 10 15683 6.26800000 1896446132 1896446132 -5.00000000
4.21121264 -9.85398197 2.47401166 40 13 15686 10.99800000 1896446139 1896446139 13.00000000
3.36330032 -7.87372112 2.29417205 31 15 15687 8.86400000 1896446143 1896446143 15.00000000
0.79723096 -1.87361085 -0.54559052 4 0 15695 2.10800000 1896446164 1896446164 -15.00000000
0.92170846 -2.16825175 -0.54393166 3 2 15697 2.41800000 1896446169 1896446169 -13.00000000
1.32370758 -3.11845970 -0.53657019 3 6 15700 3.43000000 1896446178 1896446178 -9.00000000
1.72282386 -4.06266069 -0.54183108 2 8 15702 4.44600000 1896446183 1896446183 -7.00000000
2.43055296 -5.73437023 -0.54489768 7 10 15703 6.25200000 1896446187 1896446187 -5.00000000
3.86511803 -9.12778568 -0.51948673 8 12 15705 9.92600000 1896446192 1896446192 -3.00000000
4.19274092 -9.90630913 2.48345971 46 13 15706 11.04000000 1896446194 1896446194 13.00000000
3.33592391 -7.88955402 2.29520726 31 15 15708 8.86800000 1896446199 1896446199 15.00000000
0.78801155 -1.86912382 -0.54351997 4 0 15714 2.10000000 1896446220 1896446220 -15.00000000
0.91526961 -2.17309237 -0.54438156 4 2 15716 2.42000000 1896446224 1896446224 -13.00000000
1.30953014 -3.11372757 -0.53500587 1 6 15719 3.42000000 1896446233 1896446233 -9.00000000
1.69550121 -4.03540945 -0.53744382 2 8 15721 4.41000000 1896446238 1896446238 -7.00000000
2.40843797 -5.73505068 -0.54420048 7 10 15722 6.24400000 1896446243 1896446243 -5.00000000
3.82710099 -9.12213516 -0.51844001 4 12 15724 9.90600000 1896446247 1896446247 -3.00000000
4.16740322 -9.93812943 2.48795867 46 13 15725 11.06000000 1896446249 1896446249 13.00000000
3.31336188 -7.90534019 2.29676032 36 15 15726 8.87400000 1896446254 1896446254 15.00000000
0.78743643 -1.88612497 -0.54766113 4 0 15734 2.11600000 1896446275 1896446275 -15.00000000
0.90542805 -2.17087817 -0.54303187 3 2 15736 2.41400000 1896446279 1896446279 -13.00000000
1.29865313 -3.11827970 -0.53500587 1 6 15739 3.42000000 1896446289 1896446289 -9.00000000
1.67987967 -4.03763771 -0.53695631 2 8 15741 4.40600000 1896446293 1896446293 -7.00000000
2.39758468 -5.76549864 -0.54629219 7 10 15742 6.26800000 1896446298 1896446298 -5.00000000
3.80366421 -9.15572739 -0.51959139 4 12 15744 9.92800000 1896446302 1896446302 -3.00000000
4.13866615 -9.96701336 2.49155784 50 13 15745 11.07600000 1896446305 1896446305 13.00000000
3.28944969 -7.92577887 2.29934835 33 15 15746 8.88400000 1896446309 1896446309 15.00000000
0.77609175 -1.87828565 -0.54455525 4 0 15755 2.10400000 1896446330 1896446330 -15.00000000
0.90043956 -2.18138742 -0.54483145 3 2 15757 2.42200000 1896446335 1896446335 -13.00000000
1.29097915 -3.13215017 -0.53657019 1 6 15760 3.43000000 1896446344 1896446344 -9.00000000
1.67111623 -4.05845213 -0.53890622 2 8 15762 4.42200000 1896446348 1896446348 -7.00000000
2.37037063 -5.75950813 -0.54489768 7 10 15763 6.25200000 1896446353 1896446353 -5.00000000
3.76020789 -9.14559364 -0.51823062 4 12 15765 9.90200000 1896446358 1896446358 -3.00000000
4.11395884 -10.01095486 2.49875641 50 13 15766 11.10800000 1896446360 1896446360 13.00000000
3.26037812 -7.93778229 2.29934835 33 15 15767 8.88400000 1896446365 1896446365 15.00000000
0.76879913 -1.87919533 -0.54403764 4 0 15775 2.10200000 1896446385 1896446385 -15.00000000
0.88987052 -2.17730165 -0.54303187 3 2 15777 2.41400000 1896446390 1896446390 -13.00000000
1.05425346 -2.58079386 -0.54189754 3 4 15778 2.84000000 1896446395 1896446395 -11.00000000
1.27705252 -3.12932181 -0.53531873 1 6 15780 3.42200000 1896446399 1896446399 -9.00000000
