# .PCD v0.7 - Point Cloud Data file format
VERSION 0.7
FIELDS x y z intensity laser_id azimuth distance_m adjustedtime timestamp vertical_angle
SIZE 4 4 4 1 1 2 8 8 4 8
TYPE F F F U U U F U U F
COUNT 1 1 1 1 1 1 1 1 1 1
WIDTH 527
HEIGHT 1
VIEWPOINT 0 0 0 1 0 0 0
POINTS 527
DATA ascii
8.06386662 -3.01816487 0.45124063 10 3 11052 8.62200000 2888730701 2888730701 3.00000000
2.84076929 -1.06325054 -0.58959979 4 4 11052 3.09000000 2888730704 2888730704 -11.00000000
8.05487537 -3.01640248 0.75250268 72 5 11053 8.63400000 2888730706 2888730706 5.00000000
3.51646399 -1.31755090 -0.59476382 8 6 11054 3.80200000 2888730708 2888730708 -9.00000000
8.07079411 -3.02557659 1.05831337 85 7 11055 8.68400000 2888730711 2888730711 7.00000000
4.66893291 -1.75121748 -0.61227161 8 8 11056 5.02400000 2888730713 2888730713 -7.00000000
9.39019012 -3.52206063 1.58843553 23 9 11056 10.15400000 2888730715 2888730715 9.00000000
7.08837509 -2.66011000 -0.66238362 17 10 11057 7.60000000 2888730718 2888730718 -5.00000000
8.04147625 -3.02099061 -0.45019388 17 12 11059 8.60200000 2888730722 2888730722 -3.00000000
8.16301250 -3.06827450 2.01331186 3 13 11060 8.95000000 2888730725 2888730725 13.00000000
8.04461479 -3.02537417 -0.15002088 16 14 11061 8.59600000 2888730727 2888730727 -1.00000000
8.10801125 -3.04921627 2.32108927 45 15 11061 8.96800000 2888730729 2888730729 15.00000000
2.03316545 -0.76786375 -0.58234286 4 0 11069 2.25000000 2888730750 2888730750 -15.00000000
8.04172325 -3.03871393 0.15005580 12 1 11070 8.59800000 2888730752 2888730752 1.00000000
2.37330794 -0.89727169 -0.58577257 3 2 11071 2.60400000 2888730754 2888730754 -13.00000000
8.05328178 -3.04629469 0.45124063 10 3 11072 8.62200000 2888730757 2888730757 3.00000000
2.82969546 -1.07038176 -0.58807331 4 4 11072 3.08200000 2888730759 2888730759 -11.00000000
8.06293106 -3.05155325 0.75424582 72 5 11073 8.65400000 2888730761 2888730761 5.00000000
3.51553822 -1.33121669 -0.59538954 8 6 11074 3.80600000 2888730764 2888730764 -9.00000000
8.06018353 -3.05373049 1.05831337 87 7 11075 8.68400000 2888730766 2888730766 7.00000000
4.65165472 -1.76328278 -0.61080915 4 8 11076 5.01200000 2888730768 2888730768 -7.00000000
7.08649826 -2.68766308 -0.66308087 12 10 11077 7.60800000 2888730773 2888730773 -5.00000000
9.45672226 -3.58849478 1.96609592 31 11 11078 10.30400000 2888730775 2888730775 11.00000000
8.04395294 -3.05400467 -0.45092660 12 12 11079 8.61600000 2888730777 2888730777 -3.00000000
8.14314365 -3.09329009 2.01106238 3 13 11080 8.94000000 2888730780 2888730780 13.00000000
8.05456638 -3.06125164 -0.15040484 14 14 11081 8.61800000 2888730782 2888730782 -1.00000000
8.10761547 -3.08303308 2.32419491 47 15 11082 8.98000000 2888730784 2888730784 15.00000000
2.03421807 -0.77597880 -0.58337814 4 0 11088 2.25400000 2888730805 2888730805 -15.00000000
8.04281139 -3.06964278 0.15026522 12 1 11089 8.61000000 2888730807 2888730807 1.00000000
2.36485767 -0.90305138 -0.58442283 4 2 11090 2.59800000 2888730810 2888730810 -13.00000000
8.05059910 -3.07583499 0.45165929 13 3 11091 8.63000000 2888730812 2888730812 3.00000000
2.82246256 -1.07835805 -0.58731008 4 4 11091 3.07800000 2888730814 2888730814 -11.00000000
8.06393337 -3.08254242 0.75529164 71 5 11092 8.66600000 2888730817 2888730817 5.00000000
3.50741434 -1.34145606 -0.59476382 8 6 11093 3.80200000 2888730819 2888730819 -9.00000000
8.06669903 -3.08682728 1.06050706 80 7 11094 8.70200000 2888730821 2888730821 7.00000000
4.61982775 -1.76876163 -0.60739678 4 8 11095 4.98400000 2888730824 2888730824 -7.00000000
7.04963827 -2.70045733 -0.66046619 12 10 11096 7.57800000 2888730828 2888730828 -5.00000000
9.46676826 -3.62826610 1.97067535 43 11 11097 10.32800000 2888730830 2888730830 11.00000000
8.03378105 -3.08066249 -0.45092660 12 12 11098 8.61600000 2888730833 2888730833 -3.00000000
8.14375782 -3.12446499 2.01376176 3 13 11099 8.95200000 2888730835 2888730835 13.00000000
8.04437065 -3.08794451 -0.15040484 14 14 11100 8.61800000 2888730837 2888730837 -1.00000000
8.11592484 -3.11541176 2.32937145 47 15 11100 9.00000000 2888730840 2888730840 15.00000000
2.02068162 -0.77890581 -0.58027232 4 0 11108 2.24200000 2888730860 2888730860 -15.00000000
8.05070496 -3.10489416 0.15061426 12 1 11109 8.63000000 2888730863 2888730863 1.00000000
2.36896348 -0.91410691 -0.58622247 4 2 11110 2.60600000 2888730865 2888730865 -13.00000000
8.05844593 -3.11111140 0.45270601 10 3 11111 8.65000000 2888730867 2888730867 3.00000000
2.81135511 -1.08537543 -0.58578360 4 4 11111 3.07000000 2888730870 2888730870 -11.00000000
8.06241703 -3.11426163 0.75616324 71 5 11112 8.67600000 2888730872 2888730872 5.00000000
3.50639558 -1.35511518 -0.59538954 8 6 11113 3.80600000 2888730874 2888730874 -9.00000000
8.06883526 -3.11997795 1.06221318 85 7 11114 8.71600000 2888730877 2888730877 7.00000000
4.63399029 -1.79275572 -0.61007792 4 8 11115 5.00600000 2888730879 2888730879 -7.00000000
9.38411045 -3.63232160 1.59375429 28 9 11116 10.18800000 2888730881 2888730881 9.00000000
6.64440346 -2.57185912 -0.62333786 4 10 11116 7.15200000 2888730883 2888730883 -5.00000000
8.03601551 -3.11373806 -0.45165929 12 12 11118 8.63000000 2888730888 2888730888 -3.00000000
8.14915466 -3.15921235 2.01781106 3 13 11119 8.97000000 2888730890 2888730890 13.00000000
8.03913593 -3.11817527 -0.15050955 12 14 11120 8.62400000 2888730893 2888730893 -1.00000000
8.10805416 -3.14653492 2.33040667 47 15 11121 9.00400000 2888730895 2888730895 15.00000000
2.02155066 -0.78735685 -0.58130759 4 0 11128 2.24600000 2888730916 2888730916 -15.00000000
8.04354382 -3.13442969 0.15068407 12 1 11129 8.63400000 2888730918 2888730918 1.00000000
2.36575818 -0.92237055 -0.58622247 4 2 11130 2.60600000 2888730920 2888730920 -13.00000000
8.05870056 -3.14357662 0.45333406 10 3 11131 8.66200000 2888730923 2888730923 3.00000000
2.80754924 -1.09518230 -0.58578360 4 4 11131 3.07000000 2888730925 2888730925 -11.00000000
8.04778481 -3.14093685 0.75581461 71 5 11132 8.67200000 2888730927 2888730927 5.00000000
3.49428368 -1.36447251 -0.59413809 8 6 11133 3.79800000 2888730930 2888730930 -9.00000000
8.07083797 -3.15318108 1.06391943 80 7 11134 8.73000000 2888730932 2888730932 7.00000000
4.61291361 -1.80313885 -0.60812801 4 8 11135 4.99000000 2888730934 2888730934 -7.00000000
6.58343029 -2.57471752 -0.61845714 4 10 11136 7.09600000 2888730939 2888730939 -5.00000000
9.45583439 -3.69999075 1.97372830 25 11 11137 10.34400000 2888730941 2888730941 11.00000000
8.03625584 -3.14613867 -0.45228735 12 12 11138 8.64200000 2888730943 2888730943 -3.00000000
8.15259266 -3.19332504 2.02141023 3 13 11139 8.98600000 2888730946 2888730946 13.00000000
8.03937340 -3.15059590 -0.15071899 14 14 11140 8.63600000 2888730948 2888730948 -1.00000000
8.10117245 -3.17481470 2.33144188 47 15 11140 9.00800000 2888730950 2888730950 15.00000000
2.01878977 -0.79440856 -0.58130759 4 0 11148 2.24600000 2888730971 2888730971 -15.00000000
8.03999615 -3.16541791 0.15082370 12 1 11149 8.64200000 2888730973 2888730973 1.00000000
2.35889792 -0.92919457 -0.58532262 4 2 11150 2.60200000 2888730976 2888730976 -13.00000000
8.05882740 -3.17608142 0.45396209 10 3 11151 8.67400000 2888730978 2888730978 3.00000000
2.81832147 -1.11073458 -0.58883655 4 4 11151 3.08600000 2888730980 2888730980 -11.00000000
8.05345345 -3.17558765 0.75738341 71 5 11152 8.69000000 2888730983 2888730983 5.00000000
3.48582435 -1.37521160 -0.59351236 8 6 11153 3.79400000 2888730985 2888730985 -9.00000000
8.07086086 -3.18570733 1.06538177 80 7 11154 8.74200000 2888730987 2888730987 7.00000000
4.62320805 -1.82579231 -0.61032170 4 8 11155 5.00800000 2888730989 2888730989 -7.00000000
6.52251911 -2.57718205 -0.61357641 8 10 11156 7.04000000 2888730994 2888730994 -5.00000000
9.45746708 -3.73874927 1.97678125 34 11 11157 10.36000000 2888730996 2888730996 11.00000000
8.02522469 -3.17417145 -0.45228735 12 12 11158 8.64200000 2888730999 2888730999 -3.00000000
8.15226841 -3.22606564 2.02410960 3 13 11159 8.99800000 2888731001 2888731001 13.00000000
8.03762341 -3.18232012 -0.15089351 10 14 11160 8.64600000 2888731003 2888731003 -1.00000000
8.10205460 -3.20946598 2.33506536 45 15 11161 9.02200000 2888731006 2888731006 15.00000000
2.01945472 -0.80323040 -0.58234286 4 0 11169 2.25000000 2888731026 2888731026 -15.00000000
8.03948879 -3.19930100 0.15103312 12 1 11170 8.65400000 2888731029 2888731029 1.00000000
2.36633945 -0.94215924 -0.58802205 4 2 11171 2.61400000 2888731031 2888731031 -13.00000000
8.05084324 -3.20707536 0.45417142 10 3 11172 8.67800000 2888731033 2888731033 3.00000000
2.81058383 -1.11960375 -0.58807331 4 4 11172 3.08200000 2888731036 2888731036 -11.00000000
8.05841732 -3.21172237 0.75895220 71 5 11173 8.70800000 2888731038 2888731038 5.00000000
3.48443031 -1.38944185 -0.59413809 8 6 11174 3.79800000 2888731040 2888731040 -9.00000000
8.06281757 -3.21673822 1.06586933 78 7 11175 8.74600000 2888731042 2888731042 7.00000000
4.59804869 -1.83536577 -0.60788429 4 8 11176 4.98800000 2888731045 2888731045 -7.00000000
9.40426731 -3.75382471 1.60376608 60 9 11176 10.25200000 2888731047 2888731047 9.00000000
6.52413130 -2.60550475 -0.61462229 8 10 11177 7.05200000 2888731049 2888731049 -5.00000000
9.45646286 -3.77848673 1.97945249 46 11 11178 10.37400000 2888731052 2888731052 11.00000000
8.01724625 -3.20504665 -0.45249668 12 12 11179 8.64600000 2888731054 2888731054 -3.00000000
8.04447079 -3.21918750 -0.15124255 10 14 11181 8.66600000 2888731059 2888731059 -1.00000000
8.10873699 -3.24490523 2.34024191 42 15 11181 9.04200000 2888731061 2888731061 15.00000000
2.00946832 -0.80739379 -0.58027232 4 0 11189 2.24200000 2888731082 2888731082 -15.00000000
8.03940392 -3.23181987 0.15124255 12 1 11190 8.66600000 2888731084 2888731084 1.00000000
2.35218835 -0.94605052 -0.58532262 4 2 11191 2.60200000 2888731086 2888731086 -13.00000000
8.04701138 -3.23814106 0.45459011 10 3 11192 8.68600000 2888731089 2888731089 3.00000000
2.80301595 -1.12794185 -0.58731008 4 4 11192 3.07800000 2888731091 2888731091 -11.00000000
8.06009483 -3.24504066 0.76017237 75 5 11193 8.72200000 2888731093 2888731093 5.00000000
3.47222996 -1.39864409 -0.59288663 8 6 11194 3.79000000 2888731095 2888731095 -9.00000000
8.06258774 -3.24931526 1.06733167 80 7 11195 8.75800000 2888731098 2888731098 7.00000000
4.58793211 -1.84992015 -0.60739678 4 8 11196 4.98400000 2888731100 2888731100 -7.00000000
9.38927460 -3.78589034 1.60345328 60 9 11196 10.25000000 2888731102 2888731102 9.00000000
6.53347349 -2.63571620 -0.61636543 8 10 11197 7.07200000 2888731105 2888731105 -5.00000000
9.48326778 -3.82763863 1.98784816 50 11 11198 10.41800000 2888731107 2888731107 11.00000000
8.01341724 -3.23600411 -0.45291537 12 12 11199 8.65400000 2888731109 2888731109 -3.00000000
8.03503895 -3.24799776 -0.15127745 12 14 11201 8.66800000 2888731114 2888731114 -1.00000000
8.10452557 -3.27608633 2.34231234 42 15 11201 9.05000000 2888731116 2888731116 15.00000000
2.01379800 -0.81730920 -0.58234286 4 0 11209 2.25000000 2888731137 2888731137 -15.00000000
8.05030727 -3.26889086 0.15166141 12 1 11210 8.69000000 2888731139 2888731139 1.00000000
2.35789871 -0.95792282 -0.58757216 4 2 11211 2.61200000 2888731142 2888731142 -13.00000000
8.05416107 -3.27373123 0.45563683 10 3 11212 8.70600000 2888731144 2888731144 3.00000000
2.79906154 -1.13771939 -0.58731008 4 4 11212 3.07800000 2888731146 2888731146 -11.00000000
8.05056381 -3.27390647 0.76034671 75 5 11213 8.72400000 2888731148 2888731148 5.00000000
3.47464538 -1.41373372 -0.59413809 8 6 11214 3.79800000 2888731151 2888731151 -9.00000000
8.06222820 -3.28192973 1.06879413 73 7 11215 8.77000000 2888731153 2888731153 7.00000000
4.58144665 -1.86592376 -0.60739678 4 8 11216 4.98400000 2888731155 2888731155 -7.00000000
9.37533569 -3.82027817 1.60345328 60 9 11217 10.25000000 2888731158 2888731158 9.00000000
6.51869822 -2.65625072 -0.61584246 8 10 11217 7.06600000 2888731160 2888731160 -5.00000000
9.48984623 -3.86887097 1.99204588 50 11 11218 10.44000000 2888731162 2888731162 11.00000000
8.02426529 -3.27300835 -0.45417142 12 12 11219 8.67800000 2888731165 2888731165 -3.00000000
8.02920628 -3.27829313 -0.15138218 14 14 11221 8.67400000 2888731169 2888731169 -1.00000000
8.10019398 -3.30727744 2.34438300 42 15 11221 9.05800000 2888731171 2888731171 15.00000000
1.98948288 -0.81554079 -0.57613117 4 0 11229 2.22600000 2888731192 2888731192 -15.00000000
8.04069805 -3.29773068 0.15169631 12 1 11230 8.69200000 2888731195 2888731195 1.00000000
2.34913206 -0.96392828 -0.58622247 4 2 11231 2.60600000 2888731197 2888731197 -13.00000000
8.04822731 -3.30410123 0.45595086 10 3 11232 8.71200000 2888731199 2888731199 3.00000000
2.78236008 -1.14226377 -0.58463877 5 4 11232 3.06400000 2888731201 2888731201 -11.00000000
8.04461575 -3.30425930 0.76086962 75 5 11233 8.73000000 2888731204 2888731204 5.00000000
3.46603513 -1.42435217 -0.59351236 8 6 11234 3.79400000 2888731206 2888731206 -9.00000000
8.07091808 -3.31835556 1.07147527 78 7 11235 8.79200000 2888731208 2888731208 7.00000000
4.56939793 -1.87963903 -0.60666561 4 8 11236 4.97800000 2888731211 2888731211 -7.00000000
9.38020992 -3.86049891 1.60658193 60 9 11237 10.27000000 2888731213 2888731213 9.00000000
6.52044106 -2.68353868 -0.61688834 16 10 11237 7.07800000 2888731215 2888731215 -5.00000000
9.48899174 -3.90720582 1.99471724 50 11 11238 10.45400000 2888731218 2888731218 11.00000000
8.03495121 -3.31012750 -0.45542750 12 12 11239 8.70200000 2888731220 2888731220 -3.00000000
8.03435230 -3.31316161 -0.15169631 14 14 11241 8.69200000 2888731224 2888731224 -1.00000000
8.09158993 -3.33841753 2.34541821 42 15 11242 9.06200000 2888731227 2888731227 15.00000000
1.99212265 -0.82434964 -0.57768410 4 0 11248 2.23200000 2888731248 2888731248 -15.00000000
8.03156567 -3.32514143 0.15173122 12 1 11249 8.69400000 2888731250 2888731250 1.00000000
2.34592271 -0.97171301 -0.58622247 4 2 11250 2.60600000 2888731252 2888731252 -13.00000000
8.05198765 -3.33688903 0.45678821 10 3 11251 8.72800000 2888731254 2888731254 3.00000000
2.78762531 -1.15524220 -0.58654684 5 4 11251 3.07400000 2888731257 2888731257 -11.00000000
8.04833794 -3.33702278 0.76226413 75 5 11252 8.74600000 2888731259 2888731259 5.00000000
3.45764351 -1.43432438 -0.59288663 6 6 11253 3.79000000 2888731261 2888731261 -9.00000000
8.06537056 -3.34738445 1.07220650 80 7 11254 8.79800000 2888731264 2888731264 7.00000000
4.55213976 -1.89021385 -0.60520315 4 8 11255 4.96600000 2888731266 2888731266 -7.00000000
9.39289570 -3.90219355 1.61096215 60 9 11256 10.29800000 2888731268 2888731268 9.00000000
6.53358555 -2.71431899 -0.61898011 24 10 11256 7.10200000 2888731271 2888731271 -5.00000000
9.49411201 -3.94618607 1.99853337 50 11 11257 10.47400000 2888731273 2888731273 11.00000000
8.03130722 -3.33982182 -0.45584619 12 12 11258 8.71000000 2888731275 2888731275 -3.00000000
8.03439808 -3.34439707 -0.15190575 12 14 11260 8.70400000 2888731280 2888731280 -1.00000000
8.09354687 -3.36901832 2.34904170 45 15 11260 9.07600000 2888731282 2888731282 15.00000000
1.99814534 -0.83502287 -0.58027232 4 0 11268 2.24200000 2888731303 2888731303 -15.00000000
8.03282452 -3.35855603 0.15197556 12 1 11269 8.70800000 2888731305 2888731305 1.00000000
2.32813406 -0.97387964 -0.58262324 4 2 11270 2.59000000 2888731307 2888731307 -13.00000000
8.05134487 -3.36960173 0.45741627 13 3 11271 8.74000000 2888731310 2888731310 3.00000000
2.78719783 -1.16648173 -0.58731008 5 4 11271 3.07800000 2888731312 2888731312 -11.00000000
8.05685616 -3.37356114 0.76418155 78 5 11272 8.76800000 2888731314 2888731314 5.00000000
3.44897175 -1.44485855 -0.59226090 6 6 11273 3.78600000 2888731317 2888731317 -9.00000000
8.05363655 -3.37551737 1.07220650 80 7 11274 8.79800000 2888731319 2888731319 7.00000000
4.54368353 -1.90532458 -0.60495943 2 8 11275 4.96400000 2888731321 2888731321 -7.00000000
9.39925480 -3.94336367 1.61440372 60 9 11276 10.32000000 2888731324 2888731324 9.00000000
6.53141975 -2.74019217 -0.61967731 33 10 11276 7.11000000 2888731326 2888731326 -5.00000000
9.49295044 -3.98462152 2.00120473 46 11 11277 10.48800000 2888731328 2888731328 11.00000000
8.02328300 -3.36938262 -0.45605552 12 12 11278 8.71400000 2888731330 2888731330 -3.00000000
8.03742218 -3.37862134 -0.15218498 12 14 11280 8.72000000 2888731335 2888731335 -1.00000000
8.09598446 -3.40323853 2.35318279 45 15 11280 9.09200000 2888731337 2888731337 15.00000000
1.99907243 -0.84279710 -0.58130759 4 0 11286 2.24600000 2888731358 2888731358 -15.00000000
8.03881645 -3.39076972 0.15228970 12 1 11287 8.72600000 2888731360 2888731360 1.00000000
2.33942652 -0.98725027 -0.58622247 4 2 11288 2.60600000 2888731363 2888731363 -13.00000000
8.04499149 -3.39502883 0.45762560 10 3 11288 8.74400000 2888731365 2888731365 3.00000000
2.78171062 -1.17446852 -0.58692849 5 4 11289 3.07600000 2888731367 2888731367 -11.00000000
8.06273651 -3.40583324 0.76575035 78 5 11290 8.78600000 2888731370 2888731370 5.00000000
3.44805479 -1.45722461 -0.59288663 6 6 11291 3.79000000 2888731372 2888731372 -9.00000000
8.05030537 -3.40389419 1.07318139 76 7 11292 8.80600000 2888731374 2888731374 7.00000000
4.55595732 -1.92732358 -0.60739678 4 8 11293 4.98400000 2888731376 2888731376 -7.00000000
9.40388680 -3.97816086 1.61721945 57 9 11293 10.33800000 2888731379 2888731379 9.00000000
6.52277899 -2.76069760 -0.61967731 16 10 11294 7.11000000 2888731381 2888731381 -5.00000000
9.50931168 -4.02667332 2.00731063 46 11 11295 10.52000000 2888731383 2888731383 11.00000000
8.04208279 -3.40703750 -0.45773026 12 12 11296 8.74600000 2888731386 2888731386 -3.00000000
8.03413200 -3.40697765 -0.15232460 12 14 11298 8.72800000 2888731390 2888731390 -1.00000000
8.10659504 -3.43770647 2.35939431 45 15 11298 9.11600000 2888731393 2888731393 15.00000000
1.98545337 -0.84522986 -0.57820177 4 0 11306 2.23400000 2888731413 2888731413 -15.00000000
8.04900837 -3.42821288 0.15270856 12 1 11307 8.75000000 2888731416 2888731416 1.00000000
2.33596611 -0.99541032 -0.58622247 4 2 11308 2.60600000 2888731418 2888731418 -13.00000000
8.04168034 -3.42840886 0.45814896 10 3 11309 8.75400000 2888731420 2888731420 3.00000000
2.76314640 -1.17801178 -0.58387554 5 4 11309 3.06000000 2888731423 2888731423 -11.00000000
8.05446434 -3.43552017 0.76609898 78 5 11310 8.79000000 2888731425 2888731425 5.00000000
3.44839764 -1.47157764 -0.59382522 6 6 11311 3.79600000 2888731427 2888731427 -9.00000000
8.05845737 -3.44054842 1.07586253 83 7 11312 8.82800000 2888731429 2888731429 7.00000000
4.53459787 -1.93697679 -0.60544688 6 8 11313 4.96800000 2888731432 2888731432 -7.00000000
9.40377426 -4.01881123 1.61972249 57 9 11314 10.35400000 2888731434 2888731434 9.00000000
6.53325605 -2.79206228 -0.62159479 12 10 11314 7.13200000 2888731436 2888731436 -5.00000000
9.54213238 -4.07991028 2.01723266 40 11 11315 10.57200000 2888731439 2888731439 11.00000000
8.03748608 -3.43823099 -0.45814896 12 12 11316 8.75400000 2888731441 2888731441 -3.00000000
8.03505898 -3.44051099 -0.15256894 10 14 11318 8.74200000 2888731446 2888731446 -1.00000000
8.09926796 -3.46967769 2.36094737 47 15 11319 9.12200000 2888731448 2888731448 15.00000000
1.97539163 -0.84910363 -0.57613117 4 0 11326 2.22600000 2888731469 2888731469 -15.00000000
8.04434109 -3.45944834 0.15284817 12 1 11327 8.75800000 2888731471 2888731471 1.00000000
2.33247709 -1.00355828 -0.58622247 4 2 11328 2.60600000 2888731473 2888731473 -13.00000000
8.05962181 -3.46768689 0.45982370 15 3 11328 8.78600000 2888731476 2888731476 3.00000000
2.76623058 -1.19075477 -0.58540201 5 4 11329 3.06800000 2888731478 2888731478 -11.00000000
8.05340195 -3.46834302 0.76714486 78 5 11330 8.80200000 2888731480 2888731480 5.00000000
3.42872691 -1.47735250 -0.59132230 6 6 11331 3.78000000 2888731482 2888731482 -9.00000000
8.06098175 -3.47494340 1.07781243 83 7 11332 8.84400000 2888731485 2888731485 7.00000000
4.53509998 -1.95593834 -0.60642183 6 8 11333 4.97600000 2888731487 2888731487 -7.00000000
9.40963936 -4.06022120 1.62316406 57 9 11334 10.37600000 2888731489 2888731489 9.00000000
6.52346992 -2.81485057 -0.62159479 12 10 11334 7.13200000 2888731492 2888731492 -5.00000000
9.55667210 -4.12564373 2.02333856 34 11 11335 10.60400000 2888731494 2888731494 11.00000000
8.04377079 -3.47418523 -0.45919567 12 12 11336 8.77400000 2888731496 2888731496 -3.00000000
8.03952026 -3.47567964 -0.15288308 12 14 11338 8.76000000 2888731501 2888731501 -1.00000000
8.08771801 -3.49651670 2.36094737 47 15 11338 9.12200000 2888731503 2888731503 15.00000000
1.97950423 -0.85907024 -0.57820177 4 0 11346 2.23400000 2888731524 2888731524 -15.00000000
8.02671337 -3.48511791 0.15274346 12 1 11347 8.75200000 2888731526 2888731526 1.00000000
2.31644821 -1.00625908 -0.58307314 4 2 11348 2.59200000 2888731528 2888731528 -13.00000000
8.07311440 -3.50693989 0.46128911 21 3 11348 8.81400000 2888731531 2888731531 3.00000000
2.75845599 -1.19883847 -0.58463877 5 4 11349 3.06400000 2888731533 2888731533 -11.00000000
8.04672813 -3.49881697 0.76766777 78 5 11350 8.80800000 2888731535 2888731535 5.00000000
3.42354894 -1.48931205 -0.59132230 4 6 11351 3.78000000 2888731538 2888731538 -9.00000000
8.04698277 -3.50226808 1.07756877 73 7 11352 8.84200000 2888731540 2888731540 7.00000000
4.51732492 -1.96700180 -0.60495943 6 8 11353 4.96400000 2888731542 2888731542 -7.00000000
9.41714191 -4.10250950 1.62691844 51 9 11354 10.40000000 2888731545 2888731545 9.00000000
6.51177788 -2.83680892 -0.62142044 24 10 11354 7.13000000 2888731547 2888731547 -5.00000000
9.56740952 -4.16995907 2.02868128 21 11 11355 10.63200000 2888731549 2888731549 11.00000000
8.03342533 -3.50304055 -0.45930034 12 12 11356 8.77600000 2888731552 2888731552 -3.00000000
8.04566574 -3.51172090 -0.15323213 12 14 11358 8.78000000 2888731556 2888731556 -1.00000000
8.09139824 -3.53168201 2.36560607 45 15 11358 9.14000000 2888731558 2888731558 15.00000000
1.98003244 -0.86752528 -0.57923704 4 0 11366 2.23800000 2888731579 2888731579 -15.00000000
8.03098202 -3.52034068 0.15305761 12 1 11367 8.77000000 2888731581 2888731581 1.00000000
2.31292152 -1.01433885 -0.58307314 3 2 11368 2.59200000 2888731584 2888731584 -13.00000000
8.04557514 -3.53008604 0.46045175 13 3 11369 8.79800000 2888731586 2888731586 3.00000000
2.74886107 -1.20609343 -0.58349389 5 4 11369 3.05800000 2888731588 2888731588 -11.00000000
8.04906082 -3.53329062 0.76906228 75 5 11370 8.82400000 2888731591 2888731591 5.00000000
3.41832948 -1.50125337 -0.59132230 4 6 11371 3.78000000 2888731593 2888731593 -9.00000000
8.05651665 -3.53991842 1.08049357 87 7 11372 8.86600000 2888731595 2888731595 7.00000000
4.51224852 -1.98355711 -0.60520315 4 8 11373 4.96600000 2888731598 2888731598 -7.00000000
9.42156887 -4.14166451 1.63004708 54 9 11373 10.42000000 2888731600 2888731600 9.00000000
6.52189779 -2.86834502 -0.62333786 28 10 11374 7.15200000 2888731602 2888731602 -5.00000000
6.43263960 -2.83176923 -0.36834046 7 12 11376 7.03800000 2888731607 2888731607 -3.00000000
8.04250813 -3.54381585 -0.15340665 12 14 11378 8.79000000 2888731611 2888731611 -1.00000000
8.08900642 -3.56599045 2.36871195 47 15 11379 9.15200000 2888731614 2888731614 15.00000000
1.98405910 -0.87755734 -0.58130759 4 0 11386 2.24600000 2888731634 2888731634 -15.00000000
8.04058933 -3.55806303 0.15347646 12 1 11387 8.79400000 2888731637 2888731637 1.00000000
2.30936694 -1.02240622 -0.58307314 3 2 11388 2.59200000 2888731639 2888731639 -13.00000000
8.04478264 -3.56159782 0.46107978 15 3 11388 8.81000000 2888731641 2888731641 3.00000000
2.74463439 -1.21568143 -0.58349389 4 4 11389 3.05800000 2888731644 2888731644 -11.00000000
3.40584493 -1.50997388 -0.59007078 6 6 11391 3.77200000 2888731648 2888731648 -9.00000000
8.05681324 -3.57365346 1.08219981 83 7 11392 8.88000000 2888731651 2888731651 7.00000000
4.50166798 -1.99768531 -0.60471570 4 8 11393 4.96200000 2888731653 2888731653 -7.00000000
9.42438030 -4.18418407 1.63317585 54 9 11394 10.44000000 2888731655 2888731655 9.00000000
6.52459240 -2.89675260 -0.62455803 28 10 11394 7.16600000 2888731658 2888731658 -5.00000000
6.39168787 -2.84041762 -0.36656103 30 12 11396 7.00400000 2888731662 2888731662 -3.00000000
8.03374290 -3.57349324 -0.15347646 10 14 11398 8.79400000 2888731667 2888731667 -1.00000000
8.10298347 -3.60598636 2.37647653 47 15 11399 9.18200000 2888731669 2888731669 15.00000000
1.97392774 -0.88132727 -0.57923704 4 0 11406 2.23800000 2888731690 2888731690 -15.00000000
8.04272652 -3.59263277 0.15375569 12 1 11407 8.81000000 2888731692 2888731692 1.00000000
2.30934215 -1.03205144 -0.58397293 3 2 11408 2.59600000 2888731694 2888731694 -13.00000000
8.03777122 -3.59210229 0.46139380 7 3 11408 8.81600000 2888731697 2888731697 3.00000000
2.74216628 -1.22605598 -0.58387554 5 4 11409 3.06000000 2888731699 2888731699 -11.00000000
3.39694715 -1.52023947 -0.58944505 4 6 11411 3.76800000 2888731704 2888731704 -9.00000000
8.06421947 -3.61067843 1.08488095 80 7 11412 8.90200000 2888731706 2888731706 7.00000000
4.48560953 -2.00932932 -0.60349697 4 8 11413 4.95200000 2888731708 2888731708 -7.00000000
9.43028355 -4.22429657 1.63661742 60 9 11413 10.46200000 2888731711 2888731711 9.00000000
6.51989555 -2.92195463 -0.62508100 24 10 11414 7.17200000 2888731713 2888731713 -5.00000000
6.38537884 -2.86434650 -0.36677039 33 12 11416 7.00800000 2888731717 2888731717 -3.00000000
8.02851772 -3.60479069 -0.15361609 16 14 11418 8.80200000 2888731722 2888731722 -1.00000000
8.09915829 -3.63820720 2.37906456 47 15 11419 9.19200000 2888731724 2888731724 15.00000000
1.95674932 -0.88186216 -0.57509589 4 0 11426 2.22200000 2888731745 2888731745 -15.00000000
8.03742886 -3.62397313 0.15389532 12 1 11427 8.81800000 2888731747 2888731747 1.00000000
2.30927825 -1.04170883 -0.58487272 3 2 11428 2.60000000 2888731750 2888731750 -13.00000000
6.28105354 -2.83336544 0.36111811 5 3 11428 6.90000000 2888731752 2888731752 3.00000000
2.74502778 -1.23885083 -0.58540201 5 4 11429 3.06800000 2888731754 2888731754 -11.00000000
3.39161992 -1.53208780 -0.58944505 4 6 11431 3.76800000 2888731759 2888731759 -9.00000000
8.06965637 -3.64698124 1.08731830 80 7 11432 8.92200000 2888731761 2888731761 7.00000000
4.49303865 -2.03151751 -0.60544688 4 8 11433 4.96800000 2888731764 2888731764 -7.00000000
9.43887997 -4.26776886 1.64068472 63 9 11433 10.48800000 2888731766 2888731766 9.00000000
6.30634308 -2.85272503 -0.60555810 8 10 11434 6.94800000 2888731768 2888731768 -5.00000000
8.03409863 -3.64104795 -0.15396513 14 14 11438 8.82200000 2888731777 2888731777 -1.00000000
8.09344673 -3.66964722 2.38113523 45 15 11439 9.20000000 2888731780 2888731780 15.00000000
1.96084857 -0.89154446 -0.57716650 4 0 11445 2.23000000 2888731800 2888731800 -15.00000000
8.02718735 -3.65143418 0.15393023 12 1 11446 8.82000000 2888731803 2888731803 1.00000000
2.29871631 -1.04613221 -0.58307314 3 2 11447 2.59200000 2888731805 2888731805 -13.00000000
6.30070925 -2.86741519 0.36279285 25 3 11447 6.93200000 2888731807 2888731807 3.00000000
2.74447799 -1.24957395 -0.58616525 5 4 11448 3.07200000 2888731810 2888731810 -11.00000000
3.38292575 -1.54168808 -0.58881932 4 6 11450 3.76400000 2888731814 2888731814 -9.00000000
8.05751801 -3.67372108 1.08731830 76 7 11451 8.92200000 2888731816 2888731816 7.00000000
4.47544050 -2.04146266 -0.60398448 6 8 11452 4.95600000 2888731819 2888731819 -7.00000000
9.46241665 -4.31626177 1.64725494 60 9 11452 10.53000000 2888731821 2888731821 9.00000000
6.22434568 -2.84053469 -0.59858567 8 10 11453 6.86800000 2888731823 2888731823 -5.00000000
6.20949745 -2.83637786 -0.35776860 7 12 11455 6.83600000 2888731828 2888731828 -3.00000000
8.50589561 -3.88712239 2.15908027 26 13 11456 9.59800000 2888731830 2888731830 13.00000000
8.03289223 -3.67265892 -0.15417455 8 14 11457 8.83400000 2888731833 2888731833 -1.00000000
8.09593391 -3.70148158 2.38527632 45 15 11457 9.21600000 2888731835 2888731835 15.00000000
1.96123624 -0.89999515 -0.57820177 4 0 11465 2.23400000 2888731856 2888731856 -15.00000000
8.03074837 -3.68694115 0.15424436 12 1 11466 8.83800000 2888731858 2888731858 1.00000000
2.28796721 -1.05089629 -0.58127350 3 2 11467 2.58400000 2888731860 2888731860 -13.00000000
6.19265366 -2.84437490 0.35714057 27 3 11467 6.82400000 2888731863 2888731863 3.00000000
2.73831558 -1.25832653 -0.58578360 5 4 11468 3.07000000 2888731865 2888731865 -11.00000000
3.38470221 -1.55678904 -0.59007078 4 6 11470 3.77200000 2888731869 2888731869 -9.00000000
8.05366230 -3.70597363 1.08853698 71 7 11471 8.93200000 2888731872 2888731872 7.00000000
4.46648407 -2.05624247 -0.60374075 6 8 11472 4.95400000 2888731874 2888731874 -7.00000000
9.46703053 -4.35835218 1.65069652 46 9 11472 10.55200000 2888731876 2888731876 9.00000000
6.17096090 -2.84224033 -0.59440219 12 10 11473 6.82000000 2888731879 2888731879 -5.00000000
6.17960691 -2.84883785 -0.35661721 14 12 11475 6.81400000 2888731883 2888731883 -3.00000000
8.48696613 -3.91434121 2.15773058 37 13 11476 9.59200000 2888731886 2888731886 13.00000000
8.03636551 -3.70821691 -0.15448870 8 14 11477 8.85200000 2888731888 2888731888 -1.00000000
8.09985256 -3.73922682 2.39045262 45 15 11478 9.23600000 2888731890 2888731890 15.00000000
1.95808268 -0.90683562 -0.57820177 4 0 11485 2.23400000 2888731911 2888731911 -15.00000000
6.04920673 -2.80281687 0.11637264 8 1 11486 6.66800000 2888731913 2888731913 1.00000000
2.28074884 -1.05723727 -0.58037370 3 2 11487 2.58000000 2888731916 2888731916 -13.00000000
6.14232492 -2.84856677 0.35483778 47 3 11488 6.78000000 2888731918 2888731918 3.00000000
2.72322011 -1.26292145 -0.58349389 5 4 11488 3.05800000 2888731920 2888731920 -11.00000000
6.09974289 -2.83011246 0.58830124 10 5 11489 6.75000000 2888731922 2888731922 5.00000000
3.37208033 -1.56526756 -0.58881932 6 6 11490 3.76400000 2888731925 2888731925 -9.00000000
8.05507946 -3.74075246 1.09048688 78 7 11491 8.94800000 2888731927 2888731927 7.00000000
4.45927906 -2.07182074 -0.60374075 4 8 11492 4.95400000 2888731929 2888731929 -7.00000000
9.43563652 -4.38388062 1.64788067 8 9 11492 10.53400000 2888731932 2888731932 9.00000000
6.13932085 -2.85368609 -0.59231043 12 10 11493 6.79600000 2888731934 2888731934 -5.00000000
6.16600323 -2.86870646 -0.35640785 14 12 11495 6.81000000 2888731939 2888731939 -3.00000000
8.45558357 -3.93571901 2.15323138 39 13 11496 9.57200000 2888731941 2888731941 13.00000000
5.99305630 -2.79078889 -0.11539531 4 14 11497 6.61200000 2888731943 2888731943 -1.00000000
8.09966755 -3.77177501 2.39407611 45 15 11497 9.25000000 2888731946 2888731946 15.00000000
1.95315516 -0.91284716 -0.57768410 4 0 11505 2.23200000 2888731966 2888731966 -15.00000000
6.02670574 -2.81798625 0.11612831 31 1 11506 6.65400000 2888731969 2888731969 1.00000000
2.29469609 -1.07344937 -0.58487272 3 2 11507 2.60000000 2888731971 2888731971 -13.00000000
6.13777113 -2.87252998 0.35515180 90 3 11508 6.78600000 2888731973 2888731973 3.00000000
2.71346068 -1.26992309 -0.58234906 5 4 11508 3.05200000 2888731975 2888731975 -11.00000000
6.10065317 -2.85645652 0.58934712 13 5 11509 6.76200000 2888731978 2888731978 5.00000000
3.38448429 -1.58540833 -0.59194803 4 6 11510 3.78400000 2888731980 2888731980 -9.00000000
8.05635357 -3.77558637 1.09243679 78 7 11511 8.96400000 2888731982 2888731982 7.00000000
4.44123602 -2.08231783 -0.60227829 4 8 11512 4.94200000 2888731985 2888731985 -7.00000000
9.50534821 -4.45870113 1.66289842 20 9 11513 10.63000000 2888731987 2888731987 9.00000000
6.10948038 -2.86579156 -0.59039301 12 10 11513 6.77400000 2888731989 2888731989 -5.00000000
6.07459593 -2.85201573 -0.35169762 10 12 11515 6.72000000 2888731994 2888731994 -3.00000000
8.44708538 -3.96769595 2.15458131 43 13 11516 9.57800000 2888731996 2888731996 13.00000000
5.93260336 -2.78787804 -0.11441798 27 14 11517 6.55600000 2888731999 2888731999 -1.00000000
8.09103394 -3.80390239 2.39562917 45 15 11518 9.25600000 2888732001 2888732001 15.00000000
1.93740678 -0.91456723 -0.57406062 4 0 11527 2.21800000 2888732022 2888732022 -15.00000000
6.01403284 -2.84025240 0.11609340 63 1 11528 6.65200000 2888732024 2888732024 1.00000000
2.28703356 -1.08058751 -0.58397293 3 2 11529 2.59600000 2888732026 2888732026 -13.00000000
6.11766768 -2.89180827 0.35462844 15 3 11530 6.77600000 2888732028 2888732028 3.00000000
2.71566439 -1.28368866 -0.58387554 5 4 11530 3.06000000 2888732031 2888732031 -11.00000000
6.03380489 -2.85345507 0.58394349 37 5 11531 6.70000000 2888732033 2888732033 5.00000000
3.36765814 -1.59332323 -0.59007078 4 6 11532 3.77200000 2888732035 2888732035 -9.00000000
8.05076790 -3.81073904 1.09365547 52 7 11533 8.97400000 2888732038 2888732038 7.00000000
4.43500185 -2.10020518 -0.60252202 6 8 11534 4.94400000 2888732040 2888732040 -7.00000000
6.08762836 -2.88411093 -0.58934712 8 10 11535 6.76200000 2888732045 2888732045 -5.00000000
6.01667929 -2.85306978 -0.34897617 7 12 11537 6.66800000 2888732049 2888732049 -3.00000000
8.43530941 -4.00177193 2.15548110 44 13 11538 9.58200000 2888732052 2888732052 13.00000000
5.89114380 -2.79606080 -0.11382460 33 14 11539 6.52200000 2888732054 2888732054 -1.00000000
8.08401871 -3.83684516 2.39769959 45 15 11539 9.26400000 2888732056 2888732056 15.00000000
1.93594670 -0.92215526 -0.57457829 4 0 11547 2.22000000 2888732077 2888732077 -15.00000000
6.00769234 -2.86294842 0.11616322 97 1 11548 6.65600000 2888732079 2888732079 1.00000000
2.28500676 -1.08940279 -0.58442283 4 2 11549 2.59800000 2888732081 2888732081 -13.00000000
8.04723740 -3.83833551 0.46725541 7 3 11550 8.92800000 2888732084 2888732084 3.00000000
2.70939493 -1.29231513 -0.58349389 5 4 11550 3.05800000 2888732086 2888732086 -11.00000000
5.99503756 -2.86077070 0.58115447 64 5 11551 6.66800000 2888732088 2888732088 5.00000000
3.36920643 -1.60847294 -0.59132230 4 6 11552 3.78000000 2888732091 2888732091 -9.00000000
4.41689730 -2.11053824 -0.60105962 6 8 11554 4.93200000 2888732095 2888732095 -7.00000000
6.09729671 -2.91479564 -0.59126455 4 10 11555 6.78400000 2888732100 2888732100 -5.00000000
5.95083284 -2.84733129 -0.34573132 3 12 11557 6.60600000 2888732104 2888732104 -3.00000000
8.42831993 -4.03455782 2.15728068 44 13 11558 9.59000000 2888732107 2888732107 13.00000000
5.85970497 -2.80624294 -0.11340573 60 14 11559 6.49800000 2888732109 2888732109 -1.00000000
8.09603405 -3.87896967 2.40546417 47 15 11560 9.29400000 2888732111 2888732111 15.00000000
1.95393777 -0.93826759 -0.58078992 4 0 11565 2.24400000 2888732132 2888732132 -15.00000000
5.99506378 -2.88007617 0.11609340 77 1 11566 6.65200000 2888732134 2888732134 1.00000000
2.27806020 -1.09488761 -0.58352304 4 2 11567 2.59400000 2888732137 2888732137 -13.00000000
8.03514004 -3.86359763 0.46725541 7 3 11568 8.92800000 2888732139 2888732139 3.00000000
2.70355225 -1.29996967 -0.58311230 5 4 11568 3.05600000 2888732141 2888732141 -11.00000000
5.98961163 -2.88131785 0.58150309 67 5 11569 6.67200000 2888732144 2888732144 5.00000000
3.36413670 -1.61904967 -0.59132230 4 6 11570 3.78000000 2888732146 2888732146 -9.00000000
5.93805504 -2.85906935 0.80921245 13 7 11571 6.64000000 2888732148 2888732148 7.00000000
4.39951420 -2.11923504 -0.59959716 6 8 11572 4.92000000 2888732151 2888732151 -7.00000000
6.08451986 -2.93220639 -0.59091592 4 10 11573 6.78000000 2888732155 2888732155 -5.00000000
5.88429260 -2.83824587 -0.34238183 3 12 11575 6.54200000 2888732160 2888732160 -3.00000000
8.41209412 -4.05932236 2.15638089 45 13 11576 9.58600000 2888732162 2888732162 13.00000000
5.86886835 -2.83333158 -0.11375479 38 14 11577 6.51800000 2888732164 2888732164 -1.00000000
8.09144878 -3.90633368 2.40753484 47 15 11577 9.30200000 2888732167 2888732167 15.00000000
1.95065069 -0.94508237 -0.58078992 4 0 11585 2.24400000 2888732187 2888732187 -15.00000000
5.96697903 -2.89226317 0.11574436 43 1 11586 6.63200000 2888732190 2888732190 1.00000000
2.26896405 -1.10028195 -0.58217335 3 2 11587 2.58800000 2888732192 2888732192 -13.00000000
8.03598022 -3.89859629 0.46809280 7 3 11588 8.94400000 2888732194 2888732194 3.00000000
2.69899797 -1.30939901 -0.58311230 5 4 11588 3.05600000 2888732197 2888732197 -11.00000000
8.04259396 -3.90353942 0.78213561 33 5 11589 8.97400000 2888732199 2888732199 5.00000000
3.34780288 -1.62560570 -0.58944505 6 6 11590 3.76800000 2888732201 2888732201 -9.00000000
5.89768457 -2.86503386 0.80506891 36 7 11591 6.60600000 2888732204 2888732204 7.00000000
4.39566088 -2.13631463 -0.60008466 6 8 11592 4.92400000 2888732206 2888732206 -7.00000000
6.08499861 -2.95865488 -0.59196180 4 10 11593 6.79200000 2888732210 2888732210 -5.00000000
5.85639048 -2.85002875 -0.34133512 3 12 11595 6.52200000 2888732215 2888732215 -3.00000000
8.38736057 -4.08354282 2.15368128 46 13 11596 9.57400000 2888732217 2888732217 13.00000000
8.09791660 -3.94611907 2.41374636 47 15 11598 9.32600000 2888732222 2888732222 15.00000000
1.92998397 -0.94340181 -0.57561356 4 0 11605 2.22400000 2888732243 2888732243 -15.00000000
5.94427204 -2.90692472 0.11550003 60 1 11606 6.61800000 2888732245 2888732245 1.00000000
2.27211142 -1.11162102 -0.58397293 3 2 11607 2.59600000 2888732247 2888732247 -13.00000000
8.04384899 -3.93715978 0.46934885 7 3 11608 8.96800000 2888732250 2888732250 3.00000000
2.68030405 -1.31190753 -0.58005935 5 4 11608 3.04000000 2888732252 2888732252 -11.00000000
8.05575943 -3.94473267 0.78475028 45 5 11609 9.00400000 2888732254 2888732254 5.00000000
3.34920382 -1.64075804 -0.59069651 6 6 11610 3.77600000 2888732257 2888732257 -9.00000000
5.87873507 -2.88123488 0.80385017 97 7 11611 6.59600000 2888732259 2888732259 7.00000000
4.39530659 -2.15514112 -0.60105962 6 8 11612 4.93200000 2888732261 2888732261 -7.00000000
5.87606668 -2.88119936 1.03653479 7 9 11612 6.62600000 2888732263 2888732263 9.00000000
6.37156820 -3.12553692 -0.62089753 4 10 11613 7.12400000 2888732266 2888732266 -5.00000000
5.78545046 -2.84052610 -0.33777627 3 12 11615 6.45400000 2888732270 2888732270 -3.00000000
8.38354969 -4.11795044 2.15638089 46 13 11616 9.58600000 2888732273 2888732273 13.00000000
5.94226980 -2.92009544 -0.11556984 2 14 11617 6.62200000 2888732275 2888732275 -1.00000000
8.09865665 -3.97976732 2.41788745 47 15 11617 9.34200000 2888732277 2888732277 15.00000000
1.92321384 -0.94842410 -0.57457829 4 0 11625 2.22000000 2888732298 2888732298 -15.00000000
5.90718937 -2.91438508 0.11497645 74 1 11626 6.58800000 2888732300 2888732300 1.00000000
2.26122737 -1.11609542 -0.58217335 3 2 11627 2.58800000 2888732303 2888732303 -13.00000000
8.03363800 -3.96698284 0.46955821 7 3 11628 8.97200000 2888732305 2888732305 3.00000000
2.68627024 -1.32647097 -0.58234906 5 4 11628 3.05200000 2888732307 2888732307 -11.00000000
8.03479576 -3.96929884 0.78405309 37 5 11629 8.99600000 2888732310 2888732310 5.00000000
3.33283067 -1.64718759 -0.58881932 6 6 11630 3.76400000 2888732312 2888732312 -9.00000000
5.87042141 -2.90261793 0.80409396 34 7 11631 6.59800000 2888732314 2888732314 7.00000000
4.38775682 -2.17047048 -0.60105962 6 8 11632 4.93200000 2888732316 2888732316 -7.00000000
5.81058359 -2.87555575 1.02683580 15 9 11633 6.56400000 2888732319 2888732319 9.00000000
6.49990273 -3.21668792 -0.63449383 8 10 11633 7.28000000 2888732321 2888732321 -5.00000000
5.71106911 -2.82878995 -0.33400807 3 12 11635 6.38200000 2888732326 2888732326 -3.00000000
8.37960052 -4.15238094 2.15908027 45 13 11636 9.59800000 2888732328 2888732328 13.00000000
5.95533133 -2.95236659 -0.11602360 2 14 11637 6.64800000 2888732330 2888732330 -1.00000000
8.08747673 -4.01114035 2.41892290 47 15 11638 9.34600000 2888732333 2888732333 15.00000000
1.91816187 -0.95427114 -0.57406062 4 0 11645 2.21800000 2888732353 2888732353 -15.00000000
5.88981915 -2.93142319 0.11483683 69 1 11646 6.58000000 2888732356 2888732356 1.00000000
2.25382876 -1.12224448 -0.58127350 3 2 11647 2.58400000 2888732358 2888732358 -13.00000000
8.04834557 -4.00925016 0.47123295 7 3 11648 9.00400000 2888732360 2888732360 3.00000000
2.68162370 -1.33583975 -0.58234906 5 4 11648 3.05200000 2888732363 2888732363 -11.00000000
8.03515720 -4.00443077 0.78544754 37 5 11649 9.01200000 2888732365 2888732365 5.00000000
3.32529283 -1.65792990 -0.58850646 6 6 11650 3.76200000 2888732367 2888732367 -9.00000000
8.05940247 -4.02002668 1.10584247 35 7 11651 9.07400000 2888732369 2888732369 7.00000000
4.37127256 -2.18134165 -0.59984088 4 8 11652 4.92200000 2888732372 2888732372 -7.00000000
5.75506020 -2.87187600 1.01870120 25 9 11652 6.51200000 2888732374 2888732374 9.00000000
6.46724367 -3.22867799 -0.63240206 8 10 11653 7.25600000 2888732376 2888732376 -5.00000000
5.67614698 -2.83621001 -0.33254266 3 12 11655 6.35400000 2888732381 2888732381 -3.00000000
8.37202740 -4.18509102 2.16087985 45 13 11656 9.60600000 2888732383 2888732383 13.00000000
5.95572042 -2.97850323 -0.11623303 4 14 11657 6.66000000 2888732386 2888732386 -1.00000000
8.09140968 -4.04657841 2.42409921 47 15 11657 9.36600000 2888732388 2888732388 15.00000000
1.91654575 -0.96182746 -0.57457829 4 0 11665 2.22000000 2888732409 2888732409 -15.00000000
5.89027309 -2.95734835 0.11504626 63 1 11666 6.59200000 2888732411 2888732411 1.00000000
2.25163913 -1.13097966 -0.58172345 4 2 11667 2.58600000 2888732413 2888732413 -13.00000000
8.02359390 -4.03193903 0.47060493 7 3 11668 8.99200000 2888732416 2888732416 3.00000000
2.67694449 -1.34519219 -0.58234906 5 4 11668 3.05200000 2888732418 2888732418 -11.00000000
8.04605198 -4.04498291 0.78788793 33 5 11669 9.04000000 2888732420 2888732420 5.00000000
3.31242633 -1.66597688 -0.58725500 6 6 11670 3.75400000 2888732422 2888732422 -9.00000000
8.04177475 -4.04635000 1.10535491 35 7 11671 9.07000000 2888732425 2888732425 7.00000000
4.36185837 -2.19569445 -0.59959716 6 8 11672 4.92000000 2888732427 2888732427 -7.00000000
5.72382736 -2.88128901 1.01494682 47 9 11672 6.48800000 2888732429 2888732429 9.00000000
6.47906733 -3.26288319 -0.63466811 12 10 11673 7.28200000 2888732432 2888732432 -5.00000000
10.41108990 -5.24534273 2.26604772 9 11 11674 11.87600000 2888732434 2888732434 11.00000000
5.65907812 -2.85241032 -0.33212397 3 12 11675 6.34600000 2888732436 2888732436 -3.00000000
8.35040760 -4.21077967 2.15908027 46 13 11676 9.59800000 2888732439 2888732439 13.00000000
5.96671200 -3.01008272 -0.11665189 2 14 11677 6.68400000 2888732441 2888732441 -1.00000000
8.10138226 -4.08697987 2.43134618 47 15 11677 9.39400000 2888732443 2888732443 15.00000000
1.92351818 -0.97374678 -0.57768410 4 0 11685 2.23200000 2888732464 2888732464 -15.00000000
5.89596987 -2.98602247 0.11536041 69 1 11686 6.61000000 2888732466 2888732466 1.00000000
2.24593925 -1.13795173 -0.58127350 3 2 11687 2.58400000 2888732469 2888732469 -13.00000000
8.03262997 -4.07166100 0.47196564 7 3 11688 9.01800000 2888732471 2888732471 3.00000000
2.66873026 -1.35275304 -0.58158582 5 4 11688 3.04800000 2888732473 2888732473 -11.00000000
8.04965210 -4.08205557 0.78963101 37 5 11689 9.06000000 2888732475 2888732475 5.00000000
3.31892228 -1.68378544 -0.58944505 6 6 11690 3.76800000 2888732478 2888732478 -9.00000000
8.04176235 -4.08158398 1.10730481 40 7 11691 9.08600000 2888732480 2888732480 7.00000000
4.33823776 -2.20281792 -0.59740353 6 8 11692 4.90200000 2888732482 2888732482 -7.00000000
5.80304813 -2.94787574 1.03090310 17 9 11693 6.59000000 2888732485 2888732485 9.00000000
6.48184919 -3.29269814 -0.63606262 12 10 11693 7.29800000 2888732487 2888732487 -5.00000000
10.25269985 -5.21049500 2.23551822 6 11 11694 11.71600000 2888732489 2888732489 11.00000000
5.62772274 -2.86128449 -0.33086792 3 12 11695 6.32200000 2888732492 2888732492 -3.00000000
8.33218479 -4.23813534 2.15818048 47 13 11696 9.59400000 2888732494 2888732494 13.00000000
5.97220850 -3.03905439 -0.11696603 2 14 11697 6.70200000 2888732496 2888732496 -1.00000000
8.10256195 -4.12311935 2.43600488 47 15 11697 9.41200000 2888732498 2888732498 15.00000000
1.91150486 -0.97606248 -0.57509589 4 0 11705 2.22200000 2888732519 2888732519 -15.00000000
5.91222286 -3.02023077 0.11588398 74 1 11706 6.64000000 2888732522 2888732522 1.00000000
2.24195337 -1.14578462 -0.58127350 3 2 11707 2.58400000 2888732524 2888732524 -13.00000000
8.03792953 -4.10967684 0.47311705 7 3 11708 9.04000000 2888732526 2888732526 3.00000000
2.66224408 -1.36116660 -0.58120418 5 4 11708 3.04600000 2888732528 2888732528 -11.00000000
8.04422379 -4.11466551 0.79050261 37 5 11709 9.07000000 2888732531 2888732531 5.00000000
3.31654167 -1.69716012 -0.59007078 6 6 11710 3.77200000 2888732533 2888732533 -9.00000000
8.06280613 -4.12772226 1.11217964 38 7 11711 9.12600000 2888732535 2888732535 7.00000000
4.32875490 -2.21704292 -0.59715980 6 8 11712 4.90000000 2888732538 2888732538 -7.00000000
6.01423502 -3.08161426 1.07032466 10 9 11713 6.84200000 2888732540 2888732540 9.00000000
6.46145010 -3.31076121 -0.63519102 12 10 11713 7.28800000 2888732542 2888732542 -5.00000000
10.17155457 -5.21401119 2.22177982 3 11 11714 11.64400000 2888732545 2888732545 11.00000000
5.58215666 -2.86268353 -0.32877448 3 12 11715 6.28200000 2888732547 2888732547 -3.00000000
8.32080746 -4.26897383 2.15908027 46 13 11716 9.59800000 2888732549 2888732549 13.00000000
6.04517841 -3.10279965 -0.11860655 4 14 11717 6.79600000 2888732551 2888732551 -1.00000000
8.09770679 -4.15808344 2.43911076 45 15 11718 9.42400000 2888732554 2888732554 15.00000000
1.89795196 -0.97709042 -0.57199007 4 0 11724 2.21000000 2888732575 2888732575 -15.00000000
5.88795280 -3.03249478 0.11560474 63 1 11725 6.62400000 2888732577 2888732577 1.00000000
2.24853539 -1.15856838 -0.58397293 3 2 11726 2.59600000 2888732579 2888732579 -13.00000000
8.04556084 -4.14729023 0.47437310 7 3 11727 9.06400000 2888732581 2888732581 3.00000000
2.65248036 -1.36728883 -0.58005935 5 4 11727 3.04000000 2888732584 2888732584 -11.00000000
8.04115963 -4.14679766 0.79154843 37 5 11728 9.08200000 2888732586 2888732586 5.00000000
3.28807378 -1.69637465 -0.58600348 6 6 11729 3.74600000 2888732588 2888732588 -9.00000000
8.07376957 -4.16718340 1.11559200 35 7 11730 9.15400000 2888732591 2888732591 7.00000000
4.33372593 -2.23776078 -0.59886593 4 8 11731 4.91400000 2888732593 2888732593 -7.00000000
6.02679825 -3.11332726 1.07439196 15 9 11732 6.86800000 2888732595 2888732595 9.00000000
6.43450403 -3.32394028 -0.63362223 12 10 11732 7.27000000 2888732598 2888732598 -5.00000000
5.51940823 -2.85366058 -0.32563433 3 12 11734 6.22200000 2888732602 2888732602 -3.00000000
8.31699085 -4.30191469 2.16177964 46 13 11735 9.61000000 2888732604 2888732604 13.00000000
6.15740013 -3.18624139 -0.12101499 2 14 11736 6.93400000 2888732607 2888732607 -1.00000000
8.08803558 -4.18527842 2.44014597 45 15 11736 9.42800000 2888732609 2888732609 15.00000000
1.90310228 -0.98816073 -0.57457829 4 0 11744 2.22000000 2888732630 2888732630 -15.00000000
5.87733126 -3.05302930 0.11560474 20 1 11745 6.62400000 2888732632 2888732632 1.00000000
2.23410225 -1.16101837 -0.58127350 3 2 11746 2.58400000 2888732634 2888732634 -13.00000000
8.05407238 -4.18732595 0.47573385 7 3 11747 9.09000000 2888732637 2888732637 3.00000000
2.65465903 -1.38016188 -0.58158582 5 4 11747 3.04800000 2888732639 2888732639 -11.00000000
8.03547287 -4.17943811 0.79242003 33 5 11748 9.09200000 2888732641 2888732641 5.00000000
3.28738928 -1.71057737 -0.58694214 6 6 11749 3.75200000 2888732644 2888732644 -9.00000000
8.06269550 -4.19717360 1.11607945 33 7 11750 9.15800000 2888732646 2888732646 7.00000000
4.33117056 -2.25562549 -0.59959716 6 8 11751 4.92000000 2888732648 2888732648 -7.00000000
6.04392385 -3.14894962 1.07939780 17 9 11752 6.90000000 2888732651 2888732651 9.00000000
6.39812517 -3.33349228 -0.63118190 12 10 11752 7.24200000 2888732653 2888732653 -5.00000000
8.18073845 -4.26406860 1.79322290 3 11 11753 9.39800000 2888732655 2888732655 11.00000000
5.43503380 -2.83412385 -0.32123810 3 12 11754 6.13800000 2888732657 2888732657 -3.00000000
8.30537891 -4.33272314 2.16267943 46 13 11755 9.61400000 2888732660 2888732660 13.00000000
8.09050274 -4.22242355 2.44532228 47 15 11756 9.44800000 2888732664 2888732664 15.00000000
1.90819824 -0.99927884 -0.57716650 4 0 11764 2.23000000 2888732685 2888732685 -15.00000000
5.77098703 -3.02341437 0.11371988 8 1 11765 6.51600000 2888732687 2888732687 1.00000000
2.23003602 -1.16880977 -0.58127350 3 2 11766 2.58400000 2888732690 2888732690 -13.00000000
