# .PCD v0.7 - Point Cloud Data file format
VERSION 0.7
FIELDS x y z intensity laser_id azimuth distance_m adjustedtime timestamp vertical_angle
SIZE 4 4 4 1 1 2 8 8 4 8
TYPE F F F U U U F U U F
COUNT 1 1 1 1 1 1 1 1 1 1
WIDTH 528
HEIGHT 1
VIEWPOINT 0 0 0 1 0 0 0
POINTS 528
DATA ascii
3.88626766 -3.93541336 0.48388869 8 5 13536 5.55200000 2887737755 2887737755 5.00000000
2.49101663 -2.52339888 -0.56159973 5 6 13537 3.59000000 2887737757 2887737757 -9.00000000
5.23850489 -5.30845594 0.91572624 52 7 13538 7.51400000 2887737759 2887737759 7.00000000
3.20918441 -3.25317287 -0.56108648 2 8 13539 4.60400000 2887737762 2887737762 -7.00000000
5.22165489 -5.29322863 1.17763865 52 9 13539 7.52800000 2887737764 2887737764 9.00000000
3.87792349 -3.93245101 -0.48319143 3 10 13540 5.54400000 2887737766 2887737766 -5.00000000
5.21947479 -5.29471397 1.44518733 56 11 13541 7.57400000 2887737768 2887737768 11.00000000
3.81312728 -3.86944461 -0.28470761 5 12 13542 5.44000000 2887737771 2887737771 -3.00000000
5.20230150 -5.28097916 1.71142757 66 13 13543 7.60800000 2887737773 2887737773 13.00000000
5.18520451 -5.26729965 1.98048329 45 15 13545 7.65200000 2887737778 2887737778 15.00000000
1.45831478 -1.48399186 -0.55749625 4 0 13550 2.15400000 2887737798 2887737798 -15.00000000
3.02412629 -3.07844806 0.07532459 7 1 13551 4.31600000 2887737801 2887737801 1.00000000
1.72040999 -1.75192475 -0.56687665 3 2 13552 2.52000000 2887737803 2887737803 -13.00000000
2.00798154 -2.04547811 -0.55716228 3 4 13553 2.92000000 2887737808 2887737808 -11.00000000
3.00449371 -3.06166768 0.37529263 7 5 13554 4.30600000 2887737810 2887737810 5.00000000
2.47754359 -2.52557158 -0.56034827 5 6 13555 3.58200000 2887737812 2887737812 -9.00000000
5.21485281 -5.31780052 0.91450757 20 7 13556 7.50400000 2887737814 2887737814 7.00000000
3.20033813 -3.26465631 -0.56133020 4 8 13557 4.60600000 2887737817 2887737817 -7.00000000
5.19117165 -5.29550076 1.17451000 55 9 13557 7.50800000 2887737819 2887737819 9.00000000
3.85997224 -3.93892241 -0.48249421 3 10 13558 5.53600000 2887737821 2887737821 -5.00000000
5.17808533 -5.28584099 1.43831825 56 11 13559 7.53800000 2887737824 2887737824 11.00000000
3.82051611 -3.90138245 -0.28617302 5 12 13560 5.46800000 2887737826 2887737826 -3.00000000
5.17205286 -5.28337097 1.70692861 68 13 13561 7.58800000 2887737828 2887737828 13.00000000
3.00282598 -3.06852674 -0.07494064 7 14 13562 4.29400000 2887737831 2887737831 -1.00000000
5.14793444 -5.26056957 1.97220111 45 15 13562 7.62000000 2887737833 2887737833 15.00000000
1.45852268 -1.49460375 -0.55956680 4 0 13570 2.16200000 2887737854 2887737854 -15.00000000
3.00498390 -3.08039689 0.07511516 13 1 13571 4.30400000 2887737856 2887737856 1.00000000
1.71156311 -1.75512910 -0.56597686 3 2 13572 2.51600000 2887737858 2887737858 -13.00000000
3.01891327 -3.09575653 0.22661468 15 3 13572 4.33000000 2887737861 2887737861 3.00000000
2.01042223 -2.06231546 -0.55983359 3 4 13573 2.93400000 2887737863 2887737863 -11.00000000
2.99239779 -3.07070971 0.37511832 7 5 13574 4.30400000 2887737865 2887737865 5.00000000
2.46595573 -2.53137445 -0.55972254 5 6 13575 3.57800000 2887737867 2887737867 -9.00000000
3.18476868 -3.27154040 -0.56059897 4 8 13577 4.60000000 2887737872 2887737872 -7.00000000
5.15612030 -5.29660368 1.17075551 55 9 13577 7.48400000 2887737874 2887737874 9.00000000
3.86009455 -3.96665096 -0.48423731 3 10 13578 5.55600000 2887737877 2887737877 -5.00000000
5.13633060 -5.27996063 1.43183064 59 11 13579 7.50400000 2887737879 2887737879 11.00000000
3.82776070 -3.93617272 -0.28774309 2 12 13580 5.49800000 2887737881 2887737881 -3.00000000
5.13999557 -5.28741932 1.70242953 68 13 13581 7.56800000 2887737884 2887737884 13.00000000
3.01160717 -3.09906721 -0.07542930 7 14 13582 4.32200000 2887737886 2887737886 -1.00000000
5.11650419 -5.26693153 1.96754241 47 15 13583 7.60200000 2887737888 2887737888 15.00000000
1.45008528 -1.49741745 -0.55853152 3 0 13592 2.15800000 2887737909 2887737909 -15.00000000
3.00147915 -3.10053301 0.07532459 7 1 13593 4.31600000 2887737911 2887737911 1.00000000
1.68854916 -1.74488342 -0.56057805 3 2 13594 2.49200000 2887737914 2887737914 -13.00000000
3.00785041 -3.10928583 0.22671936 5 3 13595 4.33200000 2887737916 2887737916 3.00000000
2.02159905 -2.08977437 -0.56517625 3 4 13595 2.96200000 2887737918 2887737918 -11.00000000
2.99166512 -3.09363484 0.37651280 5 5 13596 4.32000000 2887737920 2887737920 5.00000000
2.46170974 -2.54650545 -0.56097400 5 6 13597 3.58600000 2887737923 2887737923 -9.00000000
3.00170350 -3.10618448 0.53037536 7 7 13598 4.35200000 2887737925 2887737925 7.00000000
3.17907953 -3.29088354 -0.56181765 4 8 13599 4.61000000 2887737927 2887737927 -7.00000000
5.11653042 -5.29647207 1.16637540 52 9 13599 7.45600000 2887737930 2887737930 9.00000000
3.86974788 -4.00724125 -0.48737490 3 10 13600 5.59200000 2887737932 2887737932 -5.00000000
5.09829330 -5.28128147 1.42686963 59 11 13601 7.47800000 2887737934 2887737934 11.00000000
3.81261873 -3.95084119 -0.28774309 2 12 13602 5.49800000 2887737937 2887737937 -3.00000000
5.09530163 -5.28187132 1.69433129 70 13 13603 7.53200000 2887737939 2887737939 13.00000000
5.08107328 -5.26896191 1.96133077 47 15 13604 7.57800000 2887737944 2887737944 15.00000000
1.44217134 -1.49968517 -0.55749625 3 0 13612 2.15400000 2887737964 2887737964 -15.00000000
5.11097002 -5.31665230 0.12872896 9 1 13613 7.37600000 2887737967 2887737967 1.00000000
1.67974746 -1.74795663 -0.55967820 3 2 13614 2.48800000 2887737969 2887737969 -13.00000000
3.40515447 -3.54466510 0.25759757 24 3 13615 4.92200000 2887737971 2887737971 3.00000000
1.99797094 -2.07982874 -0.56059682 3 4 13615 2.93800000 2887737973 2887737973 -11.00000000
2.44596577 -2.54795766 -0.55940962 5 6 13617 3.57600000 2887737978 2887737978 -9.00000000
2.99908948 -3.12523699 0.53183782 5 7 13618 4.36400000 2887737980 2887737980 7.00000000
3.15245628 -3.28620291 -0.55913657 4 8 13619 4.58800000 2887737983 2887737983 -7.00000000
5.07794237 -5.29522943 1.16199517 52 9 13620 7.42800000 2887737985 2887737985 9.00000000
4.41837597 -4.60743999 -0.55849397 15 10 13620 6.40800000 2887737987 2887737987 -5.00000000
5.06488228 -5.28345585 1.42267191 59 11 13621 7.45600000 2887737990 2887737990 11.00000000
3.80156827 -3.96700978 -0.28795242 2 12 13622 5.50200000 2887737992 2887737992 -3.00000000
5.04447985 -5.26585150 1.68353367 68 13 13623 7.48400000 2887737994 2887737994 13.00000000
3.67204428 -3.83452749 -0.09267228 23 14 13624 5.31000000 2887737997 2887737997 -1.00000000
5.04569674 -5.27080345 1.95511901 47 15 13625 7.55400000 2887737999 2887737999 15.00000000
1.44279158 -1.50979519 -0.55956680 4 0 13630 2.16200000 2887738020 2887738020 -15.00000000
5.08319139 -5.32111502 0.12844971 9 1 13631 7.36000000 2887738022 2887738022 1.00000000
1.68232298 -1.76168120 -0.56237763 3 2 13632 2.50000000 2887738024 2887738024 -13.00000000
3.41744685 -3.57990456 0.25937700 24 3 13633 4.95600000 2887738026 2887738026 3.00000000
1.98193765 -2.07615471 -0.55792552 3 4 13633 2.92400000 2887738029 2887738029 -11.00000000
2.44885707 -2.56706381 -0.56191260 3 6 13635 3.59200000 2887738033 2887738033 -9.00000000
5.06063843 -5.30677080 0.90037072 27 7 13636 7.38800000 2887738036 2887738036 7.00000000
3.13937759 -3.29321671 -0.55864906 4 8 13637 4.58400000 2887738038 2887738038 -7.00000000
5.04721546 -5.29454470 1.15855360 52 9 13637 7.40600000 2887738040 2887738040 9.00000000
4.39700699 -4.61408615 -0.55762243 19 10 13638 6.39800000 2887738043 2887738043 -5.00000000
5.03877974 -5.28939104 1.42000055 56 11 13639 7.44200000 2887738045 2887738045 11.00000000
3.82489777 -4.01653862 -0.29067391 2 12 13640 5.55400000 2887738047 2887738047 -3.00000000
5.01716280 -5.27038145 1.67993450 64 13 13641 7.46800000 2887738050 2887738050 13.00000000
3.66687226 -3.85328770 -0.09284680 23 14 13642 5.32000000 2887738052 2887738052 -1.00000000
5.00872755 -5.26336002 1.94683683 47 15 13642 7.52200000 2887738054 2887738054 15.00000000
1.43219340 -1.50921702 -0.55749625 4 0 13650 2.15400000 2887738075 2887738075 -15.00000000
5.03981400 -5.31271267 0.12782143 9 1 13651 7.32400000 2887738077 2887738077 1.00000000
1.68018615 -1.77178502 -0.56372732 2 2 13652 2.50600000 2887738079 2887738079 -13.00000000
3.40905190 -3.59616041 0.25969100 20 3 13653 4.96200000 2887738082 2887738082 3.00000000
1.97602916 -2.08448505 -0.55830711 3 4 13653 2.92600000 2887738084 2887738084 -11.00000000
2.43173051 -2.56699181 -0.56003541 3 6 13655 3.58000000 2887738089 2887738089 -9.00000000
5.02843428 -5.30998945 0.89793330 57 7 13656 7.36800000 2887738091 2887738091 7.00000000
3.13605094 -3.31280470 -0.56011152 4 8 13657 4.59600000 2887738093 2887738093 -7.00000000
5.00876760 -5.29292107 1.15417349 50 9 13658 7.37800000 2887738096 2887738096 9.00000000
4.36854887 -4.61638212 -0.55605364 19 10 13658 6.38000000 2887738098 2887738098 -5.00000000
4.99869871 -5.28412819 1.41389465 53 11 13659 7.41000000 2887738100 2887738100 11.00000000
5.03082180 -5.31994486 -0.38372722 7 12 13660 7.33200000 2887738102 2887738102 -3.00000000
4.98802567 -5.27653360 1.67633522 64 13 13661 7.45200000 2887738105 2887738105 13.00000000
3.66850758 -3.88205147 -0.09323075 27 14 13662 5.34200000 2887738107 2887738107 -1.00000000
4.96552372 -5.25640440 1.93751943 47 15 13663 7.48600000 2887738109 2887738109 15.00000000
1.42532766 -1.51304996 -0.55697858 4 0 13671 2.15200000 2887738130 2887738130 -15.00000000
4.99837303 -5.30785561 0.12726295 9 1 13672 7.29200000 2887738132 2887738132 1.00000000
1.43992662 -1.52961683 -0.48499447 1 2 13673 2.15600000 2887738135 2887738135 -13.00000000
3.40953588 -3.62317610 0.26073775 20 3 13674 4.98200000 2887738137 2887738137 3.00000000
1.97375762 -2.09743261 -0.55983359 3 4 13674 2.93400000 2887738139 2887738139 -11.00000000
2.41147971 -2.56437516 -0.55753243 3 6 13676 3.56400000 2887738144 2887738144 -9.00000000
4.98174524 -5.29945660 0.89305854 52 7 13677 7.32800000 2887738146 2887738146 7.00000000
3.12796617 -3.32861638 -0.56084269 4 8 13678 4.60200000 2887738149 2887738149 -7.00000000
4.97538137 -5.29453802 1.15073192 55 9 13678 7.35600000 2887738151 2887738151 9.00000000
4.34614325 -4.62655401 -0.55535638 15 10 13679 6.37200000 2887738153 2887738153 -5.00000000
4.96048307 -5.28237772 1.40855205 56 11 13680 7.38200000 2887738155 2887738155 11.00000000
4.99898672 -5.32524204 -0.38278517 11 12 13681 7.31400000 2887738158 2887738158 -3.00000000
4.95798445 -5.28341198 1.67273605 62 13 13682 7.43600000 2887738160 2887738160 13.00000000
3.67888069 -3.92172289 -0.09385904 29 14 13683 5.37800000 2887738162 2887738162 -1.00000000
4.93128490 -5.25679779 1.93130767 47 15 13683 7.46200000 2887738165 2887738165 15.00000000
1.42927551 -1.52789164 -0.56060207 6 0 13691 2.16600000 2887738185 2887738185 -15.00000000
4.96069336 -5.30482292 0.12677428 9 1 13692 7.26400000 2887738188 2887738188 1.00000000
1.40263987 -1.50046754 -0.47419682 4 2 13693 2.10800000 2887738190 2887738190 -13.00000000
3.40504980 -3.64381123 0.26136577 20 3 13694 4.99400000 2887738192 2887738192 3.00000000
1.96910512 -2.10717821 -0.56059682 3 4 13694 2.93800000 2887738195 2887738195 -11.00000000
3.81773710 -4.08686590 0.48929235 2 5 13695 5.61400000 2887738197 2887738197 5.00000000
2.40521002 -2.57566452 -0.55815816 5 6 13696 3.56800000 2887738199 2887738199 -9.00000000
4.94289780 -5.29504776 0.88940245 57 7 13697 7.29800000 2887738202 2887738202 7.00000000
3.11903667 -3.34241748 -0.56133020 4 8 13698 4.60600000 2887738204 2887738204 -7.00000000
4.94516277 -5.30118227 1.14822900 52 9 13699 7.34000000 2887738206 2887738206 9.00000000
4.32724905 -4.63878298 -0.55500776 15 10 13699 6.36800000 2887738208 2887738208 -5.00000000
4.92594671 -5.28243113 1.40397263 56 11 13700 7.35800000 2887738211 2887738211 11.00000000
4.94495869 -5.30467510 -0.38006371 11 12 13701 7.26200000 2887738213 2887738213 -3.00000000
4.92091227 -5.28072643 1.66643739 64 13 13702 7.40800000 2887738215 2887738215 13.00000000
3.67743611 -3.94770956 -0.09417319 27 14 13703 5.39600000 2887738218 2887738218 -1.00000000
4.90408516 -5.26635408 1.92820191 47 15 13704 7.45000000 2887738220 2887738220 15.00000000
1.42814624 -1.53686833 -0.56215495 5 0 13710 2.17200000 2887738241 2887738241 -15.00000000
4.92674303 -5.30366278 0.12635542 9 1 13711 7.24000000 2887738243 2887738243 1.00000000
1.39367819 -1.50082660 -0.47284710 4 2 13712 2.10200000 2887738245 2887738245 -13.00000000
3.40381813 -3.66679311 0.26220313 21 3 13713 5.01000000 2887738248 2887738248 3.00000000
1.95542824 -2.10650206 -0.55868876 3 4 13713 2.92800000 2887738250 2887738250 -11.00000000
3.80416369 -4.09950352 0.48929235 2 5 13714 5.61400000 2887738252 2887738252 5.00000000
2.39934254 -2.58652282 -0.55878389 5 6 13715 3.57200000 2887738255 2887738255 -9.00000000
4.91046429 -5.29539824 0.88672131 52 7 13716 7.27600000 2887738257 2887738257 7.00000000
3.09579015 -3.33963990 -0.55913657 6 8 13717 4.58800000 2887738259 2887738259 -7.00000000
4.90162611 -5.28771830 1.14197159 55 9 13717 7.30000000 2887738261 2887738261 9.00000000
4.30913401 -4.65018415 -0.55465913 19 10 13718 6.36400000 2887738264 2887738264 -5.00000000
4.89105797 -5.28001356 1.39901161 59 11 13719 7.33200000 2887738266 2887738266 11.00000000
4.91919851 -5.31225109 -0.37943569 11 12 13720 7.25000000 2887738268 2887738268 -3.00000000
4.88219261 -5.27413464 1.65923893 70 13 13721 7.37600000 2887738271 2887738271 13.00000000
3.66160846 -3.95694733 -0.09410337 12 14 13722 5.39200000 2887738273 2887738273 -1.00000000
4.87308359 -5.26613760 1.92250788 45 15 13722 7.42800000 2887738275 2887738275 15.00000000
1.41622233 -1.53474545 -0.55956680 4 0 13730 2.16200000 2887738296 2887738296 -15.00000000
4.90548801 -5.31788826 0.12628561 9 1 13731 7.23600000 2887738298 2887738298 1.00000000
1.40032041 -1.51857591 -0.47689623 4 2 13732 2.12000000 2887738301 2887738301 -13.00000000
3.40724230 -3.69627452 0.26345921 21 3 13733 5.03400000 2887738303 2887738303 3.00000000
1.94141006 -2.10609746 -0.55678064 3 4 13733 2.91800000 2887738305 2887738305 -11.00000000
3.77092862 -4.09224510 0.48685199 2 5 13734 5.58600000 2887738308 2887738308 5.00000000
2.39297581 -2.59778810 -0.55940962 5 6 13735 3.57600000 2887738310 2887738310 -9.00000000
4.87850285 -5.29790401 0.88428396 52 7 13736 7.25600000 2887738312 2887738312 7.00000000
3.08949137 -3.35626793 -0.56011152 6 8 13737 4.59600000 2887738314 2887738314 -7.00000000
4.86883688 -5.29111195 1.13884294 55 9 13738 7.28000000 2887738317 2887738317 9.00000000
4.28208256 -4.65346861 -0.55326468 15 10 13738 6.34800000 2887738319 2887738319 -5.00000000
4.86595201 -5.28982973 1.39710343 59 11 13739 7.32200000 2887738321 2887738321 11.00000000
4.89521790 -5.32350922 -0.37901700 11 12 13740 7.24200000 2887738324 2887738324 -3.00000000
4.84528971 -5.27105904 1.65294039 72 13 13741 7.34800000 2887738326 2887738326 13.00000000
3.12009144 -3.39545202 -0.08049050 5 14 13742 4.61200000 2887738328 2887738328 -1.00000000
4.83414602 -5.26262236 1.91474330 47 15 13743 7.39800000 2887738331 2887738331 15.00000000
1.40145338 -1.52995408 -0.55594331 5 0 13751 2.14800000 2887738351 2887738351 -15.00000000
4.85760450 -5.30486107 0.12555261 9 1 13752 7.19400000 2887738354 2887738354 1.00000000
1.40000832 -1.52944791 -0.47869584 4 2 13753 2.12800000 2887738356 2887738356 -13.00000000
3.41254807 -3.72936654 0.26492462 21 3 13754 5.06200000 2887738358 2887738358 3.00000000
1.94428051 -2.12478614 -0.55983359 3 4 13754 2.93400000 2887738361 2887738361 -11.00000000
3.73438835 -4.08251667 0.48406300 2 5 13755 5.55400000 2887738363 2887738363 5.00000000
2.38610458 -2.60945702 -0.56003541 5 6 13756 3.58000000 2887738365 2887738365 -9.00000000
4.84030199 -5.29523611 0.88087159 52 7 13757 7.22800000 2887738367 2887738367 7.00000000
3.06913495 -3.35877633 -0.55864906 6 8 13758 4.58400000 2887738370 2887738370 -7.00000000
4.83168221 -5.28765965 1.13446271 55 9 13758 7.25200000 2887738372 2887738372 9.00000000
4.24887323 -4.65147924 -0.55117291 15 10 13759 6.32400000 2887738374 2887738374 -5.00000000
4.82270193 -5.28153276 1.39023435 59 11 13760 7.28600000 2887738377 2887738377 11.00000000
4.86220837 -5.32666445 -0.37797028 11 12 13761 7.22200000 2887738379 2887738379 -3.00000000
4.81542921 -5.27726603 1.64934111 72 13 13762 7.33200000 2887738381 2887738381 13.00000000
3.12514472 -3.42607093 -0.08094426 5 14 13763 4.63800000 2887738384 2887738384 -1.00000000
4.79101038 -5.25234652 1.90490818 51 15 13763 7.36000000 2887738386 2887738386 15.00000000
1.39090466 -1.52912033 -0.55387276 16 0 13771 2.14000000 2887738407 2887738407 -15.00000000
4.83098555 -5.31290817 0.12534319 9 1 13772 7.18200000 2887738409 2887738409 1.00000000
1.38679636 -1.52567339 -0.47599643 4 2 13773 2.11600000 2887738411 2887738411 -13.00000000
3.41831350 -3.76195025 0.26639003 19 3 13774 5.09000000 2887738414 2887738414 3.00000000
1.92760980 -2.12138891 -0.55716228 3 4 13774 2.92000000 2887738416 2887738416 -11.00000000
3.70671892 -4.08077908 0.48231989 2 5 13775 5.53400000 2887738418 2887738418 5.00000000
2.35839033 -2.59729600 -0.55565524 5 6 13776 3.55200000 2887738420 2887738420 -9.00000000
4.80577803 -5.29446125 0.87794673 52 7 13777 7.20400000 2887738423 2887738423 7.00000000
3.06272769 -3.37534952 -0.55962402 6 8 13778 4.59200000 2887738425 2887738425 -7.00000000
4.80257654 -5.29278994 1.13195980 55 9 13778 7.23600000 2887738427 2887738427 9.00000000
4.23261070 -4.66628218 -0.55117291 15 10 13779 6.32400000 2887738430 2887738430 -5.00000000
4.78577423 -5.27797365 1.38489163 56 11 13780 7.25800000 2887738432 2887738432 11.00000000
4.82480621 -5.32288694 -0.37650487 11 12 13781 7.19400000 2887738434 2887738434 -3.00000000
4.77865982 -5.27382565 1.64304245 72 13 13782 7.30400000 2887738437 2887738437 13.00000000
3.12927604 -3.45474410 -0.08136312 5 14 13783 4.66200000 2887738439 2887738439 -1.00000000
4.75708437 -5.25185633 1.89869654 51 15 13783 7.33600000 2887738441 2887738441 15.00000000
1.37443519 -1.52058399 -0.54921401 38 0 13789 2.12200000 2887738462 2887738462 -15.00000000
4.79550171 -5.30728674 0.12485451 9 1 13790 7.15400000 2887738464 2887738464 1.00000000
1.37938404 -1.52713025 -0.47509661 4 2 13791 2.11200000 2887738467 2887738467 -13.00000000
3.41852450 -3.78601193 0.26733208 17 3 13792 5.10800000 2887738469 2887738469 3.00000000
1.91830432 -2.12451982 -0.55639905 3 4 13792 2.91600000 2887738471 2887738471 -11.00000000
3.68053055 -4.07761383 0.48057675 2 5 13793 5.51400000 2887738473 2887738473 5.00000000
2.35551238 -2.61055875 -0.55690670 5 6 13794 3.56000000 2887738476 2887738476 -9.00000000
4.77050734 -5.28889608 0.87453443 52 7 13795 7.17600000 2887738478 2887738478 7.00000000
3.04679132 -3.37905765 -0.55864906 6 8 13796 4.58400000 2887738480 2887738480 -7.00000000
4.77441788 -5.29694843 1.12945688 55 9 13797 7.22000000 2887738483 2887738483 9.00000000
4.20725870 -4.66771698 -0.54977840 19 10 13797 6.30800000 2887738485 2887738485 -5.00000000
4.75339937 -5.27548027 1.38031232 59 11 13798 7.23400000 2887738487 2887738487 11.00000000
4.78934669 -5.31724167 -0.37503946 11 12 13799 7.16600000 2887738490 2887738490 -3.00000000
4.74120474 -5.26564121 1.63584411 64 13 13800 7.27200000 2887738492 2887738492 13.00000000
4.79065466 -5.32242870 -0.12499414 6 14 13801 7.16200000 2887738494 2887738494 -1.00000000
4.73409939 -5.25959587 1.89610827 47 15 13801 7.32600000 2887738496 2887738496 15.00000000
1.37557101 -1.53256083 -0.55180222 64 0 13809 2.13200000 2887738517 2887738517 -15.00000000
4.76492739 -5.31059837 0.12454037 6 1 13810 7.13600000 2887738520 2887738520 1.00000000
1.37924969 -1.53773868 -0.47689623 4 2 13811 2.12000000 2887738522 2887738522 -13.00000000
3.41595459 -3.80981827 0.26816943 17 3 13812 5.12400000 2887738524 2887738524 3.00000000
1.91349792 -2.13412642 -0.55716228 3 4 13812 2.92000000 2887738526 2887738526 -11.00000000
3.73276496 -4.16461945 0.48929235 2 5 13813 5.61400000 2887738529 2887738529 5.00000000
2.34638548 -2.61876512 -0.55690670 5 6 13814 3.56000000 2887738531 2887738531 -9.00000000
4.74142122 -5.29368687 0.87258452 52 7 13815 7.16000000 2887738533 2887738533 7.00000000
3.03232932 -3.38671446 -0.55816162 6 8 13816 4.58000000 2887738536 2887738536 -7.00000000
4.73482037 -5.29003143 1.12445092 52 9 13817 7.18800000 2887738538 2887738538 9.00000000
4.18828201 -4.67940521 -0.54942977 15 10 13817 6.30400000 2887738540 2887738540 -5.00000000
4.72448254 -5.28033543 1.37725937 53 11 13818 7.21800000 2887738543 2887738543 11.00000000
4.74678993 -5.30713129 -0.37315536 11 12 13819 7.13000000 2887738545 2887738545 -3.00000000
4.70720863 -5.26472616 1.63044524 66 13 13820 7.24800000 2887738547 2887738547 13.00000000
4.73606634 -5.29886293 -0.12405171 8 14 13821 7.10800000 2887738549 2887738549 -1.00000000
4.69934464 -5.25962496 1.88989663 47 15 13822 7.30200000 2887738552 2887738552 15.00000000
1.35864460 -1.52437353 -0.54714346 77 0 13829 2.11400000 2887738573 2887738573 -15.00000000
3.04230022 -3.41460299 0.07982731 6 1 13830 4.57400000 2887738575 2887738575 1.00000000
1.37905800 -1.54836476 -0.47869584 4 2 13831 2.12800000 2887738577 2887738577 -13.00000000
3.01615310 -3.38763618 0.23770991 5 3 13832 4.54200000 2887738579 2887738579 3.00000000
1.90081477 -2.13492775 -0.55563581 3 4 13832 2.91200000 2887738582 2887738582 -11.00000000
2.33985615 -2.62989116 -0.55753243 5 6 13834 3.56400000 2887738586 2887738586 -9.00000000
4.71499872 -5.30130529 0.87112206 52 7 13835 7.14800000 2887738589 2887738589 7.00000000
3.01521301 -3.39134455 -0.55718666 6 8 13836 4.57200000 2887738591 2887738591 -7.00000000
4.69532919 -5.28290272 1.11944509 52 9 13837 7.15600000 2887738593 2887738593 9.00000000
4.15868664 -4.67910480 -0.54768670 15 10 13837 6.28400000 2887738596 2887738596 -5.00000000
4.69559050 -5.28505373 1.37420642 56 11 13838 7.20200000 2887738598 2887738598 11.00000000
4.71762514 -5.31172180 -0.37231800 11 12 13839 7.11400000 2887738600 2887738600 -3.00000000
4.67845201 -5.26946735 1.62684608 62 13 13840 7.23200000 2887738602 2887738602 13.00000000
4.70028496 -5.29591990 -0.12359794 8 14 13841 7.08200000 2887738605 2887738605 -1.00000000
4.66264200 -5.25350666 1.88213205 47 15 13841 7.27200000 2887738607 2887738607 15.00000000
1.34307265 -1.51753366 -0.54300237 78 0 13849 2.09800000 2887738628 2887738628 -15.00000000
3.00651169 -3.39824343 0.07919902 14 1 13850 4.53800000 2887738630 2887738630 1.00000000
1.37880886 -1.55900812 -0.48049545 4 2 13851 2.13600000 2887738632 2887738632 -13.00000000
3.01621580 -3.41161060 0.23865196 13 3 13852 4.56000000 2887738635 2887738635 3.00000000
1.88814938 -2.13566637 -0.55410933 3 4 13852 2.90400000 2887738637 2887738637 -11.00000000
2.33589339 -2.64396429 -0.55878389 5 6 13854 3.57200000 2887738642 2887738642 -9.00000000
4.68069601 -5.29987669 0.86819720 55 7 13855 7.12400000 2887738644 2887738644 7.00000000
3.00861192 -3.40780139 -0.55816162 8 8 13856 4.58000000 2887738646 2887738646 -7.00000000
4.66117477 -5.28148746 1.11569059 55 9 13857 7.13200000 2887738649 2887738649 9.00000000
4.13573647 -4.68612337 -0.54681516 15 10 13857 6.27400000 2887738651 2887738651 -5.00000000
4.65503311 -5.27638483 1.36771894 59 11 13858 7.16800000 2887738653 2887738653 11.00000000
4.68848658 -5.31617355 -0.37148061 11 12 13859 7.09800000 2887738655 2887738655 -3.00000000
4.64971972 -5.27407169 1.62324679 64 13 13860 7.21600000 2887738658 2887738658 13.00000000
4.66987085 -5.29879284 -0.12328380 8 14 13861 7.06400000 2887738660 2887738660 -1.00000000
4.62511587 -5.24801064 1.87436748 47 15 13861 7.24200000 2887738662 2887738662 15.00000000
1.33750153 -1.52244604 -0.54300237 81 0 13870 2.09800000 2887738683 2887738683 -15.00000000
2.99931455 -3.41525006 0.07933864 8 1 13871 4.54600000 2887738685 2887738685 1.00000000
1.37308550 -1.56405127 -0.48049545 4 2 13872 2.13600000 2887738688 2887738688 -13.00000000
3.00428867 -3.42211843 0.23865196 5 3 13872 4.56000000 2887738690 2887738690 3.00000000
1.89066887 -2.15437722 -0.55716228 3 4 13873 2.92000000 2887738692 2887738692 -11.00000000
4.62899303 -5.27649689 0.61409938 3 5 13874 7.04600000 2887738695 2887738695 5.00000000
2.31576729 -2.64062667 -0.55628097 5 6 13875 3.55600000 2887738697 2887738697 -9.00000000
4.63506746 -5.28714275 0.86332244 52 7 13876 7.08400000 2887738699 2887738699 7.00000000
2.99348474 -3.41581964 -0.55767411 8 8 13877 4.57600000 2887738701 2887738701 -7.00000000
4.63489866 -5.28881216 1.11381340 55 9 13877 7.12000000 2887738704 2887738704 9.00000000
4.11984587 -4.70274878 -0.54698944 15 10 13878 6.27600000 2887738706 2887738706 -5.00000000
4.61496830 -5.26977968 1.36161304 59 11 13879 7.13600000 2887738708 2887738708 11.00000000
4.64002752 -5.30026102 -0.36917785 11 12 13880 7.05400000 2887738711 2887738711 -3.00000000
4.62265778 -5.28227949 1.62054741 66 13 13881 7.20400000 2887738713 2887738713 13.00000000
4.63856840 -5.30232763 -0.12296966 6 14 13882 7.04600000 2887738715 2887738715 -1.00000000
4.59440231 -5.25184107 1.86970878 47 15 13882 7.22400000 2887738718 2887738718 15.00000000
1.33471894 -1.53001714 -0.54403764 78 0 13890 2.10200000 2887738738 2887738738 -15.00000000
3.00708914 -3.44830585 0.07986221 6 1 13891 4.57600000 2887738741 2887738741 1.00000000
1.42268085 -1.63199937 -0.49984124 2 2 13892 2.22200000 2887738743 2887738743 -13.00000000
2.99435019 -3.43611813 0.23886131 5 3 13893 4.56400000 2887738745 2887738745 3.00000000
1.88571692 -2.16392398 -0.55792552 3 4 13893 2.92400000 2887738748 2887738748 -11.00000000
4.61316395 -5.29562759 0.61444801 50 5 13894 7.05000000 2887738750 2887738750 5.00000000
2.31691384 -2.66061163 -0.55878389 5 6 13895 3.57200000 2887738752 2887738752 -9.00000000
4.59572983 -5.27933407 0.85942262 55 7 13896 7.05200000 2887738754 2887738754 7.00000000
2.97372437 -3.41726327 -0.55621171 8 8 13897 4.56400000 2887738757 2887738757 -7.00000000
4.60251808 -5.29086065 1.11068475 57 9 13898 7.10000000 2887738759 2887738759 9.00000000
4.11125135 -4.72612047 -0.54803532 11 10 13898 6.28800000 2887738761 2887738761 -5.00000000
4.58237410 -5.26956034 1.35741520 59 11 13899 7.11400000 2887738764 2887738764 11.00000000
4.60839510 -5.30135202 -0.36813113 11 12 13900 7.03400000 2887738766 2887738766 -3.00000000
4.58373928 -5.27484798 1.61334896 70 13 13901 7.17200000 2887738768 2887738768 13.00000000
3.33355665 -3.83752298 -0.08872803 6 14 13902 5.08400000 2887738771 2887738771 -1.00000000
4.56625557 -5.25843477 1.86608529 47 15 13903 7.21000000 2887738773 2887738773 15.00000000
1.33695924 -1.54342794 -0.54714346 76 0 13910 2.11400000 2887738794 2887738794 -15.00000000
4.59596348 -5.30759668 0.12255080 9 1 13911 7.02200000 2887738796 2887738796 1.00000000
1.58405364 -1.82997179 -0.55877841 3 2 13912 2.48400000 2887738798 2887738798 -13.00000000
3.48881006 -4.03043461 0.27936932 2 3 13912 5.33800000 2887738801 2887738801 3.00000000
1.87301326 -2.16455483 -0.55639905 3 4 13913 2.91600000 2887738803 2887738803 -11.00000000
4.58813334 -5.30416393 0.61357641 54 5 13914 7.04000000 2887738805 2887738805 5.00000000
2.30244422 -2.66270614 -0.55753243 3 6 13915 3.56400000 2887738807 2887738807 -9.00000000
4.56818628 -5.28483105 0.85771644 57 7 13916 7.03800000 2887738810 2887738810 7.00000000
2.95528841 -3.42011261 -0.55499297 8 8 13917 4.55400000 2887738812 2887738812 -7.00000000
4.56852627 -5.28895521 1.10693026 57 9 13918 7.07600000 2887738814 2887738814 9.00000000
4.07649517 -4.71933365 -0.54559493 11 10 13918 6.26000000 2887738817 2887738817 -5.00000000
4.55368710 -5.27363634 1.35436225 59 11 13919 7.09800000 2887738819 2887738819 11.00000000
4.58464146 -5.31135845 -0.36771244 11 12 13920 7.02600000 2887738821 2887738821 -3.00000000
4.54238319 -5.26425886 1.60525072 72 13 13921 7.13600000 2887738824 2887738824 13.00000000
3.31230426 -3.84005070 -0.08851860 16 14 13922 5.07200000 2887738826 2887738826 -1.00000000
4.53869867 -5.26184511 1.86194420 47 15 13922 7.19400000 2887738828 2887738828 15.00000000
1.32652450 -1.54222703 -0.54507291 66 0 13930 2.10600000 2887738849 2887738849 -15.00000000
4.56437111 -5.30844498 0.12220175 9 1 13931 7.00200000 2887738851 2887738851 1.00000000
1.58908844 -1.84879076 -0.56282753 3 2 13932 2.50200000 2887738853 2887738853 -13.00000000
4.53965855 -5.28156805 0.36499095 7 3 13932 6.97400000 2887738856 2887738856 3.00000000
1.85521054 -2.15916705 -0.55334610 3 4 13933 2.90000000 2887738858 2887738858 -11.00000000
4.55790663 -5.30654478 0.61200762 64 5 13934 7.02200000 2887738860 2887738860 5.00000000
2.29828310 -2.67672181 -0.55878389 3 6 13935 3.57200000 2887738863 2887738863 -9.00000000
4.53807497 -5.28718805 0.85552281 52 7 13936 7.02000000 2887738865 2887738865 7.00000000
2.94850254 -3.43643379 -0.55596793 8 8 13937 4.56200000 2887738867 2887738867 -7.00000000
4.52688789 -5.27788115 1.10129869 57 9 13938 7.04000000 2887738870 2887738870 9.00000000
4.03664875 -4.70631313 -0.54245734 15 10 13938 6.22400000 2887738872 2887738872 -5.00000000
4.52374983 -5.27608585 1.35092771 59 11 13939 7.08000000 2887738874 2887738874 11.00000000
4.55567551 -5.31519747 -0.36687505 11 12 13940 7.01000000 2887738877 2887738877 -3.00000000
4.51130056 -5.26528406 1.60075176 70 13 13941 7.11600000 2887738879 2887738879 13.00000000
3.28977418 -3.84095788 -0.08827427 6 14 13942 5.05800000 2887738881 2887738881 -1.00000000
4.50270987 -5.25711489 1.85469723 49 15 13942 7.16600000 2887738883 2887738883 15.00000000
1.32893240 -1.55543005 -0.54817873 58 0 13949 2.11800000 2887738904 2887738904 -15.00000000
4.52596331 -5.29922247 0.12164328 11 1 13950 6.97000000 2887738906 2887738906 1.00000000
1.56396866 -1.83181930 -0.55607903 1 2 13951 2.47200000 2887738909 2887738909 -13.00000000
4.52378798 -5.30042028 0.36520031 10 3 13952 6.97800000 2887738911 2887738911 3.00000000
1.85568738 -2.17426705 -0.55563581 3 4 13952 2.91200000 2887738913 2887738913 -11.00000000
4.51183510 -5.28828478 0.60817277 64 5 13953 6.97800000 2887738916 2887738916 5.00000000
2.27913928 -2.67230463 -0.55628097 3 6 13954 3.55600000 2887738918 2887738918 -9.00000000
4.50763798 -5.28710175 0.85308540 52 7 13955 7.00000000 2887738920 2887738920 7.00000000
2.94352889 -3.45374656 -0.55718666 8 8 13956 4.57200000 2887738923 2887738923 -7.00000000
4.49747133 -5.27704239 1.09816992 55 9 13956 7.02000000 2887738925 2887738925 9.00000000
3.99000931 -4.68327475 -0.53827387 15 10 13957 6.17600000 2887738927 2887738927 -5.00000000
4.49859142 -5.28209019 1.34863794 53 11 13958 7.06800000 2887738930 2887738930 11.00000000
4.52766657 -5.31810951 -0.36603767 10 12 13959 6.99400000 2887738932 2887738932 -3.00000000
4.47865915 -5.26240683 1.59535289 68 13 13960 7.09200000 2887738934 2887738934 13.00000000
4.50930262 -5.30028629 -0.12146875 8 14 13961 6.96000000 2887738936 2887738936 -1.00000000
4.46055222 -5.24483967 1.84486210 51 15 13962 7.12800000 2887738939 2887738939 15.00000000
1.32599437 -1.56300581 -0.54921401 39 0 13969 2.12200000 2887738959 2887738959 -15.00000000
4.49450445 -5.29973745 0.12129422 11 1 13970 6.95000000 2887738962 2887738962 1.00000000
1.55504453 -1.83429456 -0.55517918 1 2 13971 2.46800000 2887738964 2887738964 -13.00000000
4.49585390 -5.30320501 0.36436293 10 3 13971 6.96200000 2887738966 2887738966 3.00000000
1.84300923 -2.17474031 -0.55410933 3 4 13972 2.90400000 2887738969 2887738969 -11.00000000
4.48304510 -5.29184008 0.60677826 64 5 13973 6.96200000 2887738971 2887738971 5.00000000
2.26086092 -2.66969180 -0.55409086 3 6 13974 3.54200000 2887738973 2887738973 -9.00000000
4.47632885 -5.28765345 0.85064805 55 7 13975 6.98000000 2887738976 2887738976 7.00000000
2.92632556 -3.45793915 -0.55621171 8 8 13976 4.56400000 2887738978 2887738978 -7.00000000
4.46789312 -5.28142595 1.09566700 52 9 13977 7.00400000 2887738980 2887738980 9.00000000
3.99036574 -4.71694851 -0.54053992 15 10 13977 6.20200000 2887738983 2887738983 -5.00000000
4.45603943 -5.26927853 1.34138727 56 11 13978 7.03000000 2887738985 2887738985 11.00000000
4.49231291 -5.31405306 -0.36467695 10 12 13979 6.96800000 2887738987 2887738987 -3.00000000
4.45271587 -5.26907730 1.59265351 72 13 13980 7.08000000 2887738989 2887738989 13.00000000
4.47657871 -5.29919100 -0.12108479 8 14 13981 6.93800000 2887738992 2887738992 -1.00000000
4.43473864 -5.25152206 1.84175634 51 15 13982 7.11600000 2887738994 2887738994 15.00000000
1.33546567 -1.58535480 -0.55542564 32 0 13989 2.14600000 2887739015 2887739015 -15.00000000
4.46052074 -5.29703856 0.12087537 11 1 13990 6.92600000 2887739017 2887739017 1.00000000
1.53106260 -1.81883955 -0.54888058 1 2 13991 2.44000000 2887739019 2887739019 -13.00000000
4.46059418 -5.29900265 0.36300218 10 3 13991 6.93600000 2887739022 2887739022 3.00000000
1.84551919 -2.19317794 -0.55716228 3 4 13992 2.92000000 2887739024 2887739024 -11.00000000
4.45043802 -5.29068470 0.60486084 57 5 13993 6.94000000 2887739026 2887739026 5.00000000
2.25661349 -2.68361497 -0.55534238 3 6 13994 3.55000000 2887739029 2887739029 -9.00000000
4.44251633 -5.28501177 0.84772313 55 7 13995 6.95600000 2887739031 2887739031 7.00000000
2.90657496 -3.45901418 -0.55474925 8 8 13996 4.55200000 2887739033 2887739033 -7.00000000
4.44018841 -5.28411436 1.09316409 55 9 13996 6.98800000 2887739036 2887739036 9.00000000
3.99566150 -4.75678349 -0.54350322 15 10 13997 6.23600000 2887739038 2887739038 -5.00000000
4.42246914 -5.26675892 1.33680785 53 11 13998 7.00600000 2887739040 2887739040 11.00000000
4.45319080 -5.30522537 -0.36300218 10 12 13999 6.93600000 2887739042 2887739042 -3.00000000
4.41675949 -5.26368856 1.58635485 64 13 14000 7.05200000 2887739045 2887739045 13.00000000
4.44520235 -5.29946423 -0.12073575 8 14 14001 6.91800000 2887739047 2887739047 -1.00000000
4.40769196 -5.25660801 1.83813286 49 15 14002 7.10200000 2887739049 2887739049 15.00000000
1.33736026 -1.59889781 -0.55853152 20 0 14009 2.15800000 2887739070 2887739070 -15.00000000
4.42789364 -5.29570150 0.12049142 11 1 14010 6.90400000 2887739072 2887739072 1.00000000
1.49221063 -1.78529704 -0.53718311 1 2 14011 2.38800000 2887739075 2887739075 -13.00000000
4.43054199 -5.30074835 0.36206016 10 3 14011 6.91800000 2887739077 2887739077 3.00000000
1.82778192 -2.18755388 -0.55410933 3 4 14012 2.90400000 2887739079 2887739079 -11.00000000
4.41278458 -5.28325033 0.60224617 33 5 14013 6.91000000 2887739082 2887739082 5.00000000
2.23457193 -2.67631245 -0.55221367 1 6 14014 3.53000000 2887739084 2887739084 -9.00000000
4.41640902 -5.29134274 0.84626073 55 7 14015 6.94400000 2887739086 2887739086 7.00000000
2.88176560 -3.45389676 -0.55231184 8 8 14016 4.53200000 2887739089 2887739089 -7.00000000
4.40906096 -5.28441334 1.09003532 52 9 14016 6.96800000 2887739091 2887739091 9.00000000
4.01093674 -4.80895329 -0.54786098 11 10 14017 6.28600000 2887739093 2887739093 -5.00000000
4.40154314 -5.27914810 1.33604455 56 11 14018 7.00200000 2887739095 2887739095 11.00000000
4.41290665 -5.29465580 -0.36122277 10 12 14019 6.90200000 2887739098 2887739098 -3.00000000
4.38338995 -5.26110792 1.58095598 62 13 14020 7.02800000 2887739100 2887739100 13.00000000
4.41131973 -5.29650974 -0.12031689 8 14 14021 6.89400000 2887739102 2887739102 -1.00000000
4.37448311 -5.25414562 1.83192122 47 15 14022 7.07800000 2887739105 2887739105 15.00000000
1.34534788 -1.61990392 -0.56422549 21 0 14029 2.18000000 2887739125 2887739125 -15.00000000
4.39916277 -5.29881716 0.12021217 11 1 14030 6.88800000 2887739128 2887739128 1.00000000
1.43121040 -1.72451353 -0.51738745 1 2 14031 2.30000000 2887739130 2887739130 -13.00000000
4.39032793 -5.29005432 0.36028072 10 3 14031 6.88400000 2887739132 2887739132 3.00000000
1.81261361 -2.18485498 -0.55181962 3 4 14032 2.89200000 2887739135 2887739135 -11.00000000
4.38922834 -5.29248714 0.60154891 30 5 14033 6.90200000 2887739137 2887739137 5.00000000
2.23151994 -2.69169998 -0.55377799 3 6 14034 3.54000000 2887739139 2887739139 -9.00000000
4.39284515 -5.30061293 0.84528577 34 7 14035 6.93600000 2887739141 2887739141 7.00000000
2.87982321 -3.47616410 -0.55426174 8 8 14036 4.54800000 2887739144 2887739144 -7.00000000
4.37042475 -5.27543306 1.08502948 52 9 14036 6.93600000 2887739146 2887739146 9.00000000
4.00047970 -4.83059740 -0.54873258 11 10 14037 6.29600000 2887739148 2887739148 -5.00000000
4.37056923 -5.27935743 1.33222842 56 11 14038 6.98200000 2887739151 2887739151 11.00000000
4.39057779 -5.30541134 -0.36090875 10 12 14039 6.89600000 2887739153 2887739153 -3.00000000
4.35506105 -5.26436424 1.57735682 66 13 14040 7.01200000 2887739155 2887739155 13.00000000
4.37623787 -5.29184294 -0.11986313 8 14 14041 6.86800000 2887739158 2887739158 -1.00000000
4.34226179 -5.25075817 1.82570958 47 15 14041 7.05400000 2887739160 2887739160 15.00000000
1.33722699 -1.62160933 -0.56319022 22 0 14049 2.17600000 2887739181 2887739181 -15.00000000
4.35774422 -5.28636646 0.11958389 11 1 14050 6.85200000 2887739183 2887739183 1.00000000
1.40287483 -1.70242846 -0.50928921 1 2 14051 2.26400000 2887739185 2887739185 -13.00000000
4.36548471 -5.29764032 0.35975736 10 3 14051 6.87400000 2887739188 2887739188 3.00000000
1.80747247 -2.19419956 -0.55258286 3 4 14052 2.89600000 2887739190 2887739190 -11.00000000
4.35426283 -5.28778172 0.59928286 13 5 14053 6.87600000 2887739192 2887739192 5.00000000
2.22336602 -2.70099831 -0.55409086 1 6 14054 3.54200000 2887739194 2887739194 -9.00000000
2.87775993 -3.49845982 -0.55621171 8 8 14056 4.56400000 2887739199 2887739199 -7.00000000
4.33817959 -5.27387524 1.08158791 60 9 14056 6.91400000 2887739201 2887739201 9.00000000
3.96334648 -4.81990957 -0.54594356 11 10 14057 6.26400000 2887739204 2887739204 -5.00000000
4.33341408 -5.27183199 1.32650411 59 11 14058 6.95200000 2887739206 2887739206 11.00000000
4.36822748 -5.31607533 -0.36059475 14 12 14059 6.89000000 2887739208 2887739208 -3.00000000
4.32676315 -5.26748753 1.57375753 68 13 14060 6.99600000 2887739211 2887739211 13.00000000
4.34758711 -5.29472303 -0.11958389 8 14 14061 6.85200000 2887739213 2887739213 -1.00000000
4.30827951 -5.24871969 1.81949794 47 15 14062 7.03000000 2887739215 2887739215 15.00000000
1.34012532 -1.63673031 -0.56681371 18 0 14069 2.19000000 2887739236 2887739236 -15.00000000
4.32279921 -5.28142881 0.11913013 11 1 14070 6.82600000 2887739238 2887739238 1.00000000
1.42654037 -1.74351263 -0.52008682 1 2 14071 2.31200000 2887739241 2887739241 -13.00000000
4.33339405 -5.29814482 0.35871065 10 3 14072 6.85400000 2887739243 2887739243 3.00000000
1.80228817 -2.20353484 -0.55334610 3 4 14072 2.90000000 2887739245 2887739245 -11.00000000
4.31686115 -5.27981186 0.59666824 13 5 14073 6.84600000 2887739247 2887739247 5.00000000
2.21892452 -2.71486068 -0.55534238 1 6 14074 3.55000000 2887739250 2887739250 -9.00000000
3.01811624 -3.69398975 0.58570409 6 7 14075 4.80600000 2887739252 2887739252 7.00000000
2.86050773 -3.50233412 -0.55523676 8 8 14076 4.55600000 2887739254 2887739254 -7.00000000
4.31349611 -5.28133678 1.08002353 57 9 14076 6.90400000 2887739257 2887739257 9.00000000
3.93893743 -4.82445478 -0.54489768 11 10 14077 6.25200000 2887739259 2887739259 -5.00000000
4.29636526 -5.26411152 1.32077992 62 11 14078 6.92200000 2887739261 2887739261 11.00000000
4.32313013 -5.29879236 -0.35839662 10 12 14079 6.84800000 2887739264 2887739264 -3.00000000
4.30095959 -5.27349758 1.57105815 68 13 14080 6.98400000 2887739266 2887739266 13.00000000
4.31265163 -5.28971815 -0.11913013 4 14 14081 6.82600000 2887739268 2887739268 -1.00000000
4.27620173 -5.24500990 1.81328619 47 15 14081 7.00600000 2887739271 2887739271 15.00000000
1.32343626 -1.62790740 -0.56215495 9 0 14089 2.17200000 2887739291 2887739291 -15.00000000
4.31442690 -5.30890083 0.11940937 2 1 14090 6.84200000 2887739294 2887739294 1.00000000
1.47942615 -1.82108283 -0.54168212 2 2 14091 2.40800000 2887739296 2887739296 -13.00000000
4.30480099 -5.30083561 0.35787326 2 3 14092 6.83800000 2887739298 2887739298 3.00000000
1.79706073 -2.21286058 -0.55410933 3 4 14092 2.90400000 2887739300 2887739300 -11.00000000
3.03512859 -3.73872280 0.42131087 2 5 14093 4.83400000 2887739303 2887739303 5.00000000
2.19947624 -2.71031880 -0.55283940 1 6 14094 3.53400000 2887739305 2887739305 -9.00000000
4.27331686 -5.26770067 0.83285511 7 7 14095 6.83400000 2887739307 2887739307 7.00000000
2.84826493 -3.51229763 -0.55523676 8 8 14096 4.55600000 2887739310 2887739310 -7.00000000
4.28167057 -5.28176594 1.07689488 57 9 14097 6.88400000 2887739312 2887739312 9.00000000
3.89948893 -4.81031561 -0.54176009 11 10 14097 6.21600000 2887739314 2887739314 -5.00000000
4.26807547 -5.26687431 1.31772697 62 11 14098 6.90600000 2887739317 2887739317 11.00000000
4.29203558 -5.29833126 -0.35734990 10 12 14099 6.82800000 2887739319 2887739319 -3.00000000
4.26290369 -5.26424742 1.56385970 70 13 14100 6.95200000 2887739321 2887739321 13.00000000
3.04227400 -3.75823641 -0.08439983 6 14 14101 4.83600000 2887739324 2887739324 -1.00000000
4.25208807 -5.25464058 1.81121564 47 15 14102 6.99800000 2887739326 2887739326 15.00000000
1.30710769 -1.61875987 -0.55749625 4 0 14108 2.15400000 2887739347 2887739347 -15.00000000
3.03325558 -3.75781250 0.08429512 8 1 14109 4.83000000 2887739349 2887739349 1.00000000
1.48439276 -1.83962810 -0.54573125 3 2 14110 2.42600000 2887739351 2887739351 -13.00000000
3.02448797 -3.74962783 0.25246865 8 3 14111 4.82400000 2887739353 2887739353 3.00000000
1.78971279 -2.21880770 -0.55410933 3 4 14111 2.90400000 2887739356 2887739356 -11.00000000
3.03021741 -3.75807309 0.42235672 6 5 14112 4.84600000 2887739358 2887739358 5.00000000
2.19419551 -2.72221160 -0.55377799 1 6 14113 3.54000000 2887739360 2887739360 -9.00000000
4.25707054 -5.28338861 0.83309883 49 7 14114 6.83600000 2887739363 2887739363 7.00000000
2.82788563 -3.51090169 -0.55353057 8 8 14115 4.54200000 2887739365 2887739365 -7.00000000
4.25266504 -5.27980709 1.07376611 65 9 14115 6.86400000 2887739367 2887739367 9.00000000
3.86227417 -4.79683876 -0.53879678 11 10 14116 6.18200000 2887739370 2887739370 -5.00000000
4.23827648 -5.26570463 1.31391072 62 11 14117 6.88600000 2887739372 2887739372 11.00000000
4.26567793 -5.30164242 -0.35661721 10 12 14118 6.81400000 2887739374 2887739374 -3.00000000
4.22588158 -5.25405836 1.55666125 66 13 14119 6.92000000 2887739377 2887739377 13.00000000
3.03104758 -3.76986289 -0.08443474 8 14 14120 4.83800000 2887739379 2887739379 -1.00000000
4.22345400 -5.25291729 1.80603933 49 15 14120 6.97800000 2887739381 2887739381 15.00000000
1.29661560 -1.61728358 -0.55542564 4 0 14128 2.14600000 2887739402 2887739402 -15.00000000
3.01761866 -3.76525688 0.08422531 8 1 14129 4.82600000 2887739404 2887739404 1.00000000
1.49867558 -1.87065291 -0.55337960 3 2 14130 2.46000000 2887739406 2887739406 -13.00000000
3.00264120 -3.74924994 0.25173596 6 3 14131 4.81000000 2887739409 2887739409 3.00000000
1.77704775 -2.21891165 -0.55258286 3 4 14131 2.89600000 2887739411 2887739411 -11.00000000
2.99715781 -3.74374199 0.41956773 6 5 14132 4.81400000 2887739413 2887739413 5.00000000
2.19208550 -2.73910785 -0.55565524 1 6 14133 3.55200000 2887739416 2887739416 -9.00000000
4.23364162 -5.29201603 0.83212388 63 7 14134 6.82800000 2887739418 2887739418 7.00000000
2.81685281 -3.52230191 -0.55377430 8 8 14135 4.54400000 2887739420 2887739420 -7.00000000
4.21231604 -5.26912832 1.06844735 57 9 14136 6.83000000 2887739423 2887739423 9.00000000
3.84426236 -4.80873489 -0.53862250 11 10 14136 6.18000000 2887739425 2887739425 -5.00000000
4.21251631 -5.27126503 1.31162107 59 11 14137 6.87400000 2887739427 2887739427 11.00000000
4.23343325 -5.29933500 -0.35546583 10 12 14138 6.79200000 2887739429 2887739429 -3.00000000
4.19535542 -5.25355005 1.55216229 70 13 14139 6.90000000 2887739432 2887739432 13.00000000
4.22177410 -5.28852510 -0.11811788 6 14 14140 6.76800000 2887739434 2887739434 -1.00000000
4.18609810 -5.24571180 1.79827476 56 15 14141 6.94800000 2887739436 2887739436 15.00000000
1.28614986 -1.61575389 -0.55335510 4 0 14148 2.13800000 2887739457 2887739457 -15.00000000
4.21221638 -5.29358530 0.11808299 8 1 14149 6.76600000 2887739459 2887739459 1.00000000
1.52610397 -1.91857564 -0.56597686 7 2 14150 2.51600000 2887739462 2887739462 -13.00000000
4.20896769 -5.29329395 0.35441908 7 3 14151 6.77200000 2887739464 2887739464 3.00000000
1.76196015 -2.21588135 -0.55029315 3 4 14151 2.88400000 2887739466 2887739466 -11.00000000
4.18910599 -5.27020264 0.58899850 10 5 14152 6.75800000 2887739469 2887739469 5.00000000
2.17636633 -2.73901010 -0.55409086 1 6 14153 3.54200000 2887739471 2887739471 -9.00000000
4.20403147 -5.29277229 0.82993025 68 7 14154 6.81000000 2887739473 2887739473 7.00000000
2.80207181 -3.52900386 -0.55328679 8 8 14155 4.54000000 2887739476 2887739476 -7.00000000
4.18622112 -5.27223873 1.06625736 55 9 14155 6.81600000 2887739478 2887739478 9.00000000
3.83736253 -4.83460903 -0.54001701 11 10 14156 6.19600000 2887739480 2887739480 -5.00000000
4.18066740 -5.26901960 1.30742323 56 11 14157 6.85200000 2887739482 2887739482 11.00000000
4.21242666 -5.31095076 -0.35525647 10 12 14158 6.78800000 2887739485 2887739485 -3.00000000
4.16488409 -5.25289249 1.54766321 66 13 14159 6.88000000 2887739487 2887739487 13.00000000
4.19335127 -5.29069233 -0.11783865 8 14 14160 6.75200000 2887739489 2887739489 -1.00000000
4.15188026 -5.23836899 1.79102778 54 15 14160 6.92000000 2887739492 2887739492 15.00000000
1.28289771 -1.62326491 -0.55439037 4 0 14168 2.14200000 2887739512 2887739512 -15.00000000
4.17759752 -5.28785801 0.11762922 11 1 14169 6.74000000 2887739515 2887739515 1.00000000
1.50490415 -1.90553916 -0.56057805 10 2 14170 2.49200000 2887739517 2887739517 -13.00000000
4.18303967 -5.29854822 0.35379106 10 3 14171 6.76000000 2887739519 2887739519 3.00000000
1.75908065 -2.22818184 -0.55181962 3 4 14171 2.89200000 2887739522 2887739522 -11.00000000
4.16327810 -5.27540922 0.58795261 10 5 14172 6.74600000 2887739524 2887739524 5.00000000
2.15088701 -2.72642899 -0.55002356 1 6 14173 3.51600000 2887739526 2887739526 -9.00000000
4.16463375 -5.28091669 0.82578665 55 7 14174 6.77600000 2887739529 2887739529 7.00000000
2.78727818 -3.53564548 -0.55279934 8 8 14175 4.53600000 2887739531 2887739531 -7.00000000
4.15464258 -5.27203178 1.06312859 55 9 14176 6.79600000 2887739533 2887739533 9.00000000
3.85499287 -4.89179087 -0.54489768 11 10 14176 6.25200000 2887739535 2887739535 -5.00000000
4.14524078 -5.26199007 1.30208063 59 11 14177 6.82400000 2887739538 2887739538 11.00000000
4.17903471 -5.30679274 -0.35400042 10 12 14178 6.76400000 2887739540 2887739540 -3.00000000
4.13687992 -5.25514889 1.54406404 68 13 14179 6.86400000 2887739542 2887739542 13.00000000
4.16620111 -5.29429722 -0.11759432 8 14 14180 6.73800000 2887739545 2887739545 -1.00000000
4.11831999 -5.23533106 1.78481615 56 15 14181 6.89600000 2887739547 2887739547 15.00000000
1.28199375 -1.63381243 -0.55646098 4 0 14188 2.15000000 2887739568 2887739568 -15.00000000
4.15047503 -5.29139471 0.11738489 11 1 14189 6.72600000 2887739570 2887739570 1.00000000
1.49102879 -1.90157950 -0.55787861 13 2 14190 2.48000000 2887739572 2887739572 -13.00000000
4.14603710 -5.28953838 0.35222098 10 3 14191 6.73000000 2887739575 2887739575 3.00000000
1.75371432 -2.23739886 -0.55258286 3 4 14191 2.89600000 2887739577 2887739577 -11.00000000
4.13500738 -5.27736330 0.58655816 10 5 14192 6.73000000 2887739579 2887739579 5.00000000
2.14379287 -2.73703074 -0.55064934 1 6 14193 3.52000000 2887739582 2887739582 -9.00000000
4.13516045 -5.28135490 0.82359302 55 7 14194 6.75800000 2887739584 2887739584 7.00000000
2.77736640 -3.54847980 -0.55328679 8 8 14195 4.54000000 2887739586 2887739586 -7.00000000
4.12861443 -5.27489090 1.06093860 52 9 14195 6.78200000 2887739588 2887739588 9.00000000
3.83543849 -4.90207958 -0.54454911 11 10 14196 6.24800000 2887739591 2887739591 -5.00000000
4.11354351 -5.25941706 1.29788280 56 11 14197 6.80200000 2887739593 2887739593 11.00000000
4.13588142 -5.28987932 -0.35190696 10 12 14198 6.72400000 2887739595 2887739595 -3.00000000
4.10891056 -5.25727367 1.54046488 64 13 14199 6.84800000 2887739598 2887739598 13.00000000
4.13907719 -5.29777718 -0.11734998 8 14 14200 6.72400000 2887739600 2887739600 -1.00000000
4.09617853 -5.24286985 1.78274560 56 15 14200 6.88800000 2887739602 2887739602 15.00000000
