# .PCD v0.7 - Point Cloud Data file format
VERSION 0.7
FIELDS x y z intensity laser_id azimuth distance_m adjustedtime timestamp vertical_angle
SIZE 4 4 4 1 1 2 8 8 4 8
TYPE F F F U U U F U U F
COUNT 1 1 1 1 1 1 1 1 1 1
WIDTH 526
HEIGHT 1
VIEWPOINT 0 0 0 1 0 0 0
POINTS 526
DATA ascii
-1.94721675 0.01869251 -0.52177918 5 0 27055 2.01600000 2887175105 2887175105 -15.00000000
-2.24094033 0.02229445 -0.51738745 4 2 27057 2.30000000 2887175110 2887175110 -13.00000000
-2.60903144 0.02641189 -0.50717032 3 4 27058 2.65800000 2887175115 2887175115 -11.00000000
-3.16437984 0.03313852 -0.50121605 3 6 27060 3.20400000 2887175119 2887175119 -9.00000000
-3.93422270 0.04257405 -0.48309007 5 8 27062 3.96400000 2887175124 2887175124 -7.00000000
-5.18786860 0.05704589 -0.45390710 6 10 27063 5.20800000 2887175128 2887175128 -5.00000000
-7.64102125 0.08668835 -0.40047473 16 12 27065 7.65200000 2887175133 2887175133 -3.00000000
-10.15311813 0.11873299 2.72070575 42 15 27067 10.51200000 2887175140 2887175140 15.00000000
-1.93941283 0.02538831 -0.51970863 5 0 27075 2.00800000 2887175161 2887175161 -15.00000000
-2.24474597 0.03016904 -0.51828724 4 2 27077 2.30400000 2887175165 2887175165 -13.00000000
-2.62070179 0.03567931 -0.50946003 3 4 27078 2.67000000 2887175170 2887175170 -11.00000000
-3.15634418 0.04407374 -0.49996457 3 6 27080 3.19600000 2887175174 2887175174 -9.00000000
-3.93801975 0.05636360 -0.48357755 5 8 27082 3.96800000 2887175179 2887175179 -7.00000000
-5.16373158 0.07480825 -0.45181537 6 10 27083 5.18400000 2887175184 2887175184 -5.00000000
-7.65864563 0.11362663 -0.40141678 16 12 27085 7.67000000 2887175188 2887175188 -3.00000000
-10.13909340 0.15573753 2.71708226 45 15 27088 10.49800000 2887175195 2887175195 15.00000000
-1.94318128 0.03188287 -0.52074391 4 0 27094 2.01200000 2887175216 2887175216 -15.00000000
-2.23294282 0.03741682 -0.51558781 4 2 27096 2.29200000 2887175221 2887175221 -13.00000000
-2.61860609 0.04433643 -0.50907838 3 4 27097 2.66800000 2887175225 2887175225 -11.00000000
-3.15618062 0.05454032 -0.49996457 3 6 27099 3.19600000 2887175230 2887175230 -9.00000000
-3.94575047 0.06956220 -0.48455250 5 8 27101 3.97600000 2887175234 2887175234 -7.00000000
-5.16743898 0.09200232 -0.45216399 6 10 27102 5.18800000 2887175239 2887175239 -5.00000000
-7.64624500 0.13880548 -0.40078875 12 12 27104 7.65800000 2887175244 2887175244 -3.00000000
-10.13855362 0.18758962 2.71708226 45 15 27106 10.49800000 2887175251 2887175251 15.00000000
-1.95078397 0.03881939 -0.52281445 5 0 27114 2.02000000 2887175271 2887175271 -15.00000000
-2.23669529 0.04528992 -0.51648760 4 2 27116 2.29600000 2887175276 2887175276 -13.00000000
-2.61647248 0.05343672 -0.50869679 3 4 27117 2.66600000 2887175280 2887175280 -11.00000000
-3.15597105 0.06555711 -0.49996457 3 6 27119 3.19600000 2887175285 2887175285 -9.00000000
-3.94151425 0.08325118 -0.48406503 5 8 27121 3.97200000 2887175290 2887175290 -7.00000000
-5.19298172 0.11059096 -0.45443004 9 10 27122 5.21400000 2887175294 2887175294 -5.00000000
-7.63173676 0.16519247 -0.40005606 12 12 27124 7.64400000 2887175299 2887175299 -3.00000000
-10.15131760 0.22504774 2.72070575 42 15 27127 10.51200000 2887175306 2887175306 15.00000000
-1.95643055 0.04576419 -0.52436739 5 0 27134 2.02600000 2887175327 2887175327 -15.00000000
-2.23067880 0.05295841 -0.51513791 4 2 27136 2.29000000 2887175331 2887175331 -13.00000000
-2.61627007 0.06256958 -0.50869679 3 4 27137 2.66600000 2887175336 2887175336 -11.00000000
-3.16362214 0.07676478 -0.50121605 3 6 27139 3.20400000 2887175340 2887175340 -9.00000000
-3.94516850 0.09710682 -0.48455250 7 8 27141 3.97600000 2887175345 2887175345 -7.00000000
-5.18858051 0.12861843 -0.45408142 9 10 27142 5.21000000 2887175350 2887175350 -5.00000000
-7.62712002 0.19173081 -0.39984670 12 12 27144 7.64000000 2887175354 2887175354 -3.00000000
-10.15244675 0.25875869 2.72122335 45 15 27146 10.51400000 2887175361 2887175361 15.00000000
-1.94660306 0.05233354 -0.52177918 4 0 27154 2.01600000 2887175382 2887175382 -15.00000000
-2.23827243 0.06095681 -0.51693749 4 2 27156 2.29800000 2887175386 2887175386 -13.00000000
-2.61211061 0.07159411 -0.50793356 3 4 27157 2.66200000 2887175391 2887175391 -11.00000000
-3.15938568 0.08769779 -0.50059026 3 6 27159 3.20000000 2887175396 2887175396 -9.00000000
-3.94083691 0.11076589 -0.48406503 7 8 27161 3.97200000 2887175400 2887175400 -7.00000000
-5.19208288 0.14684182 -0.45443004 9 10 27162 5.21400000 2887175405 2887175405 -5.00000000
-7.64836550 0.21898203 -0.40099809 12 12 27164 7.66200000 2887175409 2887175409 -3.00000000
-10.13405132 0.29546085 2.71656466 42 15 27167 10.49600000 2887175416 2887175416 15.00000000
-1.94253635 0.05934985 -0.52074391 5 0 27175 2.01200000 2887175437 2887175437 -15.00000000
-2.24387741 0.06934066 -0.51828724 4 2 27177 2.30400000 2887175442 2887175442 -13.00000000
-2.61575532 0.08128946 -0.50869679 3 4 27178 2.66600000 2887175446 2887175446 -11.00000000
-3.16299200 0.09940103 -0.50121605 3 6 27180 3.20400000 2887175451 2887175451 -9.00000000
-3.95230913 0.12558731 -0.48552746 7 8 27182 3.98400000 2887175456 2887175456 -7.00000000
-5.15964794 0.16485277 -0.45164105 9 10 27183 5.18200000 2887175460 2887175460 -5.00000000
-7.65749216 0.24733560 -0.40152144 12 12 27185 7.67200000 2887175465 2887175465 -3.00000000
-10.13875103 0.33102262 2.71811771 42 15 27187 10.50200000 2887175472 2887175472 15.00000000
-1.93459439 0.06586727 -0.51867336 4 0 27195 2.00400000 2887175492 2887175492 -15.00000000
-2.23972654 0.07703885 -0.51738745 4 2 27197 2.30000000 2887175497 2887175497 -13.00000000
-2.62722802 0.09082665 -0.51098651 3 4 27198 2.67800000 2887175502 2887175502 -11.00000000
-3.14683223 0.10988981 -0.49871308 3 6 27200 3.18800000 2887175506 2887175506 -9.00000000
-3.95184660 0.13938268 -0.48552746 7 8 27202 3.98400000 2887175511 2887175511 -7.00000000
-5.18293476 0.18370920 -0.45373279 6 10 27203 5.20600000 2887175515 2887175515 -5.00000000
-7.65658236 0.27406374 -0.40152144 12 12 27205 7.67200000 2887175520 2887175520 -3.00000000
-10.14519119 0.36846122 2.72018814 47 15 27208 10.51000000 2887175527 2887175527 15.00000000
-1.95173991 0.07293149 -0.52333212 4 0 27214 2.02200000 2887175548 2887175548 -15.00000000
-2.22582722 0.08395149 -0.51423812 4 2 27216 2.28600000 2887175552 2887175552 -13.00000000
-2.63083601 0.09968702 -0.51174974 3 4 27217 2.68200000 2887175557 2887175557 -11.00000000
-3.15039849 0.12047544 -0.49933881 3 6 27219 3.19200000 2887175562 2887175562 -9.00000000
-3.95334625 0.15256326 -0.48577121 7 8 27221 3.98600000 2887175566 2887175566 -7.00000000
-5.19026089 0.20120415 -0.45443004 6 10 27222 5.21400000 2887175571 2887175571 -5.00000000
-7.64565277 0.29906204 -0.40099809 16 12 27224 7.66200000 2887175575 2887175575 -3.00000000
-10.14398384 0.40033141 2.72018814 45 15 27226 10.51000000 2887175582 2887175582 15.00000000
-1.95726407 0.07998051 -0.52488500 4 0 27234 2.02800000 2887175603 2887175603 -15.00000000
-2.23720336 0.09220204 -0.51693749 4 2 27236 2.29800000 2887175608 2887175608 -13.00000000
-2.61870265 0.10838263 -0.50946003 3 4 27237 2.67000000 2887175612 2887175612 -11.00000000
-3.16574788 0.13213065 -0.50184178 3 6 27239 3.20800000 2887175617 2887175617 -9.00000000
-3.94683957 0.16611166 -0.48503998 7 8 27241 3.98000000 2887175621 2887175621 -7.00000000
-5.19748926 0.21965683 -0.45512730 6 10 27242 5.22200000 2887175626 2887175626 -5.00000000
-7.65054846 0.32600361 -0.40131211 16 12 27244 7.66800000 2887175631 2887175631 -3.00000000
-10.14051819 0.43742505 2.71967053 47 15 27247 10.50800000 2887175638 2887175638 15.00000000
-1.94346333 0.08621287 -0.52126157 4 0 27254 2.01400000 2887175658 2887175658 -15.00000000
-2.24270821 0.10027190 -0.51828724 4 2 27256 2.30400000 2887175663 2887175663 -13.00000000
-2.61438584 0.11734689 -0.50869679 3 4 27257 2.66600000 2887175668 2887175668 -11.00000000
-3.17316103 0.14353743 -0.50309324 3 6 27259 3.21600000 2887175672 2887175672 -9.00000000
-3.95416784 0.18024927 -0.48601493 7 8 27261 3.98800000 2887175677 2887175677 -7.00000000
-5.19271040 0.23761596 -0.45477867 6 10 27262 5.21800000 2887175681 2887175681 -5.00000000
-7.65534925 0.35298303 -0.40162614 28 12 27264 7.67400000 2887175686 2887175686 -3.00000000
-10.13708210 0.47096014 2.71915293 45 15 27266 10.50600000 2887175693 2887175693 15.00000000
-1.93929124 0.09281159 -0.52022630 4 0 27274 2.01000000 2887175714 2887175714 -15.00000000
-2.25013041 0.10847515 -0.52008682 4 2 27276 2.31200000 2887175718 2887175718 -13.00000000
-2.61396027 0.12647209 -0.50869679 3 4 27277 2.66600000 2887175723 2887175723 -11.00000000
-3.16080236 0.15403605 -0.50121605 3 6 27279 3.20400000 2887175727 2887175727 -9.00000000
-3.95351458 0.19405080 -0.48601493 5 8 27281 3.98800000 2887175732 2887175732 -7.00000000
-5.19184923 0.25574043 -0.45477867 6 10 27282 5.21800000 2887175737 2887175737 -5.00000000
-7.66005516 0.37999991 -0.40194014 24 12 27284 7.68000000 2887175741 2887175741 -3.00000000
-10.12765884 0.50595671 2.71708226 47 15 27286 10.49800000 2887175748 2887175748 15.00000000
-1.95246065 0.10027401 -0.52384973 4 0 27294 2.02400000 2887175769 2887175769 -15.00000000
-2.23806119 0.11572512 -0.51738745 4 2 27296 2.30000000 2887175774 2887175774 -13.00000000
-2.61742401 0.13579918 -0.50946003 3 4 27297 2.67000000 2887175778 2887175778 -11.00000000
-3.14840937 0.16445014 -0.49933881 3 6 27299 3.19200000 2887175783 2887175783 -9.00000000
-3.96867204 0.20868386 -0.48796484 6 8 27301 4.00400000 2887175787 2887175787 -7.00000000
-5.18694544 0.27365190 -0.45443004 6 10 27302 5.21400000 2887175792 2887175792 -5.00000000
-7.65070438 0.40631250 -0.40152144 28 12 27304 7.67200000 2887175797 2887175797 -3.00000000
-10.12968922 0.54151201 2.71811771 45 15 27306 10.50200000 2887175803 2887175803 15.00000000
-1.95402765 0.10719458 -0.52436739 4 0 27314 2.02600000 2887175824 2887175824 -15.00000000
-2.22013164 0.12256990 -0.51333833 4 2 27316 2.28200000 2887175829 2887175829 -13.00000000
-2.62477517 0.14536913 -0.51098651 3 4 27317 2.67800000 2887175833 2887175833 -11.00000000
-3.15964985 0.17609867 -0.50121605 3 6 27319 3.20400000 2887175838 2887175838 -9.00000000
-3.95602751 0.22186890 -0.48650241 5 8 27321 3.99200000 2887175843 2887175843 -7.00000000
-5.18396950 0.29164413 -0.45425573 6 10 27322 5.21200000 2887175847 2887175847 -5.00000000
-7.64325714 0.43267730 -0.40120745 28 12 27324 7.66600000 2887175852 2887175852 -3.00000000
-10.12763691 0.57863557 2.71811771 45 15 27327 10.50200000 2887175859 2887175859 15.00000000
-1.96135592 0.11446496 -0.52643794 4 0 27334 2.03400000 2887175880 2887175880 -15.00000000
-2.23330808 0.13111836 -0.51648760 4 2 27336 2.29600000 2887175884 2887175884 -13.00000000
-2.61249256 0.15383798 -0.50869679 3 4 27337 2.66600000 2887175889 2887175889 -11.00000000
-3.15901589 0.18712685 -0.50121605 3 6 27339 3.20400000 2887175893 2887175893 -9.00000000
-3.95522904 0.23567666 -0.48650241 5 8 27341 3.99200000 2887175898 2887175898 -7.00000000
-5.20479727 0.31104520 -0.45617315 6 10 27342 5.23400000 2887175903 2887175903 -5.00000000
-7.65366220 0.46007368 -0.40183547 36 12 27344 7.67800000 2887175907 2887175907 -3.00000000
-10.12373352 0.61210024 2.71759987 42 15 27346 10.50000000 2887175914 2887175914 15.00000000
-1.94359088 0.12023713 -0.52177918 4 0 27354 2.01600000 2887175935 2887175935 -15.00000000
-2.24645162 0.13976030 -0.51963693 4 2 27356 2.31000000 2887175939 2887175939 -13.00000000
-2.61193967 0.16295634 -0.50869679 3 4 27357 2.66600000 2887175944 2887175944 -11.00000000
-3.16228652 0.19840011 -0.50184178 3 6 27359 3.20800000 2887175949 2887175949 -9.00000000
-3.96626902 0.25023150 -0.48796484 6 8 27361 4.00400000 2887175953 2887175953 -7.00000000
-5.19572592 0.32870823 -0.45547593 6 10 27362 5.22600000 2887175958 2887175958 -5.00000000
-7.65998268 0.48729432 -0.40225416 28 12 27364 7.68600000 2887175962 2887175962 -3.00000000
-10.12346363 0.64755827 2.71811771 45 15 27366 10.50200000 2887175969 2887175969 15.00000000
-1.93352067 0.12639073 -0.51919103 4 0 27374 2.00600000 2887175990 2887175990 -15.00000000
-2.24983907 0.14785661 -0.52053672 4 2 27376 2.31400000 2887175995 2887175995 -13.00000000
-2.62310886 0.17284724 -0.51098651 3 4 27377 2.67800000 2887175999 2887175999 -11.00000000
-3.14580631 0.20839275 -0.49933881 3 6 27379 3.19200000 2887176004 2887176004 -9.00000000
-3.97527504 0.26473436 -0.48918355 4 8 27381 4.01400000 2887176008 2887176008 -7.00000000
-5.20448685 0.34750640 -0.45634747 9 10 27382 5.23600000 2887176013 2887176013 -5.00000000
-7.65823507 0.51402968 -0.40225416 28 12 27384 7.68600000 2887176018 2887176018 -3.00000000
-10.11728668 0.68263167 2.71708226 45 15 27386 10.49800000 2887176025 2887176025 15.00000000
-1.94270408 0.13380291 -0.52177918 4 0 27394 2.01600000 2887176045 2887176045 -15.00000000
-2.24347711 0.15530537 -0.51918703 4 2 27396 2.30800000 2887176050 2887176050 -13.00000000
-2.62248969 0.18200254 -0.51098651 3 4 27397 2.67800000 2887176055 2887176055 -11.00000000
-3.15688324 0.22019711 -0.50121605 3 6 27399 3.20400000 2887176059 2887176059 -9.00000000
-3.97432661 0.27860904 -0.48918355 4 8 27401 4.01400000 2887176064 2887176064 -7.00000000
-5.19727945 0.36525229 -0.45582452 6 10 27402 5.23000000 2887176068 2887176068 -5.00000000
-7.64842463 0.54019594 -0.40183547 32 12 27404 7.67800000 2887176073 2887176073 -3.00000000
-10.10893536 0.71929747 2.71552944 42 15 27407 10.49200000 2887176080 2887176080 15.00000000
-1.94417655 0.14038354 -0.52229685 4 0 27413 2.01800000 2887176101 2887176101 -15.00000000
-2.22934413 0.16175698 -0.51603770 4 2 27415 2.29400000 2887176105 2887176105 -13.00000000
-2.62187171 0.19069803 -0.51098651 3 4 27416 2.67800000 2887176110 2887176110 -11.00000000
-3.14825511 0.23008856 -0.49996457 4 6 27418 3.19600000 2887176114 2887176114 -9.00000000
-3.96546197 0.29120532 -0.48820859 4 8 27420 4.00600000 2887176119 2887176119 -7.00000000
-5.20796204 0.38336268 -0.45687041 6 10 27421 5.24200000 2887176124 2887176124 -5.00000000
-7.64858294 0.56570339 -0.40194014 44 12 27423 7.68000000 2887176128 2887176128 -3.00000000
-10.12011147 0.75205421 2.71915293 45 15 27425 10.50600000 2887176135 2887176135 15.00000000
-1.94752741 0.14746085 -0.52333212 4 0 27433 2.02200000 2887176156 2887176156 -15.00000000
-2.23848176 0.17027690 -0.51828724 4 2 27435 2.30400000 2887176160 2887176160 -13.00000000
-2.62902021 0.20044592 -0.51251298 3 4 27436 2.68600000 2887176165 2887176165 -11.00000000
-3.16318965 0.24228351 -0.50246751 3 6 27438 3.21200000 2887176170 2887176170 -9.00000000
-3.96244192 0.30489329 -0.48796484 6 8 27440 4.00400000 2887176174 2887176174 -7.00000000
-5.21652460 0.40230554 -0.45774198 6 10 27441 5.25200000 2887176179 2887176179 -5.00000000
-7.64257908 0.59208995 -0.40173081 40 12 27443 7.67600000 2887176184 2887176184 -3.00000000
-10.12512875 0.78797495 2.72122335 45 15 27445 10.51400000 2887176190 2887176190 15.00000000
-1.94697380 0.15459789 -0.52333212 4 0 27454 2.02200000 2887176211 2887176211 -15.00000000
-2.24755549 0.17925486 -0.52053672 4 2 27456 2.31400000 2887176216 2887176216 -13.00000000
-2.62044001 0.20945472 -0.51098651 3 4 27457 2.67800000 2887176220 2887176220 -11.00000000
-3.15834236 0.25355941 -0.50184178 3 6 27459 3.20800000 2887176225 2887176225 -9.00000000
-3.95536184 0.31893569 -0.48723364 3 8 27461 3.99800000 2887176230 2887176230 -7.00000000
-5.19714165 0.41997802 -0.45617315 6 10 27462 5.23400000 2887176234 2887176234 -5.00000000
-7.64632988 0.62058210 -0.40204480 16 12 27464 7.68200000 2887176239 2887176239 -3.00000000
-10.11625195 0.82637489 2.71967053 47 15 27467 10.50800000 2887176246 2887176246 15.00000000
-1.93294561 0.16027570 -0.51970863 4 0 27474 2.00800000 2887176266 2887176266 -15.00000000
-2.24691606 0.18709919 -0.52053672 4 2 27476 2.31400000 2887176271 2887176271 -13.00000000
-2.61969280 0.21860048 -0.51098651 3 4 27477 2.67800000 2887176276 2887176276 -11.00000000
-3.15743804 0.26458251 -0.50184178 3 6 27479 3.20800000 2887176280 2887176280 -9.00000000
-3.95818067 0.33307344 -0.48772112 4 8 27481 4.00200000 2887176285 2887176285 -7.00000000
-5.19762945 0.43828428 -0.45634747 6 10 27482 5.23600000 2887176290 2887176290 -5.00000000
-7.65804815 0.64844859 -0.40277752 28 12 27484 7.69600000 2887176294 2887176294 -3.00000000
-10.10560703 0.86102617 2.71759987 47 15 27487 10.50000000 2887176301 2887176301 15.00000000
-1.94010234 0.16734879 -0.52177918 4 0 27493 2.01600000 2887176322 2887176322 -15.00000000
-2.23851728 0.19387661 -0.51873714 4 2 27495 2.30600000 2887176326 2887176326 -13.00000000
-2.61699772 0.22711675 -0.51060486 3 4 27496 2.67600000 2887176331 2887176331 -11.00000000
-3.15654325 0.27505150 -0.50184178 3 6 27498 3.20800000 2887176336 2887176336 -9.00000000
-3.97089720 0.34740847 -0.48942727 6 8 27500 4.01600000 2887176340 2887176340 -7.00000000
-5.20011663 0.45586583 -0.45669609 3 10 27501 5.24000000 2887176345 2887176345 -5.00000000
-7.64988708 0.67331469 -0.40246350 36 12 27503 7.69000000 2887176349 2887176349 -3.00000000
-10.10077095 0.89436245 2.71708226 45 15 27506 10.49800000 2887176356 2887176356 15.00000000
-1.94335449 0.17446546 -0.52281445 4 0 27513 2.02000000 2887176377 2887176377 -15.00000000
-2.22618175 0.20063975 -0.51603770 4 2 27515 2.29400000 2887176382 2887176382 -13.00000000
-2.61618900 0.23625039 -0.51060486 3 4 27516 2.67600000 2887176386 2887176386 -11.00000000
-5.58774328 0.50557464 0.49086115 8 5 27517 5.63200000 2887176389 2887176389 5.00000000
-3.15949845 0.28642493 -0.50246751 3 6 27518 3.21200000 2887176391 2887176391 -9.00000000
-3.95384502 0.35982808 -0.48747736 6 8 27520 4.00000000 2887176396 2887176396 -7.00000000
-5.21436691 0.47546223 -0.45809057 3 10 27521 5.25600000 2887176400 2887176400 -5.00000000
-7.63157845 0.69855720 -0.40162614 28 12 27523 7.67400000 2887176405 2887176405 -3.00000000
-7.60280848 0.69859993 -0.13326657 2 14 27525 7.63600000 2887176409 2887176409 -1.00000000
-10.10528278 0.93032366 2.71915293 47 15 27526 10.50600000 2887176412 2887176412 15.00000000
-1.96196866 0.18304251 -0.52799088 4 0 27533 2.04000000 2887176432 2887176432 -15.00000000
-7.08602810 0.66234082 0.12422623 3 1 27534 7.11800000 2887176435 2887176435 1.00000000
-2.22546768 0.20840935 -0.51603770 4 2 27535 2.29400000 2887176437 2887176437 -13.00000000
-2.63098574 0.24684830 -0.51365781 3 4 27536 2.69200000 2887176442 2887176442 -11.00000000
-5.56610775 0.52321178 0.48911804 8 5 27537 5.61200000 2887176444 2887176444 5.00000000
-3.15061283 0.29671103 -0.50121605 3 6 27538 3.20400000 2887176446 2887176446 -9.00000000
-3.95651746 0.37400100 -0.48796484 6 8 27540 4.00400000 2887176451 2887176451 -7.00000000
-5.23846149 0.49610287 -0.46035662 3 10 27541 5.28200000 2887176455 2887176455 -5.00000000
-7.12256622 0.67955238 -0.12488942 6 14 27545 7.15600000 2887176465 2887176465 -1.00000000
-10.11175823 0.96474630 2.72174096 47 15 27545 10.51600000 2887176467 2887176467 15.00000000
-1.94593489 0.18840061 -0.52384973 4 0 27553 2.02400000 2887176488 2887176488 -15.00000000
-2.23636436 0.21730725 -0.51873714 4 2 27555 2.30600000 2887176492 2887176492 -13.00000000
-2.60861373 0.25393829 -0.50946003 3 4 27556 2.67000000 2887176497 2887176497 -11.00000000
-5.55036688 0.54128426 0.48789784 11 5 27557 5.59800000 2887176499 2887176499 5.00000000
-3.16135406 0.30885938 -0.50309324 3 6 27558 3.21600000 2887176501 2887176501 -9.00000000
-3.95518780 0.38780954 -0.48796484 6 8 27560 4.00400000 2887176506 2887176506 -7.00000000
-5.20298958 0.51107442 -0.45739335 6 10 27561 5.24800000 2887176511 2887176511 -5.00000000
-7.29259491 0.71890044 -0.38404125 3 12 27563 7.33800000 2887176515 2887176515 -3.00000000
-6.46146679 0.63924575 -0.11333593 4 14 27565 6.49400000 2887176520 2887176520 -1.00000000
-10.10623169 1.00161076 2.72122335 47 15 27566 10.51400000 2887176522 2887176522 15.00000000
-1.94334316 0.19499916 -0.52333212 4 0 27573 2.02200000 2887176543 2887176543 -15.00000000
-5.80585384 0.58359516 0.10185225 5 1 27574 5.83600000 2887176545 2887176545 1.00000000
-2.24334788 0.22589326 -0.52053672 4 2 27575 2.31400000 2887176548 2887176548 -13.00000000
-6.17017841 0.62239212 0.32500628 2 3 27576 6.21000000 2887176550 2887176550 3.00000000
-2.61552477 0.26383063 -0.51098651 3 4 27576 2.67800000 2887176552 2887176552 -11.00000000
-5.52663803 0.55845201 0.48598042 11 5 27577 5.57600000 2887176554 2887176554 5.00000000
-3.16025662 0.31989267 -0.50309324 3 6 27578 3.21600000 2887176557 2887176557 -9.00000000
-3.95775986 0.40201458 -0.48845232 6 8 27580 4.00800000 2887176561 2887176561 -7.00000000
-5.19919157 0.52903140 -0.45721903 6 10 27581 5.24600000 2887176566 2887176566 -5.00000000
-7.27414560 0.74272901 -0.38320386 3 12 27583 7.32200000 2887176571 2887176571 -3.00000000
-6.20854664 0.63611555 -0.10893792 2 14 27585 6.24200000 2887176575 2887176575 -1.00000000
-10.06057549 1.03078687 2.70983529 42 15 27585 10.47000000 2887176578 2887176578 15.00000000
-1.94072914 0.20158193 -0.52281445 4 0 27593 2.02000000 2887176598 2887176598 -15.00000000
-5.52731609 0.57509285 0.09700047 2 1 27594 5.55800000 2887176601 2887176601 1.00000000
-2.23479271 0.23291460 -0.51873714 4 2 27595 2.30600000 2887176603 2887176603 -13.00000000
-5.72697306 0.59788710 0.30176914 4 3 27596 5.76600000 2887176605 2887176605 3.00000000
-2.61849332 0.27336663 -0.51174974 3 4 27596 2.68200000 2887176607 2887176607 -11.00000000
-5.52267361 0.57753295 0.48580611 11 5 27597 5.57400000 2887176610 2887176610 5.00000000
-3.14340377 0.32927570 -0.50059026 3 6 27598 3.20000000 2887176612 2887176612 -9.00000000
-3.95830655 0.41603479 -0.48869607 6 8 27600 4.01000000 2887176617 2887176617 -7.00000000
-4.88820887 0.51463401 -0.43002644 3 10 27601 4.93400000 2887176621 2887176621 -5.00000000
-5.12640381 0.54152071 -0.27015820 2 12 27603 5.16200000 2887176626 2887176626 -3.00000000
-5.11457014 0.54207605 -0.08977518 2 14 27605 5.14400000 2887176631 2887176631 -1.00000000
-10.07401943 1.06948924 2.71449423 47 15 27606 10.48800000 2887176633 2887176633 15.00000000
-1.94961774 0.20938656 -0.52540267 4 0 27613 2.03000000 2887176654 2887176654 -15.00000000
-5.15148878 0.55417311 0.09043837 9 1 27614 5.18200000 2887176656 2887176656 1.00000000
-2.22621608 0.23987897 -0.51693749 4 2 27615 2.29800000 2887176658 2887176658 -13.00000000
-5.39720631 0.58251208 0.28449824 4 3 27616 5.43600000 2887176660 2887176660 3.00000000
-2.62533069 0.28334787 -0.51327622 3 4 27616 2.69000000 2887176663 2887176663 -11.00000000
-5.51270056 0.59595060 0.48510885 31 5 27617 5.56600000 2887176665 2887176665 5.00000000
-3.16187406 0.34237278 -0.50371897 3 6 27618 3.22000000 2887176667 2887176667 -9.00000000
-3.96077728 0.43027809 -0.48918355 4 8 27620 4.01400000 2887176672 2887176672 -7.00000000
-4.77546358 0.51962465 -0.42026499 5 10 27621 4.82200000 2887176677 2887176677 -5.00000000
-4.88622665 0.53340280 -0.25759757 2 12 27623 4.92200000 2887176681 2887176681 -3.00000000
-4.93771982 0.54076827 -0.08670355 2 14 27625 4.96800000 2887176686 2887176686 -1.00000000
-10.09154129 1.10520351 2.72018814 47 15 27625 10.51000000 2887176688 2887176688 15.00000000
-1.95271516 0.21661672 -0.52643794 4 0 27633 2.03400000 2887176709 2887176709 -15.00000000
-4.72023058 0.52445406 0.08289893 2 1 27634 4.75000000 2887176711 2887176711 1.00000000
-2.23698592 0.24894166 -0.51963693 4 2 27635 2.31000000 2887176713 2887176713 -13.00000000
-4.85919905 0.54161173 0.25623685 6 3 27636 4.89600000 2887176716 2887176716 3.00000000
-2.61261868 0.29120538 -0.51098651 3 4 27636 2.67800000 2887176718 2887176718 -11.00000000
-3.15673351 0.35296866 -0.50309324 3 6 27638 3.21600000 2887176723 2887176723 -9.00000000
-3.94544220 0.44255224 -0.48747736 4 8 27640 4.00000000 2887176727 2887176727 -7.00000000
-4.75184107 0.53384423 -0.41834757 5 10 27641 4.80000000 2887176732 2887176732 -5.00000000
-4.62632418 0.52137840 -0.24399023 2 12 27643 4.66200000 2887176736 2887176736 -3.00000000
-4.61588907 0.52183408 -0.08108388 1 14 27645 4.64600000 2887176741 2887176741 -1.00000000
-10.08934212 1.14240074 2.72070575 47 15 27646 10.51200000 2887176743 2887176743 15.00000000
-1.93659258 0.22167407 -0.52229685 4 0 27653 2.01800000 2887176764 2887176764 -15.00000000
-4.58724976 0.52589548 0.08059521 8 1 27654 4.61800000 2887176766 2887176766 1.00000000
-2.23223114 0.25630409 -0.51873714 4 2 27655 2.30600000 2887176769 2887176769 -13.00000000
-4.78187990 0.54989958 0.25225931 6 3 27656 4.82000000 2887176771 2887176771 3.00000000
-2.61938787 0.30122051 -0.51251298 3 4 27656 2.68600000 2887176773 2887176773 -11.00000000
-3.15940690 0.36443830 -0.50371897 3 6 27658 3.22000000 2887176778 2887176778 -9.00000000
-3.94387317 0.45632172 -0.48747736 4 8 27660 4.00000000 2887176783 2887176783 -7.00000000
-4.73213673 0.54836386 -0.41677877 5 10 27661 4.78200000 2887176787 2887176787 -5.00000000
-4.61654043 0.53660172 -0.24357153 4 12 27663 4.65400000 2887176792 2887176792 -3.00000000
-4.54650688 0.53006989 -0.07989711 1 14 27665 4.57800000 2887176796 2887176796 -1.00000000
-10.07974148 1.17518079 2.71915293 42 15 27665 10.50600000 2887176799 2887176799 15.00000000
-1.93964398 0.22888547 -0.52333212 4 0 27673 2.02200000 2887176819 2887176819 -15.00000000
-4.55361223 0.53814965 0.08003674 8 1 27674 4.58600000 2887176822 2887176822 1.00000000
-2.24680471 0.26592687 -0.52233636 4 2 27675 2.32200000 2887176824 2887176824 -13.00000000
-4.73233032 0.56094575 0.24974719 6 3 27676 4.77200000 2887176826 2887176826 3.00000000
-2.61052203 0.30943766 -0.51098651 3 4 27676 2.67800000 2887176829 2887176829 -11.00000000
-5.42701769 0.64425087 0.47813639 2 5 27677 5.48600000 2887176831 2887176831 5.00000000
-3.13849998 0.37313238 -0.50059026 3 6 27678 3.20000000 2887176833 2887176833 -9.00000000
-3.96196771 0.47243604 -0.48991477 4 8 27680 4.02000000 2887176838 2887176838 -7.00000000
-4.71041012 0.56251627 -0.41503564 8 10 27681 4.76200000 2887176842 2887176842 -5.00000000
-4.60472393 0.55152553 -0.24304818 4 12 27683 4.64400000 2887176847 2887176847 -3.00000000
-4.49102259 0.53949732 -0.07895469 5 14 27685 4.52400000 2887176852 2887176852 -1.00000000
-10.06002235 1.21027100 2.71501184 47 15 27686 10.49000000 2887176854 2887176854 15.00000000
-1.94266868 0.23612088 -0.52436739 4 0 27693 2.02600000 2887176875 2887176875 -15.00000000
-4.53781080 0.55235010 0.07979240 4 1 27694 4.57200000 2887176877 2887176877 1.00000000
-2.23425627 0.27235323 -0.51963693 4 2 27695 2.31000000 2887176879 2887176879 -13.00000000
-4.68474483 0.57189476 0.24733973 4 3 27696 4.72600000 2887176882 2887176882 3.00000000
-2.61332345 0.31902400 -0.51174974 3 4 27696 2.68200000 2887176884 2887176884 -11.00000000
-5.30014277 0.64795893 0.46715477 2 5 27697 5.36000000 2887176886 2887176886 5.00000000
-3.16462851 0.38744625 -0.50497043 3 6 27698 3.22800000 2887176889 2887176889 -9.00000000
-3.96620536 0.48698878 -0.49064597 4 8 27700 4.02600000 2887176893 2887176893 -7.00000000
-4.71237278 0.57944155 -0.41538426 5 10 27701 4.76600000 2887176898 2887176898 -5.00000000
-4.58493042 0.56539571 -0.24210614 2 12 27703 4.62600000 2887176902 2887176902 -3.00000000
-4.47522020 0.55345261 -0.07871035 3 14 27705 4.51000000 2887176907 2887176907 -1.00000000
-10.06745720 1.24504721 2.71811771 47 15 27705 10.50200000 2887176909 2887176909 15.00000000
-1.94566655 0.24338019 -0.52540267 4 0 27713 2.03000000 2887176930 2887176930 -15.00000000
-4.49815559 0.56346416 0.07912921 4 1 27714 4.53400000 2887176932 2887176932 1.00000000
-2.23329210 0.28015059 -0.51963693 4 2 27715 2.31000000 2887176935 2887176935 -13.00000000
-4.63515949 0.58226955 0.24482760 2 3 27716 4.67800000 2887176937 2887176937 3.00000000
-2.61998582 0.32912305 -0.51327622 3 4 27716 2.69000000 2887176939 2887176939 -11.00000000
-5.24052143 0.65924430 0.46209976 5 5 27717 5.30200000 2887176942 2887176942 5.00000000
-3.15737724 0.39774984 -0.50403184 3 6 27718 3.22200000 2887176944 2887176944 -9.00000000
-3.96448112 0.50083047 -0.49064597 4 8 27720 4.02600000 2887176948 2887176948 -7.00000000
-4.71822834 0.59688747 -0.41608152 8 10 27721 4.77400000 2887176953 2887176953 -5.00000000
-4.47127724 0.56881833 -0.07867545 1 14 27725 4.50800000 2887176962 2887176962 -1.00000000
-10.05899334 1.28144968 2.71708226 45 15 27726 10.49800000 2887176965 2887176965 15.00000000
-1.94872463 0.24998309 -0.52643794 4 0 27731 2.03400000 2887176985 2887176985 -15.00000000
-4.42496061 0.56842059 0.07787263 4 1 27732 4.46200000 2887176988 2887176988 1.00000000
-2.23626637 0.28766254 -0.52053672 4 2 27733 2.31400000 2887176990 2887176990 -13.00000000
-4.53228188 0.58381504 0.23948933 1 3 27734 4.57600000 2887176992 2887176992 3.00000000
-2.61504459 0.33685070 -0.51251298 3 4 27734 2.68600000 2887176995 2887176995 -11.00000000
-5.20088005 0.67086172 0.45878783 7 5 27735 5.26400000 2887176997 2887176997 5.00000000
-3.16590762 0.40893230 -0.50559622 3 6 27736 3.23200000 2887176999 2887176999 -9.00000000
-6.32737732 0.81841415 0.78337616 2 7 27737 6.42800000 2887177001 2887177001 7.00000000
-3.93926454 0.51022291 -0.48772112 4 8 27738 4.00200000 2887177004 2887177004 -7.00000000
-4.71237803 0.61119473 -0.41573289 8 10 27739 4.77000000 2887177008 2887177008 -5.00000000
-4.36635733 0.56941569 -0.07686040 1 14 27743 4.40400000 2887177018 2887177018 -1.00000000
-10.05514717 1.31128967 2.71708226 45 15 27743 10.49800000 2887177020 2887177020 15.00000000
-1.94784009 0.25678387 -0.52643794 4 0 27751 2.03400000 2887177041 2887177041 -15.00000000
-4.38528204 0.57889074 0.07720944 3 1 27752 4.42400000 2887177043 2887177043 1.00000000
-2.23138475 0.29495606 -0.51963693 4 2 27753 2.31000000 2887177045 2887177045 -13.00000000
-4.47675705 0.59255606 0.23666319 1 3 27754 4.52200000 2887177048 2887177048 3.00000000
-2.60217524 0.34443116 -0.51022327 3 4 27754 2.67400000 2887177050 2887177050 -11.00000000
-5.14122820 0.68142039 0.45373279 7 5 27755 5.20600000 2887177052 2887177052 5.00000000
-3.15662813 0.41894135 -0.50434470 3 6 27756 3.22400000 2887177054 2887177054 -9.00000000
-5.64165831 0.74975157 0.69879884 2 7 27757 5.73400000 2887177057 2887177057 7.00000000
-3.94533038 0.52501786 -0.48869607 4 8 27758 4.01000000 2887177059 2887177059 -7.00000000
-4.72009039 0.62895608 -0.41660446 5 10 27759 4.78000000 2887177064 2887177064 -5.00000000
-4.31281090 0.57775038 -0.07595287 1 14 27763 4.35200000 2887177073 2887177073 -1.00000000
-10.04667950 1.34586763 2.71604705 45 15 27763 10.49400000 2887177075 2887177075 15.00000000
-1.93348551 0.26210478 -0.52281445 5 0 27772 2.02000000 2887177096 2887177096 -15.00000000
-4.34746361 0.59011823 0.07658116 3 1 27773 4.38800000 2887177098 2887177098 1.00000000
-2.23415089 0.30365744 -0.52053672 4 2 27774 2.31400000 2887177101 2887177101 -13.00000000
-4.44882774 0.60545886 0.23530246 3 3 27775 4.49600000 2887177103 2887177103 3.00000000
-2.61645794 0.35608429 -0.51327622 3 4 27775 2.69000000 2887177105 2887177105 -11.00000000
-5.08539438 0.69299585 0.44902638 10 5 27776 5.15200000 2887177107 2887177107 5.00000000
-3.16094303 0.43130934 -0.50528330 3 6 27777 3.23000000 2887177110 2887177110 -9.00000000
-5.59363556 0.76424366 0.69319284 2 7 27778 5.68800000 2887177112 2887177112 7.00000000
-3.95321345 0.54082000 -0.48991477 6 8 27779 4.02000000 2887177114 2887177114 -7.00000000
-4.70196199 0.64408869 -0.41520995 8 10 27780 4.76400000 2887177119 2887177119 -5.00000000
-4.26906347 0.58782554 -0.07521987 3 14 27784 4.31000000 2887177128 2887177128 -1.00000000
-10.03402424 1.38162744 2.71397662 42 15 27784 10.48600000 2887177130 2887177130 15.00000000
-1.94212592 0.27018327 -0.52540267 4 0 27792 2.03000000 2887177151 2887177151 -15.00000000
-4.30576563 0.59977245 0.07588306 5 1 27793 4.34800000 2887177154 2887177154 1.00000000
-2.23307729 0.31145421 -0.52053672 4 2 27794 2.31400000 2887177156 2887177156 -13.00000000
-4.41503811 0.61656469 0.23362771 5 3 27795 4.46400000 2887177158 2887177158 3.00000000
-2.60742140 0.36412913 -0.51174974 3 4 27795 2.68200000 2887177160 2887177160 -11.00000000
-5.06715870 0.70853567 0.44763190 10 5 27796 5.13600000 2887177163 2887177163 5.00000000
-3.15746188 0.44206655 -0.50497043 3 6 27797 3.22800000 2887177165 2887177165 -9.00000000
-5.59486580 0.78431565 0.69368029 2 7 27798 5.69200000 2887177167 2887177167 7.00000000
-3.96702814 0.55682343 -0.49186468 6 8 27799 4.03600000 2887177170 2887177170 -7.00000000
-4.71152306 0.66216141 -0.41625583 5 10 27800 4.77600000 2887177174 2887177174 -5.00000000
-4.41230392 0.62167954 -0.23352304 2 12 27802 4.46200000 2887177179 2887177179 -3.00000000
-4.24124527 0.59908783 -0.07476611 5 14 27804 4.28400000 2887177183 2887177183 -1.00000000
-10.03080559 1.41866529 2.71449423 47 15 27805 10.48800000 2887177186 2887177186 15.00000000
-1.94695687 0.27743968 -0.52695560 5 0 27811 2.03600000 2887177207 2887177207 -15.00000000
-4.25822115 0.60755122 0.07508025 5 1 27812 4.30200000 2887177209 2887177209 1.00000000
-2.23203206 0.31885767 -0.52053672 4 2 27813 2.31400000 2887177211 2887177211 -13.00000000
-4.35958672 0.62356657 0.23080157 5 3 27814 4.41000000 2887177213 2887177213 3.00000000
-2.61786032 0.37444153 -0.51403946 3 4 27814 2.69400000 2887177216 2887177216 -11.00000000
-5.03716946 0.72138077 0.44519153 10 5 27815 5.10800000 2887177218 2887177218 5.00000000
-3.15988946 0.45309541 -0.50559622 3 6 27816 3.23200000 2887177220 2887177220 -9.00000000
-5.60402346 0.80455714 0.69514275 2 7 27817 5.70400000 2887177223 2887177223 7.00000000
-3.93765140 0.56602126 -0.48845232 6 8 27818 4.00800000 2887177225 2887177225 -7.00000000
-4.72113371 0.67948467 -0.41730168 5 10 27819 4.78800000 2887177230 2887177230 -5.00000000
-4.32126236 0.62347335 -0.22881280 2 12 27821 4.37200000 2887177234 2887177234 -3.00000000
-4.23923492 0.61314905 -0.07476611 5 14 27823 4.28400000 2887177239 2887177239 -1.00000000
-10.03777027 1.45183015 2.71759987 47 15 27823 10.50000000 2887177241 2887177241 15.00000000
-1.94788814 0.28451335 -0.52747321 5 0 27831 2.03800000 2887177262 2887177262 -15.00000000
-4.23233080 0.61893916 0.07466140 5 1 27832 4.27800000 2887177264 2887177264 1.00000000
-2.21933651 0.32495302 -0.51783735 4 2 27833 2.30200000 2887177266 2887177266 -13.00000000
-4.30798006 0.63153815 0.22818477 5 3 27834 4.36000000 2887177269 2887177269 3.00000000
-2.61653733 0.38357729 -0.51403946 3 4 27834 2.69400000 2887177271 2887177271 -11.00000000
-5.02476454 0.73751271 0.44431996 10 5 27835 5.09800000 2887177273 2887177273 5.00000000
-3.14265347 0.46182510 -0.50309324 3 6 27836 3.21600000 2887177276 2887177276 -9.00000000
-5.58154154 0.82122433 0.69270533 2 7 27837 5.68400000 2887177278 2887177278 7.00000000
-3.94350719 0.58091998 -0.48942727 6 8 27838 4.01600000 2887177280 2887177280 -7.00000000
-4.72661734 0.69712323 -0.41799894 5 10 27839 4.79600000 2887177285 2887177285 -5.00000000
-4.29139900 0.63446403 -0.22734739 4 12 27841 4.34400000 2887177289 2887177289 -3.00000000
-4.20541954 0.62325245 -0.07420763 7 14 27843 4.25200000 2887177294 2887177294 -1.00000000
-10.04219627 1.48827577 2.72018814 47 15 27843 10.51000000 2887177296 2887177296 15.00000000
-1.93350899 0.28930986 -0.52384973 5 0 27851 2.02400000 2887177317 2887177317 -15.00000000
-4.22618914 0.63311648 0.07459158 7 1 27852 4.27400000 2887177319 2887177319 1.00000000
-2.23746037 0.33558849 -0.52233636 4 2 27853 2.32200000 2887177322 2887177322 -13.00000000
-4.29993629 0.64493173 0.22787075 5 3 27853 4.35400000 2887177324 2887177324 3.00000000
-2.61129951 0.39212528 -0.51327622 3 4 27854 2.69000000 2887177326 2887177326 -11.00000000
-4.99260569 0.75060469 0.44170532 9 5 27855 5.06800000 2887177329 2887177329 5.00000000
-3.15274239 0.47455633 -0.50497043 3 6 27856 3.22800000 2887177331 2887177331 -9.00000000
-5.59827042 0.84366071 0.69514275 2 7 27857 5.70400000 2887177333 2887177333 7.00000000
-3.94930696 0.59586650 -0.49040225 6 8 27858 4.02400000 2887177335 2887177335 -7.00000000
-4.81477690 0.72730702 -0.42601728 5 10 27859 4.88800000 2887177340 2887177340 -5.00000000
-4.28125906 0.64824390 -0.22692871 4 12 27861 4.33600000 2887177345 2887177345 -3.00000000
-4.18147087 0.63462764 -0.07382368 7 14 27863 4.23000000 2887177349 2887177349 -1.00000000
-10.02739048 1.52187109 2.71759987 47 15 27863 10.50000000 2887177352 2887177352 15.00000000
-1.93821609 0.29693496 -0.52540267 4 0 27871 2.03000000 2887177372 2887177372 -15.00000000
-4.20221090 0.64452994 0.07420763 7 1 27872 4.25200000 2887177375 2887177375 1.00000000
-2.23627543 0.34339663 -0.52233636 4 2 27873 2.32200000 2887177377 2887177377 -13.00000000
-4.28767347 0.65917003 0.22734739 7 3 27874 4.34400000 2887177379 2887177379 3.00000000
-2.61379576 0.40183467 -0.51403946 3 4 27874 2.69400000 2887177382 2887177382 -11.00000000
-4.96632481 0.76439053 0.43961358 9 5 27875 5.04400000 2887177384 2887177384 5.00000000
-3.14716220 0.48495689 -0.50434470 3 6 27876 3.22400000 2887177386 2887177386 -9.00000000
-5.59529114 0.86319721 0.69514275 2 7 27877 5.70400000 2887177388 2887177388 7.00000000
-3.95112658 0.61025453 -0.49088973 6 8 27878 4.02800000 2887177391 2887177391 -7.00000000
-5.21978951 0.80713332 -0.46209976 9 10 27879 5.30200000 2887177395 2887177395 -5.00000000
-4.25923347 0.66012537 -0.22588199 6 12 27881 4.31600000 2887177400 2887177400 -3.00000000
-4.16342211 0.64676416 -0.07354444 12 14 27883 4.21400000 2887177405 2887177405 -1.00000000
-10.01220036 1.55712867 2.71501184 47 15 27884 10.49000000 2887177407 2887177407 15.00000000
-1.93525922 0.30339956 -0.52488500 5 0 27891 2.02800000 2887177428 2887177428 -15.00000000
-4.19400930 0.65826428 0.07410292 7 1 27892 4.24600000 2887177430 2887177430 1.00000000
-2.23121285 0.35059562 -0.52143657 4 2 27893 2.31800000 2887177432 2887177432 -13.00000000
-4.29730225 0.67524499 0.22797543 18 3 27893 4.35600000 2887177435 2887177435 3.00000000
-2.61237717 0.41095605 -0.51403946 3 4 27894 2.69400000 2887177437 2887177437 -11.00000000
-4.94591331 0.77893192 0.43804476 9 5 27895 5.02600000 2887177439 2887177439 5.00000000
-3.14154744 0.49532425 -0.50371897 3 6 27896 3.22000000 2887177441 2887177441 -9.00000000
-5.59224415 0.88272315 0.69514275 2 7 27897 5.70400000 2887177444 2887177444 7.00000000
-3.94308996 0.62311327 -0.49015850 4 8 27898 4.02200000 2887177446 2887177446 -7.00000000
-5.22087622 0.82597148 -0.46244836 9 10 27899 5.30600000 2887177451 2887177451 -5.00000000
-4.23125887 0.67092264 -0.22452125 8 12 27901 4.29000000 2887177455 2887177455 -3.00000000
-4.15916395 0.66097945 -0.07350954 15 14 27903 4.21200000 2887177460 2887177460 -1.00000000
-10.00507450 1.59001851 2.71449423 42 15 27903 10.48800000 2887177462 2887177462 15.00000000
-1.93991089 0.31107065 -0.52643794 5 0 27911 2.03400000 2887177483 2887177483 -15.00000000
-4.18576241 0.67194921 0.07399821 7 1 27912 4.24000000 2887177485 2887177485 1.00000000
-2.22997546 0.35838187 -0.52143657 4 2 27913 2.31800000 2887177487 2887177487 -13.00000000
-4.27914333 0.68770599 0.22713806 9 3 27913 4.34000000 2887177490 2887177490 3.00000000
-2.61480331 0.42069617 -0.51480269 3 4 27914 2.69800000 2887177492 2887177492 -11.00000000
-4.92939472 0.79397380 0.43682459 9 5 27915 5.01200000 2887177494 2887177494 5.00000000
-3.14369988 0.50691622 -0.50434470 3 6 27916 3.22400000 2887177497 2887177497 -9.00000000
-3.94481015 0.63750678 -0.49064597 4 8 27918 4.02600000 2887177501 2887177501 -7.00000000
-5.22582865 0.84546357 -0.46314561 9 10 27919 5.31400000 2887177506 2887177506 -5.00000000
-4.19931841 0.68089336 -0.22295117 8 12 27921 4.26000000 2887177511 2887177511 -3.00000000
-4.15091038 0.67453134 -0.07340482 21 14 27923 4.20600000 2887177515 2887177515 -1.00000000
-10.00899696 1.62648237 2.71708226 47 15 27923 10.49800000 2887177517 2887177517 15.00000000
-1.93690681 0.31752777 -0.52592027 4 0 27931 2.03200000 2887177538 2887177538 -15.00000000
-4.18931150 0.68752772 0.07410292 7 1 27932 4.24600000 2887177540 2887177540 1.00000000
-2.22101903 0.36490002 -0.51963693 4 2 27933 2.31000000 2887177543 2887177543 -13.00000000
-4.26279879 0.70111620 0.22640535 7 3 27934 4.32600000 2887177545 2887177545 3.00000000
-2.60169554 0.42790926 -0.51251298 3 4 27934 2.68600000 2887177547 2887177547 -11.00000000
-4.92069578 0.81020468 0.43630165 9 5 27935 5.00600000 2887177550 2887177550 5.00000000
-3.14970756 0.51917177 -0.50559622 3 6 27936 3.23200000 2887177552 2887177552 -9.00000000
-5.58594513 0.92174256 0.69514275 2 7 27937 5.70400000 2887177554 2887177554 7.00000000
-3.93276811 0.64965522 -0.48942727 6 8 27938 4.01600000 2887177557 2887177557 -7.00000000
-5.24839926 0.86792582 -0.46541166 9 10 27939 5.34000000 2887177561 2887177561 -5.00000000
-4.20479774 0.69685376 -0.22336987 10 12 27941 4.26800000 2887177566 2887177566 -3.00000000
-4.13274908 0.68639553 -0.07312559 26 14 27943 4.19000000 2887177570 2887177570 -1.00000000
-9.99915695 1.66252255 2.71604705 47 15 27944 10.49400000 2887177573 2887177573 15.00000000
-1.92816544 0.32301021 -0.52384973 4 0 27951 2.02400000 2887177593 2887177593 -15.00000000
-4.19477463 0.70346987 0.07424254 7 1 27952 4.25400000 2887177596 2887177596 1.00000000
-2.21973181 0.37265059 -0.51963693 4 2 27953 2.31000000 2887177598 2887177598 -13.00000000
-4.28014708 0.71855503 0.22745207 9 3 27953 4.34600000 2887177600 2887177600 3.00000000
-2.60405827 0.43763903 -0.51327622 3 4 27954 2.69000000 2887177603 2887177603 -11.00000000
-4.90211916 0.82473177 0.43490717 9 5 27955 4.99000000 2887177605 2887177605 5.00000000
-3.15566778 0.53147542 -0.50684768 3 6 27956 3.24000000 2887177607 2887177607 -9.00000000
-3.94613576 0.66602212 -0.49137720 6 8 27958 4.03200000 2887177612 2887177612 -7.00000000
-5.22569227 0.88292158 -0.46366856 9 10 27959 5.32000000 2887177617 2887177617 -5.00000000
-4.19840145 0.71086019 -0.22316052 16 12 27961 4.26400000 2887177621 2887177621 -3.00000000
-4.12835646 0.70048285 -0.07309068 33 14 27963 4.18800000 2887177626 2887177626 -1.00000000
-9.97615147 1.69450450 2.71138835 42 15 27964 10.47600000 2887177628 2887177628 15.00000000
-1.93077683 0.33072743 -0.52488500 4 0 27972 2.02800000 2887177649 2887177649 -15.00000000
-4.20005178 0.72019160 0.07438216 5 1 27973 4.26200000 2887177651 2887177651 1.00000000
-2.22987485 0.38276193 -0.52233636 4 2 27974 2.32200000 2887177653 2887177653 -13.00000000
-4.28339005 0.73525143 0.22776608 11 3 27974 4.35200000 2887177656 2887177656 3.00000000
-2.61017632 0.44851032 -0.51480269 3 4 27975 2.69800000 2887177658 2887177658 -11.00000000
-4.87746429 0.83897811 0.43298972 9 5 27976 4.96800000 2887177660 2887177660 5.00000000
-3.14591169 0.54169714 -0.50559622 3 6 27977 3.23200000 2887177663 2887177663 -9.00000000
-3.95931768 0.68318129 -0.49332711 6 8 27979 4.04800000 2887177667 2887177667 -7.00000000
-5.21260452 0.90037316 -0.46279699 9 10 27980 5.31000000 2887177672 2887177672 -5.00000000
-4.20363951 0.72760588 -0.22357920 28 12 27982 4.27200000 2887177676 2887177676 -3.00000000
-4.11787987 0.71424234 -0.07295106 36 14 27984 4.18000000 2887177681 2887177681 -1.00000000
-9.96606731 1.73039663 2.71035314 42 15 27985 10.47200000 2887177683 2887177683 15.00000000
-1.92961061 0.33746508 -0.52488500 4 0 27992 2.02800000 2887177704 2887177704 -15.00000000
-4.19357300 0.73415846 0.07431234 5 1 27993 4.25800000 2887177706 2887177706 1.00000000
-2.23236418 0.39121607 -0.52323616 4 2 27994 2.32600000 2887177709 2887177709 -13.00000000
-4.27883053 0.74985397 0.22766142 9 3 27994 4.35000000 2887177711 2887177711 3.00000000
-2.61246228 0.45829728 -0.51556593 3 4 27995 2.70200000 2887177713 2887177713 -11.00000000
-4.87843084 0.85668772 0.43333834 9 5 27996 4.97200000 2887177716 2887177716 5.00000000
-3.11676407 0.54788709 -0.50121605 3 6 27997 3.20400000 2887177718 2887177718 -9.00000000
-3.93931365 0.69389838 -0.49113345 4 8 27999 4.03000000 2887177723 2887177723 -7.00000000
-5.23493767 0.92306072 -0.46506304 9 10 28000 5.33600000 2887177727 2887177727 -5.00000000
-4.17943954 0.73845232 -0.22242782 22 12 28002 4.25000000 2887177732 2887177732 -3.00000000
-4.11536169 0.72861207 -0.07295106 49 14 28004 4.18000000 2887177736 2887177736 -1.00000000
-9.96567345 1.76618552 2.71190596 45 15 28005 10.47800000 2887177739 2887177739 15.00000000
-1.93032265 0.34453806 -0.52540267 4 0 28012 2.03000000 2887177759 2887177759 -15.00000000
-4.17917347 0.74668205 0.07410292 5 1 28013 4.24600000 2887177762 2887177762 1.00000000
-4.10324764 0.73385561 -0.96234059 5 2 28014 4.27800000 2887177764 2887177764 -13.00000000
-4.27028847 0.76373047 0.22734739 7 3 28014 4.34400000 2887177766 2887177766 3.00000000
-2.61471176 0.46810561 -0.51632917 3 4 28015 2.70600000 2887177769 2887177769 -11.00000000
-4.87737179 0.87406290 0.43351266 9 5 28016 4.97400000 2887177771 2887177771 5.00000000
-3.14205337 0.56364638 -0.50559622 3 6 28017 3.23200000 2887177773 2887177773 -9.00000000
-3.94859028 0.70975208 -0.49259588 4 8 28019 4.04200000 2887177778 2887177778 -7.00000000
-5.23952723 0.94273973 -0.46576029 9 10 28020 5.34400000 2887177782 2887177782 -5.00000000
-4.16307735 0.75055617 -0.22169511 30 12 28022 4.23600000 2887177787 2887177787 -3.00000000
-4.12656832 0.74546134 -0.07319539 64 14 28024 4.19400000 2887177792 2887177792 -1.00000000
-9.95405769 1.79819286 2.71035314 42 15 28024 10.47200000 2887177794 2887177794 15.00000000
-1.94621360 0.35438880 -0.53006142 4 0 28032 2.04800000 2887177815 2887177815 -15.00000000
-4.18441057 0.76269984 0.07424254 5 1 28033 4.25400000 2887177817 2887177817 1.00000000
-4.10449505 0.74887365 -0.96324039 5 2 28034 4.28200000 2887177819 2887177819 -13.00000000
-4.25973749 0.77719796 0.22692871 9 3 28034 4.33600000 2887177822 2887177822 3.00000000
-2.59761143 0.47440806 -0.51327622 3 4 28035 2.69000000 2887177824 2887177824 -11.00000000
-4.86449146 0.88929129 0.43264112 9 5 28036 4.96400000 2887177826 2887177826 5.00000000
-3.14783907 0.57603306 -0.50684768 3 6 28037 3.24000000 2887177828 2887177828 -9.00000000
-3.93437338 0.72138286 -0.49113345 4 8 28039 4.03000000 2887177833 2887177833 -7.00000000
-5.24012375 0.96174270 -0.46610892 9 10 28040 5.34800000 2887177838 2887177838 -5.00000000
-4.16436052 0.76580590 -0.22190446 30 12 28042 4.24000000 2887177842 2887177842 -3.00000000
-9.76860809 1.79816270 2.29315114 5 13 28043 10.19400000 2887177845 2887177845 13.00000000
-4.10427523 0.75623769 -0.07284635 68 14 28044 4.17400000 2887177847 2887177847 -1.00000000
-9.95689964 1.83641624 2.71294117 42 15 28045 10.48200000 2887177849 2887177849 15.00000000
-1.93553054 0.35907879 -0.52747321 4 0 28051 2.03800000 2887177870 2887177870 -15.00000000
-4.19365501 0.77876228 0.07445197 5 1 28052 4.26600000 2887177872 2887177872 1.00000000
-4.10965300 0.76390511 -0.96504003 5 2 28053 4.29000000 2887177875 2887177875 -13.00000000
-4.25896215 0.79242784 0.22703338 5 3 28054 4.33800000 2887177877 2887177877 3.00000000
-2.59216356 0.48230121 -0.51251298 3 4 28054 2.68600000 2887177879 2887177879 -11.00000000
-4.84780502 0.90286410 0.43142092 9 5 28055 4.95000000 2887177881 2887177881 5.00000000
-3.14979553 0.58719254 -0.50747341 3 6 28056 3.24400000 2887177884 2887177884 -9.00000000
-7.12849474 1.33019865 0.89037740 2 7 28057 7.30600000 2887177886 2887177886 7.00000000
-3.91634893 0.73150992 -0.48918355 4 8 28058 4.01400000 2887177888 2887177888 -7.00000000
-5.22515488 0.97691733 -0.46506304 9 10 28059 5.33600000 2887177893 2887177893 -5.00000000
-4.16572428 0.78034669 -0.22211380 26 12 28061 4.24400000 2887177898 2887177898 -3.00000000
-4.08798695 0.76726162 -0.07260201 89 14 28063 4.16000000 2887177902 2887177902 -1.00000000
-9.94348621 1.86626220 2.71087074 45 15 28063 10.47400000 2887177905 2887177905 15.00000000
-1.92477429 0.36403781 -0.52488500 4 0 28071 2.02800000 2887177925 2887177925 -15.00000000
-4.18698168 0.79265219 0.07438216 5 1 28072 4.26200000 2887177928 2887177928 1.00000000
-4.11653471 0.78005987 -0.96728951 5 2 28073 4.30000000 2887177930 2887177930 -13.00000000
-4.25028324 0.80617297 0.22671936 5 3 28074 4.33200000 2887177932 2887177932 3.00000000
-2.59432197 0.49207830 -0.51327622 3 4 28074 2.69000000 2887177934 2887177934 -11.00000000
-4.83287907 0.91755080 0.43037507 9 5 28075 4.93800000 2887177937 2887177937 5.00000000
