# .PCD v0.7 - Point Cloud Data file format
VERSION 0.7
FIELDS x y z intensity laser_id azimuth distance_m adjustedtime timestamp vertical_angle
SIZE 4 4 4 1 1 2 8 8 4 8
TYPE F F F U U U F U U F
COUNT 1 1 1 1 1 1 1 1 1 1
WIDTH 524
HEIGHT 1
VIEWPOINT 0 0 0 1 0 0 0
POINTS 524
DATA ascii
2.80690718 -5.50174236 1.20057023 40 11 15297 6.29200000 2887042530 2887042530 11.00000000
2.65129948 -5.19898081 -0.30585134 31 12 15298 5.84400000 2887042533 2887042533 -3.00000000
2.81699491 -5.52627897 1.43203843 46 13 15299 6.36600000 2887042535 2887042535 13.00000000
2.64908504 -5.19912195 -0.10185225 24 14 15300 5.83600000 2887042537 2887042537 -1.00000000
2.81179762 -5.51846361 1.65954769 36 15 15300 6.41200000 2887042540 2887042540 15.00000000
0.92099386 -1.81380868 -0.54507291 4 0 15308 2.10600000 2887042560 2887042560 -15.00000000
2.78300667 -5.48323393 0.10733230 8 1 15309 6.15000000 2887042563 2887042563 1.00000000
1.07035673 -2.10978842 -0.54618114 3 2 15310 2.42800000 2887042565 2887042565 -13.00000000
2.78944731 -5.50068045 0.32322687 7 3 15311 6.17600000 2887042567 2887042567 3.00000000
1.26620078 -2.49689794 -0.54418725 3 4 15311 2.85200000 2887042569 2887042569 -11.00000000
2.79069638 -5.50552559 0.54001701 9 5 15312 6.19600000 2887042572 2887042572 5.00000000
2.64806390 -5.22639990 -0.92796922 2 6 15313 5.93200000 2887042574 2887042574 -9.00000000
2.80187988 -5.53237581 0.76143968 7 7 15314 6.24800000 2887042576 2887042576 7.00000000
2.01192427 -3.97431135 -0.54694963 2 8 15315 4.48800000 2887042579 2887042579 -7.00000000
2.80764985 -5.54857349 0.98491138 40 9 15316 6.29600000 2887042581 2887042581 9.00000000
2.46930575 -4.87992620 -0.47848502 10 10 15316 5.49000000 2887042583 2887042583 -5.00000000
2.81161022 -5.55880833 1.21087384 40 11 15317 6.34600000 2887042586 2887042586 11.00000000
2.61331034 -5.16899109 -0.30354854 30 12 15318 5.80000000 2887042588 2887042588 -3.00000000
4.66896486 -9.23897266 2.38987994 34 13 15319 10.62400000 2887042590 2887042590 13.00000000
2.66337872 -5.27259398 -0.10310882 24 14 15320 5.90800000 2887042593 2887042593 -1.00000000
3.60219979 -7.13423729 2.14146876 13 15 15321 8.27400000 2887042595 2887042595 15.00000000
0.91433978 -1.81717205 -0.54507291 4 0 15329 2.10600000 2887042616 2887042616 -15.00000000
2.77906394 -5.52555370 0.10796059 8 1 15330 6.18600000 2887042618 2887042618 1.00000000
1.05911553 -2.10673285 -0.54438156 3 2 15331 2.42000000 2887042620 2887042620 -13.00000000
2.78092575 -5.53406715 0.32458761 2 3 15332 6.20200000 2887042622 2887042622 3.00000000
1.25175154 -2.49099684 -0.54189754 3 4 15332 2.84000000 2887042625 2887042625 -11.00000000
2.78212476 -5.53886223 0.54228306 9 5 15333 6.22200000 2887042627 2887042627 5.00000000
1.53159904 -3.05054927 -0.54063749 1 6 15334 3.45600000 2887042629 2887042629 -9.00000000
1.98488307 -3.95681763 -0.54353726 2 8 15336 4.46000000 2887042634 2887042634 -7.00000000
2.76128936 -5.50696373 -0.53897113 11 10 15337 6.18400000 2887042639 2887042639 -5.00000000
5.20945120 -10.39397049 2.25994182 37 11 15338 11.84400000 2887042641 2887042641 11.00000000
2.75179744 -5.49281788 -0.32197079 32 12 15339 6.15200000 2887042643 2887042643 -3.00000000
4.62547302 -9.23685551 2.38493109 45 13 15340 10.60200000 2887042646 2887042646 13.00000000
2.74965405 -5.49332714 -0.10722759 24 14 15341 6.14400000 2887042648 2887042648 -1.00000000
3.57295132 -7.13813019 2.13888049 18 15 15341 8.26400000 2887042650 2887042650 15.00000000
0.90971565 -1.82381010 -0.54610819 4 0 15349 2.11000000 2887042671 2887042671 -15.00000000
2.76689744 -5.54953766 0.10823982 5 1 15350 6.20200000 2887042673 2887042673 1.00000000
1.05870903 -2.12437010 -0.54798079 3 2 15351 2.43600000 2887042675 2887042675 -13.00000000
2.76960635 -5.55983019 0.32552963 10 3 15352 6.22000000 2887042678 2887042678 3.00000000
1.24304879 -2.49535108 -0.54189754 3 4 15352 2.84000000 2887042680 2887042680 -11.00000000
1.52182150 -3.05764556 -0.54095036 1 6 15354 3.45800000 2887042685 2887042685 -9.00000000
2.72501135 -5.47989035 -0.75144637 4 8 15356 6.16600000 2887042689 2887042689 -7.00000000
2.59217691 -5.21504879 -0.50951248 14 10 15357 5.84600000 2887042694 2887042694 -5.00000000
5.17750549 -10.42088223 2.26184988 37 11 15358 11.85400000 2887042696 2887042696 11.00000000
2.73793745 -5.51312304 -0.32259884 32 12 15359 6.16400000 2887042698 2887042698 -3.00000000
4.60533285 -9.27738285 2.39122963 48 13 15360 10.63000000 2887042701 2887042701 13.00000000
2.72157383 -5.48497868 -0.10687853 24 14 15361 6.12400000 2887042703 2887042703 -1.00000000
3.54075623 -7.13906336 2.13525701 13 15 15362 8.25000000 2887042705 2887042705 15.00000000
0.89681023 -1.81296420 -0.54196709 4 0 15368 2.09400000 2887042726 2887042726 -15.00000000
2.76088762 -5.58377790 0.10872849 8 1 15369 6.23000000 2887042728 2887042728 1.00000000
1.05511224 -2.13485742 -0.54978037 3 2 15370 2.44400000 2887042731 2887042731 -13.00000000
1.23650610 -2.50297976 -0.54266077 3 4 15371 2.84400000 2887042735 2887042735 -11.00000000
1.51254785 -3.06444669 -0.54126322 1 6 15373 3.46000000 2887042740 2887042740 -9.00000000
2.71472621 -5.50492001 -0.75364000 6 8 15375 6.18400000 2887042745 2887042745 -7.00000000
2.76073885 -5.60068846 -0.54629219 15 10 15376 6.26800000 2887042749 2887042749 -5.00000000
5.15159750 -10.45560551 2.26566601 37 11 15377 11.87400000 2887042751 2887042751 11.00000000
2.71611047 -5.51500511 -0.32218015 32 12 15378 6.15600000 2887042754 2887042754 -3.00000000
4.58659220 -9.31708050 2.39752841 47 13 15379 10.65800000 2887042756 2887042756 13.00000000
2.70160437 -5.49038506 -0.10680873 24 14 15380 6.12000000 2887042758 2887042758 -1.00000000
3.51234031 -7.13801813 2.13163376 11 15 15380 8.23600000 2887042761 2887042761 15.00000000
0.89557940 -1.82649088 -0.54507291 4 0 15388 2.10600000 2887042781 2887042781 -15.00000000
1.04250979 -2.12802720 -0.54708099 3 2 15390 2.43200000 2887042786 2887042786 -13.00000000
1.22603476 -2.50375438 -0.54189754 3 4 15391 2.84000000 2887042791 2887042791 -11.00000000
1.49489677 -3.05551243 -0.53876030 1 6 15393 3.44400000 2887042795 2887042795 -9.00000000
2.69723749 -5.51792955 -0.75412750 6 8 15395 6.18800000 2887042800 2887042800 -7.00000000
2.75341702 -5.63535309 -0.54873258 34 10 15396 6.29600000 2887042804 2887042804 -5.00000000
5.11851549 -10.48058033 2.26719260 28 11 15397 11.88200000 2887042807 2887042807 11.00000000
2.68457675 -5.49932480 -0.32071474 32 12 15398 6.12800000 2887042809 2887042809 -3.00000000
4.56429625 -9.35405064 2.40292716 50 13 15399 10.68200000 2887042811 2887042811 13.00000000
2.68066955 -5.49618721 -0.10673892 24 14 15400 6.11600000 2887042814 2887042814 -1.00000000
3.48446131 -7.14737034 2.13059831 9 15 15401 8.23200000 2887042816 2887042816 15.00000000
0.89257604 -1.83655608 -0.54714346 4 0 15408 2.11400000 2887042837 2887042837 -15.00000000
1.02996790 -2.12113523 -0.54438156 3 2 15410 2.42000000 2887042841 2887042841 -13.00000000
1.22071660 -2.51508355 -0.54342401 3 4 15411 2.84800000 2887042846 2887042846 -11.00000000
1.49111736 -3.07493138 -0.54126322 1 6 15413 3.46000000 2887042851 2887042851 -9.00000000
2.66930437 -5.50944662 -0.75169009 6 8 15415 6.16800000 2887042855 2887042855 -7.00000000
2.75109720 -5.68079329 -0.55221879 27 10 15416 6.33600000 2887042860 2887042860 -5.00000000
4.50279808 -9.30205154 2.00883698 12 11 15417 10.52800000 2887042862 2887042862 11.00000000
2.65840483 -5.49427938 -0.31987736 32 12 15418 6.11200000 2887042864 2887042864 -3.00000000
4.53925323 -9.38571548 2.40697622 51 13 15419 10.70000000 2887042867 2887042867 13.00000000
2.64754272 -5.47670507 -0.10618044 31 14 15420 6.08400000 2887042869 2887042869 -1.00000000
3.46074080 -7.15888596 2.13059831 9 15 15420 8.23200000 2887042871 2887042871 15.00000000
0.88699824 -1.84140098 -0.54766113 4 0 15428 2.11600000 2887042892 2887042892 -15.00000000
1.02593791 -2.13174152 -0.54618114 3 2 15430 2.42800000 2887042897 2887042897 -13.00000000
1.47780764 -3.07477641 -0.54032463 1 6 15433 3.45400000 2887042906 2887042906 -9.00000000
2.63115215 -5.47936201 -0.74632788 9 8 15435 6.12400000 2887042910 2887042910 -7.00000000
2.73642373 -5.70113897 -0.55326468 15 10 15436 6.34800000 2887042915 2887042915 -5.00000000
5.07239819 -10.57270145 2.27940416 25 11 15437 11.94600000 2887042917 2887042917 11.00000000
2.62193775 -5.46750784 -0.31778392 45 12 15438 6.07200000 2887042920 2887042920 -3.00000000
4.51235962 -9.41380405 2.41012549 54 13 15439 10.71400000 2887042922 2887042922 13.00000000
2.62236094 -5.47328949 -0.10593611 33 14 15440 6.07000000 2887042924 2887042924 -1.00000000
3.42696905 -7.15584087 2.12593961 6 15 15441 8.21400000 2887042927 2887042927 15.00000000
0.87973285 -1.84274256 -0.54714346 4 0 15448 2.11400000 2887042947 2887042947 -15.00000000
1.02184629 -2.14234519 -0.54798079 3 2 15450 2.43600000 2887042952 2887042952 -13.00000000
1.46791518 -3.08169961 -0.54063749 3 6 15453 3.45600000 2887042961 2887042961 -9.00000000
2.61712790 -5.49926805 -0.74779028 6 8 15455 6.13600000 2887042966 2887042966 -7.00000000
2.71821809 -5.71425486 -0.55361331 15 10 15456 6.35200000 2887042970 2887042970 -5.00000000
5.05232239 -10.62580395 2.28703666 34 11 15457 11.98600000 2887042973 2887042973 11.00000000
2.60883784 -5.48925400 -0.31851664 35 12 15458 6.08600000 2887042975 2887042975 -3.00000000
4.49786758 -9.46822262 2.42002344 51 13 15459 10.75800000 2887042977 2887042977 13.00000000
2.59809327 -5.47157192 -0.10572668 29 14 15460 6.05800000 2887042980 2887042980 -1.00000000
3.39907742 -7.15844011 2.12335134 6 15 15460 8.20400000 2887042982 2887042982 15.00000000
0.86668551 -1.83183205 -0.54300237 4 0 15468 2.09800000 2887043003 2887043003 -15.00000000
1.01269627 -2.14237547 -0.54708099 3 2 15470 2.43200000 2887043007 2887043007 -13.00000000
1.19263482 -2.52417850 -0.54266077 2 4 15471 2.84400000 2887043012 2887043012 -11.00000000
1.44871652 -3.06894135 -0.53750885 3 6 15473 3.43600000 2887043016 2887043016 -9.00000000
2.59452868 -5.50118828 -0.74681532 6 8 15475 6.12800000 2887043021 2887043021 -7.00000000
2.68890953 -5.70388412 -0.55169582 15 10 15476 6.33000000 2887043026 2887043026 -5.00000000
2.58625674 -5.49109936 -0.31809795 35 12 15478 6.07800000 2887043030 2887043030 -3.00000000
4.47309065 -9.50149632 2.42452240 50 13 15479 10.77800000 2887043033 2887043033 13.00000000
2.58153248 -5.48603535 -0.10583139 33 14 15480 6.06400000 2887043035 2887043035 -1.00000000
3.36502099 -7.15103388 2.11765742 6 15 15480 8.18200000 2887043037 2887043037 15.00000000
0.86274624 -1.84009361 -0.54455525 4 0 15488 2.10400000 2887043058 2887043058 -15.00000000
1.00190520 -2.13883853 -0.54528135 3 2 15490 2.42400000 2887043063 2887043063 -13.00000000
1.18048656 -2.52121425 -0.54113430 3 4 15491 2.83600000 2887043067 2887043067 -11.00000000
1.43046188 -3.05787611 -0.53469300 3 6 15493 3.41800000 2887043072 2887043072 -9.00000000
2.57362914 -5.50661469 -0.74632788 6 8 15495 6.12400000 2887043076 2887043076 -7.00000000
2.66560984 -5.70601511 -0.55099863 15 10 15496 6.32200000 2887043081 2887043081 -5.00000000
2.56538415 -5.49647427 -0.31788859 35 12 15498 6.07400000 2887043086 2887043086 -3.00000000
4.44978333 -9.53824520 2.42992139 47 13 15499 10.80200000 2887043088 2887043088 13.00000000
2.55645108 -5.48232698 -0.10558706 29 14 15500 6.05000000 2887043090 2887043090 -1.00000000
3.53843260 -7.58819342 2.24344349 6 15 15500 8.66800000 2887043092 2887043092 15.00000000
0.85794580 -1.84659791 -0.54559052 4 0 15508 2.10800000 2887043113 2887043113 -15.00000000
0.99279213 -2.13878751 -0.54438156 3 2 15510 2.42000000 2887043118 2887043118 -13.00000000
1.42310226 -3.07001948 -0.53594446 1 6 15513 3.42600000 2887043127 2887043127 -9.00000000
2.55272341 -5.51196194 -0.74584037 9 8 15515 6.12000000 2887043132 2887043132 -7.00000000
2.64232802 -5.70805264 -0.55030137 11 10 15516 6.31400000 2887043136 2887043136 -5.00000000
2.54199028 -5.49633169 -0.31736523 42 12 15518 6.06400000 2887043141 2887043141 -3.00000000
4.42300320 -9.56787014 2.43352056 46 13 15519 10.81800000 2887043143 2887043143 13.00000000
2.54316998 -5.50392437 -0.10583139 33 14 15520 6.06400000 2887043145 2887043145 -1.00000000
3.58106804 -7.75369501 2.28847790 29 15 15521 8.84200000 2887043148 2887043148 15.00000000
0.85311049 -1.85309112 -0.54662585 4 0 15528 2.11200000 2887043169 2887043169 -15.00000000
0.98206311 -2.13515830 -0.54258192 3 2 15530 2.41200000 2887043173 2887043173 -13.00000000
1.16449666 -2.53296161 -0.54189754 3 4 15531 2.84000000 2887043178 2887043178 -11.00000000
1.41567528 -3.08214855 -0.53719598 3 6 15533 3.43400000 2887043182 2887043182 -9.00000000
2.52849984 -5.51001406 -0.74437797 6 8 15535 6.10800000 2887043187 2887043187 -7.00000000
2.62404847 -5.72086334 -0.55065000 11 10 15536 6.31800000 2887043192 2887043192 -5.00000000
2.52195692 -5.50335550 -0.31726056 39 12 15538 6.06200000 2887043196 2887043196 -3.00000000
4.39444733 -9.59388161 2.43621993 48 13 15539 10.83000000 2887043198 2887043198 13.00000000
2.51978016 -5.50367689 -0.10565687 33 14 15540 6.05400000 2887043201 2887043201 -1.00000000
3.56016135 -7.77606678 2.29158378 31 15 15540 8.85400000 2887043203 2887043203 15.00000000
0.84423161 -1.85078490 -0.54507291 4 0 15548 2.10600000 2887043224 2887043224 -15.00000000
0.97622025 -2.14211988 -0.54348177 3 2 15550 2.41600000 2887043228 2887043228 -13.00000000
1.41718137 -3.11404061 -0.54188901 3 6 15553 3.46400000 2887043238 2887043238 -9.00000000
2.50925112 -5.51880646 -0.74437797 9 8 15555 6.10800000 2887043242 2887043242 -7.00000000
2.60406280 -5.72998810 -0.55065000 11 10 15556 6.31800000 2887043247 2887043247 -5.00000000
2.49942851 -5.50485086 -0.31684187 35 12 15558 6.05400000 2887043251 2887043251 -3.00000000
4.37059593 -9.63045692 2.44161868 50 13 15559 10.85400000 2887043254 2887043254 13.00000000
2.49477077 -5.49969149 -0.10541254 33 14 15560 6.04000000 2887043256 2887043256 -1.00000000
3.53299594 -7.78844643 2.29158378 31 15 15560 8.85400000 2887043258 2887043258 15.00000000
0.83602440 -1.84814751 -0.54351997 4 0 15566 2.10000000 2887043279 2887043279 -15.00000000
0.97430110 -2.15583110 -0.54618114 3 2 15568 2.42800000 2887043284 2887043284 -13.00000000
1.14120615 -2.52631569 -0.53884459 3 4 15569 2.82400000 2887043288 2887043288 -11.00000000
1.39439011 -3.08966947 -0.53688306 3 6 15571 3.43200000 2887043293 2887043293 -9.00000000
2.48863697 -5.51942348 -0.74340302 9 8 15573 6.10000000 2887043297 2887043297 -7.00000000
2.58031845 -5.72542572 -0.54942977 11 10 15574 6.30400000 2887043302 2887043302 -5.00000000
2.48540211 -5.51996088 -0.31726056 35 12 15576 6.06200000 2887043307 2887043307 -3.00000000
4.35071659 -9.66724205 2.44746757 51 13 15577 10.88000000 2887043309 2887043309 13.00000000
2.47748065 -5.50750208 -0.10541254 36 14 15578 6.04000000 2887043311 2887043311 -1.00000000
3.50534034 -7.79245996 2.28951335 31 15 15578 8.84600000 2887043314 2887043314 15.00000000
0.83272833 -1.85810614 -0.54559052 4 0 15586 2.10800000 2887043334 2887043334 -15.00000000
0.96517724 -2.15566158 -0.54528135 3 2 15588 2.42400000 2887043339 2887043339 -13.00000000
1.13719249 -2.54103589 -0.54113430 3 4 15589 2.83600000 2887043344 2887043344 -11.00000000
1.37634003 -3.07828784 -0.53406727 1 6 15591 3.41400000 2887043348 2887043348 -9.00000000
2.47259402 -5.53532696 -0.74437797 9 8 15593 6.10800000 2887043353 2887043353 -7.00000000
2.55625582 -5.72530127 -0.54855824 11 10 15594 6.29400000 2887043357 2887043357 -5.00000000
2.46449161 -5.52495480 -0.31705123 35 12 15596 6.05800000 2887043362 2887043362 -3.00000000
4.33043528 -9.71262741 2.45511580 51 13 15597 10.91400000 2887043364 2887043364 13.00000000
2.45986867 -5.51976967 -0.10548235 36 14 15598 6.04400000 2887043367 2887043367 -1.00000000
3.47832823 -7.80878496 2.29054856 33 15 15599 8.85000000 2887043369 2887043369 15.00000000
0.82937288 -1.86806428 -0.54766113 4 0 15606 2.11600000 2887043390 2887043390 -15.00000000
0.95448613 -2.15189219 -0.54348177 3 2 15608 2.41600000 2887043394 2887043394 -13.00000000
1.12672424 -2.54140019 -0.54037106 3 4 15609 2.83200000 2887043399 2887043399 -11.00000000
1.36878633 -3.09029794 -0.53531873 1 6 15611 3.42200000 2887043403 2887043403 -9.00000000
2.44763398 -5.53121710 -0.74267179 9 8 15613 6.09400000 2887043408 2887043408 -7.00000000
2.54592633 -5.75605488 -0.55065000 7 10 15614 6.31800000 2887043413 2887043413 -5.00000000
2.43711829 -5.51525545 -0.31600451 39 12 15616 6.03800000 2887043417 2887043417 -3.00000000
4.12959003 -9.34977150 2.35973644 57 13 15617 10.49000000 2887043420 2887043420 13.00000000
2.44058609 -5.52832222 -0.10548235 33 14 15618 6.04400000 2887043422 2887043422 -1.00000000
3.45709538 -7.83088017 2.29365444 31 15 15618 8.86200000 2887043424 2887043424 15.00000000
0.82595801 -1.87802148 -0.54973167 4 0 15626 2.12400000 2887043445 2887043445 -15.00000000
0.94461709 -2.14985847 -0.54213202 4 2 15628 2.41000000 2887043449 2887043449 -13.00000000
1.11784625 -2.54531789 -0.54037106 3 4 15629 2.83200000 2887043454 2887043454 -11.00000000
1.36830878 -3.11857295 -0.53938603 1 6 15631 3.44800000 2887043459 2887043459 -9.00000000
2.42273283 -5.52700043 -0.74096560 9 8 15633 6.08000000 2887043463 2887043463 -7.00000000
2.52341962 -5.75943184 -0.55012703 7 10 15634 6.31200000 2887043468 2887043468 -5.00000000
2.42105508 -5.53104734 -0.31642318 35 12 15636 6.04600000 2887043473 2887043473 -3.00000000
4.27424002 -9.76940250 2.46186423 55 13 15637 10.94400000 2887043475 2887043475 13.00000000
2.41806912 -5.52947950 -0.10534272 36 14 15638 6.03600000 2887043477 2887043477 -1.00000000
3.43128753 -7.84643984 2.29468966 33 15 15638 8.86600000 2887043479 2887043479 15.00000000
0.81322497 -1.86672449 -0.54559052 4 0 15646 2.10800000 2887043500 2887043500 -15.00000000
0.93866229 -2.15671635 -0.54303187 4 2 15648 2.41400000 2887043505 2887043505 -13.00000000
1.10738838 -2.54560375 -0.53960782 3 4 15649 2.82800000 2887043509 2887043509 -11.00000000
1.35820186 -3.12514210 -0.53969890 1 6 15651 3.45000000 2887043514 2887043514 -9.00000000
2.40658760 -5.54270744 -0.74194056 9 8 15653 6.08800000 2887043519 2887043519 -7.00000000
2.50092053 -5.76272202 -0.54960412 7 10 15654 6.30600000 2887043523 2887043523 -5.00000000
2.40014434 -5.53579998 -0.31621385 35 12 15656 6.04200000 2887043528 2887043528 -3.00000000
4.25328541 -9.81466007 2.46951270 54 13 15657 10.97800000 2887043530 2887043530 13.00000000
2.39159942 -5.52137184 -0.10502858 24 14 15658 6.01800000 2887043532 2887043532 -1.00000000
3.40327334 -7.86073637 2.29520726 38 15 15659 8.86800000 2887043535 2887043535 15.00000000
0.80364245 -1.86245668 -0.54351997 4 0 15666 2.10000000 2887043555 2887043555 -15.00000000
0.93344253 -2.16534853 -0.54438156 3 2 15668 2.42000000 2887043560 2887043560 -13.00000000
1.09694207 -2.54584765 -0.53884459 3 4 15669 2.82400000 2887043565 2887043565 -11.00000000
1.33791244 -3.10809112 -0.53594446 1 6 15671 3.42600000 2887043569 2887043569 -9.00000000
2.38487267 -5.54560328 -0.74120933 4 8 15673 6.08200000 2887043574 2887043574 -7.00000000
2.46662736 -5.73846865 -0.54646653 7 10 15674 6.27000000 2887043579 2887043579 -5.00000000
4.23052931 -9.85630798 2.47626114 55 13 15677 11.00800000 2887043585 2887043585 13.00000000
3.37048411 -7.86013985 2.29158378 33 15 15679 8.85400000 2887043590 2887043590 15.00000000
0.79746187 -1.86511135 -0.54351997 4 0 15685 2.10000000 2887043611 2887043611 -15.00000000
0.92778784 -2.17201614 -0.54528135 3 2 15687 2.42400000 2887043615 2887043615 -13.00000000
1.08695185 -2.54586029 -0.53808135 3 4 15688 2.82000000 2887043620 2887043620 -11.00000000
1.32449818 -3.10524273 -0.53469300 3 6 15690 3.41800000 2887043625 2887043625 -9.00000000
1.73380280 -4.06877899 -0.54304981 2 8 15692 4.45600000 2887043629 2887043629 -7.00000000
2.44836497 -5.74844980 -0.54664081 7 10 15693 6.27200000 2887043634 2887043634 -5.00000000
3.89590096 -9.15594387 -0.52147549 4 12 15695 9.96400000 2887043638 2887043638 -3.00000000
4.20392275 -9.88462925 2.47986031 46 13 15696 11.02400000 2887043641 2887043641 13.00000000
3.34968877 -7.88371944 2.29520726 36 15 15698 8.86800000 2887043645 2887043645 15.00000000
0.79395968 -1.87499940 -0.54559052 4 0 15705 2.10800000 2887043666 2887043666 -15.00000000
0.91564500 -2.16447282 -0.54258192 3 2 15707 2.41200000 2887043671 2887043671 -13.00000000
1.31903148 -3.12258482 -0.53688306 1 6 15710 3.43200000 2887043680 2887043680 -9.00000000
1.70878422 -4.04920149 -0.53963745 2 8 15712 4.42800000 2887043685 2887043685 -7.00000000
2.42596126 -5.75145388 -0.54611790 7 10 15713 6.26600000 2887043689 2887043689 -5.00000000
3.84995675 -9.13635826 -0.51959139 4 12 15715 9.92800000 2887043694 2887043694 -3.00000000
4.17771387 -9.91899872 2.48480940 46 13 15716 11.04600000 2887043696 2887043696 13.00000000
3.32364750 -7.89892530 2.29624248 38 15 15718 8.87200000 2887043701 2887043701 15.00000000
0.78600794 -1.87625241 -0.54507291 4 0 15727 2.10600000 2887043721 2887043721 -15.00000000
0.90582258 -2.16437745 -0.54168212 3 2 15729 2.40800000 2887043726 2887043726 -13.00000000
1.30779362 -3.12944913 -0.53719598 1 6 15732 3.43400000 2887043735 2887043735 -9.00000000
1.69169426 -4.05206919 -0.53915000 2 8 15734 4.42400000 2887043740 2887043740 -7.00000000
2.40385938 -5.76072645 -0.54611790 11 10 15735 6.26600000 2887043744 2887043744 -5.00000000
3.81484723 -9.15107346 -0.51959139 4 12 15737 9.92800000 2887043749 2887043749 -3.00000000
4.14559317 -9.94935799 2.48840857 50 13 15738 11.06200000 2887043751 2887043751 13.00000000
3.29764485 -7.91818762 2.29831314 36 15 15739 8.88000000 2887043756 2887043756 15.00000000
0.78241467 -1.88612235 -0.54714346 4 0 15747 2.11400000 2887043777 2887043777 -15.00000000
0.90050018 -2.17292690 -0.54303187 4 2 15749 2.41400000 2887043781 2887043781 -13.00000000
1.29912770 -3.13947105 -0.53813457 1 6 15752 3.44000000 2887043790 2887043790 -9.00000000
1.67450607 -4.05061150 -0.53817505 2 8 15754 4.41600000 2887043795 2887043795 -7.00000000
2.38449693 -5.77092409 -0.54629219 7 10 15755 6.26800000 2887043800 2887043800 -5.00000000
3.78059459 -9.15879536 -0.51927733 4 12 15757 9.92200000 2887043804 2887043804 -3.00000000
4.12347317 -9.99439240 2.49605680 51 13 15758 11.09600000 2887043807 2887043807 13.00000000
3.26860118 -7.93022108 2.29831314 36 15 15760 8.88000000 2887043811 2887043811 15.00000000
0.76840466 -1.86891699 -0.54144943 4 0 15765 2.09200000 2887043832 2887043832 -15.00000000
0.89737135 -2.18475842 -0.54528135 3 2 15767 2.42400000 2887043837 2887043837 -13.00000000
1.05577385 -2.57168531 -0.54037106 3 4 15768 2.83200000 2887043841 2887043841 -11.00000000
1.27876449 -3.11794996 -0.53375441 1 6 15770 3.41200000 2887043846 2887043846 -9.00000000
1.66177249 -4.05585194 -0.53817505 2 8 15772 4.41600000 2887043850 2887043850 -7.00000000
2.35049915 -5.73966742 -0.54263163 7 10 15773 6.22600000 2887043855 2887043855 -5.00000000
3.73440886 -9.12811089 -0.51686990 4 12 15775 9.87600000 2887043860 2887043860 -3.00000000
4.10606861 -10.04156876 2.50460505 51 13 15776 11.13400000 2887043862 2887043862 13.00000000
3.24359560 -7.93630743 2.29727793 36 15 15777 8.87600000 2887043867 2887043867 15.00000000
0.76478976 -1.87874496 -0.54351997 4 0 15785 2.10000000 2887043887 2887043887 -15.00000000
0.88827139 -2.18426704 -0.54438156 3 2 15787 2.42000000 2887043892 2887043892 -13.00000000
1.04826903 -2.57899237 -0.54113430 3 4 15788 2.83600000 2887043896 2887043896 -11.00000000
1.27010250 -3.12788534 -0.53469300 1 6 15790 3.41800000 2887043901 2887043901 -9.00000000
1.64909720 -4.06530714 -0.53866249 2 8 15792 4.42000000 2887043906 2887043906 -7.00000000
2.33344412 -5.75522280 -0.54332888 7 10 15793 6.23400000 2887043910 2887043910 -5.00000000
3.70102334 -9.13738823 -0.51666057 8 12 15795 9.87200000 2887043915 2887043915 -3.00000000
4.08122969 -10.08112907 2.51090360 50 13 15796 11.16200000 2887043917 2887043917 13.00000000
3.21955609 -7.96067905 2.30090141 38 15 15798 8.89000000 2887043922 2887043922 15.00000000
0.76111555 -1.88857043 -0.54559052 4 0 15805 2.10800000 2887043943 2887043943 -15.00000000
0.87627465 -2.17650795 -0.54168212 3 2 15807 2.40800000 2887043947 2887043947 -13.00000000
1.03486288 -2.57170796 -0.53884459 3 4 15808 2.82400000 2887043952 2887043952 -11.00000000
1.25475574 -3.12130284 -0.53281581 1 6 15810 3.40600000 2887043956 2887043956 -9.00000000
1.63637614 -4.07472277 -0.53915000 2 8 15812 4.42400000 2887043961 2887043961 -7.00000000
2.31037164 -5.75593710 -0.54263163 7 10 15813 6.22600000 2887043966 2887043966 -5.00000000
3.64903545 -9.10019970 -0.51383442 4 12 15815 9.81800000 2887043970 2887043970 -3.00000000
4.05326462 -10.11340332 2.51540279 50 13 15816 11.18200000 2887043973 2887043973 13.00000000
3.19673157 -7.98027849 2.30348945 36 15 15817 8.90000000 2887043977 2887043977 15.00000000
0.75595027 -1.89480436 -0.54662585 4 0 15825 2.11200000 2887043998 2887043998 -15.00000000
0.86867189 -2.17955351 -0.54168212 3 2 15827 2.40800000 2887044002 2887044002 -13.00000000
1.02587962 -2.57530451 -0.53884459 3 4 15828 2.82400000 2887044007 2887044007 -11.00000000
1.24896538 -3.13851142 -0.53500587 3 6 15830 3.42000000 2887044012 2887044012 -9.00000000
2.30130124 -5.79174042 -0.54524630 7 10 15833 6.25600000 2887044021 2887044021 -5.00000000
3.62461615 -9.13144588 -0.51488113 8 12 15835 9.83800000 2887044025 2887044025 -3.00000000
4.02656174 -10.14922619 2.52080154 47 13 15836 11.20600000 2887044028 2887044028 13.00000000
3.17030811 -7.99912500 2.30556011 38 15 15838 8.90800000 2887044032 2887044032 15.00000000
0.74507397 -1.88665068 -0.54351997 4 0 15845 2.10000000 2887044053 2887044053 -15.00000000
0.86391920 -2.18982363 -0.54348177 3 2 15847 2.41600000 2887044058 2887044058 -13.00000000
1.01832426 -2.58252263 -0.53960782 3 4 15848 2.82800000 2887044062 2887044062 -11.00000000
1.23727834 -3.14101410 -0.53469300 1 6 15850 3.41800000 2887044067 2887044067 -9.00000000
2.26575613 -5.76080132 -0.54158580 7 10 15853 6.21400000 2887044076 2887044076 -5.00000000
3.58614588 -9.12731171 -0.51393908 4 12 15855 9.82000000 2887044081 2887044081 -3.00000000
3.99965739 -10.18498707 2.52620029 45 13 15856 11.23000000 2887044083 2887044083 13.00000000
3.14235282 -8.00599766 2.30452466 38 15 15857 8.90400000 2887044088 2887044088 15.00000000
0.73637384 -1.88384211 -0.54196709 4 0 15865 2.09400000 2887044108 2887044108 -15.00000000
0.85768771 -2.19645643 -0.54438156 3 2 15867 2.42000000 2887044113 2887044113 -13.00000000
1.00930333 -2.58606148 -0.53960782 3 4 15868 2.82800000 2887044118 2887044118 -11.00000000
1.22917688 -3.15267563 -0.53594446 1 6 15870 3.42600000 2887044122 2887044122 -9.00000000
1.58497143 -4.06943846 -0.53622514 2 8 15872 4.40000000 2887044127 2887044127 -7.00000000
2.24635625 -5.77053165 -0.54176009 7 10 15873 6.21600000 2887044131 2887044131 -5.00000000
3.55571151 -9.14349747 -0.51414841 8 12 15875 9.82400000 2887044136 2887044136 -3.00000000
3.97467041 -10.22613144 2.53294897 53 13 15876 11.26000000 2887044138 2887044138 13.00000000
3.11228919 -8.01566029 2.30400705 33 15 15878 8.90200000 2887044143 2887044143 15.00000000
0.73258168 -1.89360797 -0.54403764 4 0 15885 2.10200000 2887044164 2887044164 -15.00000000
0.84861040 -2.19580150 -0.54348177 3 2 15887 2.41600000 2887044168 2887044168 -13.00000000
0.99885535 -2.58590603 -0.53884459 3 4 15888 2.82400000 2887044173 2887044173 -11.00000000
1.21674228 -3.15326118 -0.53531873 1 6 15890 3.42200000 2887044178 2887044178 -9.00000000
1.57361281 -4.08235502 -0.53720009 2 8 15892 4.40800000 2887044182 2887044182 -7.00000000
2.22834849 -5.78391552 -0.54228306 7 10 15893 6.22200000 2887044187 2887044187 -5.00000000
3.51588202 -9.13534927 -0.51299703 8 12 15895 9.80200000 2887044191 2887044191 -3.00000000
3.09123731 -8.04036236 2.30814815 38 15 15897 8.91800000 2887044198 2887044198 15.00000000
0.72734874 -1.89976192 -0.54507291 4 0 15905 2.10600000 2887044219 2887044219 -15.00000000
0.83676362 -2.18782926 -0.54078233 3 2 15907 2.40400000 2887044224 2887044224 -13.00000000
0.98982275 -2.58937693 -0.53884459 3 4 15908 2.82400000 2887044228 2887044228 -11.00000000
1.20290911 -3.15010762 -0.53406727 1 6 15910 3.41400000 2887044233 2887044233 -9.00000000
2.20175719 -5.77490330 -0.54071420 3 10 15913 6.20400000 2887044242 2887044242 -5.00000000
3.47544193 -9.12516880 -0.51174098 4 12 15915 9.77800000 2887044247 2887044247 -3.00000000
3.56832671 -9.37396717 2.31564617 52 13 15916 10.29400000 2887044249 2887044249 13.00000000
3.06106043 -8.04983234 2.30763054 36 15 15918 8.91600000 2887044254 2887044254 15.00000000
0.72104496 -1.90216339 -0.54507291 4 0 15924 2.10600000 2887044274 2887044274 -15.00000000
0.83226430 -2.19788194 -0.54258192 3 2 15926 2.41200000 2887044279 2887044279 -13.00000000
0.97706109 -2.58162832 -0.53655487 3 4 15927 2.81200000 2887044284 2887044284 -11.00000000
1.18896353 -3.14484048 -0.53250289 1 6 15929 3.40400000 2887044288 2887044288 -9.00000000
1.53316438 -4.05954456 -0.53281277 2 8 15931 4.37200000 2887044293 2887044293 -7.00000000
2.18189120 -5.78030872 -0.54053992 3 10 15932 6.20200000 2887044297 2887044297 -5.00000000
3.43811584 -9.11795521 -0.51069427 4 12 15934 9.75800000 2887044302 2887044302 -3.00000000
3.53172398 -9.37116051 2.31204700 51 13 15935 10.27800000 2887044304 2887044304 13.00000000
3.03984189 -8.07025623 2.31073642 36 15 15936 8.92800000 2887044309 2887044309 15.00000000
0.71372229 -1.90285993 -0.54455525 4 0 15944 2.10400000 2887044330 2887044330 -15.00000000
0.82595468 -2.20442343 -0.54348177 3 2 15946 2.41600000 2887044334 2887044334 -13.00000000
0.96942055 -2.58870029 -0.53731811 3 4 15947 2.81600000 2887044339 2887044339 -11.00000000
1.18074715 -3.15637231 -0.53375441 1 6 15949 3.41200000 2887044343 2887044343 -9.00000000
1.52176404 -4.07230949 -0.53378773 2 8 15951 4.38000000 2887044348 2887044348 -7.00000000
2.15751839 -5.77669096 -0.53949404 7 10 15952 6.19000000 2887044353 2887044353 -5.00000000
3.39998388 -9.11306000 -0.50975221 4 12 15954 9.74000000 2887044357 2887044357 -3.00000000
3.49762917 -9.37977982 2.31114721 50 13 15955 10.27400000 2887044360 2887044360 13.00000000
3.01165295 -8.08081818 2.31073642 36 15 15956 8.92800000 2887044364 2887044364 15.00000000
0.70035446 -1.88722813 -0.53937888 4 0 15964 2.08400000 2887044385 2887044385 -15.00000000
0.81825477 -2.20729303 -0.54348177 4 2 15966 2.41600000 2887044390 2887044390 -13.00000000
0.95833218 -2.58654547 -0.53617328 3 4 15967 2.81000000 2887044394 2887044394 -11.00000000
1.17657876 -3.17900038 -0.53688306 1 6 15969 3.43200000 2887044399 2887044399 -9.00000000
2.13734078 -5.78418732 -0.53949404 7 10 15972 6.19000000 2887044408 2887044408 -5.00000000
3.36676955 -9.12112522 -0.50954288 8 12 15974 9.73600000 2887044413 2887044413 -3.00000000
3.46891332 -9.40290070 2.31384659 55 13 15975 10.28600000 2887044415 2887044415 13.00000000
2.97941732 -8.08040619 2.30763054 36 15 15976 8.91600000 2887044419 2887044419 15.00000000
0.69642574 -1.89691532 -0.54144943 4 0 15984 2.09200000 2887044440 2887044440 -15.00000000
0.80786097 -2.20281744 -0.54168212 3 2 15986 2.40800000 2887044445 2887044445 -13.00000000
0.95064890 -2.59356165 -0.53693652 3 4 15987 2.81400000 2887044449 2887044449 -11.00000000
1.15868294 -3.16453862 -0.53375441 1 6 15989 3.41200000 2887044454 2887044454 -9.00000000
1.49056971 -4.07537699 -0.53281277 2 8 15991 4.37200000 2887044459 2887044459 -7.00000000
2.11645317 -5.78974152 -0.53931975 7 10 15992 6.18800000 2887044463 2887044463 -5.00000000
3.32942963 -9.11781311 -0.50870550 8 12 15994 9.72000000 2887044468 2887044468 -3.00000000
3.43874240 -9.42227554 2.31564617 54 13 15995 10.29400000 2887044470 2887044470 13.00000000
2.95573616 -8.10760784 2.31228924 38 15 15997 8.93400000 2887044475 2887044475 15.00000000
0.69210511 -1.90671873 -0.54351997 4 0 16005 2.10000000 2887044496 2887044496 -15.00000000
0.79845327 -2.20209956 -0.54078233 4 2 16007 2.40400000 2887044500 2887044500 -13.00000000
0.93979883 -2.59333682 -0.53617328 3 4 16008 2.81000000 2887044505 2887044505 -11.00000000
1.13430142 -3.13347292 -0.52780986 1 6 16010 3.37400000 2887044509 2887044509 -9.00000000
1.46752226 -4.05841112 -0.52988791 2 8 16012 4.34800000 2887044514 2887044514 -7.00000000
2.09183240 -5.78809071 -0.53844815 7 10 16013 6.17800000 2887044519 2887044519 -5.00000000
3.28513789 -9.09989738 -0.50703073 4 12 16015 9.68800000 2887044523 2887044523 -3.00000000
3.40087795 -9.42565060 2.31339669 50 13 16016 10.28400000 2887044525 2887044525 13.00000000
2.92938328 -8.12332726 2.31384230 38 15 16017 8.94000000 2887044530 2887044530 15.00000000
0.68544519 -1.90912306 -0.54351997 4 0 16025 2.10000000 2887044551 2887044551 -15.00000000
0.79339314 -2.21221066 -0.54258192 3 2 16027 2.41200000 2887044555 2887044555 -13.00000000
0.93140316 -2.59844971 -0.53655487 3 4 16028 2.81200000 2887044560 2887044560 -11.00000000
1.13267910 -3.16345000 -0.53219002 1 6 16030 3.40200000 2887044565 2887044565 -9.00000000
1.45602083 -4.07098579 -0.53086287 2 8 16032 4.35600000 2887044569 2887044569 -7.00000000
2.06960368 -5.78972912 -0.53792524 3 10 16033 6.17200000 2887044574 2887044574 -5.00000000
3.25872636 -9.12635708 -0.50786811 4 12 16035 9.70400000 2887044578 2887044578 -3.00000000
3.36795568 -9.43746376 2.31339669 53 13 16036 10.28400000 2887044581 2887044581 13.00000000
2.90230775 -8.13714218 2.31487751 38 15 16037 8.94400000 2887044585 2887044585 15.00000000
0.67717028 -1.90592444 -0.54196709 4 0 16044 2.09400000 2887044606 2887044606 -15.00000000
0.78605282 -2.21482944 -0.54258192 3 2 16046 2.41200000 2887044611 2887044611 -13.00000000
0.92343760 -2.60337448 -0.53693652 3 4 16047 2.81400000 2887044615 2887044615 -11.00000000
1.12152278 -3.16532683 -0.53187716 1 6 16049 3.40000000 2887044620 2887044620 -9.00000000
1.44383764 -4.07953405 -0.53135031 2 8 16051 4.36000000 2887044624 2887044624 -7.00000000
2.05105710 -5.79843855 -0.53809953 3 10 16052 6.17400000 2887044629 2887044629 -5.00000000
3.21979427 -9.11263180 -0.50650740 8 12 16054 9.67800000 2887044634 2887044634 -3.00000000
3.34248137 -9.46511841 2.31744576 52 13 16055 10.30200000 2887044636 2887044636 13.00000000
2.87273622 -8.13943481 2.31280708 38 15 16056 8.93600000 2887044641 2887044641 15.00000000
0.66795158 -1.90098619 -0.53989655 4 0 16064 2.08600000 2887044661 2887044661 -15.00000000
0.77831686 -2.21755981 -0.54258192 3 2 16066 2.41200000 2887044666 2887044666 -13.00000000
0.91239488 -2.60102415 -0.53579164 3 4 16067 2.80800000 2887044671 2887044671 -11.00000000
1.10981369 -3.16735816 -0.53156430 1 6 16069 3.39800000 2887044675 2887044675 -9.00000000
1.42827702 -4.08080196 -0.53086287 2 8 16071 4.35600000 2887044680 2887044680 -7.00000000
2.01698947 -5.76606894 -0.53443903 3 10 16072 6.13200000 2887044684 2887044684 -5.00000000
3.17874241 -9.09741879 -0.50504196 8 12 16074 9.65000000 2887044689 2887044689 -3.00000000
3.31134915 -9.48224735 2.31879544 53 13 16075 10.30800000 2887044691 2887044691 13.00000000
2.84097552 -8.14443779 2.31125402 38 15 16077 8.93000000 2887044696 2887044696 15.00000000
0.66257989 -1.90695584 -0.54093182 4 0 16084 2.09000000 2887044717 2887044717 -15.00000000
0.77057135 -2.22026324 -0.54258192 3 2 16086 2.41200000 2887044721 2887044721 -13.00000000
0.90588361 -2.61161256 -0.53731811 3 4 16087 2.81600000 2887044726 2887044726 -11.00000000
1.10069084 -3.17681217 -0.53250289 1 6 16089 3.40400000 2887044730 2887044730 -9.00000000
1.41921747 -4.10077000 -0.53281277 2 8 16091 4.37200000 2887044735 2887044735 -7.00000000
2.00271130 -5.79002094 -0.53600782 3 10 16092 6.15000000 2887044740 2887044740 -5.00000000
3.13848829 -9.08391857 -0.50368124 4 12 16094 9.62400000 2887044744 2887044744 -3.00000000
3.28204608 -9.50480080 2.32149482 55 13 16095 10.32000000 2887044747 2887044747 13.00000000
2.82214499 -8.17755413 2.31798339 36 15 16096 8.95600000 2887044751 2887044751 15.00000000
0.65843004 -1.91656530 -0.54300237 4 0 16104 2.09800000 2887044772 2887044772 -15.00000000
0.76028645 -2.21556640 -0.54078233 3 2 16106 2.40400000 2887044776 2887044776 -13.00000000
1.08447349 -3.16568494 -0.52999997 1 6 16109 3.38800000 2887044786 2887044786 -9.00000000
1.39975309 -4.09067392 -0.53086287 2 8 16111 4.35600000 2887044790 2887044790 -7.00000000
1.98119879 -5.79320621 -0.53565919 3 10 16112 6.14600000 2887044795 2887044795 -5.00000000
3.10611463 -9.09292793 -0.50357658 4 12 16114 9.62200000 2887044800 2887044800 -3.00000000
3.24947762 -9.51804352 2.32194471 52 13 16115 10.32200000 2887044802 2887044802 13.00000000
2.79420662 -8.18918324 2.31850100 38 15 16116 8.95800000 2887044806 2887044806 15.00000000
0.65173596 -1.91885197 -0.54300237 4 0 16124 2.09800000 2887044827 2887044827 -15.00000000
0.75129586 -2.21451616 -0.53988254 3 2 16126 2.40000000 2887044832 2887044832 -13.00000000
0.88573796 -2.61229515 -0.53617328 3 4 16127 2.81000000 2887044836 2887044836 -11.00000000
1.08102047 -3.19190311 -0.53375441 1 6 16129 3.41200000 2887044841 2887044841 -9.00000000
1.95458341 -5.78121233 -0.53391606 3 10 16132 6.12600000 2887044850 2887044850 -5.00000000
3.06924343 -9.08857727 -0.50273919 4 12 16134 9.60600000 2887044855 2887044855 -3.00000000
3.21498728 -9.52563572 2.32104492 54 13 16135 10.31800000 2887044857 2887044857 13.00000000
2.76664162 -8.20669270 2.32057166 40 15 16137 8.96600000 2887044862 2887044862 15.00000000
0.64257437 -1.91378975 -0.54093182 4 0 16144 2.09000000 2887044882 2887044882 -15.00000000
0.74727899 -2.22821069 -0.54258192 3 2 16146 2.41200000 2887044887 2887044887 -13.00000000
0.87661391 -2.61537123 -0.53617328 3 4 16147 2.81000000 2887044892 2887044892 -11.00000000
1.06297374 -3.17505193 -0.53031284 1 6 16149 3.39000000 2887044896 2887044896 -9.00000000
1.36738360 -4.08905029 -0.52940041 2 8 16151 4.34400000 2887044901 2887044901 -7.00000000
1.93186510 -5.78044128 -0.53321886 3 10 16152 6.11800000 2887044906 2887044906 -5.00000000
3.03749967 -9.09923553 -0.50273919 4 12 16154 9.60600000 2887044910 2887044910 -3.00000000
3.18665099 -9.55158806 2.32464409 52 13 16155 10.33400000 2887044912 2887044912 13.00000000
2.74103189 -8.22546387 2.32315969 38 15 16157 8.97600000 2887044917 2887044917 15.00000000
0.63589007 -1.91602099 -0.54093182 4 0 16164 2.09000000 2887044938 2887044938 -15.00000000
0.74072289 -2.23450518 -0.54348177 3 2 16166 2.41600000 2887044942 2887044942 -13.00000000
0.87118375 -2.62959695 -0.53846300 3 4 16167 2.82200000 2887044947 2887044947 -11.00000000
1.05809009 -3.19749665 -0.53344154 1 6 16169 3.41000000 2887044952 2887044952 -9.00000000
1.35808563 -4.10887718 -0.53135031 2 8 16171 4.36000000 2887044956 2887044956 -7.00000000
1.90542650 -5.76823092 -0.53147572 3 10 16172 6.09800000 2887044961 2887044961 -5.00000000
3.00947356 -9.12116337 -0.50336725 4 12 16174 9.61800000 2887044965 2887044965 -3.00000000
3.15573144 -9.57005692 2.32644391 50 13 16175 10.34200000 2887044968 2887044968 13.00000000
2.71230292 -8.23498154 2.32315969 22 15 16177 8.97600000 2887044972 2887044972 15.00000000
0.62919801 -1.91822898 -0.54093182 4 0 16184 2.09000000 2887044993 2887044993 -15.00000000
0.72806478 -2.22226214 -0.53988254 3 2 16186 2.40000000 2887044998 2887044998 -13.00000000
0.85955578 -2.62515879 -0.53693652 3 4 16187 2.81400000 2887045002 2887045002 -11.00000000
1.04139602 -3.18427300 -0.53062570 1 6 16189 3.39200000 2887045007 2887045007 -9.00000000
1.34681666 -4.12302732 -0.53256905 2 8 16191 4.37000000 2887045012 2887045012 -7.00000000
1.89022660 -5.78999901 -0.53287023 3 10 16192 6.11400000 2887045016 2887045016 -5.00000000
2.96523309 -9.09363556 -0.50127381 4 12 16194 9.57800000 2887045021 2887045021 -3.00000000
3.12592936 -9.59213066 2.32914329 45 13 16195 10.35400000 2887045023 2887045023 13.00000000
2.67098427 -8.20582199 2.31228924 6 15 16197 8.93400000 2887045028 2887045028 15.00000000
0.62521756 -1.92765546 -0.54300237 4 0 16203 2.09800000 2887045048 2887045048 -15.00000000
0.71949029 -2.22095633 -0.53898275 3 2 16205 2.39600000 2887045053 2887045053 -13.00000000
0.84903157 -2.62239146 -0.53579164 3 4 16206 2.80800000 2887045058 2887045058 -11.00000000
1.03386986 -3.19710660 -0.53219002 1 6 16208 3.40200000 2887045062 2887045062 -9.00000000
1.32337475 -4.09724712 -0.52866924 2 8 16210 4.33800000 2887045067 2887045067 -7.00000000
1.87101591 -5.79623556 -0.53287023 3 10 16211 6.11400000 2887045071 2887045071 -5.00000000
2.92954516 -9.08631039 -0.50033176 4 12 16213 9.56000000 2887045076 2887045076 -3.00000000
3.08274794 -9.56720257 2.32059503 27 13 16214 10.31600000 2887045078 2887045078 13.00000000
2.65703487 -8.25094986 2.32264209 9 15 16215 8.97400000 2887045083 2887045083 15.00000000
0.61848497 -1.92982614 -0.54300237 4 0 16223 2.09800000 2887045104 2887045104 -15.00000000
0.71410978 -2.23087835 -0.54078233 3 2 16225 2.40400000 2887045108 2887045108 -13.00000000
0.83927435 -2.62346911 -0.53541005 3 4 16226 2.80600000 2887045113 2887045113 -11.00000000
1.02029860 -3.19316936 -0.53093857 1 6 16228 3.39400000 2887045117 2887045117 -9.00000000
1.30966806 -4.10373259 -0.52891296 2 8 16230 4.34000000 2887045122 2887045122 -7.00000000
1.85440445 -5.81412029 -0.53391606 3 10 16231 6.12600000 2887045127 2887045127 -5.00000000
2.90326643 -9.11360836 -0.50127381 8 12 16233 9.57800000 2887045131 2887045131 -3.00000000
3.03514481 -9.53333950 2.30979753 14 13 16234 10.26800000 2887045134 2887045134 13.00000000
2.61506748 -8.22381306 2.31228924 6 15 16236 8.93400000 2887045138 2887045138 15.00000000
0.60791051 -1.92102897 -0.53989655 4 0 16244 2.08600000 2887045159 2887045159 -15.00000000
0.70592839 -2.23348069 -0.54078233 3 2 16246 2.40400000 2887045164 2887045164 -13.00000000
0.82610518 -2.61529517 -0.53312033 3 4 16247 2.79400000 2887045168 2887045168 -11.00000000
1.01155996 -3.20630670 -0.53250289 1 6 16249 3.40400000 2887045173 2887045173 -9.00000000
1.30058432 -4.12743855 -0.53135031 2 8 16251 4.36000000 2887045177 2887045177 -7.00000000
1.82709754 -5.80187416 -0.53217298 3 10 16252 6.10600000 2887045182 2887045182 -5.00000000
2.86624837 -9.11275673 -0.50064576 8 12 16254 9.56600000 2887045187 2887045187 -3.00000000
2.95284867 -9.39381599 2.27335525 17 13 16255 10.10600000 2887045189 2887045189 13.00000000
2.69982696 -8.59412861 2.41374636 27 15 16256 9.32600000 2887045194 2887045194 15.00000000
0.60004836 -1.91945159 -0.53886127 4 0 16264 2.08200000 2887045214 2887045214 -15.00000000
0.69928938 -2.23965144 -0.54168212 3 2 16266 2.40800000 2887045219 2887045219 -13.00000000
0.82281905 -2.63690424 -0.53693652 3 4 16267 2.81400000 2887045223 2887045223 -11.00000000
0.99565959 -3.19473100 -0.52999997 1 6 16269 3.38800000 2887045228 2887045228 -9.00000000
1.28144908 -4.11678982 -0.52940041 2 8 16271 4.34400000 2887045233 2887045233 -7.00000000
1.79440582 -5.76826477 -0.52851242 3 10 16272 6.06400000 2887045237 2887045237 -5.00000000
2.82908797 -9.10554028 -0.49970371 4 12 16274 9.54800000 2887045242 2887045242 -3.00000000
2.88652301 -9.29612255 2.24726105 16 13 16275 9.99000000 2887045244 2887045244 13.00000000
2.69291568 -8.68330765 2.43600488 33 15 16277 9.41200000 2887045249 2887045249 15.00000000
0.59482056 -1.92512238 -0.53989655 4 0 16283 2.08600000 2887045270 2887045270 -15.00000000
0.68841082 -2.23078561 -0.53898275 3 2 16285 2.39600000 2887045274 2887045274 -13.00000000
0.81117731 -2.63023806 -0.53502840 3 4 16286 2.80400000 2887045279 2887045279 -11.00000000
0.98506004 -3.19801521 -0.52999997 1 6 16288 3.38800000 2887045283 2887045283 -9.00000000
1.27129245 -4.13240099 -0.53086287 2 8 16290 4.35600000 2887045288 2887045288 -7.00000000
1.77526772 -5.77418375 -0.52851242 3 10 16291 6.06400000 2887045293 2887045293 -5.00000000
2.79594588 -9.10532570 -0.49918035 8 12 16293 9.53800000 2887045297 2887045297 -3.00000000
2.84710431 -9.27769947 2.24051261 20 13 16294 9.96000000 2887045300 2887045300 13.00000000
2.69677687 -8.79330635 2.46447492 38 15 16295 9.52200000 2887045304 2887045304 15.00000000
0.59035236 -1.93457794 -0.54196709 4 0 16303 2.09400000 2887045325 2887045325 -15.00000000
0.67948341 -2.22944689 -0.53808290 3 2 16305 2.39200000 2887045329 2887045329 -13.00000000
0.80084705 -2.62929726 -0.53426516 3 4 16306 2.80000000 2887045334 2887045334 -11.00000000
0.97044140 -3.19009495 -0.52812278 1 6 16308 3.37600000 2887045339 2887045339 -9.00000000
1.25512874 -4.13111496 -0.53013164 4 8 16310 4.35000000 2887045343 2887045343 -7.00000000
1.76204753 -5.80322266 -0.53060418 3 10 16311 6.08800000 2887045348 2887045348 -5.00000000
2.75718999 -9.09209347 -0.49792430 8 12 16313 9.51400000 2887045352 2887045352 -3.00000000
2.80735421 -9.26333618 2.23466372 21 13 16314 9.93400000 2887045355 2887045355 13.00000000
2.69866872 -8.91592121 2.49605083 24 15 16316 9.64400000 2887045359 2887045359 15.00000000
0.58471066 -1.94032621 -0.54300237 4 0 16323 2.09800000 2887045380 2887045380 -15.00000000
0.67394358 -2.23926926 -0.53988254 3 2 16325 2.40000000 2887045385 2887045385 -13.00000000
0.79109877 -2.63019681 -0.53388357 3 4 16326 2.79800000 2887045389 2887045389 -11.00000000
0.96441478 -3.21048975 -0.53093857 3 6 16328 3.39400000 2887045394 2887045394 -9.00000000
1.23271465 -4.10885191 -0.52671933 2 8 16330 4.32200000 2887045399 2887045399 -7.00000000
1.74635732 -5.82460546 -0.53199863 3 10 16331 6.10400000 2887045403 2887045403 -5.00000000
2.71970654 -9.08253002 -0.49687758 4 12 16333 9.49400000 2887045408 2887045408 -3.00000000
2.76773906 -9.24880886 2.22881508 23 13 16334 9.90800000 2887045410 2887045410 13.00000000
2.70063829 -9.03032017 2.52555633 36 15 16335 9.75800000 2887045415 2887045415 15.00000000
0.57683218 -1.93865216 -0.54196709 4 0 16343 2.09400000 2887045435 2887045435 -15.00000000
0.66612297 -2.24160814 -0.53988254 3 2 16345 2.40000000 2887045440 2887045440 -13.00000000
0.77744156 -2.61788607 -0.53083062 3 4 16346 2.78200000 2887045445 2887045445 -11.00000000
0.94702351 -3.19300437 -0.52749699 1 6 16348 3.37200000 2887045449 2887045449 -9.00000000
1.21780086 -4.11122656 -0.52647555 2 8 16350 4.32000000 2887045454 2887045454 -7.00000000
1.72601509 -5.83066607 -0.53199863 3 10 16351 6.10400000 2887045458 2887045458 -5.00000000
2.68402243 -9.07856083 -0.49614486 4 12 16353 9.48000000 2887045463 2887045463 -3.00000000
2.73433352 -9.25467587 2.22791529 27 13 16354 9.90400000 2887045465 2887045465 13.00000000
2.69704628 -9.14021301 2.55350876 38 15 16356 9.86600000 2887045470 2887045470 15.00000000
0.56679469 -1.92953265 -0.53886127 4 0 16363 2.08200000 2887045491 2887045491 -15.00000000
0.66048855 -2.25139952 -0.54168212 3 2 16365 2.40800000 2887045495 2887045495 -13.00000000
0.77271742 -2.63565564 -0.53388357 3 4 16366 2.79800000 2887045500 2887045500 -11.00000000
0.94253308 -3.21904016 -0.53125143 1 6 16368 3.39600000 2887045505 2887045505 -9.00000000
1.20232821 -4.11164188 -0.52598810 2 8 16370 4.31600000 2887045509 2887045509 -7.00000000
1.70565176 -5.83665514 -0.53199863 3 10 16371 6.10400000 2887045514 2887045514 -5.00000000
2.64839911 -9.07445335 -0.49541217 4 12 16373 9.46600000 2887045518 2887045518 -3.00000000
2.70092082 -9.26042271 2.22701550 27 13 16374 9.90000000 2887045521 2887045521 13.00000000
2.69321012 -9.23998547 2.57887292 38 15 16375 9.96400000 2887045525 2887045525 15.00000000
0.56220794 -1.93892109 -0.54093182 4 0 16383 2.09000000 2887045546 2887045546 -15.00000000
0.65154153 -2.24994755 -0.54078233 3 2 16385 2.40400000 2887045551 2887045551 -13.00000000
0.76405829 -2.64022255 -0.53426516 5 4 16386 2.80000000 2887045555 2887045555 -11.00000000
3.31891179 -11.47608376 1.04517162 17 5 16387 11.99200000 2887045558 2887045558 5.00000000
0.92525768 -3.20143580 -0.52780986 1 6 16388 3.37400000 2887045560 2887045560 -9.00000000
1.18962014 -4.12153530 -0.52671933 4 8 16390 4.32200000 2887045564 2887045564 -7.00000000
1.67422390 -5.80428696 -0.52851242 3 10 16391 6.06400000 2887045569 2887045569 -5.00000000
2.61228418 -9.06828880 -0.49457479 4 12 16393 9.45000000 2887045574 2887045574 -3.00000000
2.66534472 -9.25855827 2.22431612 24 13 16394 9.88800000 2887045576 2887045576 13.00000000
2.69135308 -9.36119270 2.60993123 45 15 16396 10.08400000 2887045581 2887045581 15.00000000
0.55649942 -1.94458640 -0.54196709 4 0 16403 2.09400000 2887045601 2887045601 -15.00000000
