# .PCD v0.7 - Point Cloud Data file format
VERSION 0.7
FIELDS x y z intensity laser_id azimuth distance_m adjustedtime timestamp vertical_angle
SIZE 4 4 4 1 1 2 8 8 4 8
TYPE F F F U U U F U U F
COUNT 1 1 1 1 1 1 1 1 1 1
WIDTH 528
HEIGHT 1
VIEWPOINT 0 0 0 1 0 0 0
POINTS 528
DATA ascii
5.68464804 -5.27695704 2.07831693 45 15 13287 8.03000000 3057636419 3057636419 15.00000000
1.53445673 -1.42790270 -0.56163734 4 0 13294 2.17000000 3057636440 3057636440 -15.00000000
3.97533917 -3.70058322 0.09480147 57 1 13295 5.43200000 3057636442 3057636442 1.00000000
1.79409146 -1.67067719 -0.56597686 3 2 13296 2.51600000 3057636444 3057636444 -13.00000000
3.42026901 -3.18499112 0.24493228 24 3 13296 4.68000000 3057636447 3057636447 3.00000000
2.12607074 -1.98051274 -0.56479460 3 4 13297 2.96000000 3057636449 3057636449 -11.00000000
3.89329123 -3.62801290 0.46558598 26 5 13298 5.34200000 3057636451 3057636451 5.00000000
2.59365678 -2.41777802 -0.56159973 7 6 13299 3.59000000 3057636454 3057636454 -9.00000000
5.70994759 -5.32461214 0.95862424 47 7 13300 7.86600000 3057636456 3057636456 7.00000000
3.37779951 -3.15095139 -0.56717992 4 8 13301 4.65400000 3057636458 3057636458 -7.00000000
5.69985437 -5.31706047 1.23458076 12 9 13301 7.89200000 3057636461 3057636461 9.00000000
4.16315413 -3.88492179 -0.49818224 10 10 13302 5.71600000 3057636463 3057636463 -5.00000000
4.20206690 -3.92260599 1.11737752 33 11 13303 5.85600000 3057636465 3057636465 11.00000000
4.13985538 -3.86588454 -0.29684955 24 12 13304 5.67200000 3057636467 3057636467 -3.00000000
4.11410332 -3.84318113 1.29976714 20 13 13305 5.77800000 3057636470 3057636470 13.00000000
3.69647074 -3.45425892 -0.08830918 30 14 13306 5.06000000 3057636472 3057636472 -1.00000000
5.64361334 -5.27566004 2.07003474 47 15 13307 7.99800000 3057636474 3057636474 15.00000000
1.53369200 -1.43721318 -0.56319022 4 0 13314 2.17600000 3057636495 3057636495 -15.00000000
3.98428106 -3.73495126 0.09532505 90 1 13315 5.46200000 3057636497 3057636497 1.00000000
1.77687669 -1.66626549 -0.56237763 3 2 13316 2.50000000 3057636500 3057636500 -13.00000000
3.40475965 -3.19281197 0.24461827 22 3 13316 4.67400000 3057636502 3057636502 3.00000000
2.12773561 -1.99598122 -0.56708431 3 4 13317 2.97200000 3057636504 3057636504 -11.00000000
3.89658499 -3.65657806 0.46750340 26 5 13318 5.36400000 3057636507 3057636507 5.00000000
2.58952212 -2.43087268 -0.56253833 5 6 13319 3.59600000 3057636509 3057636509 -9.00000000
5.66238499 -5.31733322 0.95374948 57 7 13320 7.82600000 3057636511 3057636511 7.00000000
3.36388636 -3.16000462 -0.56669247 4 8 13321 4.65000000 3057636514 3057636514 -7.00000000
4.21271324 -3.95738482 0.91545451 57 9 13321 5.85200000 3057636516 3057636516 9.00000000
4.13940430 -3.88987947 -0.49696204 10 10 13322 5.70200000 3057636518 3057636518 -5.00000000
5.63596106 -5.29807568 1.50357485 56 11 13323 7.88000000 3057636520 3057636520 11.00000000
4.12633562 -3.88031173 -0.29684955 12 12 13324 5.67200000 3057636523 3057636523 -3.00000000
3.98994946 -3.75336981 1.26467478 11 13 13325 5.62200000 3057636525 3057636525 13.00000000
3.69604087 -3.47810435 -0.08858842 30 14 13326 5.07600000 3057636527 3057636527 -1.00000000
5.60547066 -5.27678967 2.06278777 47 15 13327 7.97000000 3057636530 3057636530 15.00000000
1.52841401 -1.44282484 -0.56319022 4 0 13335 2.17600000 3057636550 3057636550 -15.00000000
3.97928834 -3.75776696 0.09553447 100 1 13336 5.47400000 3057636553 3057636553 1.00000000
1.77642405 -1.67811966 -0.56417722 4 2 13337 2.50800000 3057636555 3057636555 -13.00000000
3.40174580 -3.21349883 0.24524629 22 3 13337 4.68600000 3057636557 3057636557 3.00000000
2.10328245 -1.98758519 -0.56250495 3 4 13338 2.94800000 3057636560 3057636560 -11.00000000
3.90197897 -3.68862820 0.46976945 27 5 13339 5.39000000 3057636562 3057636562 5.00000000
2.58490086 -2.44441915 -0.56347692 5 6 13340 3.60200000 3057636564 3057636564 -9.00000000
5.61834240 -5.31486034 0.94960594 50 7 13341 7.79200000 3057636566 3057636566 7.00000000
3.33786321 -3.15866828 -0.56425506 4 8 13342 4.63000000 3057636569 3057636569 -7.00000000
4.17952824 -3.95514774 0.91138721 64 9 13342 5.82600000 3057636571 3057636571 9.00000000
4.11499119 -3.89543724 -0.49574187 14 10 13343 5.68800000 3057636573 3057636573 -5.00000000
5.59369659 -5.29709816 1.49746895 53 11 13344 7.84800000 3057636576 3057636576 11.00000000
4.07293701 -3.85832334 -0.29402339 2 12 13345 5.61800000 3057636578 3057636578 -3.00000000
3.90402627 -3.69960618 1.24172986 7 13 13346 5.52000000 3057636580 3057636580 13.00000000
3.68617082 -3.49437904 -0.08865822 30 14 13347 5.08000000 3057636583 3057636583 -1.00000000
5.56598663 -5.27638817 2.05502319 47 15 13347 7.94000000 3057636585 3057636585 15.00000000
1.51916778 -1.44415808 -0.56163734 4 0 13355 2.17000000 3057636606 3057636606 -15.00000000
3.97629070 -3.78128052 0.09577881 95 1 13356 5.48800000 3057636608 3057636608 1.00000000
1.76914358 -1.68296719 -0.56372732 4 2 13357 2.50600000 3057636610 3057636610 -13.00000000
3.40063763 -3.23498964 0.24597900 20 3 13357 4.70000000 3057636613 3057636613 3.00000000
2.09064293 -1.98950124 -0.56097847 3 4 13358 2.94000000 3057636615 3057636615 -11.00000000
3.90206695 -3.71458983 0.47133824 27 5 13359 5.40800000 3057636617 3057636617 5.00000000
2.57349157 -2.45070291 -0.56285119 5 6 13360 3.59800000 3057636619 3057636619 -9.00000000
5.58682013 -5.32211685 0.94741225 30 7 13361 7.77400000 3057636622 3057636622 7.00000000
3.32681704 -3.17030025 -0.56425506 4 8 13362 4.63000000 3057636624 3057636624 -7.00000000
4.13709593 -3.94245791 0.90512979 61 9 13362 5.78600000 3057636626 3057636626 9.00000000
4.08117914 -3.89053106 -0.49330151 17 10 13363 5.66000000 3057636629 3057636629 -5.00000000
5.56096411 -5.30304241 1.49365282 50 11 13364 7.82800000 3057636631 3057636631 11.00000000
4.05221844 -3.86562395 -0.29350004 2 12 13365 5.60800000 3057636633 3057636633 -3.00000000
3.85302353 -3.67688632 1.22958243 7 13 13366 5.46600000 3057636636 3057636636 13.00000000
3.67973638 -3.51274800 -0.08879784 28 14 13367 5.08800000 3057636638 3057636638 -1.00000000
5.52006483 -5.27140331 2.04518819 47 15 13368 7.90200000 3057636640 3057636640 15.00000000
1.50574446 -1.44143677 -0.55853152 4 0 13375 2.15800000 3057636661 3057636661 -15.00000000
3.94862461 -3.78130674 0.09542976 72 1 13376 5.46800000 3057636663 3057636663 1.00000000
1.76888704 -1.69452465 -0.56552696 4 2 13377 2.51400000 3057636666 3057636666 -13.00000000
3.40894628 -3.26677847 0.24744441 24 3 13378 4.72800000 3057636668 3057636668 3.00000000
2.08652043 -1.99950361 -0.56174171 3 4 13378 2.94400000 3057636670 3057636670 -11.00000000
3.88763857 -3.72680902 0.47116396 27 5 13379 5.40600000 3057636672 3057636672 5.00000000
2.56206965 -2.45693660 -0.56222546 5 6 13380 3.59400000 3057636675 3057636675 -9.00000000
4.17006826 -4.00034904 0.70952332 65 7 13381 5.82200000 3057636677 3057636677 7.00000000
3.31286597 -3.17914486 -0.56376761 4 8 13382 4.62600000 3057636679 3057636679 -7.00000000
4.13186073 -3.96508145 0.90700704 47 9 13382 5.79800000 3057636682 3057636682 9.00000000
4.05607510 -3.89371514 -0.49190700 17 10 13383 5.64400000 3057636684 3057636684 -5.00000000
5.51976252 -5.30066442 1.48754692 53 11 13384 7.79600000 3057636686 3057636686 11.00000000
4.05022287 -3.89081454 -0.29433742 2 12 13385 5.62400000 3057636689 3057636689 -3.00000000
3.84859586 -3.69841504 1.23228192 10 13 13386 5.47800000 3057636691 3057636691 13.00000000
3.68763471 -3.54497313 -0.08928651 26 14 13387 5.11600000 3057636693 3057636693 -1.00000000
5.47748518 -5.26558065 2.03587055 47 15 13387 7.86600000 3057636696 3057636696 15.00000000
1.50487626 -1.45070636 -0.56008440 4 0 13395 2.16400000 3057636716 3057636716 -15.00000000
3.90661287 -3.76730490 0.09473166 62 1 13396 5.42800000 3057636719 3057636719 1.00000000
1.76857138 -1.70610082 -0.56732655 4 2 13397 2.52200000 3057636721 3057636721 -13.00000000
3.41189408 -3.29252696 0.24849112 20 3 13398 4.74800000 3057636723 3057636723 3.00000000
2.08235359 -2.00950122 -0.56250495 3 4 13398 2.94800000 3057636725 3057636725 -11.00000000
3.89754105 -3.76249719 0.47395292 27 5 13399 5.43800000 3057636728 3057636728 5.00000000
2.54779387 -2.46037602 -0.56097400 5 6 13400 3.58600000 3057636730 3057636730 -9.00000000
4.12324142 -3.98315907 0.70391732 55 7 13401 5.77600000 3057636732 3057636732 7.00000000
3.30460334 -3.19344831 -0.56425506 4 8 13402 4.63000000 3057636735 3057636735 -7.00000000
5.49068022 -5.30784702 1.20955133 50 9 13403 7.73200000 3057636737 3057636737 9.00000000
4.01953936 -3.88569331 -0.48911804 17 10 13403 5.61200000 3057636739 3057636739 -5.00000000
5.46735525 -5.28714466 1.47838807 53 11 13404 7.74800000 3057636742 3057636742 11.00000000
4.00216484 -3.87160063 -0.29182529 2 12 13405 5.57600000 3057636744 3057636744 -3.00000000
3.69391584 -3.57590485 -0.08974028 20 14 13407 5.14200000 3057636749 3057636749 -1.00000000
5.44427156 -5.27218246 2.03069425 45 15 13408 7.84600000 3057636751 3057636751 15.00000000
1.50560284 -1.46107018 -0.56215495 4 0 13414 2.17200000 3057636772 3057636772 -15.00000000
3.85392356 -3.74123883 0.09375433 15 1 13415 5.37200000 3057636774 3057636774 1.00000000
1.74752581 -1.69702244 -0.56237763 3 2 13416 2.50000000 3057636776 3057636776 -13.00000000
3.40811992 -3.31078148 0.24901448 24 3 13417 4.75800000 3057636778 3057636778 3.00000000
2.08412766 -2.02460337 -0.56479460 3 4 13417 2.96000000 3057636781 3057636781 -11.00000000
3.90076017 -3.79067516 0.47587034 27 5 13418 5.46000000 3057636783 3057636783 5.00000000
2.54245377 -2.47156501 -0.56159973 5 6 13419 3.59000000 3057636785 3057636785 -9.00000000
4.09577894 -3.98297095 0.70147991 55 7 13420 5.75600000 3057636788 3057636788 7.00000000
3.28403521 -3.19470000 -0.56254888 4 8 13421 4.61600000 3057636790 3057636790 -7.00000000
5.44990730 -5.30165434 1.20423245 55 9 13421 7.69800000 3057636792 3057636792 9.00000000
3.99806452 -3.89066410 -0.48807216 14 10 13422 5.60000000 3057636795 3057636795 -5.00000000
5.43291092 -5.28881264 1.47380865 56 11 13423 7.72400000 3057636797 3057636797 11.00000000
3.94637752 -3.84304857 -0.28868514 11 12 13424 5.51600000 3057636799 3057636799 -3.00000000
5.43139362 -5.29102945 1.75056911 68 13 13425 7.78200000 3057636802 3057636802 13.00000000
3.69206238 -3.59790421 -0.08998461 8 14 13426 5.15600000 3057636804 3057636804 -1.00000000
5.41384602 -5.27577734 2.02551794 45 15 13426 7.82600000 3057636806 3057636806 15.00000000
1.49911189 -1.46496665 -0.56163734 4 0 13434 2.17000000 3057636827 3057636827 -15.00000000
3.68783617 -3.60509706 0.09001951 11 1 13435 5.15800000 3057636829 3057636829 1.00000000
1.74716449 -1.70856202 -0.56417722 3 2 13436 2.50800000 3057636831 3057636831 -13.00000000
3.40368104 -3.32964134 0.24953784 24 3 13437 4.76800000 3057636834 3057636834 3.00000000
2.06301355 -2.01813722 -0.56097847 3 4 13437 2.94000000 3057636836 3057636836 -11.00000000
3.89889646 -3.81541634 0.47726485 27 5 13438 5.47600000 3057636838 3057636838 5.00000000
2.54228067 -2.48871589 -0.56347692 5 6 13439 3.60200000 3057636841 3057636841 -9.00000000
4.07475948 -3.99029899 0.70026124 60 7 13440 5.74600000 3057636843 3057636843 7.00000000
3.26577330 -3.19919825 -0.56133020 4 8 13441 4.60600000 3057636845 3057636845 -7.00000000
5.41068697 -5.30223751 1.19985235 55 9 13442 7.67000000 3057636848 3057636848 9.00000000
3.98019004 -3.90041256 -0.48754922 10 10 13442 5.59400000 3057636850 3057636850 -5.00000000
5.39759302 -5.29125261 1.46922922 56 11 13443 7.70000000 3057636852 3057636852 11.00000000
3.93579078 -3.85959744 -0.28889447 2 12 13444 5.52000000 3057636854 3057636854 -3.00000000
5.37950420 -5.27720404 1.73977149 72 13 13445 7.73400000 3057636857 3057636857 13.00000000
3.68233538 -3.61357117 -0.09005442 8 14 13446 5.16000000 3057636859 3057636859 -1.00000000
5.37930822 -5.28069782 2.01982379 47 15 13447 7.80400000 3057636861 3057636861 15.00000000
1.49286842 -1.46857500 -0.56111968 4 0 13453 2.16800000 3057636882 3057636882 -15.00000000
3.80128789 -3.74073529 0.09309114 9 1 13454 5.33400000 3057636884 3057636884 1.00000000
1.74565530 -1.71844780 -0.56552696 4 2 13455 2.51400000 3057636887 3057636887 -13.00000000
3.40400529 -3.35212111 0.25037521 24 3 13456 4.78400000 3057636889 3057636889 3.00000000
2.04791689 -2.01670218 -0.55868876 3 4 13456 2.92800000 3057636891 3057636891 -11.00000000
3.89899683 -3.84090853 0.47883365 27 5 13457 5.49400000 3057636894 3057636894 5.00000000
2.53401375 -2.49713278 -0.56347692 5 6 13458 3.60200000 3057636896 3057636896 -9.00000000
5.38188219 -5.30540419 0.92791319 30 7 13459 7.61400000 3057636898 3057636898 7.00000000
3.25231957 -3.20722270 -0.56084269 4 8 13460 4.60200000 3057636901 3057636901 -7.00000000
5.36587238 -5.29146910 1.19359493 52 9 13460 7.63000000 3057636903 3057636903 9.00000000
3.94028449 -3.88700509 -0.48423731 10 10 13461 5.55600000 3057636905 3057636905 -5.00000000
5.36604261 -5.29533291 1.46541309 59 11 13462 7.68000000 3057636907 3057636907 11.00000000
3.80357552 -3.75476503 -0.28010204 2 12 13463 5.35200000 3057636910 3057636910 -3.00000000
5.34810877 -5.28132153 1.73527241 68 13 13464 7.71400000 3057636912 3057636912 13.00000000
3.68171310 -3.63700485 -0.09033366 12 14 13465 5.17600000 3057636914 3057636914 -1.00000000
5.33520508 -5.27041817 2.00947118 47 15 13465 7.76400000 3057636917 3057636917 15.00000000
1.48498809 -1.47105801 -0.56008440 4 0 13473 2.16400000 3057636937 3057636937 -15.00000000
3.89189625 -3.85673380 0.09563918 20 1 13474 5.48000000 3057636940 3057636940 1.00000000
1.74379814 -1.72864664 -0.56687665 3 2 13475 2.52000000 3057636942 3057636942 -13.00000000
3.40788364 -3.37945271 0.25152659 24 3 13476 4.80600000 3057636944 3057636944 3.00000000
2.04922891 -2.03213286 -0.56097847 3 4 13476 2.94000000 3057636947 3057636947 -11.00000000
3.89263821 -3.86151099 0.47970521 30 5 13477 5.50400000 3057636949 3057636949 5.00000000
2.51406431 -2.49483156 -0.56097400 5 6 13478 3.58600000 3057636951 3057636951 -9.00000000
5.36614799 -5.32695532 0.92840064 80 7 13479 7.61800000 3057636954 3057636954 7.00000000
3.24110436 -3.21855593 -0.56084269 4 8 13480 4.60200000 3057636956 3057636956 -7.00000000
5.33382940 -5.29857063 1.19077909 52 9 13481 7.61200000 3057636958 3057636958 9.00000000
3.91962481 -3.89371467 -0.48336574 7 10 13481 5.54600000 3057636960 3057636960 -5.00000000
5.32802963 -5.29465723 1.46007049 56 11 13482 7.65200000 3057636963 3057636963 11.00000000
3.93209171 -3.90882707 -0.29056922 2 12 13483 5.55200000 3057636965 3057636965 -3.00000000
5.30753231 -5.27797174 1.72807395 70 13 13484 7.68200000 3057636967 3057636967 13.00000000
3.68884277 -3.66957855 -0.09082232 8 14 13485 5.20400000 3057636970 3057636970 -1.00000000
5.29257298 -5.26677179 2.00067115 45 15 13486 7.73000000 3057636972 3057636972 15.00000000
1.47710872 -1.47350395 -0.55904913 4 0 13493 2.16000000 3057636993 3057636993 -15.00000000
3.88690305 -3.87877083 0.09584861 22 1 13494 5.49200000 3057636995 3057636995 1.00000000
1.73499501 -1.73196948 -0.56597686 3 2 13495 2.51600000 3057636997 3057636997 -13.00000000
3.41302538 -3.40826321 0.25278267 24 3 13496 4.83000000 3057637000 3057637000 3.00000000
2.05045819 -2.04759717 -0.56326813 3 4 13496 2.95200000 3057637002 3057637002 -11.00000000
3.89745975 -3.89338040 0.48197126 33 5 13497 5.53000000 3057637004 3057637004 5.00000000
2.49975133 -2.49800682 -0.55972254 5 6 13498 3.57800000 3057637007 3057637007 -9.00000000
5.31242275 -5.31056881 0.92230719 52 7 13499 7.56800000 3057637009 3057637009 7.00000000
3.23546457 -3.23546457 -0.56181765 2 8 13500 4.61000000 3057637011 3057637011 -7.00000000
5.30226135 -5.30226135 1.18765044 52 9 13500 7.59200000 3057637013 3057637013 9.00000000
3.89474058 -3.89610052 -0.48197126 6 10 13501 5.53000000 3057637016 3057637016 -5.00000000
5.28176069 -5.28544903 1.45243812 53 11 13502 7.61200000 3057637018 3057637018 11.00000000
3.88313484 -3.88720345 -0.28795242 23 12 13503 5.50200000 3057637020 3057637020 -3.00000000
5.27806044 -5.28543472 1.72447479 68 13 13504 7.66600000 3057637023 3057637023 13.00000000
3.68872595 -3.69516969 -0.09113646 27 14 13505 5.22200000 3057637025 3057637025 -1.00000000
5.25733614 -5.26651955 1.99394190 47 15 13505 7.70400000 3057637027 3057637027 15.00000000
1.47740793 -1.48412752 -0.56111968 4 0 13513 2.16800000 3057637048 3057637048 -15.00000000
3.89026618 -3.90932441 0.09626748 20 1 13514 5.51600000 3057637050 3057637050 1.00000000
1.71519518 -1.72419953 -0.56147784 3 2 13515 2.49600000 3057637053 3057637053 -13.00000000
3.40392423 -3.42298865 0.25299200 22 3 13516 4.83400000 3057637055 3057637055 3.00000000
2.04052949 -2.05195785 -0.56250495 3 4 13516 2.94800000 3057637057 3057637057 -11.00000000
3.89508271 -3.91826534 0.48336574 25 5 13517 5.54600000 3057637060 3057637060 5.00000000
2.49380136 -2.50951982 -0.56034827 5 6 13518 3.58200000 3057637062 3057637062 -9.00000000
5.26587296 -5.30091381 0.91743243 52 7 13519 7.52800000 3057637064 3057637064 7.00000000
3.22135329 -3.24392152 -0.56133020 2 8 13520 4.60600000 3057637066 3057637066 -7.00000000
5.26330853 -5.30203247 1.18327034 52 9 13521 7.56400000 3057637069 3057637069 9.00000000
3.87550235 -3.90401602 -0.48127401 6 10 13521 5.52200000 3057637071 3057637071 -5.00000000
5.24944973 -5.28991842 1.44862187 56 11 13522 7.59200000 3057637073 3057637073 11.00000000
3.85547638 -3.88655519 -0.28690571 5 12 13523 5.48200000 3057637076 3057637076 -3.00000000
5.23487902 -5.27891970 1.71637654 60 13 13524 7.63000000 3057637078 3057637078 13.00000000
3.68565965 -3.71796417 -0.09138080 25 14 13525 5.23600000 3057637080 3057637080 -1.00000000
5.21896029 -5.26654243 1.98669493 47 15 13526 7.67600000 3057637083 3057637083 15.00000000
1.47629285 -1.49339712 -0.56267262 4 0 13533 2.17400000 3057637103 3057637103 -15.00000000
3.90330267 -3.94990492 0.09693067 10 1 13534 5.55400000 3057637106 3057637106 1.00000000
1.70916617 -1.73017621 -0.56147784 3 2 13535 2.49600000 3057637108 3057637108 -13.00000000
3.39616513 -3.43911314 0.25330603 18 3 13536 4.84000000 3057637110 3057637110 3.00000000
2.03335452 -2.05906820 -0.56250495 3 4 13536 2.94800000 3057637113 3057637113 -11.00000000
3.89677835 -3.94743490 0.48528317 8 5 13537 5.56800000 3057637115 3057637115 5.00000000
2.48780131 -2.52102137 -0.56097400 5 6 13538 3.58600000 3057637117 3057637117 -9.00000000
5.23339605 -5.30513096 0.91499501 52 7 13539 7.50800000 3057637119 3057637119 7.00000000
3.20443487 -3.24949265 -0.56035525 2 8 13540 4.59800000 3057637122 3057637122 -7.00000000
5.23044014 -5.30398560 1.17982876 52 9 13540 7.54200000 3057637124 3057637124 9.00000000
3.87583828 -3.93170905 -0.48301712 3 10 13541 5.54200000 3057637126 3057637126 -5.00000000
5.20890427 -5.28583622 1.44251597 56 11 13542 7.56000000 3057637129 3057637129 11.00000000
3.81665683 -3.87437844 -0.28502160 5 12 13543 5.44600000 3057637131 3057637131 -3.00000000
5.20001221 -5.28049850 1.71097767 66 13 13544 7.60600000 3057637133 3057637133 13.00000000
5.18384886 -5.26592302 1.97996569 45 15 13545 7.65000000 3057637138 3057637138 15.00000000
1.45889091 -1.48613381 -0.55801386 4 0 13553 2.15600000 3057637159 3057637159 -15.00000000
3.02111340 -3.07860374 0.07528968 7 1 13554 4.31400000 3057637161 3057637161 1.00000000
1.70038700 -1.73334944 -0.56057805 3 2 13555 2.49200000 3057637163 3057637163 -13.00000000
3.00796890 -3.06734991 0.22514929 5 3 13556 4.30200000 3057637166 3057637166 3.00000000
2.02065611 -2.06054640 -0.56097847 3 4 13556 2.94000000 3057637168 3057637168 -11.00000000
3.00289035 -3.06324029 0.37529263 5 5 13557 4.30600000 3057637170 3057637170 5.00000000
2.48728156 -2.53815532 -0.56285119 5 6 13558 3.59800000 3057637172 3057637172 -9.00000000
5.20234346 -5.31060410 0.91280138 15 7 13559 7.49000000 3057637175 3057637175 7.00000000
3.19307256 -3.26065850 -0.56035525 2 8 13560 4.59800000 3057637177 3057637177 -7.00000000
5.18425226 -5.29398394 1.17357135 57 9 13560 7.50200000 3057637179 3057637179 9.00000000
3.86487794 -3.94806170 -0.48336574 3 10 13561 5.54600000 3057637182 3057637182 -5.00000000
5.18218279 -5.29556751 1.44022632 59 11 13562 7.54800000 3057637184 3057637184 11.00000000
3.81567955 -3.90052700 -0.28596365 5 12 13563 5.46400000 3057637186 3057637186 -3.00000000
5.16519833 -5.28189850 1.70557892 66 13 13564 7.58200000 3057637189 3057637189 13.00000000
3.00820804 -3.07724833 -0.07511516 7 14 13565 4.30400000 3057637191 3057637191 -1.00000000
5.14923048 -5.26740885 1.97375405 45 15 13565 7.62600000 3057637193 3057637193 15.00000000
1.45639145 -1.49398398 -0.55904913 4 0 13573 2.16000000 3057637214 3057637214 -15.00000000
2.99778819 -3.07624125 0.07497554 13 1 13574 4.29600000 3057637216 3057637216 1.00000000
1.70792425 -1.75323319 -0.56507707 3 2 13575 2.51200000 3057637219 3057637219 -13.00000000
3.01675129 -3.09786344 0.22661468 15 3 13576 4.33000000 3057637221 3057637221 3.00000000
2.01208162 -2.06618071 -0.56059682 3 4 13576 2.93800000 3057637223 3057637223 -11.00000000
2.98800993 -3.06942081 0.37476969 7 5 13577 4.30000000 3057637225 3057637225 5.00000000
2.47014070 -2.53832793 -0.56097400 5 6 13578 3.58600000 3057637228 3057637228 -9.00000000
3.02859783 -3.11328816 0.53330022 3 7 13579 4.37600000 3057637230 3057637230 7.00000000
3.18305540 -3.27320766 -0.56059897 4 8 13580 4.60000000 3057637232 3057637232 -7.00000000
5.14553690 -5.29311991 1.16919124 55 9 13581 7.47400000 3057637235 3057637235 9.00000000
3.85107327 -3.96152854 -0.48336574 3 10 13581 5.54600000 3057637237 3057637237 -5.00000000
5.13903809 -5.28828096 1.43335712 59 11 13582 7.51200000 3057637239 3057637239 11.00000000
3.82709098 -3.93960905 -0.28784776 2 12 13583 5.50000000 3057637242 3057637242 -3.00000000
5.13043833 -5.28311968 1.70018005 70 13 13584 7.55800000 3057637244 3057637244 13.00000000
2.99605536 -3.08629537 -0.07508025 7 14 13585 4.30200000 3057637246 3057637246 -1.00000000
5.10793734 -5.26178646 1.96495414 47 15 13585 7.59200000 3057637248 3057637248 15.00000000
1.44713664 -1.49489450 -0.55749625 3 0 13593 2.15400000 3057637269 3057637269 -15.00000000
3.00093794 -3.10105681 0.07532459 5 1 13594 4.31600000 3057637272 3057637272 1.00000000
1.69637418 -1.75358188 -0.56327742 3 2 13595 2.50400000 3057637274 3057637274 -13.00000000
3.04340649 -3.14713979 0.22944084 7 3 13596 4.38400000 3057637276 3057637276 3.00000000
2.00076270 -2.06895781 -0.55945200 3 4 13596 2.93200000 3057637278 3057637278 -11.00000000
2.98420143 -3.08699465 0.37564126 5 5 13597 4.31000000 3057637281 3057637281 5.00000000
2.45302892 -2.53841209 -0.55909675 5 6 13598 3.57400000 3057637283 3057637283 -9.00000000
3.00529909 -3.11099148 0.53110659 7 7 13599 4.35800000 3057637285 3057637285 7.00000000
3.16471553 -3.27715874 -0.55938029 2 8 13600 4.59000000 3057637288 3057637288 -7.00000000
5.11330938 -5.29683685 1.16606247 55 9 13601 7.45400000 3057637290 3057637290 9.00000000
3.86766458 -4.00648308 -0.48720059 3 10 13601 5.59000000 3057637292 3057637292 -5.00000000
5.09737110 -5.28217125 1.42686963 59 11 13602 7.47800000 3057637295 3057637295 11.00000000
3.81608915 -3.95581889 -0.28805709 2 12 13603 5.50400000 3057637297 3057637297 -3.00000000
5.09843826 -5.28696871 1.69568110 70 13 13604 7.53800000 3057637299 3057637299 13.00000000
3.67780066 -3.81513119 -0.09249775 23 14 13605 5.30000000 3057637301 3057637301 -1.00000000
5.07655287 -5.26795292 1.96029544 45 15 13606 7.57400000 3057637304 3057637304 15.00000000
1.44057083 -1.49854422 -0.55697858 3 0 13613 2.15200000 3057637325 3057637325 -15.00000000
5.10727072 -5.31466055 0.12865914 9 1 13614 7.37200000 3057637327 3057637327 1.00000000
1.68214250 -1.75106049 -0.56057805 3 2 13615 2.49200000 3057637329 3057637329 -13.00000000
3.41145277 -3.55246210 0.25812092 24 3 13616 4.93200000 3057637331 3057637331 3.00000000
1.99896777 -2.08159328 -0.56097847 3 4 13616 2.94000000 3057637334 3057637334 -11.00000000
2.44005013 -2.54268336 -0.55815816 5 6 13618 3.56800000 3057637338 3057637338 -9.00000000
2.99029875 -3.11716533 0.53037536 5 7 13619 4.35200000 3057637341 3057637341 7.00000000
3.14363909 -3.27815652 -0.55767411 4 8 13620 4.57600000 3057637343 3057637343 -7.00000000
5.07838488 -5.29754162 1.16230810 52 9 13621 7.43000000 3057637345 3057637345 9.00000000
4.41619301 -4.60677290 -0.55831969 15 10 13621 6.40600000 3057637348 3057637348 -5.00000000
5.06124353 -5.28150511 1.42190862 56 11 13622 7.45200000 3057637350 3057637350 11.00000000
3.80778408 -3.97488451 -0.28847578 2 12 13623 5.51200000 3057637352 3057637352 -3.00000000
5.05569124 -5.27939892 1.68758285 70 13 13624 7.50200000 3057637354 3057637354 13.00000000
3.68382049 -3.84816909 -0.09298642 25 14 13625 5.32800000 3057637357 3057637357 -1.00000000
5.04168892 -5.26661682 1.95356619 47 15 13625 7.54800000 3057637359 3057637359 15.00000000
1.44867063 -1.51753724 -0.56215495 4 0 13633 2.17200000 3057637380 3057637380 -15.00000000
5.07212114 -5.31509590 0.12824029 9 1 13634 7.34800000 3057637382 3057637382 1.00000000
1.68678081 -1.76820207 -0.56417722 3 2 13635 2.50800000 3057637384 3057637384 -13.00000000
3.41143680 -3.57735729 0.25906298 24 3 13636 4.95000000 3057637387 3057637387 3.00000000
1.98626995 -2.08287525 -0.55945200 3 4 13636 2.93200000 3057637389 3057637389 -11.00000000
2.43661070 -2.55690551 -0.55940962 3 6 13638 3.57600000 3057637394 3057637394 -9.00000000
5.04964399 -5.30079556 0.89890826 30 7 13639 7.37600000 3057637396 3057637396 7.00000000
3.14312863 -3.30061007 -0.55962402 4 8 13640 4.59200000 3057637398 3057637398 -7.00000000
5.04215622 -5.29663610 1.15824080 52 9 13641 7.40400000 3057637401 3057637401 9.00000000
4.39733791 -4.61927366 -0.55797106 19 10 13641 6.40200000 3057637403 3057637403 -5.00000000
5.03194952 -5.28776217 1.41885567 53 11 13642 7.43600000 3057637405 3057637405 11.00000000
3.82417083 -4.01998758 -0.29077858 2 12 13643 5.55600000 3057637407 3057637407 -3.00000000
5.01037359 -5.26877117 1.67858481 64 13 13644 7.46200000 3057637410 3057637410 13.00000000
3.67036533 -3.86100459 -0.09298642 27 14 13645 5.32800000 3057637412 3057637412 -1.00000000
5.00730228 -5.26738167 1.94735444 47 15 13645 7.52400000 3057637414 3057637414 15.00000000
1.43273211 -1.51136863 -0.55801386 4 0 13653 2.15600000 3057637435 3057637435 -15.00000000
5.04528427 -5.32405949 0.12803085 9 1 13654 7.33600000 3057637437 3057637437 1.00000000
1.66183579 -1.75427294 -0.55787861 1 2 13655 2.48000000 3057637440 3057637440 -13.00000000
3.40642285 -3.59590006 0.25958633 20 3 13655 4.96000000 3057637442 3057637442 3.00000000
1.96683788 -2.07696629 -0.55601740 3 4 13656 2.91400000 3057637444 3057637444 -11.00000000
2.43581700 -2.57400393 -0.56128687 3 6 13658 3.58800000 3057637449 3057637449 -9.00000000
5.02019644 -5.30685329 0.89695835 60 7 13659 7.36000000 3057637451 3057637451 7.00000000
3.12886024 -3.30867696 -0.55913657 4 8 13660 4.58800000 3057637453 3057637453 -7.00000000
5.00827694 -5.29610443 1.15448630 50 9 13660 7.38000000 3057637456 3057637456 9.00000000
4.36613131 -4.61866903 -0.55605364 19 10 13661 6.38000000 3057637458 3057637458 -5.00000000
5.00267363 -5.29387951 1.41580272 56 11 13662 7.42000000 3057637460 3057637460 11.00000000
5.03489304 -5.32983732 -0.38425058 11 12 13663 7.34200000 3057637463 3057637463 -3.00000000
4.98124790 -5.27489376 1.67498553 62 13 13664 7.44600000 3057637465 3057637465 13.00000000
3.66921973 -3.88688016 -0.09330057 34 14 13665 5.34600000 3057637467 3057637467 -1.00000000
4.96501493 -5.25954247 1.93803704 47 15 13665 7.48800000 3057637470 3057637470 15.00000000
1.42877185 -1.51776731 -0.55853152 4 0 13673 2.15800000 3057637490 3057637490 -15.00000000
5.00200176 -5.31542540 0.12740257 12 1 13674 7.30000000 3057637493 3057637493 1.00000000
1.43672216 -1.52728057 -0.48409468 1 2 13675 2.15200000 3057637495 3057637495 -13.00000000
3.40963912 -3.62582111 0.26084241 20 3 13676 4.98400000 3057637497 3057637497 3.00000000
1.96764565 -2.09240055 -0.55830711 3 4 13676 2.92600000 3057637500 3057637500 -11.00000000
2.41870093 -2.57385373 -0.55940962 3 6 13678 3.57600000 3057637504 3057637504 -9.00000000
4.98533201 -5.30698299 0.89403349 52 7 13679 7.33600000 3057637506 3057637506 7.00000000
3.12680411 -3.32970810 -0.56084269 4 8 13680 4.60200000 3057637509 3057637509 -7.00000000
4.96855259 -5.29282188 1.14979327 52 9 13681 7.35000000 3057637511 3057637511 9.00000000
4.34316444 -4.62661839 -0.55518210 19 10 13681 6.37000000 3057637513 3057637513 -5.00000000
4.96266890 -5.28840399 1.40969682 56 11 13682 7.38800000 3057637516 3057637516 11.00000000
4.99302816 -5.32261705 -0.38247117 11 12 13683 7.30800000 3057637518 3057637518 -3.00000000
4.95214081 -5.28087759 1.67138636 62 13 13684 7.43000000 3057637520 3057637520 13.00000000
3.67340875 -3.91863012 -0.09375433 31 14 13685 5.37200000 3057637523 3057637523 -1.00000000
4.92721081 -5.25796986 1.93079007 47 15 13686 7.46000000 3057637525 3057637525 15.00000000
1.42927551 -1.52789164 -0.56060207 6 0 13691 2.16600000 3057637546 3057637546 -15.00000000
4.95523024 -5.29898071 0.12663466 9 1 13692 7.25600000 3057637548 3057637548 1.00000000
1.40530133 -1.50331473 -0.47509661 4 2 13693 2.11200000 3057637550 3057637550 -13.00000000
3.41386914 -3.65197110 0.26199380 21 3 13693 5.00600000 3057637553 3057637553 3.00000000
1.96642423 -2.10430956 -0.55983359 3 4 13694 2.93400000 3057637555 3057637555 -11.00000000
2.40521002 -2.57566452 -0.55815816 5 6 13696 3.56800000 3057637559 3057637559 -9.00000000
4.95102549 -5.30375433 0.89086491 57 7 13697 7.31000000 3057637562 3057637562 7.00000000
3.10955644 -3.33225822 -0.55962402 4 8 13698 4.59200000 3057637564 3057637564 -7.00000000
4.93842554 -5.29396009 1.14666462 52 9 13699 7.33000000 3057637566 3057637566 9.00000000
4.31773567 -4.62858438 -0.55378759 19 10 13699 6.35400000 3057637569 3057637569 -5.00000000
4.92326880 -5.27955914 1.40320933 59 11 13700 7.35400000 3057637571 3057637571 11.00000000
4.95993948 -5.32074547 -0.38121510 11 12 13701 7.28400000 3057637573 3057637573 -3.00000000
4.92489767 -5.28500366 1.66778708 64 13 13702 7.41400000 3057637576 3057637576 13.00000000
3.66925812 -3.93893027 -0.09396376 29 14 13703 5.38400000 3057637578 3057637578 -1.00000000
4.89710379 -5.25701666 1.92509604 47 15 13703 7.43800000 3057637580 3057637580 15.00000000
1.42393351 -1.53287137 -0.56060207 4 0 13711 2.16600000 3057637601 3057637601 -15.00000000
4.92037439 -5.29866123 0.12621580 12 1 13712 7.23200000 3057637603 3057637603 1.00000000
1.39209044 -1.49964166 -0.47239721 4 2 13713 2.10000000 3057637605 3057637605 -13.00000000
3.40653586 -3.66972065 0.26241249 21 3 13713 5.01400000 3057637608 3057637608 3.00000000
1.95372510 -2.10540438 -0.55830711 3 4 13714 2.92600000 3057637610 3057637610 -11.00000000
3.79125333 -4.08702087 0.48772353 2 5 13715 5.59600000 3057637612 3057637612 5.00000000
2.39351845 -2.58114767 -0.55753243 5 6 13716 3.56400000 3057637615 3057637615 -9.00000000
4.90414190 -5.29043198 0.88574636 52 7 13717 7.26800000 3057637617 3057637617 7.00000000
3.10330272 -3.34891653 -0.56059897 6 8 13718 4.60000000 3057637619 3057637619 -7.00000000
4.91186142 -5.30247116 1.14478743 52 9 13719 7.31800000 3057637622 3057637622 9.00000000
4.30426025 -4.64655161 -0.55413622 19 10 13719 6.35800000 3057637624 3057637624 -5.00000000
4.88746881 -5.27798605 1.39824831 59 11 13720 7.32800000 3057637626 3057637626 11.00000000
4.91420126 -5.30871248 -0.37912166 11 12 13721 7.24400000 3057637629 3057637629 -3.00000000
4.88524294 -5.27927780 1.66058874 70 13 13722 7.38200000 3057637631 3057637631 13.00000000
4.86822891 -5.26273346 1.92095494 47 15 13723 7.42200000 3057637635 3057637635 15.00000000
1.42250371 -1.54209244 -0.56215495 4 0 13731 2.17200000 3057637656 3057637656 -15.00000000
4.89642620 -5.30992413 0.12607618 9 1 13732 7.22400000 3057637658 3057637658 1.00000000
1.39477205 -1.51308894 -0.47509661 4 2 13733 2.11200000 3057637661 3057637661 -13.00000000
3.40118337 -3.69099402 0.26304051 19 3 13734 5.02600000 3057637663 3057637663 3.00000000
1.95035517 -2.11654258 -0.55945200 3 4 13734 2.93200000 3057637665 3057637665 -11.00000000
3.77156425 -4.09436846 0.48702630 2 5 13735 5.58800000 3057637668 3057637668 5.00000000
2.38181758 -2.58658075 -0.55690670 5 6 13736 3.56000000 3057637670 3057637670 -9.00000000
4.87220049 -5.29291344 0.88330901 52 7 13737 7.24800000 3057637672 3057637672 7.00000000
3.08084059 -3.34804249 -0.55864906 6 8 13738 4.58400000 3057637675 3057637675 -7.00000000
4.86749887 -5.28965855 1.13853002 55 9 13738 7.27800000 3057637677 3057637677 9.00000000
4.27992153 -4.65274954 -0.55309033 15 10 13739 6.34600000 3057637679 3057637679 -5.00000000
4.85971308 -5.28489828 1.39557695 59 11 13740 7.31400000 3057637682 3057637682 11.00000000
4.88482714 -5.31407070 -0.37828431 11 12 13741 7.22800000 3057637684 3057637684 -3.00000000
4.84041357 -5.26759958 1.65159059 70 13 13742 7.34200000 3057637686 3057637686 13.00000000
3.12355709 -3.40041447 -0.08059521 5 14 13743 4.61800000 3057637688 3057637688 -1.00000000
4.83453417 -5.26488876 1.91526091 47 15 13744 7.40000000 3057637691 3057637691 15.00000000
1.41189253 -1.54135036 -0.56008440 6 0 13751 2.16400000 3057637711 3057637711 -15.00000000
4.86435652 -5.31223536 0.12572713 9 1 13752 7.20400000 3057637714 3057637714 1.00000000
1.39737666 -1.52657306 -0.47779605 4 2 13753 2.12400000 3057637716 3057637716 -13.00000000
3.40915322 -3.72435117 0.26461059 21 3 13753 5.05600000 3057637718 3057637718 3.00000000
1.93500304 -2.11464739 -0.55716228 3 4 13754 2.92000000 3057637721 3057637721 -11.00000000
3.73304367 -4.08104658 0.48388869 2 5 13755 5.55200000 3057637723 3057637723 5.00000000
2.38610458 -2.60945702 -0.56003541 5 6 13756 3.58000000 3057637725 3057637725 -9.00000000
4.84030199 -5.29523611 0.88087159 52 7 13757 7.22800000 3057637728 3057637728 7.00000000
3.06645679 -3.35584545 -0.55816162 6 8 13758 4.58000000 3057637730 3057637730 -7.00000000
4.82942724 -5.28704405 1.13414991 55 9 13759 7.25000000 3057637732 3057637732 9.00000000
4.25290442 -4.65589237 -0.55169582 15 10 13759 6.33000000 3057637735 3057637735 -5.00000000
4.82799768 -5.28733206 1.39176083 59 11 13760 7.29400000 3057637737 3057637737 11.00000000
4.86086178 -5.32518911 -0.37786561 11 12 13761 7.22000000 3057637739 3057637739 -3.00000000
4.80886173 -5.27006865 1.64709163 72 13 13762 7.32200000 3057637741 3057637741 13.00000000
3.13457799 -3.43641281 -0.08118860 5 14 13763 4.65200000 3057637744 3057637744 -1.00000000
4.79790354 -5.26174736 1.90801406 47 15 13764 7.37200000 3057637746 3057637746 15.00000000
1.38180530 -1.51911676 -0.55024928 17 0 13771 2.12600000 3057637767 3057637767 -15.00000000
4.82694960 -5.30846977 0.12523846 12 1 13772 7.17600000 3057637769 3057637769 1.00000000
1.39466095 -1.53432560 -0.47869584 4 2 13773 2.12800000 3057637771 3057637771 -13.00000000
3.41762662 -3.75987554 0.26628536 19 3 13773 5.08800000 3057637774 3057637774 3.00000000
1.93025041 -2.12429476 -0.55792552 3 4 13774 2.92400000 3057637776 3057637776 -11.00000000
3.71743584 -4.09257746 0.48371437 2 5 13775 5.55000000 3057637778 3057637778 5.00000000
2.36635780 -2.60607052 -0.55753243 5 6 13776 3.56400000 3057637781 3057637781 -9.00000000
4.80844641 -5.29740095 0.87843424 55 7 13777 7.20800000 3057637783 3057637783 7.00000000
3.06272769 -3.37534952 -0.55962402 6 8 13778 4.59200000 3057637785 3057637785 -7.00000000
4.79593945 -5.28547525 1.13039541 55 9 13778 7.22600000 3057637788 3057637788 9.00000000
4.22591782 -4.65890360 -0.55030137 19 10 13779 6.31400000 3057637790 3057637790 -5.00000000
4.78709269 -5.27942801 1.38527334 53 11 13780 7.26000000 3057637792 3057637792 11.00000000
4.82346487 -5.32140684 -0.37640020 11 12 13781 7.19200000 3057637794 3057637794 -3.00000000
4.77735138 -5.27238178 1.64259255 70 13 13782 7.30200000 3057637797 3057637797 13.00000000
3.12659097 -3.45177984 -0.08129331 5 14 13783 4.65800000 3057637799 3057637799 -1.00000000
4.75616741 -5.25268650 1.89869654 49 15 13784 7.33600000 3057637801 3057637801 15.00000000
1.37001967 -1.51676285 -0.54766113 38 0 13791 2.11600000 3057637822 3057637822 -15.00000000
4.79230833 -5.30747604 0.12481961 12 1 13792 7.15200000 3057637824 3057637824 1.00000000
1.38668525 -1.53629124 -0.47779605 4 2 13793 2.12400000 3057637827 3057637827 -13.00000000
3.42054033 -3.78957391 0.26754141 17 3 13793 5.11200000 3057637829 3057637829 3.00000000
1.91493225 -2.12227416 -0.55563581 3 4 13794 2.91200000 3057637831 3057637831 -11.00000000
3.69111729 -4.09221363 0.48214558 2 5 13795 5.53200000 3057637834 3057637834 5.00000000
2.35989213 -2.61724901 -0.55815816 5 6 13796 3.56800000 3057637836 3057637836 -9.00000000
4.77663517 -5.29940844 0.87599683 50 7 13797 7.18800000 3057637838 3057637838 7.00000000
3.04826927 -3.38307047 -0.55913657 6 8 13798 4.58800000 3057637841 3057637841 -7.00000000
4.76423740 -5.28750849 1.12726676 52 9 13798 7.20600000 3057637843 3057637843 9.00000000
4.20162868 -4.66474390 -0.54925549 15 10 13799 6.30200000 3057637845 3057637845 -5.00000000
4.74761629 -5.27276230 1.37916744 53 11 13800 7.22800000 3057637847 3057637847 11.00000000
4.78348160 -5.31445980 -0.37472546 11 12 13801 7.16000000 3057637850 3057637850 -3.00000000
4.74327660 -5.27164173 1.63719380 70 13 13802 7.27800000 3057637852 3057637852 13.00000000
4.77676105 -5.31071997 -0.12467999 6 14 13803 7.14400000 3057637854 3057637854 -1.00000000
4.72746992 -5.25776434 1.89455545 49 15 13804 7.32000000 3057637857 3057637857 15.00000000
1.37116635 -1.52872646 -0.55024928 64 0 13811 2.12600000 3057637877 3057637877 -15.00000000
4.77508783 -5.32566118 0.12485451 6 1 13812 7.15400000 3057637880 3057637880 1.00000000
1.37871277 -1.53822005 -0.47689623 4 2 13813 2.12000000 3057637882 3057637882 -13.00000000
3.42195487 -3.81785083 0.26869279 17 3 13813 5.13400000 3057637884 3057637884 3.00000000
1.92061353 -2.14356732 -0.55945200 3 4 13814 2.93200000 3057637887 3057637887 -11.00000000
2.34283590 -2.61664057 -0.55628097 5 6 13816 3.55600000 3057637891 3057637891 -9.00000000
4.72898197 -5.28350830 0.87063462 52 7 13817 7.14400000 3057637893 3057637893 7.00000000
3.02849960 -3.38481402 -0.55767411 6 8 13818 4.57600000 3057637896 3057637896 -7.00000000
4.73784828 -5.29527378 1.12538958 55 9 13818 7.19400000 3057637898 3057637898 9.00000000
4.18797684 -4.68235207 -0.54960412 15 10 13819 6.30600000 3057637900 3057637900 -5.00000000
4.71609640 -5.27466679 1.37535119 53 11 13820 7.20800000 3057637903 3057637903 11.00000000
4.74360609 -5.30729866 -0.37305069 11 12 13821 7.12800000 3057637905 3057637905 -3.00000000
4.70666885 -5.26782227 1.63089514 66 13 13822 7.25000000 3057637907 3057637907 13.00000000
4.73821259 -5.30499029 -0.12415642 8 14 13823 7.11400000 3057637910 3057637910 -1.00000000
4.69456625 -5.25612259 1.88834381 49 15 13823 7.29600000 3057637912 3057637912 15.00000000
1.36453676 -1.53206086 -0.54973167 77 0 13831 2.12400000 3057637933 3057637933 -15.00000000
3.03445935 -3.40819716 0.07965279 6 1 13832 4.56400000 3057637935 3057637935 1.00000000
1.37074387 -1.54011190 -0.47599643 4 2 13833 2.11600000 3057637937 3057637937 -13.00000000
3.02618456 -3.40009785 0.23854730 5 3 13833 4.55800000 3057637940 3057637940 3.00000000
1.90006948 -2.13559103 -0.55563581 3 4 13834 2.91200000 3057637942 3057637942 -11.00000000
2.32843757 -2.61889768 -0.55502951 5 6 13836 3.54800000 3057637946 3057637946 -9.00000000
4.69996023 -5.28811312 0.86868471 55 7 13837 7.12800000 3057637949 3057637949 7.00000000
3.01402903 -3.39239669 -0.55718666 6 8 13838 4.57200000 3057637951 3057637951 -7.00000000
4.69965553 -5.28962898 1.12069654 52 9 13838 7.16400000 3057637953 3057637953 9.00000000
4.16763783 -4.69247341 -0.54908121 15 10 13839 6.30000000 3057637956 3057637956 -5.00000000
4.68983459 -5.28228807 1.37306154 56 11 13840 7.19600000 3057637958 3057637958 11.00000000
4.71179342 -5.30888700 -0.37200397 11 12 13841 7.10800000 3057637960 3057637960 -3.00000000
4.67273235 -5.26672697 1.62549627 60 13 13842 7.22600000 3057637963 3057637963 13.00000000
4.70108986 -5.30055237 -0.12366775 8 14 13843 7.08600000 3057637965 3057637965 -1.00000000
4.66758013 -5.26462030 1.88523793 47 15 13844 7.28400000 3057637967 3057637967 15.00000000
1.34664798 -1.52210867 -0.54455525 81 0 13850 2.10400000 3057637988 3057637988 -15.00000000
3.01519203 -3.40925360 0.07944335 14 1 13851 4.55200000 3057637990 3057637990 1.00000000
1.37595522 -1.55632877 -0.47959566 4 2 13852 2.13200000 3057637993 3057637993 -13.00000000
3.00636172 -3.40166116 0.23791926 13 3 13853 4.54600000 3057637995 3057637995 3.00000000
1.89037681 -2.13893795 -0.55487257 3 4 13853 2.90800000 3057637997 3057637997 -11.00000000
2.32758594 -2.63548827 -0.55690670 5 6 13855 3.56000000 3057638002 3057638002 -9.00000000
4.67714357 -5.29771757 0.86770970 55 7 13856 7.12000000 3057638004 3057638004 7.00000000
3.00013590 -3.39939618 -0.55669916 8 8 13857 4.56800000 3057638006 3057638006 -7.00000000
4.66248178 -5.28296852 1.11600351 55 9 13857 7.13400000 3057638009 3057638009 9.00000000
4.13755465 -4.68983316 -0.54716372 15 10 13858 6.27800000 3057638011 3057638011 -5.00000000
4.66060495 -5.28455925 1.36962700 59 11 13859 7.17800000 3057638013 3057638013 11.00000000
4.67831278 -5.30650425 -0.37074792 11 12 13860 7.08400000 3057638016 3057638016 -3.00000000
4.64493370 -5.27049732 1.62189710 64 13 13861 7.21000000 3057638018 3057638018 13.00000000
4.66365814 -5.29360580 -0.12314418 8 14 13862 7.05600000 3057638020 3057638020 -1.00000000
4.62803125 -5.25316620 1.87592041 49 15 13862 7.24800000 3057638023 3057638023 15.00000000
1.33622658 -1.52099478 -0.54248470 81 0 13870 2.09600000 3057638043 3057638043 -15.00000000
3.01119041 -3.42877293 0.07965279 6 1 13871 4.56400000 3057638046 3057638046 1.00000000
1.37951386 -1.57137358 -0.48274496 4 2 13872 2.14600000 3057638048 3057638048 -13.00000000
3.00105643 -3.41964054 0.23844261 5 3 13873 4.55600000 3057638050 3057638050 3.00000000
1.88548899 -2.14847493 -0.55563581 3 4 13873 2.91200000 3057638052 3057638052 -11.00000000
4.62899303 -5.27649689 0.61409938 3 5 13874 7.04600000 3057638055 3057638055 5.00000000
2.31055760 -2.63468599 -0.55502951 5 6 13875 3.54800000 3057638057 3057638057 -9.00000000
4.64815378 -5.30206966 0.86575979 62 7 13876 7.10400000 3057638059 3057638059 7.00000000
2.98563480 -3.40686226 -0.55621171 8 8 13877 4.56400000 3057638062 3057638062 -7.00000000
4.62486362 -5.27922010 1.11162329 55 9 13878 7.10600000 3057638064 3057638064 9.00000000
4.11853313 -4.70125008 -0.54681516 11 10 13878 6.27400000 3057638066 3057638066 -5.00000000
4.62014198 -5.27568722 1.36313951 59 11 13879 7.14400000 3057638069 3057638069 11.00000000
4.64923668 -5.31078053 -0.36991054 11 12 13880 7.06800000 3057638071 3057638071 -3.00000000
4.61752462 -5.27641344 1.61874783 53 13 13881 7.19600000 3057638073 3057638073 13.00000000
4.63330173 -5.29630709 -0.12283003 6 14 13882 7.03800000 3057638076 3057638076 -1.00000000
4.59221363 -5.25118876 1.86919117 47 15 13883 7.22200000 3057638078 3057638078 15.00000000
1.33545423 -1.53193915 -0.54455525 78 0 13892 2.10400000 3057638099 3057638099 -15.00000000
3.00719905 -3.45086288 0.07989711 4 1 13893 4.57800000 3057638101 3057638101 1.00000000
1.46691215 -1.68392467 -0.51558781 2 2 13894 2.29200000 3057638103 3057638103 -13.00000000
3.00757861 -3.45373154 0.24001269 3 3 13895 4.58600000 3057638105 3057638105 3.00000000
1.87980413 -2.15865993 -0.55639905 3 4 13895 2.91600000 3057638108 3057638108 -11.00000000
4.61654758 -5.30324888 0.61514521 60 5 13896 7.05800000 3057638110 3057638110 5.00000000
2.31079793 -2.65545964 -0.55753243 3 6 13897 3.56400000 3057638112 3057638112 -9.00000000
4.59909773 -5.28692865 0.86039758 52 7 13898 7.06000000 3057638115 3057638115 7.00000000
2.97904444 -3.42579079 -0.55743039 8 8 13899 4.57400000 3057638117 3057638117 -7.00000000
4.59770632 -5.28719187 1.10974610 57 9 13899 7.09400000 3057638119 3057638119 9.00000000
4.10567999 -4.72304440 -0.54751235 11 10 13900 6.28200000 3057638122 3057638122 -5.00000000
4.57795906 -5.26819611 1.35665190 59 11 13901 7.11000000 3057638124 3057638124 11.00000000
4.61047363 -5.30748367 -0.36844513 11 12 13902 7.04000000 3057638126 3057638126 -3.00000000
3.33746052 -3.84472680 -0.08886766 6 14 13904 5.09200000 3057638131 3057638131 -1.00000000
4.55900574 -5.25193691 1.86349714 47 15 13904 7.20000000 3057638133 3057638133 15.00000000
1.33262742 -1.53951263 -0.54559052 76 0 13912 2.10800000 3057638154 3057638154 -15.00000000
4.58756781 -5.30164003 0.12237627 9 1 13913 7.01200000 3057638156 3057638156 1.00000000
1.57831514 -1.82462931 -0.55697882 3 2 13914 2.47600000 3057638158 3057638158 -13.00000000
3.51021385 -4.05945444 0.28125343 2 3 13915 5.37400000 3057638161 3057638161 3.00000000
1.87739408 -2.17114878 -0.55792552 3 4 13915 2.92400000 3057638163 3057638163 -11.00000000
4.58497858 -5.30425787 0.61340213 37 5 13916 7.03800000 3057638165 3057638165 5.00000000
2.29376554 -2.65454173 -0.55565524 3 6 13917 3.55200000 3057638168 3057638168 -9.00000000
4.56504345 -5.28492308 0.85747272 55 7 13918 7.03600000 3057638170 3057638170 7.00000000
2.95928383 -3.42715383 -0.55596793 8 8 13919 4.56200000 3057638172 3057638172 -7.00000000
4.56280756 -5.28606367 1.10599172 57 9 13920 7.07000000 3057638175 3057638175 9.00000000
4.07094193 -4.71623182 -0.54507202 11 10 13920 6.25400000 3057638177 3057638177 -5.00000000
4.54543304 -5.26779366 1.35245419 21 11 13921 7.08800000 3057638179 3057638179 11.00000000
4.57626438 -5.30539656 -0.36718908 11 12 13922 7.01600000 3057638181 3057638181 -3.00000000
1.56908417 -1.81972694 0.55472928 3 13 13923 2.46600000 3057638184 3057638184 13.00000000
3.31226921 -3.84272122 -0.08855351 14 14 13924 5.07400000 3057638186 3057638186 -1.00000000
4.53089857 -5.25836706 1.85987365 40 15 13925 7.18600000 3057638188 3057638188 15.00000000
1.33030379 -1.54662085 -0.54662585 69 0 13930 2.11200000 3057638209 3057638209 -15.00000000
4.55524492 -5.29783106 0.12195741 11 1 13931 6.98800000 3057638211 3057638211 1.00000000
1.58400738 -1.84287930 -0.56102794 2 2 13932 2.49400000 3057638214 3057638214 -13.00000000
4.54003811 -5.28387499 0.36509565 7 3 13933 6.97600000 3057638216 3057638216 3.00000000
1.86544621 -2.17107964 -0.55639905 3 4 13933 2.91600000 3057638218 3057638218 -11.00000000
2.29056191 -2.66772938 -0.55690670 3 6 13935 3.56000000 3057638223 3057638223 -9.00000000
4.53031731 -5.27815008 0.85406035 52 7 13936 7.00800000 3057638225 3057638225 7.00000000
2.94462466 -3.43191409 -0.55523676 8 8 13937 4.55600000 3057638228 3057638228 -7.00000000
4.53166771 -5.28158855 1.10223722 55 9 13937 7.04600000 3057638230 3057638230 9.00000000
4.02756882 -4.69572687 -0.54123718 15 10 13938 6.21000000 3057638232 3057638232 -5.00000000
4.54657698 -5.30458212 -0.36614236 10 12 13940 6.99600000 3057638237 3057638237 -3.00000000
3.30018067 -3.85310817 -0.08855351 6 14 13942 5.07400000 3057638241 3057638241 -1.00000000
1.32866085 -1.55566204 -0.54817873 52 0 13950 2.11800000 3057638264 3057638264 -15.00000000
4.52893400 -5.30457449 0.12174799 11 1 13951 6.97600000 3057638267 3057638267 1.00000000
1.55858862 -1.82616317 -0.55427939 1 2 13952 2.46400000 3057638269 3057638269 -13.00000000
4.51897383 -5.29665184 0.36488628 10 3 13953 6.97200000 3057638271 3057638271 3.00000000
1.84511387 -2.16264272 -0.55258286 3 4 13953 2.89600000 3057638274 3057638274 -11.00000000
4.51608372 -5.29513550 0.60887003 13 5 13954 6.98600000 3057638276 3057638276 5.00000000
2.28123593 -2.67570877 -0.55690670 3 6 13955 3.56000000 3057638278 3057638278 -9.00000000
2.93520164 -3.44519401 -0.55572420 8 8 13957 4.56000000 3057638283 3057638283 -7.00000000
4.49434805 -5.27710819 1.09785712 42 9 13958 7.01800000 3057638285 3057638285 9.00000000
3.99565125 -4.69155502 -0.53914541 15 10 13958 6.18600000 3057638287 3057638287 -5.00000000
1.56285739 -1.83570194 0.46862689 6 11 13959 2.45600000 3057638290 3057638290 11.00000000
4.53062153 -5.32346249 -0.36635169 10 12 13960 7.00000000 3057638292 3057638292 -3.00000000
1.53677678 -1.80634522 0.54753089 35 13 13961 2.43400000 3057638294 3057638294 13.00000000
4.50449085 -5.29650354 -0.12136403 8 14 13962 6.95400000 3057638297 3057638297 -1.00000000
1.54410541 -1.81624365 0.63876539 1 15 13963 2.46800000 3057638299 3057638299 15.00000000
