# .PCD v0.7 - Point Cloud Data file format
VERSION 0.7
FIELDS x y z intensity laser_id azimuth distance_m adjustedtime timestamp vertical_angle
SIZE 4 4 4 1 1 2 8 8 4 8
TYPE F F F U U U F U U F
COUNT 1 1 1 1 1 1 1 1 1 1
WIDTH 522
HEIGHT 1
VIEWPOINT 0 0 0 1 0 0 0
POINTS 522
DATA ascii
-4.39424229 10.72493172 0.20230830 10 1 33772 11.59200000 3057393194 3057393194 1.00000000
-0.95859545 2.34078765 -0.58397293 3 2 33773 2.59600000 3057393196 3057393196 -13.00000000
-4.39801121 10.74481964 0.60845780 23 3 33774 11.62600000 3057393199 3057393199 3.00000000
-1.15719831 2.82716131 -0.59379756 4 4 33774 3.11200000 3057393201 3057393201 -11.00000000
-4.39522457 10.74336052 1.01553869 76 5 33775 11.65200000 3057393203 3057393203 5.00000000
-1.42502952 3.48497176 -0.59632820 2 6 33776 3.81200000 3057393206 3057393206 -9.00000000
-4.39341497 10.74964142 1.42587137 19 7 33777 11.70000000 3057393208 3057393208 7.00000000
-4.38102913 10.72468090 -1.42245901 2 8 33778 11.67200000 3057393210 3057393210 -7.00000000
-4.39207220 10.75707722 1.84029508 15 9 33779 11.76400000 3057393213 3057393213 9.00000000
-2.72406363 6.67178535 -0.63048464 4 10 33779 7.23400000 3057393215 3057393215 -5.00000000
-4.25272560 10.42098618 2.18781590 46 11 33780 11.46600000 3057393217 3057393217 11.00000000
-4.37281132 10.72059536 -0.60678309 8 12 33781 11.59400000 3057393219 3057393219 -3.00000000
-3.88514543 9.52976513 2.37593293 64 13 33782 10.56200000 3057393222 3057393222 13.00000000
-4.37364388 10.73334885 -0.20230830 8 14 33783 11.59200000 3057393224 3057393224 -1.00000000
-3.52906823 8.66067791 2.50588608 42 15 33783 9.68200000 3057393226 3057393226 15.00000000
-0.81841004 2.01752090 -0.58337814 4 0 33792 2.25400000 3057393247 3057393247 -15.00000000
-4.34889317 10.72614002 0.20202906 13 1 33793 11.57600000 3057393249 3057393249 1.00000000
-0.95440102 2.35512161 -0.58667237 3 2 33794 2.60800000 3057393252 3057393252 -13.00000000
-4.35072613 10.73604298 0.60709709 21 3 33794 11.60000000 3057393254 3057393254 3.00000000
-1.13945806 2.81318712 -0.58998144 2 4 33795 3.09200000 3057393256 3057393256 -11.00000000
-4.34684706 10.73723602 1.01344693 25 5 33796 11.62800000 3057393259 3057393259 5.00000000
-1.40780127 3.47918439 -0.59445095 2 6 33797 3.80000000 3057393261 3057393261 -9.00000000
-4.34579897 10.74542904 1.42319024 21 7 33798 11.67800000 3057393263 3057393263 7.00000000
-4.34169149 10.74066639 -1.42245901 2 8 33799 11.67200000 3057393265 3057393265 -7.00000000
-4.34783363 10.75586033 1.83747923 15 9 33799 11.74600000 3057393268 3057393268 9.00000000
-2.67720127 6.62630558 -0.62525529 4 10 33800 7.17400000 3057393270 3057393270 -5.00000000
-4.21891308 10.44742489 2.19010568 46 11 33801 11.47800000 3057393272 3057393272 11.00000000
-4.33498430 10.74025536 -0.60699242 8 12 33802 11.59800000 3057393275 3057393275 -3.00000000
-3.87643719 9.60900116 2.39212942 59 13 33803 10.63400000 3057393277 3057393277 13.00000000
-4.32679701 10.73076057 -0.20195925 8 14 33804 11.57200000 3057393279 3057393279 -1.00000000
-3.49730158 8.67355442 2.50588608 38 15 33804 9.68200000 3057393282 3057393282 15.00000000
-0.81280249 2.02395082 -0.58441341 4 0 33812 2.25800000 3057393302 3057393302 -15.00000000
-4.30770111 10.73197651 0.20185453 16 1 33813 11.56600000 3057393305 3057393305 1.00000000
-0.94617426 2.35843873 -0.58667237 3 2 33814 2.60800000 3057393307 3057393307 -13.00000000
-4.30688763 10.74079418 0.60646904 23 3 33815 11.58800000 3057393309 3057393309 3.00000000
-1.12524712 2.80621409 -0.58769172 2 4 33815 3.08000000 3057393312 3057393312 -11.00000000
-4.30711699 10.74679565 1.01292408 55 5 33816 11.62200000 3057393314 3057393314 5.00000000
-1.40299356 3.50241446 -0.59757966 2 6 33817 3.82000000 3057393316 3057393316 -9.00000000
-4.30826378 10.76053333 1.42319024 21 7 33818 11.67800000 3057393318 3057393318 7.00000000
-1.81282687 4.53009748 -0.59910971 2 8 33819 4.91600000 3057393321 3057393321 -7.00000000
-4.29811192 10.74604607 1.83309901 21 9 33820 11.71800000 3057393323 3057393323 9.00000000
-2.66885304 6.67260838 -0.62874150 4 10 33820 7.21400000 3057393325 3057393325 -5.00000000
-4.18241882 10.46208858 2.19010568 46 11 33821 11.47800000 3057393328 3057393328 11.00000000
-4.29005671 10.73677444 -0.60594571 8 12 33822 11.57800000 3057393330 3057393330 -3.00000000
-3.87178206 9.69486427 2.41012549 68 13 33823 10.71400000 3057393332 3057393332 13.00000000
-4.28189993 10.72722626 -0.20161019 8 14 33824 11.55200000 3057393335 3057393335 -1.00000000
-3.46334028 8.68093109 2.50433302 38 15 33825 9.67600000 3057393337 3057393337 15.00000000
-0.80072570 2.01213479 -0.58027232 4 0 33830 2.24200000 3057393358 3057393358 -15.00000000
-4.26213932 10.71572685 0.20129606 13 1 33831 11.53400000 3057393360 3057393360 1.00000000
-0.94307983 2.37226510 -0.58937174 3 2 33832 2.62000000 3057393362 3057393362 -13.00000000
-4.26762152 10.73496628 0.60542232 21 3 33832 11.56800000 3057393365 3057393365 3.00000000
-1.12077534 2.82068229 -0.58998144 2 4 33833 3.09200000 3057393367 3057393367 -11.00000000
-4.26671505 10.74360847 1.01135528 76 5 33834 11.60400000 3057393369 3057393369 5.00000000
-1.39489865 3.51414895 -0.59883112 2 6 33835 3.82800000 3057393371 3057393371 -9.00000000
-4.26638508 10.75371838 1.42050910 21 7 33836 11.65600000 3057393374 3057393374 7.00000000
-1.81468427 4.57636690 -0.60447192 2 8 33837 4.96000000 3057393376 3057393376 -7.00000000
-4.26141977 10.75215054 1.83184755 18 9 33838 11.71000000 3057393378 3057393378 9.00000000
-4.25260687 10.72991467 -1.00978649 4 10 33838 11.58600000 3057393381 3057393381 -5.00000000
-4.14736176 10.46970081 2.18896079 50 11 33839 11.47200000 3057393383 3057393383 11.00000000
-4.25042295 10.73534298 -0.60510832 8 12 33840 11.56200000 3057393385 3057393385 -3.00000000
-3.88002706 9.80482864 2.43442035 60 13 33841 10.82200000 3057393388 3057393388 13.00000000
-4.24008799 10.72017097 -0.20122625 8 14 33842 11.53000000 3057393390 3057393390 -1.00000000
-3.43472624 8.68398285 2.50226259 36 15 33842 9.66800000 3057393392 3057393392 15.00000000
-0.79794532 2.02570224 -0.58337814 4 0 33850 2.25400000 3057393413 3057393413 -15.00000000
-4.21665049 10.71007156 0.20091210 13 1 33851 11.51200000 3057393415 3057393415 1.00000000
-0.93479335 2.37554264 -0.58937174 3 2 33852 2.62000000 3057393417 3057393417 -13.00000000
-4.22281027 10.73121166 0.60437560 18 3 33852 11.54800000 3057393420 3057393420 3.00000000
-1.10661101 2.81361508 -0.58769172 2 4 33853 3.08000000 3057393422 3057393422 -11.00000000
-4.22043991 10.73618507 1.00926352 80 5 33854 11.58000000 3057393424 3057393424 5.00000000
-1.36962080 3.48590255 -0.59319949 2 6 33855 3.79200000 3057393427 3057393427 -9.00000000
-4.22156525 10.75006771 1.41807163 21 7 33856 11.63600000 3057393429 3057393429 7.00000000
-1.82335830 4.64550066 -0.61275905 2 8 33857 5.02800000 3057393431 3057393431 -7.00000000
-4.22097588 10.75960445 1.83059609 18 9 33858 11.70200000 3057393434 3057393434 9.00000000
-4.20639515 10.72243595 -1.00769472 4 10 33858 11.56200000 3057393436 3057393436 -5.00000000
-4.10864019 10.47863007 2.18781590 40 11 33859 11.46600000 3057393438 3057393438 11.00000000
-4.20563602 10.73151875 -0.60406160 8 12 33860 11.54200000 3057393441 3057393441 -3.00000000
-3.87278605 9.88726425 2.45151663 62 13 33861 10.89800000 3057393443 3057393443 13.00000000
-4.19899654 10.72559547 -0.20105173 17 14 33862 11.52000000 3057393445 3057393445 -1.00000000
-3.40720940 8.70311546 2.50433302 38 15 33862 9.67600000 3057393447 3057393447 15.00000000
-0.79507989 2.03927445 -0.58648396 4 0 33870 2.26600000 3057393468 3057393468 -15.00000000
-4.17488289 10.71354580 0.20070267 13 1 33871 11.50000000 3057393470 3057393470 1.00000000
-0.92508096 2.37515926 -0.58847195 3 2 33872 2.61600000 3057393473 3057393473 -13.00000000
-4.17692900 10.72986603 0.60343355 21 3 33873 11.53000000 3057393475 3057393475 3.00000000
-1.10532928 2.83941507 -0.59227115 2 4 33873 3.10400000 3057393477 3057393477 -11.00000000
-4.17282391 10.72485638 1.00682318 25 5 33874 11.55200000 3057393480 3057393480 5.00000000
-1.37033141 3.52380157 -0.59883112 2 6 33875 3.82800000 3057393482 3057393482 -9.00000000
-4.17538500 10.74253559 1.41514683 19 7 33876 11.61200000 3057393484 3057393484 7.00000000
-1.79275477 4.61482954 -0.60788429 2 8 33877 4.98800000 3057393487 3057393487 -7.00000000
-4.17668915 10.75144672 1.82684171 15 9 33877 11.67800000 3057393489 3057393489 9.00000000
-4.16894102 10.73705387 -1.00769472 4 10 33878 11.56200000 3057393491 3057393491 -5.00000000
-4.07416868 10.49839878 2.18896079 46 11 33879 11.47200000 3057393494 3057393494 11.00000000
-4.15948343 10.72378922 -0.60280555 8 12 33880 11.51800000 3057393496 3057393496 -3.00000000
-3.87487793 9.99520588 2.47491145 62 13 33881 11.00200000 3057393498 3057393498 13.00000000
-4.15502930 10.72340584 -0.20073758 19 14 33882 11.50200000 3057393500 3057393500 -1.00000000
-3.37738109 8.72094917 2.50588608 40 15 33883 9.68200000 3057393503 3057393503 15.00000000
-0.79004306 2.04744434 -0.58803689 4 0 33890 2.27200000 3057393523 3057393523 -15.00000000
-4.13314295 10.71685982 0.20049325 10 1 33891 11.48800000 3057393526 3057393526 1.00000000
-0.91468173 2.37291908 -0.58712226 3 2 33892 2.61000000 3057393528 3057393528 -13.00000000
-4.13198614 10.71943188 0.60207283 18 3 33892 11.50400000 3057393530 3057393530 3.00000000
-1.09399962 2.83959222 -0.59150791 2 4 33893 3.10000000 3057393533 3057393533 -11.00000000
-4.13178205 10.73006058 1.00595152 17 5 33894 11.54200000 3057393535 3057393535 5.00000000
-1.35163701 3.51197147 -0.59601533 2 6 33895 3.81000000 3057393537 3057393537 -9.00000000
-4.13215971 10.74222279 1.41319692 19 7 33896 11.59600000 3057393540 3057393540 7.00000000
-4.11746216 10.70959187 -1.40880966 2 8 33897 11.56000000 3057393542 3057393542 -7.00000000
-4.13300371 10.75561905 1.82496452 18 9 33898 11.66600000 3057393544 3057393544 9.00000000
-2.58920503 6.73807859 -0.63153052 4 10 33898 7.24600000 3057393547 3057393547 -5.00000000
-4.03890562 10.51622200 2.18972397 46 11 33899 11.47600000 3057393549 3057393549 11.00000000
-4.11916208 10.73078442 -0.60238683 8 12 33900 11.51000000 3057393551 3057393551 -3.00000000
-3.86369824 10.07053089 2.49020815 68 13 33901 11.07000000 3057393553 3057393553 13.00000000
-4.10826492 10.71357155 -0.20028381 19 14 33902 11.47600000 3057393556 3057393556 -1.00000000
-3.34415317 8.72546959 2.50381541 40 15 33903 9.67400000 3057393558 3057393558 15.00000000
-0.77980173 2.04102993 -0.58544868 4 0 33909 2.26200000 3057393579 3057393579 -15.00000000
-4.09472847 10.72303391 0.20035362 13 1 33910 11.48000000 3057393581 3057393581 1.00000000
-0.91306168 2.39232492 -0.59117138 3 2 33911 2.62800000 3057393583 3057393583 -13.00000000
-4.09214354 10.72187901 0.60144478 18 3 33911 11.49200000 3057393586 3057393586 3.00000000
-1.08177817 2.83586693 -0.58998144 4 4 33912 3.09200000 3057393588 3057393588 -11.00000000
-4.09120846 10.73067188 1.00473142 17 5 33913 11.52800000 3057393590 3057393590 5.00000000
-1.35334814 3.55150628 -0.60195982 2 6 33914 3.84800000 3057393593 3057393593 -9.00000000
-4.09439516 10.75030136 1.41246569 19 7 33915 11.59000000 3057393595 3057393595 7.00000000
-4.07627583 10.70834541 -1.40685976 2 8 33916 11.54400000 3057393597 3057393597 -7.00000000
-4.08724642 10.73716545 1.81964564 18 9 33916 11.63200000 3057393600 3057393600 9.00000000
-2.56401253 6.73917913 -0.63083327 4 10 33917 7.23800000 3057393602 3057393602 -5.00000000
-4.00191689 10.52405262 2.18857908 50 11 33918 11.47000000 3057393604 3057393604 11.00000000
-4.07078266 10.71077919 -0.60050279 8 12 33919 11.47400000 3057393606 3057393606 -3.00000000
-3.83581805 10.09786224 2.49380732 59 13 33920 11.08600000 3057393609 3057393609 13.00000000
-4.06490707 10.70657253 -0.19989987 17 14 33921 11.45400000 3057393611 3057393611 -1.00000000
-3.31382942 8.73289871 2.50278020 38 15 33922 9.67000000 3057393613 3057393613 15.00000000
-0.76925659 2.03470445 -0.58286047 4 0 33929 2.25200000 3057393634 3057393634 -15.00000000
-4.04737759 10.71107388 0.19986495 13 1 33930 11.45200000 3057393636 3057393636 1.00000000
-0.90470535 2.39549756 -0.59117138 3 2 33931 2.62800000 3057393639 3057393639 -13.00000000
-4.04975271 10.72301865 0.60071212 21 3 33931 11.47800000 3057393641 3057393641 3.00000000
-1.07464588 2.84697294 -0.59150791 4 4 33932 3.10000000 3057393643 3057393643 -11.00000000
-4.04528713 10.72251797 1.00263965 17 5 33933 11.50400000 3057393646 3057393646 5.00000000
-1.33397329 3.53772521 -0.59883112 2 6 33934 3.82800000 3057393648 3057393648 -9.00000000
-4.04984379 10.74595165 1.41002834 19 7 33935 11.57000000 3057393650 3057393650 7.00000000
-1.74513960 4.63304520 -0.60788429 2 8 33936 4.98800000 3057393653 3057393653 -7.00000000
-4.04834938 10.74767017 1.81901991 18 9 33936 11.62800000 3057393655 3057393655 9.00000000
-2.53766489 6.74062967 -0.63013601 4 10 33937 7.23000000 3057393657 3057393657 -5.00000000
-3.96169972 10.52877045 2.18667102 46 11 33938 11.46000000 3057393659 3057393659 11.00000000
-4.03618240 10.73240185 -0.60092145 8 12 33939 11.48200000 3057393662 3057393662 -3.00000000
-3.80260348 10.11666298 2.49515700 54 13 33940 11.09200000 3057393664 3057393664 13.00000000
-4.02188349 10.70571995 -0.19962062 8 14 33941 11.43800000 3057393666 3057393666 -1.00000000
-3.28060937 8.73717880 2.50070953 38 15 33942 9.66200000 3057393669 3057393669 15.00000000
-0.76553375 2.04642415 -0.58544868 4 0 33949 2.26200000 3057393689 3057393689 -15.00000000
-4.00506210 10.71202469 0.19962062 13 1 33950 11.43800000 3057393692 3057393692 1.00000000
-0.89360940 2.39133930 -0.58937174 3 2 33951 2.62000000 3057393694 3057393694 -13.00000000
-4.00950098 10.72960663 0.60029340 21 3 33951 11.47000000 3057393696 3057393696 3.00000000
-1.06195390 2.84335017 -0.58998144 2 4 33952 3.09200000 3057393699 3057393699 -11.00000000
-4.00156307 10.71977329 1.00107086 17 5 33953 11.48600000 3057393701 3057393701 5.00000000
-1.32023525 3.53865862 -0.59820539 2 6 33954 3.82400000 3057393703 3057393703 -9.00000000
-4.00329256 10.73584366 1.40685976 19 7 33955 11.54400000 3057393705 3057393705 7.00000000
-3.98616719 10.69561958 -1.40149748 2 8 33956 11.50000000 3057393708 3057393708 -7.00000000
-4.00597954 10.74877930 1.81682992 18 9 33956 11.61400000 3057393710 3057393710 9.00000000
-2.52107501 6.76811695 -0.63187915 4 10 33957 7.25000000 3057393712 3057393712 -5.00000000
-3.92423820 10.54069519 2.18628955 50 11 33958 11.45800000 3057393715 3057393715 11.00000000
-3.98476458 10.70898819 -0.59882802 8 12 33959 11.44200000 3057393717 3057393717 -3.00000000
-3.76522875 10.12439537 2.49380732 56 13 33960 11.08600000 3057393719 3057393719 13.00000000
-3.97821856 10.70282459 -0.19930649 8 14 33961 11.42000000 3057393722 3057393722 -1.00000000
-3.25094485 8.74619865 2.50019193 40 15 33961 9.66000000 3057393724 3057393724 15.00000000
-0.75704467 2.04546046 -0.58441341 4 0 33969 2.25800000 3057393745 3057393745 -15.00000000
-3.95862675 10.70155811 0.19916686 23 1 33970 11.41200000 3057393747 3057393747 1.00000000
-0.88390511 2.39078832 -0.58847195 3 2 33971 2.61600000 3057393749 3057393749 -13.00000000
-3.96371222 10.72105694 0.59903735 10 3 33971 11.44600000 3057393752 3057393752 3.00000000
-1.06154907 2.87282133 -0.59532404 2 4 33972 3.12000000 3057393754 3057393754 -11.00000000
-3.96204877 10.72806931 1.00054789 12 5 33973 11.48000000 3057393756 3057393756 5.00000000
-1.31197917 3.55436468 -0.60008264 2 6 33974 3.83600000 3057393758 3057393758 -9.00000000
-3.95823503 10.72926521 1.40417862 21 7 33975 11.52200000 3057393761 3057393761 7.00000000
-1.72511411 4.67864084 -0.61227161 2 8 33976 5.02400000 3057393763 3057393763 -7.00000000
-3.96501780 10.75343037 1.81526554 21 9 33976 11.60400000 3057393765 3057393765 9.00000000
-2.49881220 6.78061533 -0.63222778 4 10 33977 7.25400000 3057393768 3057393768 -5.00000000
-3.89420605 10.57275200 2.19010568 53 11 33978 11.47800000 3057393770 3057393770 11.00000000
-3.94114923 10.70596313 -0.59788597 8 12 33979 11.42400000 3057393772 3057393772 -3.00000000
-3.72784638 10.13198948 2.49245763 54 13 33980 11.08000000 3057393775 3057393775 13.00000000
-3.93945408 10.71289253 -0.19923668 8 14 33981 11.41600000 3057393777 3057393777 -1.00000000
-3.22019935 8.76168251 2.50122714 36 15 33982 9.66400000 3057393779 3057393779 15.00000000
-0.74990004 2.04809046 -0.58441341 4 0 33989 2.25800000 3057393800 3057393800 -15.00000000
-3.91987276 10.71155548 0.19909705 10 1 33990 11.40800000 3057393802 3057393802 1.00000000
-0.87823182 2.40117979 -0.59027159 3 2 33991 2.62400000 3057393805 3057393805 -13.00000000
-3.91890526 10.72050571 0.59819996 10 3 33992 11.43000000 3057393807 3057393807 3.00000000
-1.04612219 2.86175799 -0.59227115 2 4 33992 3.10400000 3057393809 3057393809 -11.00000000
-3.92184186 10.73434830 0.99985069 12 5 33993 11.47200000 3057393811 3057393811 5.00000000
-1.29549873 3.54778934 -0.59820539 2 6 33994 3.82400000 3057393814 3057393814 -9.00000000
-3.92211986 10.74674702 1.40466607 19 7 33995 11.52600000 3057393816 3057393816 7.00000000
-1.71285355 4.69582367 -0.61373401 2 8 33996 5.03600000 3057393818 3057393818 -7.00000000
-3.92204189 10.75235939 1.81276262 15 9 33996 11.58800000 3057393821 3057393821 9.00000000
-2.48195243 6.80801487 -0.63397086 4 10 33997 7.27400000 3057393823 3057393823 -5.00000000
-3.87878418 10.64530849 2.20231748 56 11 33998 11.54200000 3057393825 3057393825 11.00000000
-3.91810632 10.75906563 -0.60008407 8 12 33999 11.46600000 3057393828 3057393828 -3.00000000
-3.68845725 10.13395309 2.48975825 52 13 34000 11.06800000 3057393830 3057393830 13.00000000
-3.90818763 10.74349117 -0.19955082 4 14 34001 11.43400000 3057393832 3057393832 -1.00000000
-3.19112682 8.77231216 2.50122714 38 15 34001 9.66400000 3057393835 3057393835 15.00000000
-0.74340421 2.05251217 -0.58493102 4 0 34009 2.26000000 3057393855 3057393855 -15.00000000
-3.89539099 10.76089859 0.19976024 6 1 34010 11.44600000 3057393858 3057393858 1.00000000
-0.87117082 2.40789580 -0.59117138 3 2 34011 2.62800000 3057393860 3057393860 -13.00000000
-3.89232635 10.76417160 0.59987473 7 3 34012 11.46200000 3057393862 3057393862 3.00000000
-1.03746164 2.86908484 -0.59303439 4 4 34012 3.10800000 3057393864 3057393864 -11.00000000
-3.89924622 10.78919601 1.00368547 38 5 34013 11.51600000 3057393867 3057393867 5.00000000
-1.29250193 3.57830048 -0.60258555 2 6 34014 3.85200000 3057393869 3057393869 -9.00000000
-3.89671588 10.79398060 1.40905333 34 7 34015 11.56200000 3057393871 3057393871 7.00000000
-1.69375670 4.69430494 -0.61275905 2 8 34016 5.02800000 3057393874 3057393874 -7.00000000
-3.88394618 10.77037811 1.81338835 31 9 34017 11.59200000 3057393876 3057393876 9.00000000
-2.46087646 6.82413435 -0.63466811 4 10 34017 7.28200000 3057393878 3057393878 -5.00000000
-3.85358357 10.69202805 2.20918655 59 11 34018 11.57800000 3057393881 3057393881 11.00000000
-3.92046213 10.88354206 -0.60625970 4 12 34019 11.58400000 3057393883 3057393883 -3.00000000
-3.65042043 10.13943291 2.48795867 51 13 34020 11.06000000 3057393885 3057393885 13.00000000
-3.90722251 10.85867405 -0.20143567 6 14 34021 11.54200000 3057393888 3057393888 -1.00000000
-3.15764570 8.78031349 2.50019193 36 15 34022 9.66000000 3057393890 3057393890 15.00000000
-0.73297739 2.04600120 -0.58234286 4 0 34029 2.25000000 3057393911 3057393911 -15.00000000
-3.90094638 10.89492035 0.20199415 6 1 34030 11.57400000 3057393913 3057393913 1.00000000
-0.86538672 2.41826129 -0.59297097 3 2 34031 2.63600000 3057393915 3057393915 -13.00000000
-3.89777589 10.89805126 0.60657376 15 3 34032 11.59000000 3057393917 3057393917 3.00000000
-1.02876258 2.87638593 -0.59379756 4 4 34032 3.11200000 3057393920 3057393920 -11.00000000
-3.89241076 10.88904285 1.01170385 68 5 34033 11.60800000 3057393922 3057393922 5.00000000
-1.27402210 3.56604815 -0.59976971 2 6 34034 3.83400000 3057393924 3057393924 -9.00000000
-3.89172339 10.89912224 1.42099655 42 7 34035 11.66000000 3057393927 3057393927 7.00000000
-1.67068815 4.68149233 -0.61032170 2 8 34036 5.00800000 3057393929 3057393929 -7.00000000
-3.87543058 10.85947704 1.82621598 37 9 34036 11.67400000 3057393931 3057393931 9.00000000
-2.44373417 6.85144854 -0.63641125 4 10 34037 7.30200000 3057393934 3057393934 -5.00000000
-3.80964565 10.68692207 2.20537043 59 11 34038 11.55800000 3057393936 3057393936 11.00000000
-3.91998506 11.00251961 -0.61212134 8 12 34039 11.69600000 3057393938 3057393938 -3.00000000
-3.57251382 10.03278446 2.45871496 64 13 34040 10.93000000 3057393941 3057393941 13.00000000
-3.90482974 10.97209549 -0.20328563 6 14 34041 11.64800000 3057393943 3057393943 -1.00000000
-3.11814833 8.76161671 2.49190974 40 15 34041 9.62800000 3057393945 3057393945 15.00000000
-0.72970217 2.05947280 -0.58544868 4 0 34049 2.26200000 3057393966 3057393966 -15.00000000
-3.89626765 11.00272083 0.20373939 10 1 34050 11.67400000 3057393968 3057393968 1.00000000
-0.85433942 2.41391897 -0.59117138 3 2 34051 2.62800000 3057393970 3057393970 -13.00000000
-3.86104298 10.91535568 0.60678309 28 3 34052 11.59400000 3057393973 3057393973 3.00000000
-1.02133477 2.88736296 -0.59532404 2 4 34052 3.12000000 3057393975 3057393975 -11.00000000
-3.86832309 10.94201183 1.01536441 17 5 34053 11.65000000 3057393977 3057393977 5.00000000
-1.26288271 3.57419872 -0.60039550 2 6 34054 3.83800000 3057393980 3057393980 -9.00000000
-3.88472176 11.00061512 1.43245232 36 7 34055 11.75400000 3057393982 3057393982 7.00000000
-1.67679954 4.75094128 -0.61860877 2 8 34056 5.07600000 3057393984 3057393984 -7.00000000
-3.87371564 10.98165512 1.84436238 31 9 34057 11.79000000 3057393987 3057393987 9.00000000
-2.41317534 6.84114790 -0.63466811 4 10 34057 7.28200000 3057393989 3057393989 -5.00000000
-3.76448512 10.67793655 2.20079088 59 11 34058 11.53400000 3057393991 3057393991 11.00000000
-3.91407847 11.10843945 -0.61725026 4 12 34059 11.79400000 3057393993 3057393993 -3.00000000
-3.57889819 10.16283226 2.48750877 50 13 34060 11.05800000 3057393996 3057393996 13.00000000
-3.90633988 11.09883595 -0.20537992 6 14 34061 11.76800000 3057393998 3057393998 -1.00000000
-3.08921957 8.78209782 2.49449801 40 15 34062 9.63800000 3057394000 3057394000 15.00000000
-0.72597992 2.07307315 -0.58855450 4 0 34070 2.27400000 3057394021 3057394021 -15.00000000
-3.89356875 11.12451077 0.20572896 10 1 34071 11.78800000 3057394023 3057394023 1.00000000
-0.84033865 2.40231848 -0.58757216 3 2 34072 2.61200000 3057394026 3057394026 -13.00000000
-3.81178236 10.90303898 0.60531765 26 3 34073 11.56600000 3057394028 3057394028 3.00000000
-1.01074517 2.89108682 -0.59532404 2 4 34073 3.12000000 3057394030 3057394030 -11.00000000
-3.82490659 10.94671154 1.01449287 8 5 34074 11.64000000 3057394033 3057394033 5.00000000
-1.24326146 3.56015420 -0.59726679 2 6 34075 3.81800000 3057394035 3057394035 -9.00000000
-3.87577510 11.10474205 1.44415176 40 7 34076 11.85000000 3057394037 3057394037 7.00000000
-1.65283704 4.73831177 -0.61617142 2 8 34077 5.05600000 3057394040 3057394040 -7.00000000
-3.86984134 11.09396362 1.86094439 34 9 34077 11.89600000 3057394042 3057394042 9.00000000
-2.39464402 6.86876011 -0.63641125 4 10 34078 7.30200000 3057394044 3057394044 -5.00000000
-3.71886349 10.67312336 2.19697475 56 11 34079 11.51400000 3057394046 3057394046 11.00000000
-3.90092468 11.20193005 -0.62164646 4 12 34080 11.87800000 3057394049 3057394049 -3.00000000
-3.54290652 10.17956161 2.48840857 51 13 34081 11.06200000 3057394051 3057394051 13.00000000
-3.90176797 11.21695709 -0.20729968 6 14 34082 11.87800000 3057394053 3057394053 -1.00000000
-3.05981493 8.79647732 2.49553323 38 15 34082 9.64200000 3057394056 3057394056 15.00000000
-0.71621060 2.06829286 -0.58648396 4 0 34090 2.26600000 3057394076 3057394076 -15.00000000
-3.88937545 11.23818970 0.20757893 6 1 34091 11.89400000 3057394079 3057394079 1.00000000
-0.83449596 2.41260386 -0.58937174 3 2 34092 2.62000000 3057394081 3057394081 -13.00000000
-3.76652217 10.89551449 0.60416627 26 3 34093 11.54400000 3057394083 3057394083 3.00000000
-0.99808145 2.88717532 -0.59379756 2 4 34093 3.11200000 3057394086 3057394086 -11.00000000
-3.76780367 10.90538502 1.00943780 4 5 34094 11.58200000 3057394088 3057394088 5.00000000
-1.24178743 3.59621453 -0.60258555 2 6 34095 3.85200000 3057394090 3057394090 -9.00000000
-3.87584424 11.23079300 1.45877600 38 7 34096 11.97000000 3057394093 3057394093 7.00000000
-1.62075281 4.69901371 -0.61032170 2 8 34097 5.00800000 3057394095 3057394095 -7.00000000
-3.86198616 11.20331669 1.87690067 32 9 34098 11.99800000 3057394097 3057394097 9.00000000
-2.37065291 6.87707710 -0.63641125 4 10 34098 7.30200000 3057394099 3057394099 -5.00000000
-3.68030572 10.68232632 2.19621158 59 11 34099 11.51000000 3057394102 3057394102 11.00000000
-3.50037622 10.17159748 2.48345971 50 13 34101 11.04000000 3057394106 3057394106 13.00000000
-3.90161228 11.34396648 -0.20939398 6 14 34102 11.99800000 3057394109 3057394109 -1.00000000
-3.02629781 8.80397892 2.49449801 38 15 34103 9.63800000 3057394111 3057394111 15.00000000
-0.70746970 2.06517363 -0.58493102 4 0 34109 2.26000000 3057394132 3057394132 -15.00000000
-0.82901454 2.42273307 -0.59117138 3 2 34111 2.62800000 3057394136 3057394136 -13.00000000
-3.72326159 10.88715649 0.60301489 26 3 34112 11.52200000 3057394139 3057394139 3.00000000
-0.98977232 2.89418459 -0.59456080 4 4 34112 3.11600000 3057394141 3057394141 -11.00000000
-3.72002053 10.88388348 1.00630021 4 5 34113 11.54600000 3057394143 3057394143 5.00000000
-1.22985506 3.60031271 -0.60258555 2 6 34114 3.85200000 3057394146 3057394146 -9.00000000
-1.62695682 4.76823997 -0.61860877 2 8 34116 5.07600000 3057394150 3057394150 -7.00000000
-2.34783483 6.88490057 -0.63641125 4 10 34117 7.30200000 3057394155 3057394155 -5.00000000
-3.64106154 10.68332291 2.19392180 59 11 34118 11.49800000 3057394157 3057394157 11.00000000
-3.46537066 10.17945957 2.48255992 50 13 34120 11.03600000 3057394162 3057394162 13.00000000
-2.99302411 8.79698277 2.48983932 33 15 34121 9.62000000 3057394166 3057394166 15.00000000
-0.70273536 2.07494974 -0.58700162 4 0 34129 2.26800000 3057394187 3057394187 -15.00000000
-0.82055259 2.42561197 -0.59117138 3 2 34131 2.62800000 3057394192 3057394192 -13.00000000
-3.68587542 10.90197945 0.60311955 7 3 34132 11.52400000 3057394194 3057394194 3.00000000
-0.97840607 2.89390230 -0.59379756 4 4 34132 3.11200000 3057394196 3057394196 -11.00000000
-3.68391943 10.90246487 1.00682318 12 5 34133 11.55200000 3057394199 3057394199 5.00000000
-1.21601605 3.60084057 -0.60195982 2 6 34134 3.84800000 3057394201 3057394201 -9.00000000
-1.60268891 4.75131845 -0.61568391 2 8 34136 5.05200000 3057394205 3057394205 -7.00000000
-3.59747910 10.67736244 2.19010568 59 11 34138 11.47800000 3057394212 3057394212 11.00000000
-3.43168139 10.19703484 2.48390961 53 13 34140 11.04200000 3057394217 3057394217 13.00000000
-2.95891476 8.80240059 2.48828626 36 15 34142 9.61400000 3057394222 3057394222 15.00000000
-0.69389963 2.07384729 -0.58596629 4 0 34150 2.26400000 3057394242 3057394242 -15.00000000
-0.81042135 2.42490673 -0.59027159 3 2 34152 2.62400000 3057394247 3057394247 -13.00000000
-3.69208336 11.05370522 0.61076063 2 3 34153 11.67000000 3057394249 3057394249 3.00000000
-0.96903676 2.90119314 -0.59456080 2 4 34153 3.11600000 3057394252 3057394252 -11.00000000
-3.68304944 11.03306580 1.01763046 8 5 34154 11.67600000 3057394254 3057394254 5.00000000
-1.19405794 3.57903957 -0.59757966 2 6 34155 3.82000000 3057394256 3057394256 -9.00000000
-1.58651876 4.76092720 -0.61617142 2 8 34157 5.05600000 3057394261 3057394261 -7.00000000
-3.55212021 10.67184830 2.18628955 59 11 34159 11.45800000 3057394268 3057394268 11.00000000
-3.39551401 10.21324253 2.48480940 50 13 34161 11.04600000 3057394272 3057394272 13.00000000
-2.92573404 8.80534172 2.48621583 36 15 34162 9.60600000 3057394277 3057394277 15.00000000
-0.68847609 2.08175921 -0.58751923 4 0 34170 2.27000000 3057394298 3057394298 -15.00000000
-0.80317438 2.43142176 -0.59117138 3 2 34172 2.62800000 3057394302 3057394302 -13.00000000
-3.67476463 11.13100910 0.61431944 2 3 34173 11.73800000 3057394305 3057394305 3.00000000
-0.96505857 2.92320085 -0.59837699 4 4 34173 3.13600000 3057394307 3057394307 -11.00000000
-3.67198253 11.12910557 1.02530015 8 5 34174 11.76400000 3057394309 3057394309 5.00000000
-1.19516706 3.62445807 -0.60446280 2 6 34175 3.86400000 3057394311 3057394311 -9.00000000
-1.57610047 4.78529072 -0.61860877 2 8 34177 5.07600000 3057394316 3057394316 -7.00000000
-3.51239276 10.67672253 2.18476295 56 11 34179 11.45000000 3057394323 3057394323 11.00000000
-3.35558391 10.21207333 2.48166013 50 13 34181 11.03200000 3057394328 3057394328 13.00000000
-2.89618540 8.81917191 2.48725104 36 15 34182 9.61000000 3057394332 3057394332 15.00000000
-0.68517190 2.09504795 -0.59062505 4 0 34189 2.28200000 3057394353 3057394353 -15.00000000
-0.79389685 2.43036699 -0.59027159 3 2 34191 2.62400000 3057394358 3057394358 -13.00000000
-3.68122149 11.27603912 0.62164646 2 3 34192 11.87800000 3057394360 3057394360 3.00000000
-0.95292240 2.91891980 -0.59685051 2 4 34192 3.12800000 3057394362 3057394362 -11.00000000
-1.17824221 3.61337709 -0.60195982 2 6 34194 3.84800000 3057394367 3057394367 -9.00000000
-1.55038726 4.76029062 -0.61470896 2 8 34196 5.04400000 3057394371 3057394371 -7.00000000
-3.47332430 10.67710972 2.18247318 56 11 34198 11.43800000 3057394378 3057394378 11.00000000
-3.31929231 10.21573162 2.47986031 47 13 34200 11.02400000 3057394383 3057394383 13.00000000
-2.86811733 8.83240223 2.48828626 36 15 34201 9.61400000 3057394387 3057394387 15.00000000
-0.67072558 2.07536793 -0.58441341 4 0 34209 2.25800000 3057394408 3057394408 -15.00000000
-0.78660578 2.43683243 -0.59117138 3 2 34211 2.62800000 3057394413 3057394413 -13.00000000
-0.94152212 2.91849136 -0.59608728 2 4 34212 3.12400000 3057394417 3057394417 -11.00000000
-1.17289197 3.64003015 -0.60571426 2 6 34214 3.87200000 3057394422 3057394422 -9.00000000
-1.53619385 4.77323198 -0.61568391 2 8 34216 5.05200000 3057394427 3057394427 -7.00000000
-3.43483138 10.68543053 2.18171000 53 11 34218 11.43400000 3057394434 3057394434 11.00000000
-3.28480387 10.23096657 2.48076034 47 13 34220 11.02800000 3057394438 3057394438 13.00000000
-2.83336592 8.83549690 2.48621583 36 15 34222 9.60600000 3057394443 3057394443 15.00000000
-0.66383976 2.07758069 -0.58441341 4 0 34228 2.25800000 3057394464 3057394464 -15.00000000
-0.78563035 2.46170521 -0.59657019 3 2 34230 2.65200000 3057394468 3057394468 -13.00000000
-0.93064576 2.91785669 -0.59532404 2 4 34231 3.12000000 3057394473 3057394473 -11.00000000
-1.15721714 3.63260651 -0.60383701 2 6 34233 3.86000000 3057394477 3057394477 -9.00000000
-1.51794934 4.77073336 -0.61470896 2 8 34235 5.04400000 3057394482 3057394482 -7.00000000
-3.39343214 10.67805195 2.17789388 56 11 34237 11.41400000 3057394489 3057394489 11.00000000
-3.25085878 10.24180317 2.48076034 50 13 34239 11.02800000 3057394493 3057394493 13.00000000
-2.80267382 8.83514786 2.48362756 38 15 34240 9.59600000 3057394498 3057394498 15.00000000
-0.65890986 2.08725429 -0.58648396 4 0 34248 2.26600000 3057394519 3057394519 -15.00000000
-0.77117264 2.44584727 -0.59207118 3 2 34250 2.63200000 3057394523 3057394523 -13.00000000
-0.92281502 2.92857742 -0.59685051 2 4 34251 3.12800000 3057394528 3057394528 -11.00000000
-1.15283227 3.66300344 -0.60821718 2 6 34253 3.88800000 3057394533 3057394533 -9.00000000
-1.51557374 4.82145262 -0.62055868 2 8 34255 5.09200000 3057394537 3057394537 -7.00000000
-3.35025740 10.67110062 2.17407775 53 11 34257 11.39400000 3057394544 3057394544 11.00000000
-3.21508837 10.25308800 2.48076034 48 13 34259 11.02800000 3057394549 3057394549 13.00000000
-2.77586031 8.85778046 2.48725104 40 15 34260 9.61000000 3057394553 3057394553 15.00000000
-0.65277022 2.09323001 -0.58751923 4 0 34268 2.27000000 3057394574 3057394574 -15.00000000
-0.76378936 2.45224524 -0.59297097 3 2 34270 2.63600000 3057394579 3057394579 -13.00000000
-0.91608769 2.94302797 -0.59914023 4 4 34271 3.14000000 3057394583 3057394583 -11.00000000
-1.12948310 3.63305140 -0.60258555 2 6 34273 3.85200000 3057394588 3057394588 -9.00000000
-1.50108910 4.83429718 -0.62153363 2 8 34275 5.10000000 3057394592 3057394592 -7.00000000
-3.30949879 10.67147923 2.17178798 56 11 34277 11.38200000 3057394599 3057394599 11.00000000
-3.17697263 10.25680256 2.47896051 47 13 34279 11.02000000 3057394604 3057394604 13.00000000
-2.74720907 8.87479877 2.48932147 40 15 34280 9.61800000 3057394609 3057394609 15.00000000
-0.64545947 2.09549594 -0.58751923 4 0 34288 2.27000000 3057394629 3057394629 -15.00000000
-0.75637078 2.45862174 -0.59387076 3 2 34290 2.64000000 3057394634 3057394634 -13.00000000
-0.90234739 2.93494844 -0.59685051 4 4 34291 3.12800000 3057394639 3057394639 -11.00000000
-1.11911380 3.64452529 -0.60383701 2 6 34293 3.86000000 3057394643 3057394643 -9.00000000
-1.47023618 4.79395914 -0.61568391 2 8 34295 5.05200000 3057394648 3057394648 -7.00000000
-3.27222824 10.68296719 2.17178798 53 11 34297 11.38200000 3057394655 3057394655 11.00000000
-3.13887000 10.26037598 2.47716093 50 13 34299 11.01200000 3057394659 3057394659 13.00000000
-2.71127582 8.87372208 2.48621583 40 15 34301 9.60600000 3057394664 3057394664 15.00000000
-0.63701648 2.09403968 -0.58648396 4 0 34308 2.26600000 3057394685 3057394685 -15.00000000
-0.74891698 2.46497607 -0.59477061 3 2 34310 2.64400000 3057394689 3057394689 -13.00000000
-0.88981539 2.93056607 -0.59532404 2 4 34311 3.12000000 3057394694 3057394694 -11.00000000
-1.10982478 3.65975189 -0.60571426 2 6 34313 3.87200000 3057394698 3057394698 -9.00000000
-1.45579481 4.80666113 -0.61665887 2 8 34315 5.06000000 3057394703 3057394703 -7.00000000
-3.23491764 10.69432449 2.17178798 56 11 34317 11.38200000 3057394710 3057394710 11.00000000
-3.10190821 10.26753902 2.47626114 50 13 34319 11.00800000 3057394715 3057394715 13.00000000
-2.68071795 8.87896538 2.48518038 40 15 34320 9.60200000 3057394719 3057394719 15.00000000
-0.62970299 2.09625053 -0.58648396 4 0 34328 2.26600000 3057394740 3057394740 -15.00000000
-0.74142808 2.47130847 -0.59567040 3 2 34330 2.64800000 3057394744 3057394744 -13.00000000
-0.88409108 2.94869876 -0.59837699 2 4 34331 3.13600000 3057394749 3057394749 -11.00000000
-1.09760976 3.66549587 -0.60602713 2 6 34333 3.87400000 3057394754 3057394754 -9.00000000
-1.44355774 4.82692862 -0.61860877 2 8 34335 5.07600000 3057394758 3057394758 -7.00000000
-3.19082546 10.68297768 2.16720867 56 11 34337 11.35800000 3057394765 3057394765 11.00000000
-3.06772017 10.28390694 2.47761083 51 13 34339 11.01400000 3057394770 3057394770 13.00000000
-2.64750051 8.88086414 2.48310995 40 15 34340 9.59400000 3057394774 3057394774 15.00000000
-0.62348056 2.10214019 -0.58751923 4 0 34348 2.27000000 3057394795 3057394795 -15.00000000
-0.72836930 2.45893359 -0.59207118 3 2 34350 2.63200000 3057394800 3057394800 -13.00000000
-0.87602186 2.95929670 -0.59990346 2 4 34351 3.14400000 3057394804 3057394804 -11.00000000
-1.08704829 3.67688227 -0.60727859 2 6 34353 3.88200000 3057394809 3057394809 -9.00000000
-1.43119693 4.84716892 -0.62055868 2 8 34355 5.09200000 3057394814 3057394814 -7.00000000
-3.14796257 10.67521954 2.16339231 56 11 34357 11.33800000 3057394821 3057394821 11.00000000
-3.03235459 10.29642200 2.47806072 50 13 34359 11.01600000 3057394825 3057394825 13.00000000
-2.61384249 8.88680077 2.48207474 40 15 34361 9.59000000 3057394830 3057394830 15.00000000
-0.61831033 2.11171985 -0.58958977 4 0 34368 2.27800000 3057394850 3057394850 -15.00000000
-0.71868765 2.45772028 -0.59117138 3 2 34370 2.62800000 3057394855 3057394855 -13.00000000
-0.86678803 2.96610546 -0.60066670 2 4 34371 3.14800000 3057394860 3057394860 -11.00000000
-1.06590557 3.65221024 -0.60258555 2 6 34373 3.85200000 3057394864 3057394864 -9.00000000
-1.41426837 4.85213518 -0.62055868 2 8 34375 5.09200000 3057394869 3057394869 -7.00000000
-3.10848498 10.67860317 2.16186595 53 11 34377 11.33000000 3057394876 3057394876 11.00000000
-2.99421883 10.29945850 2.47626114 47 13 34379 11.00800000 3057394880 3057394880 13.00000000
-2.58334446 8.89772606 2.48259234 42 15 34381 9.59200000 3057394885 3057394885 15.00000000
-0.60986251 2.11015344 -0.58855450 4 0 34388 2.27400000 3057394906 3057394906 -15.00000000
-0.71226591 2.46770310 -0.59297097 3 2 34390 2.63600000 3057394910 3057394910 -13.00000000
-0.85642910 2.96911311 -0.60066670 4 4 34391 3.14800000 3057394915 3057394915 -11.00000000
-1.06408656 3.69387245 -0.60884291 2 6 34393 3.89200000 3057394920 3057394920 -9.00000000
-1.40390861 4.87993479 -0.62348354 2 8 34395 5.11600000 3057394924 3057394924 -7.00000000
-3.06793809 10.67806721 2.15957618 50 11 34397 11.31800000 3057394931 3057394931 11.00000000
-2.95394897 10.29486275 2.47266197 48 13 34399 10.99200000 3057394936 3057394936 13.00000000
-2.55226994 8.90668964 2.48259234 42 15 34401 9.59200000 3057394940 3057394940 15.00000000
-0.59931362 2.10112286 -0.58544868 4 0 34408 2.26200000 3057394961 3057394961 -15.00000000
-0.70471543 2.47392273 -0.59387076 3 2 34410 2.64000000 3057394966 3057394966 -13.00000000
-0.84283465 2.96075511 -0.59837699 4 4 34411 3.13600000 3057394970 3057394970 -11.00000000
-1.05334675 3.70516467 -0.61009443 2 6 34413 3.90000000 3057394975 3057394975 -9.00000000
-1.38903463 4.89244413 -0.62445849 2 8 34415 5.12400000 3057394980 3057394980 -7.00000000
-3.03011036 10.68682194 2.15919471 50 11 34417 11.31600000 3057394986 3057394986 11.00000000
-2.91852617 10.30698586 2.47311187 51 13 34419 10.99400000 3057394991 3057394991 13.00000000
-2.51801014 8.90439034 2.47948647 40 15 34421 9.58000000 3057394996 3057394996 15.00000000
-0.59166169 2.09927630 -0.58441341 4 0 34426 2.25800000 3057395016 3057395016 -15.00000000
-0.69905186 2.48362780 -0.59567040 3 2 34428 2.64800000 3057395021 3057395021 -13.00000000
-0.83459216 2.96716809 -0.59914023 2 4 34429 3.14000000 3057395026 3057395026 -11.00000000
-1.03742790 3.69324136 -0.60759145 2 6 34431 3.88400000 3057395030 3057395030 -9.00000000
-1.36936843 4.88149357 -0.62250859 2 8 34433 5.10800000 3057395035 3057395035 -7.00000000
-2.99440336 10.68872643 2.15766811 50 11 34435 11.30800000 3057395042 3057395042 11.00000000
-2.88613129 10.31610394 2.47311187 51 13 34437 10.99400000 3057395046 3057395046 13.00000000
-2.48845816 8.90065956 2.47638059 42 15 34438 9.56800000 3057395051 3057395051 15.00000000
-0.58743560 2.11249638 -0.58751923 4 0 34446 2.27000000 3057395072 3057395072 -15.00000000
-0.69037813 2.48605275 -0.59567040 3 2 34448 2.64800000 3057395076 3057395076 -13.00000000
-0.82422972 2.97006345 -0.59914023 2 4 34449 3.14000000 3057395081 3057395081 -11.00000000
-1.02452970 3.69684029 -0.60759145 2 6 34451 3.88400000 3057395085 3057395085 -9.00000000
-1.35126150 4.88241720 -0.62202114 2 8 34453 5.10400000 3057395090 3057395090 -7.00000000
-2.95289040 10.68397522 2.15461516 46 11 34455 11.29200000 3057395097 3057395097 11.00000000
-2.85321474 10.33738613 2.47581124 55 13 34457 11.00600000 3057395102 3057395102 13.00000000
-2.45684552 8.91344547 2.47741580 40 15 34459 9.57200000 3057395106 3057395106 15.00000000
-0.58173192 2.12208772 -0.58958977 4 0 34467 2.27800000 3057395127 3057395127 -15.00000000
-0.67817432 2.47728896 -0.59297097 3 2 34469 2.63600000 3057395132 3057395132 -13.00000000
-0.81748277 2.98821378 -0.60219318 2 4 34470 3.15600000 3057395136 3057395136 -11.00000000
-1.01305556 3.70819259 -0.60884291 2 6 34472 3.89200000 3057395141 3057395141 -9.00000000
-1.33231246 4.88350677 -0.62153363 2 8 34474 5.10000000 3057395145 3057395145 -7.00000000
-2.91267991 10.69093800 2.15385199 43 11 34476 11.28800000 3057395152 3057395152 11.00000000
-2.81326079 10.34025288 2.47401166 59 13 34478 10.99800000 3057395157 3057395157 13.00000000
-2.42115545 8.90518951 2.47275710 40 15 34479 9.55400000 3057395162 3057395162 15.00000000
-0.57532936 2.12783504 -0.59062505 4 0 34487 2.28200000 3057395182 3057395182 -15.00000000
-0.66952288 2.47964120 -0.59297097 3 2 34489 2.63600000 3057395187 3057395187 -13.00000000
-0.80602407 2.98725820 -0.60142994 4 4 34490 3.15200000 3057395191 3057395191 -11.00000000
-1.00524473 3.73077989 -0.61197162 2 6 34492 3.91200000 3057395196 3057395196 -9.00000000
-1.31835246 4.89962912 -0.62299609 2 8 34494 5.11200000 3057395201 3057395201 -7.00000000
-2.87738156 10.70862389 2.15537834 43 11 34496 11.29600000 3057395208 3057395208 11.00000000
-2.77310920 10.33495331 2.47041249 59 13 34498 10.98200000 3057395212 3057395212 13.00000000
-2.39199996 8.92706585 2.47638059 42 15 34500 9.56800000 3057395217 3057395217 15.00000000
-0.56727397 2.12599826 -0.58958977 4 0 34506 2.27800000 3057395238 3057395238 -15.00000000
-0.66330338 2.48937988 -0.59477061 3 2 34508 2.64400000 3057395242 3057395242 -13.00000000
-0.79409295 2.98232603 -0.59990346 2 4 34509 3.14400000 3057395247 3057395247 -11.00000000
-0.99185222 3.73027468 -0.61134589 2 6 34511 3.90800000 3057395251 3057395251 -9.00000000
-1.30311632 4.90781116 -0.62348354 2 8 34513 5.11600000 3057395256 3057395256 -7.00000000
-2.84185457 10.71810722 2.15537834 46 11 34515 11.29600000 3057395263 3057395263 11.00000000
-2.73782444 10.34032440 2.46951270 57 13 34517 10.97800000 3057395268 3057395268 13.00000000
-2.35949588 8.91772747 2.47172189 38 15 34518 9.55000000 3057395272 3057395272 15.00000000
-0.55886632 2.12422872 -0.58855450 4 0 34526 2.27400000 3057395293 3057395293 -15.00000000
-0.65857106 2.50675845 -0.59836978 3 2 34528 2.66000000 3057395297 3057395297 -13.00000000
-0.78168380 2.97748399 -0.59837699 4 4 34529 3.13600000 3057395302 3057395302 -11.00000000
-0.98483634 3.75664377 -0.61510032 2 6 34531 3.93200000 3057395307 3057395307 -9.00000000
-1.28798783 4.92001152 -0.62445849 2 8 34533 5.12400000 3057395311 3057395311 -7.00000000
-2.80243802 10.72036457 2.15385199 43 11 34535 11.28800000 3057395318 3057395318 11.00000000
-2.70269775 10.35358906 2.47041249 56 13 34537 10.98200000 3057395323 3057395323 13.00000000
-2.32289648 8.91136074 2.46758080 42 15 34539 9.53400000 3057395327 3057395327 15.00000000
-0.55047798 2.12242675 -0.58751923 4 0 34546 2.27000000 3057395348 3057395348 -15.00000000
-0.64786249 2.50149608 -0.59657019 3 2 34548 2.65200000 3057395353 3057395353 -13.00000000
-0.77915591 3.01060462 -0.60448289 2 4 34549 3.16800000 3057395357 3057395357 -11.00000000
-0.96380901 3.72945809 -0.61009443 2 6 34551 3.90000000 3057395362 3057395362 -9.00000000
-1.26882184 4.91678905 -0.62348354 2 8 34553 5.11600000 3057395367 3057395367 -7.00000000
-2.76304030 10.72247696 2.15232539 40 11 34555 11.28000000 3057395373 3057395373 11.00000000
-2.66556931 10.35918617 2.46951270 57 13 34557 10.97800000 3057395378 3057395378 13.00000000
-2.29044604 8.90778923 2.46447492 40 15 34558 9.52200000 3057395383 3057395383 15.00000000
-0.54689378 2.13930869 -0.59166032 4 0 34566 2.28600000 3057395403 3057395403 -15.00000000
-0.63623476 2.49241304 -0.59387076 3 2 34568 2.64000000 3057395408 3057395408 -13.00000000
-0.77058321 3.02091551 -0.60600936 2 4 34569 3.17600000 3057395413 3057395413 -11.00000000
-0.94883454 3.72514248 -0.60884291 2 6 34571 3.89200000 3057395417 3057395417 -9.00000000
-1.24969411 4.91349268 -0.62250859 2 8 34573 5.10800000 3057395422 3057395422 -7.00000000
-2.72414517 10.72634792 2.15118051 46 11 34575 11.27400000 3057395429 3057395429 11.00000000
-2.62651849 10.35709381 2.46681333 55 13 34577 10.96600000 3057395433 3057395433 13.00000000
-2.25920486 8.92174244 2.46602798 42 15 34579 9.52800000 3057395438 3057395438 15.00000000
-0.54168558 2.14860344 -0.59373087 4 0 34585 2.29400000 3057395459 3057395459 -15.00000000
-0.62986904 2.50206828 -0.59567040 3 2 34587 2.64800000 3057395463 3057395463 -13.00000000
-0.75577182 3.00441480 -0.60219318 2 4 34588 3.15600000 3057395468 3057395468 -11.00000000
-0.94417602 3.75892234 -0.61384887 2 6 34590 3.92400000 3057395473 3057395473 -9.00000000
-1.24981296 4.98307514 -0.63079572 2 8 34592 5.17600000 3057395477 3057395477 -7.00000000
-2.69094515 10.74484444 2.15308881 40 11 34594 11.28400000 3057395484 3057395484 11.00000000
-2.58743119 10.34684086 2.46231413 59 13 34596 10.94600000 3057395489 3057395489 13.00000000
-2.22835517 8.91755009 2.46292210 40 15 34597 9.51600000 3057395493 3057395493 15.00000000
-0.52952504 2.13173246 -0.58855450 4 0 34605 2.27400000 3057395514 3057395514 -15.00000000
-0.61925483 2.49668598 -0.59387076 3 2 34607 2.64000000 3057395519 3057395519 -13.00000000
-0.74055696 2.98797870 -0.59837699 2 4 34608 3.13600000 3057395523 3057395523 -11.00000000
-0.92820197 3.75068998 -0.61197162 2 6 34610 3.91200000 3057395528 3057395528 -9.00000000
-1.22193480 4.94501066 -0.62543344 2 8 34612 5.13200000 3057395532 3057395532 -7.00000000
-2.65248156 10.75035954 2.15232539 40 11 34614 11.28000000 3057395539 3057395539 11.00000000
-2.55129814 10.35581017 2.46231413 56 13 34616 10.94600000 3057395544 3057395544 13.00000000
-2.19427133 8.92002964 2.46136904 40 15 34618 9.51000000 3057395549 3057395549 15.00000000
-0.52208072 2.13356781 -0.58855450 4 0 34625 2.27400000 3057395569 3057395569 -15.00000000
-0.61701137 2.52533507 -0.60016942 3 2 34627 2.66800000 3057395574 3057395574 -13.00000000
-0.73198497 2.99817443 -0.59990346 2 4 34628 3.14400000 3057395579 3057395579 -11.00000000
-0.92071807 3.77693725 -0.61572605 2 6 34630 3.93600000 3057395583 3057395583 -9.00000000
-1.21123862 4.97624922 -0.62884581 2 8 34632 5.16000000 3057395588 3057395588 -7.00000000
-2.61169434 10.74619961 2.14965415 40 11 34634 11.26600000 3057395595 3057395595 11.00000000
-2.51421499 10.36086559 2.46141434 59 13 34636 10.94200000 3057395599 3057395599 13.00000000
-2.16103745 8.91223812 2.45722795 40 15 34637 9.49400000 3057395604 3057395604 15.00000000
-0.51508260 2.13725519 -0.58907217 4 0 34645 2.27600000 3057395625 3057395625 -15.00000000
-0.60545707 2.51610565 -0.59746999 3 2 34647 2.65600000 3057395629 3057395629 -13.00000000
-0.72518677 3.01598215 -0.60295641 4 4 34648 3.16000000 3057395634 3057395634 -11.00000000
-0.90522277 3.77052426 -0.61416173 2 6 34650 3.92600000 3057395638 3057395638 -9.00000000
-1.18830812 4.95728159 -0.62592095 2 8 34652 5.13600000 3057395643 3057395643 -7.00000000
-2.57051134 10.73997593 2.14660120 40 11 34654 11.25000000 3057395650 3057395650 11.00000000
-2.47622180 10.36199665 2.45961475 56 13 34656 10.93400000 3057395655 3057395655 13.00000000
-2.12811995 8.91221046 2.45515752 38 15 34657 9.48600000 3057395659 3057395659 15.00000000
-0.50895727 2.14467907 -0.59062505 4 0 34665 2.28200000 3057395680 3057395680 -15.00000000
-0.59577191 2.51441121 -0.59657019 3 2 34667 2.65200000 3057395685 3057395685 -13.00000000
-0.71827310 3.03377867 -0.60600936 2 4 34668 3.17600000 3057395689 3057395689 -11.00000000
-0.88387585 3.73905802 -0.60853004 2 6 34670 3.89000000 3057395694 3057395694 -9.00000000
-1.17282069 4.96912766 -0.62689590 2 8 34672 5.14400000 3057395698 3057395698 -7.00000000
-2.53435707 10.75461578 2.14774609 40 11 34674 11.25600000 3057395705 3057395705 11.00000000
-2.43914390 10.36678314 2.45871496 57 13 34676 10.93000000 3057395710 3057395710 13.00000000
-2.10053468 8.93462944 2.45929861 40 15 34677 9.50200000 3057395714 3057395714 15.00000000
-0.50322580 2.15396738 -0.59269559 4 0 34685 2.29000000 3057395735 3057395735 -15.00000000
-0.58787668 2.52027106 -0.59746999 3 2 34687 2.65600000 3057395740 3057395740 -13.00000000
-0.70233119 3.01332331 -0.60142994 2 4 34688 3.15200000 3057395744 3057395744 -11.00000000
-0.87529594 3.76136017 -0.61165875 2 6 34690 3.91000000 3057395749 3057395749 -9.00000000
-1.15546799 4.97319126 -0.62689590 2 8 34692 5.14400000 3057395754 3057395754 -7.00000000
-2.49680090 10.76339626 2.14774609 40 11 34694 11.25600000 3057395761 3057395761 11.00000000
-2.40118337 10.36764050 2.45691538 56 13 34696 10.92200000 3057395765 3057395765 13.00000000
-2.06472683 8.92909336 2.45567513 40 15 34698 9.48800000 3057395770 3057395770 15.00000000
-0.49564698 2.15374160 -0.59217799 4 0 34704 2.28800000 3057395791 3057395791 -15.00000000
-0.57864320 2.51840830 -0.59657019 3 2 34706 2.65200000 3057395795 3057395795 -13.00000000
