# .PCD v0.7 - Point Cloud Data file format
VERSION 0.7
FIELDS x y z intensity laser_id azimuth distance_m adjustedtime timestamp vertical_angle
SIZE 4 4 4 1 1 2 8 8 4 8
TYPE F F F U U U F U U F
COUNT 1 1 1 1 1 1 1 1 1 1
WIDTH 522
HEIGHT 1
VIEWPOINT 0 0 0 1 0 0 0
POINTS 522
DATA ascii
-7.48975801 -0.64736634 -0.39398509 8 12 26506 7.52800000 3057173086 3057173086 -3.00000000
-10.01829815 -0.86415547 2.32149482 26 13 26507 10.32000000 3057173089 3057173089 13.00000000
-10.24920654 -0.88227099 2.75642276 40 15 26508 10.65000000 3057173093 3057173093 15.00000000
-1.93651283 -0.16397507 -0.52074391 5 0 26516 2.01200000 3057173114 3057173114 -15.00000000
-2.21953297 -0.18715964 -0.51423812 4 2 26518 2.28600000 3057173118 3057173118 -13.00000000
-2.59997630 -0.21878310 -0.50717032 3 4 26519 2.65800000 3057173123 3057173123 -11.00000000
-3.12594247 -0.26194331 -0.49683586 3 6 26521 3.17600000 3057173128 3057173128 -9.00000000
-3.89708757 -0.32519278 -0.48016521 5 8 26523 3.94000000 3057173132 3057173132 -7.00000000
-5.12462139 -0.42672378 -0.44989794 3 10 26524 5.16200000 3057173137 3057173137 -5.00000000
-7.49993372 -0.62187845 -0.39440376 8 12 26526 7.53600000 3057173142 3057173142 -3.00000000
-10.14166355 -0.83914286 2.34938884 6 13 26527 10.44400000 3057173144 3057173144 13.00000000
-10.24837303 -0.84617126 2.75538754 42 15 26528 10.64600000 3057173148 3057173148 15.00000000
-1.94862652 -0.15815204 -0.52384973 4 0 26536 2.02400000 3057173169 3057173169 -15.00000000
-2.22988486 -0.18019570 -0.51648760 4 2 26538 2.29600000 3057173174 3057173174 -13.00000000
-2.58506894 -0.20844381 -0.50411737 3 4 26539 2.64200000 3057173178 3057173178 -11.00000000
-3.11896157 -0.25039780 -0.49558440 3 6 26541 3.16800000 3057173183 3057173183 -9.00000000
-3.89819884 -0.31158742 -0.48016521 5 8 26543 3.94000000 3057173188 3057173188 -7.00000000
-5.10621881 -0.40724891 -0.44815484 3 10 26544 5.14200000 3057173192 3057173192 -5.00000000
-7.53590584 -0.59838259 -0.39618319 8 12 26546 7.57000000 3057173197 3057173197 -3.00000000
-10.25333118 -0.80875534 2.75590515 42 15 26549 10.64800000 3057173204 3057173204 15.00000000
-1.93568432 -0.15030223 -0.52022630 5 0 26556 2.01000000 3057173224 3057173224 -15.00000000
-2.22855735 -0.17226067 -0.51603770 4 2 26558 2.29400000 3057173229 3057173229 -13.00000000
-2.58969545 -0.19972089 -0.50488061 3 4 26559 2.64600000 3057173234 3057173234 -11.00000000
-3.12769485 -0.24011390 -0.49683586 3 6 26561 3.17600000 3057173238 3057173238 -9.00000000
-3.89530420 -0.29767576 -0.47967774 5 8 26563 3.93600000 3057173243 3057173243 -7.00000000
-5.14138174 -0.39199734 -0.45111811 3 10 26564 5.17600000 3057173248 3057173248 -5.00000000
-7.59769487 -0.57660800 -0.39932334 12 12 26566 7.63000000 3057173252 3057173252 -3.00000000
-10.24068069 -0.77179813 2.75176406 47 15 26569 10.63200000 3057173259 3057173259 15.00000000
-1.92849100 -0.14297320 -0.51815575 5 0 26576 2.00200000 3057173280 3057173280 -15.00000000
-2.23497534 -0.16491070 -0.51738745 4 2 26578 2.30000000 3057173284 3057173284 -13.00000000
-2.59429288 -0.19096820 -0.50564384 3 4 26579 2.65000000 3057173289 3057173289 -11.00000000
-3.10487294 -0.22746280 -0.49308142 3 6 26581 3.15200000 3057173294 3057173294 -9.00000000
-3.90423894 -0.28465417 -0.48065269 5 8 26583 3.94400000 3057173298 3057173298 -7.00000000
-5.13477039 -0.37347007 -0.45042089 9 10 26584 5.16800000 3057173303 3057173303 -5.00000000
-7.58372450 -0.54893005 -0.39848596 12 12 26586 7.61400000 3057173307 3057173307 -3.00000000
-10.24331284 -0.73604679 2.75176406 45 15 26589 10.63200000 3057173314 3057173314 15.00000000
-1.93668652 -0.13678505 -0.52022630 5 0 26596 2.01000000 3057173335 3057173335 -15.00000000
-2.23359346 -0.15697157 -0.51693749 4 2 26598 2.29800000 3057173340 3057173340 -13.00000000
-2.59494376 -0.18191126 -0.50564384 3 4 26599 2.65000000 3057173344 3057173344 -11.00000000
-3.11353016 -0.21717319 -0.49433291 4 6 26601 3.16000000 3057173349 3057173349 -9.00000000
-3.91709065 -0.27184874 -0.48211512 5 8 26603 3.95600000 3057173354 3057173354 -7.00000000
-5.13803005 -0.35568169 -0.45059520 3 10 26604 5.17000000 3057173358 3057173358 -5.00000000
-7.59157228 -0.52286631 -0.39879999 12 12 26606 7.62000000 3057173363 3057173363 -3.00000000
-10.24581909 -0.70028645 2.75176406 45 15 26609 10.63200000 3057173370 3057173370 15.00000000
-1.93520188 -0.13023230 -0.51970863 4 0 26615 2.00800000 3057173390 3057173390 -15.00000000
-2.22632408 -0.14904317 -0.51513791 4 2 26617 2.29000000 3057173395 3057173395 -13.00000000
-2.60336828 -0.17382830 -0.50717032 3 4 26618 2.65800000 3057173400 3057173400 -11.00000000
-3.14182782 -0.20867997 -0.49871308 3 6 26620 3.18800000 3057173404 3057173404 -9.00000000
-3.91400909 -0.25859594 -0.48162764 5 8 26622 3.95200000 3057173409 3057173409 -7.00000000
-5.15906239 -0.33995143 -0.45233831 6 10 26623 5.19000000 3057173413 3057173413 -5.00000000
-11.10573196 -0.72985482 2.16339231 18 11 26624 11.33800000 3057173416 3057173416 11.00000000
-7.57732058 -0.49664384 -0.39796260 12 12 26625 7.60400000 3057173418 3057173418 -3.00000000
-11.09971905 -0.72556847 2.56804132 10 13 26626 11.41600000 3057173420 3057173420 13.00000000
-10.24411297 -0.66784352 2.75072885 47 15 26627 10.62800000 3057173425 3057173425 15.00000000
-1.94142854 -0.12384535 -0.52126157 4 0 26635 2.01400000 3057173446 3057173446 -15.00000000
-2.23849988 -0.14201123 -0.51783735 4 2 26637 2.30200000 3057173450 3057173450 -13.00000000
-2.60004044 -0.16449188 -0.50640708 3 4 26638 2.65400000 3057173455 3057173455 -11.00000000
-3.12676525 -0.19671939 -0.49621013 3 6 26640 3.17200000 3057173459 3057173459 -9.00000000
-3.89111328 -0.24344450 -0.47870278 5 8 26642 3.92800000 3057173464 3057173464 -7.00000000
-5.13834381 -0.32057619 -0.45042089 3 10 26643 5.16800000 3057173469 3057173469 -5.00000000
-7.58299494 -0.47043836 -0.39817196 12 12 26645 7.60800000 3057173473 3057173473 -3.00000000
-10.25420475 -0.63076693 2.75279927 45 15 26648 10.63600000 3057173480 3057173480 15.00000000
-1.93992066 -0.11695149 -0.52074391 5 0 26655 2.01200000 3057173501 3057173501 -15.00000000
-2.22731042 -0.13349698 -0.51513791 4 2 26657 2.29000000 3057173506 3057173506 -13.00000000
-2.59667921 -0.15518081 -0.50564384 3 4 26658 2.65000000 3057173510 3057173510 -11.00000000
-3.13532043 -0.18627235 -0.49746159 3 6 26660 3.18000000 3057173515 3057173515 -9.00000000
-3.91175580 -0.23103087 -0.48114017 5 8 26662 3.94800000 3057173519 3057173519 -7.00000000
-5.15136528 -0.30334079 -0.45146674 3 10 26663 5.18000000 3057173524 3057173524 -5.00000000
-7.60054159 -0.44489959 -0.39900932 12 12 26665 7.62400000 3057173529 3057173529 -3.00000000
-10.24466896 -0.59608597 2.74969363 45 15 26667 10.62400000 3057173536 3057173536 15.00000000
-1.93645954 -0.10996015 -0.51970863 4 0 26675 2.00800000 3057173556 3057173556 -15.00000000
-2.24138236 -0.12649001 -0.51828724 4 2 26677 2.30400000 3057173561 3057173561 -13.00000000
-2.59720516 -0.14611575 -0.50564384 3 4 26678 2.65000000 3057173565 3057173565 -11.00000000
-3.13200712 -0.17510638 -0.49683586 3 6 26680 3.17600000 3057173570 3057173570 -9.00000000
-3.92244864 -0.21792547 -0.48235887 3 8 26682 3.95800000 3057173575 3057173575 -7.00000000
-5.14642429 -0.28502679 -0.45094383 6 10 26683 5.17400000 3057173579 3057173579 -5.00000000
-7.62199068 -0.41946352 -0.40005606 16 12 26685 7.64400000 3057173584 3057173584 -3.00000000
-10.24678516 -0.55853337 2.74969363 45 15 26688 10.62400000 3057173591 3057173591 15.00000000
-1.92527485 -0.10224722 -0.51660281 4 0 26696 1.99600000 3057173612 3057173612 -15.00000000
-2.24377680 -0.11837675 -0.51873714 4 2 26698 2.30600000 3057173616 3057173616 -13.00000000
-2.60164428 -0.13680172 -0.50640708 3 4 26699 2.65400000 3057173621 3057173621 -11.00000000
-3.13657308 -0.16383190 -0.49746159 3 6 26701 3.18000000 3057173625 3057173625 -9.00000000
-3.91925597 -0.20334181 -0.48187140 3 8 26703 3.95400000 3057173630 3057173630 -7.00000000
-5.15539360 -0.26657382 -0.45164105 3 10 26704 5.18200000 3057173635 3057173635 -5.00000000
-7.61948776 -0.39131984 -0.39984670 16 12 26706 7.64000000 3057173639 3057173639 -3.00000000
-10.24095440 -0.52236837 2.74762297 45 15 26708 10.61600000 3057173646 3057173646 15.00000000
-1.94105577 -0.09629187 -0.52074391 4 0 26716 2.01200000 3057173667 3057173667 -15.00000000
-2.22471261 -0.10958504 -0.51423812 4 2 26718 2.28600000 3057173671 3057173671 -13.00000000
-2.61779308 -0.12848943 -0.50946003 3 4 26719 2.67000000 3057173676 3057173676 -11.00000000
-3.13317990 -0.15268992 -0.49683586 3 6 26721 3.17600000 3057173681 3057173681 -9.00000000
-3.91994190 -0.18965982 -0.48187140 3 8 26723 3.95400000 3057173685 3057173685 -7.00000000
-5.16624308 -0.24905622 -0.45251262 3 10 26724 5.19200000 3057173690 3057173690 -5.00000000
-7.61681700 -0.36452952 -0.39963737 16 12 26726 7.63600000 3057173694 3057173694 -3.00000000
-10.24666023 -0.48501259 2.74865818 45 15 26729 10.62000000 3057173701 3057173701 15.00000000
-1.94329429 -0.08994389 -0.52126157 4 0 26735 2.01400000 3057173722 3057173722 -15.00000000
-2.23674393 -0.10274354 -0.51693749 4 2 26737 2.29800000 3057173727 3057173727 -13.00000000
-2.60251522 -0.11908986 -0.50640708 3 4 26738 2.65400000 3057173731 3057173731 -11.00000000
-3.12577558 -0.14194064 -0.49558440 3 6 26740 3.16800000 3057173736 3057173736 -9.00000000
-3.92253256 -0.17674913 -0.48211512 3 8 26742 3.95600000 3057173741 3057173741 -7.00000000
-5.16505003 -0.23183362 -0.45233831 3 10 26743 5.19000000 3057173745 3057173745 -5.00000000
-7.62995577 -0.33980241 -0.40026540 16 12 26745 7.64800000 3057173750 3057173750 -3.00000000
-10.24427319 -0.45264888 2.74762297 45 15 26747 10.61600000 3057173757 3057173757 15.00000000
-1.93973625 -0.08299481 -0.52022630 4 0 26755 2.01000000 3057173777 3057173777 -15.00000000
-2.24877095 -0.09543097 -0.51963693 4 2 26757 2.31000000 3057173782 3057173782 -13.00000000
-2.59899211 -0.10983887 -0.50564384 3 4 26758 2.65000000 3057173787 3057173787 -11.00000000
-3.13809395 -0.13152510 -0.49746159 3 6 26760 3.18000000 3057173791 3057173791 -9.00000000
-3.91915870 -0.16289099 -0.48162764 3 8 26762 3.95200000 3057173796 3057173796 -7.00000000
-5.16184664 -0.21363805 -0.45198968 3 10 26763 5.18600000 3057173800 3057173800 -5.00000000
-7.63109541 -0.31316683 -0.40026540 16 12 26765 7.64800000 3057173805 3057173805 -3.00000000
-10.24586296 -0.41509870 2.74762297 45 15 26768 10.61600000 3057173812 3057173812 15.00000000
-1.94388807 -0.07603578 -0.52126157 5 0 26776 2.01400000 3057173833 3057173833 -15.00000000
-2.23742175 -0.08673525 -0.51693749 4 2 26778 2.29800000 3057173837 3057173837 -13.00000000
-2.60722446 -0.10061518 -0.50717032 3 4 26779 2.65800000 3057173842 3057173842 -11.00000000
-3.13065910 -0.11972059 -0.49621013 3 6 26781 3.17200000 3057173847 3057173847 -9.00000000
-3.92964768 -0.14890128 -0.48284635 3 8 26783 3.96200000 3057173851 3057173851 -7.00000000
-5.12675762 -0.19336581 -0.44885206 3 10 26784 5.15000000 3057173856 3057173856 -5.00000000
-7.64815903 -0.28579199 -0.40110278 16 12 26786 7.66400000 3057173860 3057173860 -3.00000000
-10.23952770 -0.37904558 2.74555254 42 15 26788 10.60800000 3057173867 3057173867 15.00000000
-1.94800293 -0.06938741 -0.52229685 5 0 26796 2.01800000 3057173888 3057173888 -15.00000000
-2.22797346 -0.07858121 -0.51468801 4 2 26798 2.28800000 3057173893 3057173893 -13.00000000
-2.60363555 -0.09137593 -0.50640708 3 4 26799 2.65400000 3057173897 3057173897 -11.00000000
-3.13895464 -0.10906620 -0.49746159 3 6 26801 3.18000000 3057173902 3057173902 -9.00000000
-3.92220783 -0.13491039 -0.48187140 3 8 26803 3.95400000 3057173906 3057173906 -7.00000000
-5.16921663 -0.17689992 -0.45251262 3 10 26804 5.19200000 3057173911 3057173911 -5.00000000
-7.64312172 -0.25889036 -0.40078875 16 12 26806 7.65800000 3057173916 3057173916 -3.00000000
-10.23312569 -0.34125572 2.74348187 45 15 26809 10.60000000 3057173923 3057173923 15.00000000
-1.94630241 -0.06252517 -0.52177918 4 0 26816 2.01600000 3057173943 3057173943 -15.00000000
-2.22239089 -0.07061798 -0.51333833 4 2 26818 2.28200000 3057173948 3057173948 -13.00000000
-2.61178780 -0.08253504 -0.50793356 3 4 26819 2.66200000 3057173953 3057173953 -11.00000000
-3.15116286 -0.09847876 -0.49933881 3 6 26821 3.19200000 3057173957 3057173957 -9.00000000
-3.93257570 -0.12152508 -0.48309007 3 8 26823 3.96400000 3057173962 3057173962 -7.00000000
-5.14590549 -0.15812060 -0.45042089 3 10 26824 5.16800000 3057173966 3057173966 -5.00000000
-7.64797163 -0.23233061 -0.40099809 20 12 26826 7.66200000 3057173971 3057173971 -3.00000000
-10.23420048 -0.30731958 2.74348187 47 15 26828 10.60000000 3057173978 3057173978 15.00000000
-1.94650877 -0.05573092 -0.52177918 5 0 26836 2.01600000 3057173999 3057173999 -15.00000000
-2.23625946 -0.06324560 -0.51648760 4 2 26838 2.29600000 3057174003 3057174003 -13.00000000
-2.60813498 -0.07330737 -0.50717032 3 4 26839 2.65800000 3057174008 3057174008 -11.00000000
-3.14358878 -0.08725930 -0.49808735 3 6 26841 3.18400000 3057174012 3057174012 -9.00000000
-3.92503858 -0.10757954 -0.48211512 3 8 26843 3.95600000 3057174017 3057174017 -7.00000000
-5.17829227 -0.14102492 -0.45320988 3 10 26844 5.20000000 3057174022 3057174022 -5.00000000
-7.65272903 -0.20574014 -0.40120745 24 12 26846 7.66600000 3057174026 3057174026 -3.00000000
-10.23134899 -0.27149120 2.74244666 45 15 26848 10.59600000 3057174033 3057174033 15.00000000
-1.94860554 -0.04966474 -0.52229685 5 0 26854 2.01800000 3057174054 3057174054 -15.00000000
-2.24618769 -0.05646475 -0.51873714 4 2 26856 2.30600000 3057174059 3057174059 -13.00000000
-2.60835242 -0.06511332 -0.50717032 3 4 26857 2.65800000 3057174063 3057174063 -11.00000000
-3.13594842 -0.07718858 -0.49683586 3 6 26859 3.17600000 3057174068 3057174068 -9.00000000
-3.93924880 -0.09558523 -0.48382130 3 8 26861 3.97000000 3057174072 3057174072 -7.00000000
-5.15879202 -0.12427634 -0.45146674 3 10 26862 5.18000000 3057174077 3057174077 -5.00000000
-7.66132450 -0.18188702 -0.40162614 20 12 26864 7.67400000 3057174082 3057174082 -3.00000000
-10.21670055 -0.23898576 2.73830557 45 15 26866 10.58000000 3057174088 3057174088 15.00000000
-1.93331587 -0.04252269 -0.51815575 4 0 26874 2.00200000 3057174109 3057174109 -15.00000000
-2.23857808 -0.04845506 -0.51693749 4 2 26876 2.29800000 3057174114 3057174114 -13.00000000
-2.60071254 -0.05583951 -0.50564384 3 4 26877 2.65000000 3057174118 3057174118 -11.00000000
-3.13224888 -0.06615818 -0.49621013 3 6 26879 3.17200000 3057174123 3057174123 -9.00000000
-3.93558908 -0.08175165 -0.48333383 3 8 26881 3.96600000 3057174128 3057174128 -7.00000000
-5.16118622 -0.10630906 -0.45164105 6 10 26882 5.18200000 3057174132 3057174132 -5.00000000
-7.66590643 -0.15522376 -0.40183547 24 12 26884 7.67800000 3057174137 3057174137 -3.00000000
-10.20205593 -0.20123328 2.73416448 45 15 26887 10.56400000 3057174144 3057174144 15.00000000
-1.94891095 -0.03571966 -0.52229685 5 0 26895 2.01800000 3057174165 3057174165 -15.00000000
-2.24263740 -0.04031999 -0.51783735 4 2 26897 2.30200000 3057174169 3057174169 -13.00000000
-2.61267757 -0.04651674 -0.50793356 3 4 26898 2.66200000 3057174174 3057174174 -11.00000000
-3.14432073 -0.05488432 -0.49808735 3 6 26900 3.18400000 3057174178 3057174178 -9.00000000
-3.93586230 -0.06732645 -0.48333383 3 8 26902 3.96600000 3057174183 3057174183 -7.00000000
-5.17747784 -0.08766149 -0.45303556 6 10 26903 5.19800000 3057174188 3057174188 -5.00000000
-7.64645386 -0.12679462 -0.40078875 16 12 26905 7.65800000 3057174192 3057174192 -3.00000000
-10.19883347 -0.16555753 2.73312902 47 15 26907 10.56000000 3057174199 3057174199 15.00000000
-1.95288706 -0.02897379 -0.52333212 5 0 26915 2.02200000 3057174220 3057174220 -15.00000000
-2.22327924 -0.03220919 -0.51333833 4 2 26917 2.28200000 3057174224 3057174224 -13.00000000
-2.61675000 -0.03745270 -0.50869679 3 4 26918 2.66600000 3057174229 3057174229 -11.00000000
-3.14449310 -0.04390826 -0.49808735 3 6 26920 3.18400000 3057174234 3057174234 -9.00000000
-3.94401288 -0.05369541 -0.48430878 3 8 26922 3.97400000 3057174238 3057174238 -7.00000000
-5.16978359 -0.06948109 -0.45233831 6 10 26923 5.19000000 3057174243 3057174243 -5.00000000
-7.64085865 -0.10002432 -0.40047473 16 12 26925 7.65200000 3057174247 3057174247 -3.00000000
-10.20321178 -0.13000518 2.73416448 45 15 26927 10.56400000 3057174254 3057174254 15.00000000
-1.95490801 -0.02217868 -0.52384973 5 0 26935 2.02400000 3057174275 3057174275 -15.00000000
-2.24091578 -0.02464115 -0.51738745 4 2 26937 2.30000000 3057174280 3057174280 -13.00000000
-2.61293864 -0.02827582 -0.50793356 3 4 26938 2.66200000 3057174284 3057174284 -11.00000000
-3.14462733 -0.03293166 -0.49808735 3 6 26940 3.18400000 3057174289 3057174289 -9.00000000
-3.94814634 -0.03996809 -0.48479626 3 8 26942 3.97800000 3057174293 3057174293 -7.00000000
-5.17796373 -0.05151403 -0.45303556 6 10 26943 5.19800000 3057174298 3057174298 -5.00000000
-7.63317251 -0.07327545 -0.40005606 16 12 26945 7.64400000 3057174303 3057174303 -3.00000000
-10.19201279 -0.09428131 2.73105860 45 15 26947 10.55200000 3057174310 3057174310 15.00000000
-1.95111001 -0.01532430 -0.52281445 5 0 26955 2.02000000 3057174330 3057174330 -15.00000000
-2.24098802 -0.01681874 -0.51738745 4 2 26957 2.30000000 3057174335 3057174335 -13.00000000
-2.60909486 -0.01912601 -0.50717032 3 4 26958 2.65800000 3057174340 3057174340 -11.00000000
-3.14867377 -0.02198225 -0.49871308 3 6 26960 3.18800000 3057174344 3057174344 -9.00000000
-3.94826174 -0.02618625 -0.48479626 3 8 26962 3.97800000 3057174349 3057174349 -7.00000000
-5.16615820 -0.03336206 -0.45198968 9 10 26963 5.18600000 3057174353 3057174353 -5.00000000
-7.65535116 -0.04676446 -0.40120745 20 12 26965 7.66600000 3057174358 3057174358 -3.00000000
-10.19229031 -0.05692508 2.73105860 47 15 26968 10.55200000 3057174365 3057174365 15.00000000
-1.94535756 -0.00814874 -0.52126157 5 0 26976 2.01400000 3057174386 3057174386 -15.00000000
-2.25272703 -0.00864989 -0.52008682 4 2 26978 2.31200000 3057174390 3057174390 -13.00000000
-2.61307406 -0.00957746 -0.50793356 3 4 26979 2.66200000 3057174395 3057174395 -11.00000000
-3.14478230 -0.01042853 -0.49808735 3 6 26981 3.18400000 3057174399 3057174399 -9.00000000
-3.93642068 -0.01167963 -0.48333383 3 8 26983 3.96600000 3057174404 3057174404 -7.00000000
-5.17819977 -0.01446030 -0.45303556 6 10 26984 5.19800000 3057174409 3057174409 -5.00000000
-7.65147686 -0.01869612 -0.40099809 20 12 26986 7.66200000 3057174413 3057174413 -3.00000000
-10.17697239 -0.02131463 2.72691751 45 15 26988 10.53600000 3057174420 3057174420 15.00000000
-1.94344234 -0.00135678 -0.52074391 5 0 26996 2.01200000 3057174441 3057174441 -15.00000000
-2.24105096 -0.00078227 -0.51738745 4 2 26998 2.30000000 3057174445 3057174445 -13.00000000
-2.62094450 -0.00045744 -0.50946003 3 4 26999 2.67000000 3057174450 3057174450 -11.00000000
-3.13689804 0.00054749 -0.49683586 3 6 27001 3.17600000 3057174455 3057174455 -9.00000000
-3.94834805 0.00206735 -0.48479626 3 8 27003 3.97800000 3057174459 3057174459 -7.00000000
-5.17024899 0.00360952 -0.45233831 6 10 27004 5.19000000 3057174464 3057174464 -5.00000000
-7.65548992 0.00801681 -0.40120745 20 12 27006 7.66600000 3057174469 3057174469 -3.00000000
-10.17891598 0.01421246 2.72743511 47 15 27008 10.53800000 3057174475 3057174475 15.00000000
-1.95309532 0.00511320 -0.52333212 5 0 27015 2.02200000 3057174496 3057174496 -15.00000000
-2.22545147 0.00660307 -0.51378822 4 2 27017 2.28400000 3057174501 3057174501 -13.00000000
-2.62093163 0.00823393 -0.50946003 3 4 27018 2.67000000 3057174505 3057174505 -11.00000000
-3.14478064 0.01097740 -0.49808735 3 6 27020 3.18400000 3057174510 3057174510 -9.00000000
-3.93640900 0.01511480 -0.48333383 3 8 27022 3.96600000 3057174515 3057174515 -7.00000000
-5.18216324 0.02080265 -0.45338416 6 10 27023 5.20200000 3057174519 3057174519 -5.00000000
-7.63744593 0.03332486 -0.40026540 16 12 27025 7.64800000 3057174524 3057174524 -3.00000000
-10.17300892 0.04971510 2.72588229 45 15 27028 10.53200000 3057174531 3057174531 15.00000000
-1.95306563 0.01193075 -0.52333212 4 0 27035 2.02200000 3057174551 3057174551 -15.00000000
-2.23710704 0.01444681 -0.51648760 4 2 27037 2.29600000 3057174556 3057174556 -13.00000000
-2.61696053 0.01735659 -0.50869679 3 4 27038 2.66600000 3057174561 3057174561 -11.00000000
-3.16052556 0.02206499 -0.50059026 3 6 27040 3.20000000 3057174565 3057174565 -9.00000000
-3.94427252 0.02891354 -0.48430878 3 8 27042 3.97400000 3057174570 3057174570 -7.00000000
-5.18604374 0.03892155 -0.45373279 6 10 27043 5.20600000 3057174575 3057174575 -5.00000000
-7.65326071 0.06010981 -0.40110278 16 12 27045 7.66400000 3057174579 3057174579 -3.00000000
-10.17277336 0.08522522 2.72588229 45 15 27048 10.53200000 3057174586 3057174586 15.00000000
-1.95108354 0.01838907 -0.52281445 4 0 27054 2.02000000 3057174607 3057174607 -15.00000000
-2.24484134 0.02194143 -0.51828724 4 2 27056 2.30400000 3057174611 3057174611 -13.00000000
-2.62081480 0.02607371 -0.50946003 3 4 27057 2.67000000 3057174616 3057174616 -11.00000000
-3.17426205 0.03268794 -0.50278038 3 6 27059 3.21400000 3057174621 3057174621 -9.00000000
-3.94216990 0.04197193 -0.48406503 5 8 27061 3.97200000 3057174625 3057174625 -7.00000000
-5.18987036 0.05616200 -0.45408142 6 10 27062 5.21000000 3057174630 3057174630 -5.00000000
-7.64103651 0.08535475 -0.40047473 16 12 27064 7.65200000 3057174634 3057174634 -3.00000000
-10.15118599 0.11871040 2.72018814 42 15 27067 10.51000000 3057174641 3057174641 15.00000000
-1.93748558 0.02502486 -0.51919103 5 0 27074 2.00600000 3057174662 3057174662 -15.00000000
-2.25644255 0.02993234 -0.52098662 4 2 27076 2.31600000 3057174667 3057174667 -13.00000000
-2.60696626 0.03503722 -0.50678867 3 4 27077 2.65600000 3057174671 3057174671 -11.00000000
-3.15240145 0.04346839 -0.49933881 3 6 27079 3.19200000 3057174676 3057174676 -9.00000000
-3.93802953 0.05567629 -0.48357755 5 8 27081 3.96800000 3057174681 3057174681 -7.00000000
-5.16573668 0.07393552 -0.45198968 6 10 27082 5.18600000 3057174685 3057174685 -5.00000000
-7.65666819 0.11226066 -0.40131211 16 12 27084 7.66800000 3057174690 3057174690 -3.00000000
-10.13718891 0.15393861 2.71656466 45 15 27087 10.49600000 3057174697 3057174697 15.00000000
-1.95090759 0.03200965 -0.52281445 5 0 27094 2.02000000 3057174717 3057174717 -15.00000000
-2.23294282 0.03741682 -0.51558781 4 2 27096 2.29200000 3057174722 3057174722 -13.00000000
-2.61664295 0.04430320 -0.50869679 3 4 27097 2.66600000 3057174727 3057174727 -11.00000000
-3.14038014 0.05426727 -0.49746159 3 6 27099 3.18000000 3057174731 3057174731 -9.00000000
-3.95765901 0.06977215 -0.48601493 5 8 27101 3.98800000 3057174736 3057174736 -7.00000000
-5.17341518 0.09210873 -0.45268694 6 10 27102 5.19400000 3057174740 3057174740 -5.00000000
-7.63626051 0.13862424 -0.40026540 12 12 27104 7.64800000 3057174745 3057174745 -3.00000000
-10.14048576 0.18762536 2.71759987 45 15 27106 10.50000000 3057174752 3057174752 15.00000000
-1.94692099 0.03874252 -0.52177918 5 0 27114 2.01600000 3057174773 3057174773 -15.00000000
-2.22890186 0.04513211 -0.51468801 4 2 27116 2.28800000 3057174777 3057174777 -13.00000000
-2.62039804 0.05351689 -0.50946003 3 4 27117 2.67000000 3057174782 3057174782 -11.00000000
-3.15399623 0.06551608 -0.49965167 3 6 27119 3.19400000 3057174786 3057174786 -9.00000000
-3.93357563 0.08308350 -0.48309007 5 8 27121 3.96400000 3057174791 3057174791 -7.00000000
-5.18103027 0.11033644 -0.45338416 9 10 27122 5.20200000 3057174796 3057174796 -5.00000000
-7.62574625 0.16506280 -0.39974204 12 12 27124 7.63800000 3057174800 3057174800 -3.00000000
-10.14552402 0.22491929 2.71915293 42 15 27127 10.50600000 3057174807 3057174807 15.00000000
-1.95836186 0.04580937 -0.52488500 4 0 27134 2.02800000 3057174828 3057174828 -15.00000000
-2.23457527 0.05305091 -0.51603770 4 2 27136 2.29400000 3057174833 3057174833 -13.00000000
-2.62412071 0.06275734 -0.51022327 3 4 27137 2.67400000 3057174837 3057174837 -11.00000000
-3.15177345 0.07647727 -0.49933881 3 6 27139 3.19200000 3057174842 3057174842 -9.00000000
-3.94516850 0.09710682 -0.48455250 7 8 27141 3.97600000 3057174846 3057174846 -7.00000000
-5.18459702 0.12851968 -0.45373279 9 10 27142 5.20600000 3057174851 3057174851 -5.00000000
-7.63910007 0.19203195 -0.40047473 12 12 27144 7.65200000 3057174856 3057174856 -3.00000000
-10.15824127 0.25890636 2.72277641 42 15 27146 10.52000000 3057174863 3057174863 15.00000000
-1.94853425 0.05238546 -0.52229685 4 0 27154 2.01800000 3057174883 3057174883 -15.00000000
-2.24216866 0.06106292 -0.51783735 4 2 27156 2.30200000 3057174888 3057174888 -13.00000000
-2.61014819 0.07154032 -0.50755191 3 4 27157 2.66000000 3057174892 3057174892 -11.00000000
-3.15543652 0.08758817 -0.49996457 3 6 27159 3.19600000 3057174897 3057174897 -9.00000000
-3.94877410 0.11098898 -0.48503998 7 8 27161 3.98000000 3057174902 3057174902 -7.00000000
-5.18809986 0.14672917 -0.45408142 6 10 27162 5.21000000 3057174906 3057174906 -5.00000000
-7.64636898 0.21892487 -0.40089342 12 12 27164 7.66000000 3057174911 3057174911 -3.00000000
-10.14177513 0.29568604 2.71863532 45 15 27167 10.50400000 3057174918 3057174918 15.00000000
-1.94062591 0.05861345 -0.52022630 4 0 27173 2.01000000 3057174939 3057174939 -15.00000000
-2.25169277 0.06879544 -0.52008682 4 2 27175 2.31200000 3057174943 3057174943 -13.00000000
-2.60793424 0.08013520 -0.50717032 3 4 27176 2.65800000 3057174948 3057174948 -11.00000000
-3.14328218 0.09768334 -0.49808735 3 6 27178 3.18400000 3057174952 3057174952 -9.00000000
-3.94441628 0.12395827 -0.48455250 7 8 27180 3.97600000 3057174957 3057174957 -7.00000000
-5.17961931 0.16368100 -0.45338416 9 10 27181 5.20200000 3057174962 3057174962 -5.00000000
-7.66356707 0.24485396 -0.40183547 12 12 27183 7.67800000 3057174966 3057174966 -3.00000000
-10.13114262 0.32723403 2.71604705 42 15 27185 10.49400000 3057174973 3057174973 15.00000000
-1.94813251 0.06564739 -0.52229685 4 0 27193 2.01800000 3057174994 3057174994 -15.00000000
-2.24364853 0.07638966 -0.51828724 4 2 27195 2.30400000 3057174998 3057174998 -13.00000000
-2.62333536 0.08977527 -0.51022327 3 4 27196 2.67400000 3057175003 3057175003 -11.00000000
-3.15476727 0.10906435 -0.49996457 3 6 27198 3.19600000 3057175008 3057175008 -9.00000000
-3.95586276 0.13814177 -0.48601493 7 8 27200 3.98800000 3057175012 3057175012 -7.00000000
-5.17503405 0.18162049 -0.45303556 6 10 27201 5.19800000 3057175017 3057175017 -5.00000000
-7.65268564 0.27124956 -0.40131211 16 12 27203 7.66800000 3057175021 3057175021 -3.00000000
-10.13180542 0.36443377 2.71656466 45 15 27206 10.49600000 3057175028 3057175028 15.00000000
-1.95368314 0.07266264 -0.52384973 4 0 27213 2.02400000 3057175049 3057175049 -15.00000000
-2.23363137 0.08385544 -0.51603770 4 2 27215 2.29400000 3057175054 3057175054 -13.00000000
-2.62300611 0.09893187 -0.51022327 3 4 27216 2.67400000 3057175058 3057175058 -11.00000000
-3.16621089 0.12052672 -0.50184178 3 6 27218 3.20800000 3057175063 3057175063 -9.00000000
-3.94543839 0.15156846 -0.48479626 7 8 27220 3.97800000 3057175068 3057175068 -7.00000000
-5.18233204 0.19999094 -0.45373279 6 10 27221 5.20600000 3057175072 3057175072 -5.00000000
-7.64171314 0.29757220 -0.40078875 16 12 27223 7.65800000 3057175077 3057175077 -3.00000000
-10.13440228 0.39818174 2.71759987 45 15 27225 10.50000000 3057175084 3057175084 15.00000000
-1.95727801 0.07963891 -0.52488500 4 0 27233 2.02800000 3057175104 3057175104 -15.00000000
-2.22943091 0.09149195 -0.51513791 4 2 27235 2.29000000 3057175109 3057175109 -13.00000000
-2.61872149 0.10792558 -0.50946003 3 4 27236 2.67000000 3057175114 3057175114 -11.00000000
-3.16182375 0.13141407 -0.50121605 3 6 27238 3.20400000 3057175118 3057175118 -9.00000000
-3.93893528 0.16509029 -0.48406503 7 8 27240 3.97200000 3057175123 3057175123 -7.00000000
-5.20549011 0.21908480 -0.45582452 6 10 27241 5.23000000 3057175127 3057175127 -5.00000000
-7.65459633 0.32483771 -0.40152144 16 12 27243 7.67200000 3057175132 3057175132 -3.00000000
-10.13866425 0.43557227 2.71915293 47 15 27246 10.50600000 3057175139 3057175139 15.00000000
-1.94732320 0.08638409 -0.52229685 4 0 27254 2.01800000 3057175160 3057175160 -15.00000000
-2.23492098 0.09992373 -0.51648760 4 2 27256 2.29600000 3057175164 3057175164 -13.00000000
-2.61830831 0.11752295 -0.50946003 3 4 27257 2.67000000 3057175169 3057175169 -11.00000000
-3.16526747 0.14318037 -0.50184178 3 6 27259 3.20800000 3057175174 3057175174 -9.00000000
-3.95020175 0.18006848 -0.48552746 5 8 27261 3.98400000 3057175178 3057175178 -7.00000000
-5.18872976 0.23743381 -0.45443004 6 10 27262 5.21400000 3057175183 3057175183 -5.00000000
-7.65335417 0.35289103 -0.40152144 28 12 27264 7.67200000 3057175187 3057175187 -3.00000000
-10.13515282 0.47087049 2.71863532 45 15 27266 10.50400000 3057175194 3057175194 15.00000000
-1.94700980 0.09318099 -0.52229685 4 0 27274 2.01800000 3057175215 3057175215 -15.00000000
-2.25013041 0.10847515 -0.52008682 4 2 27276 2.31200000 3057175220 3057175220 -13.00000000
-2.61788225 0.12666184 -0.50946003 3 4 27277 2.67000000 3057175224 3057175224 -11.00000000
-3.15685630 0.15384375 -0.50059026 3 6 27279 3.20000000 3057175229 3057175229 -9.00000000
-3.95747995 0.19424543 -0.48650241 5 8 27281 3.99200000 3057175233 3057175233 -7.00000000
-5.18388939 0.25534835 -0.45408142 6 10 27282 5.21000000 3057175238 3057175238 -5.00000000
-7.66603947 0.38029677 -0.40225416 24 12 27284 7.68600000 3057175243 3057175243 -3.00000000
-10.13335896 0.50801450 2.71863532 47 15 27287 10.50400000 3057175250 3057175250 15.00000000
-1.94281411 0.09977859 -0.52126157 4 0 27294 2.01400000 3057175270 3057175270 -15.00000000
-2.23416901 0.11552386 -0.51648760 4 2 27296 2.29600000 3057175275 3057175275 -13.00000000
-2.62918782 0.13640951 -0.51174974 3 4 27297 2.68200000 3057175280 3057175280 -11.00000000
-3.14840937 0.16445014 -0.49933881 3 6 27299 3.19200000 3057175284 3057175284 -9.00000000
-3.96470737 0.20847538 -0.48747736 6 8 27301 4.00000000 3057175289 3057175289 -7.00000000
-5.19092464 0.27386183 -0.45477867 6 10 27302 5.21800000 3057175293 3057175293 -5.00000000
-7.65668774 0.40663025 -0.40183547 24 12 27304 7.67800000 3057175298 3057175298 -3.00000000
-10.12775993 0.54140890 2.71759987 47 15 27306 10.50000000 3057175305 3057175305 15.00000000
-1.95402765 0.10719458 -0.52436739 4 0 27314 2.02600000 3057175326 3057175326 -15.00000000
-2.23375201 0.12332186 -0.51648760 4 2 27316 2.29600000 3057175330 3057175330 -13.00000000
-2.62869573 0.14558627 -0.51174974 3 4 27317 2.68200000 3057175335 3057175335 -11.00000000
-3.15176058 0.17565897 -0.49996457 3 6 27319 3.19600000 3057175339 3057175339 -9.00000000
-3.95602751 0.22186890 -0.48650241 5 8 27321 3.99200000 3057175344 3057175344 -7.00000000
-5.18993711 0.29197988 -0.45477867 6 10 27322 5.21800000 3057175349 3057175349 -5.00000000
-7.64525127 0.43279019 -0.40131211 32 12 27324 7.66800000 3057175353 3057175353 -3.00000000
-10.12966633 0.57697779 2.71863532 45 15 27326 10.50400000 3057175360 3057175360 15.00000000
-1.95173287 0.11356156 -0.52384973 4 0 27333 2.02400000 3057175381 3057175381 -15.00000000
-2.23722172 0.13095632 -0.51738745 4 2 27335 2.30000000 3057175386 3057175386 -13.00000000
-2.62035894 0.15384227 -0.51022327 3 4 27336 2.67400000 3057175390 3057175390 -11.00000000
-3.15510464 0.18634255 -0.50059026 3 6 27338 3.20000000 3057175395 3057175395 -9.00000000
-3.95527005 0.23498634 -0.48650241 5 8 27340 3.99200000 3057175399 3057175399 -7.00000000
-5.20684004 0.31025529 -0.45634747 6 10 27341 5.23600000 3057175404 3057175404 -5.00000000
-7.64776134 0.45837936 -0.40152144 32 12 27343 7.67200000 3057175409 3057175409 -3.00000000
-10.13155365 0.61079830 2.71967053 45 15 27345 10.50800000 3057175415 3057175415 15.00000000
-1.95325279 0.12049264 -0.52436739 4 0 27353 2.02600000 3057175436 3057175436 -15.00000000
-2.23869586 0.13888556 -0.51783735 4 2 27355 2.30200000 3057175441 3057175441 -13.00000000
-2.60804915 0.16225666 -0.50793356 3 4 27356 2.66200000 3057175445 3057175445 -11.00000000
-3.15837812 0.19760148 -0.50121605 3 6 27358 3.20400000 3057175450 3057175450 -9.00000000
-3.95046329 0.24854209 -0.48601493 5 8 27360 3.98800000 3057175455 3057175455 -7.00000000
-5.18385267 0.32704872 -0.45443004 6 10 27361 5.21400000 3057175459 3057175459 -5.00000000
-7.65408754 0.48557806 -0.40194014 28 12 27363 7.68000000 3057175464 3057175464 -3.00000000
-10.12153530 0.64743495 2.71759987 47 15 27366 10.50000000 3057175471 3057175471 15.00000000
-1.93932593 0.12643029 -0.52074391 4 0 27373 2.01200000 3057175492 3057175492 -15.00000000
-2.25375390 0.14771885 -0.52143657 4 2 27375 2.31800000 3057175496 3057175496 -13.00000000
-2.61922097 0.17213193 -0.51022327 3 4 27376 2.67400000 3057175501 3057175501 -11.00000000
-3.16161132 0.20888554 -0.50184178 3 6 27378 3.20800000 3057175505 3057175505 -9.00000000
-3.95947528 0.26298806 -0.48723364 3 8 27380 3.99800000 3057175510 3057175510 -7.00000000
-5.20653534 0.34673041 -0.45652178 9 10 27381 5.23800000 3057175515 3057175515 -5.00000000
-7.65633154 0.51255965 -0.40214950 32 12 27383 7.68400000 3057175519 3057175519 -3.00000000
-10.10776806 0.68021733 2.71449423 45 15 27385 10.48800000 3057175526 3057175526 15.00000000
-1.94658208 0.13372865 -0.52281445 4 0 27393 2.02000000 3057175547 3057175547 -15.00000000
-2.23572755 0.15437685 -0.51738745 4 2 27395 2.30000000 3057175551 3057175551 -13.00000000
-2.62643838 0.18181600 -0.51174974 3 4 27396 2.68200000 3057175556 3057175556 -11.00000000
-3.14903927 0.21909770 -0.49996457 3 6 27398 3.19600000 3057175561 3057175561 -9.00000000
-3.95457268 0.27653065 -0.48674616 3 8 27400 3.99400000 3057175565 3057175565 -7.00000000
-5.20131826 0.36462384 -0.45617315 6 10 27401 5.23400000 3057175570 3057175570 -5.00000000
-7.65051126 0.53900141 -0.40194014 32 12 27403 7.68000000 3057175574 3057175574 -3.00000000
-10.11111259 0.71590519 2.71604705 42 15 27405 10.49400000 3057175581 3057175581 15.00000000
-1.93839610 0.13996615 -0.52074391 4 0 27413 2.01200000 3057175602 3057175602 -15.00000000
-2.22545695 0.16147491 -0.51513791 4 2 27415 2.29000000 3057175607 3057175607 -13.00000000
-2.62578773 0.19098286 -0.51174974 3 4 27416 2.68200000 3057175611 3057175611 -11.00000000
-3.15613556 0.23066451 -0.50121605 3 6 27418 3.20400000 3057175616 3057175616 -9.00000000
-3.96942139 0.29149610 -0.48869607 4 8 27420 4.01000000 3057175620 3057175620 -7.00000000
-5.18610477 0.38175377 -0.45495299 6 10 27421 5.22000000 3057175625 3057175625 -5.00000000
-7.64659119 0.56555605 -0.40183547 40 12 27423 7.67800000 3057175630 3057175630 -3.00000000
-10.11818504 0.75191104 2.71863532 42 15 27425 10.50400000 3057175637 3057175637 15.00000000
-1.95715904 0.14819013 -0.52592027 4 0 27433 2.03200000 3057175657 3057175657 -15.00000000
-2.23070908 0.16968566 -0.51648760 4 2 27435 2.29600000 3057175662 3057175662 -13.00000000
-2.62119007 0.19984891 -0.51098651 3 4 27436 2.67800000 3057175667 3057175667 -11.00000000
-3.16712880 0.24258524 -0.50309324 3 6 27438 3.21600000 3057175671 3057175671 -9.00000000
-3.95056653 0.30397952 -0.48650241 5 8 27440 3.99200000 3057175676 3057175676 -7.00000000
-5.20460558 0.40138632 -0.45669609 3 10 27441 5.24000000 3057175680 3057175680 -5.00000000
-7.64457035 0.59224421 -0.40183547 40 12 27443 7.67800000 3057175685 3057175685 -3.00000000
-10.11921310 0.78929144 2.71967053 45 15 27446 10.50800000 3057175692 3057175692 15.00000000
-1.93544590 0.15334260 -0.52022630 4 0 27453 2.01000000 3057175713 3057175713 -15.00000000
-2.23981619 0.17824422 -0.51873714 4 2 27455 2.30600000 3057175717 3057175717 -13.00000000
-2.60677719 0.20790476 -0.50831515 3 4 27456 2.66400000 3057175722 3057175722 -11.00000000
-3.15838647 0.25300816 -0.50184178 3 6 27458 3.20800000 3057175726 3057175726 -9.00000000
-3.96333218 0.31888214 -0.48820859 4 8 27460 4.00600000 3057175731 3057175731 -7.00000000
-5.20118666 0.41939121 -0.45652178 6 10 27461 5.23800000 3057175736 3057175736 -5.00000000
-7.64046574 0.61876392 -0.40173081 16 12 27463 7.67600000 3057175740 3057175740 -3.00000000
-10.11268902 0.82253039 2.71863532 42 15 27465 10.50400000 3057175747 3057175747 15.00000000
-1.93489885 0.16009764 -0.52022630 4 0 27473 2.01000000 3057175768 3057175768 -15.00000000
-2.23918033 0.18606155 -0.51873714 4 2 27475 2.30600000 3057175772 3057175772 -13.00000000
-2.61190510 0.21749158 -0.50946003 3 4 27476 2.67000000 3057175777 3057175777 -11.00000000
-3.16535830 0.26468986 -0.50309324 3 6 27478 3.21600000 3057175782 3057175782 -9.00000000
-3.95823884 0.33238259 -0.48772112 4 8 27480 4.00200000 3057175786 3057175786 -7.00000000
-5.20564699 0.43804538 -0.45704472 6 10 27481 5.24400000 3057175791 3057175791 -5.00000000
-7.65816116 0.64711201 -0.40277752 28 12 27483 7.69600000 3057175796 3057175796 -3.00000000
-10.10590649 0.85749859 2.71759987 47 15 27485 10.50000000 3057175802 3057175802 15.00000000
-1.94780111 0.16801287 -0.52384973 4 0 27493 2.02400000 3057175823 3057175823 -15.00000000
-2.23851728 0.19387661 -0.51873714 4 2 27495 2.30600000 3057175828 3057175828 -13.00000000
-2.61504173 0.22694699 -0.51022327 3 4 27496 2.67400000 3057175832 3057175832 -11.00000000
-3.16047907 0.27539447 -0.50246751 3 6 27498 3.21200000 3057175837 3057175837 -9.00000000
-3.96694207 0.34706247 -0.48893979 6 8 27500 4.01200000 3057175842 3057175842 -7.00000000
-5.19614744 0.45551783 -0.45634747 3 10 27501 5.23600000 3057175846 3057175846 -5.00000000
-7.65386629 0.67366493 -0.40267286 36 12 27503 7.69400000 3057175851 3057175851 -3.00000000
-10.10461998 0.89470321 2.71811771 42 15 27506 10.50200000 3057175858 3057175858 15.00000000
-1.94720280 0.17481093 -0.52384973 4 0 27513 2.02400000 3057175878 3057175878 -15.00000000
-2.21453643 0.19959021 -0.51333833 4 2 27515 2.28200000 3057175883 3057175883 -13.00000000
-2.62792063 0.23730981 -0.51289457 3 4 27516 2.68800000 3057175888 3057175888 -11.00000000
-5.58179045 0.50503606 0.49033821 8 5 27517 5.62600000 3057175890 3057175890 5.00000000
-3.17130232 0.28749502 -0.50434470 3 6 27518 3.22400000 3057175892 3057175892 -9.00000000
-3.95384502 0.35982808 -0.48747736 6 8 27520 4.00000000 3057175897 3057175897 -7.00000000
-5.19452572 0.47365299 -0.45634747 3 10 27521 5.23600000 3057175902 3057175902 -5.00000000
-7.63157845 0.69855720 -0.40162614 24 12 27523 7.67400000 3057175906 3057175906 -3.00000000
-7.58687782 0.69713616 -0.13298734 2 14 27525 7.62000000 3057175911 3057175911 -1.00000000
-10.10720634 0.93050081 2.71967053 42 15 27526 10.50800000 3057175913 3057175913 15.00000000
-1.94850421 0.18178633 -0.52436739 4 0 27533 2.02600000 3057175934 3057175934 -15.00000000
-2.22934818 0.20877276 -0.51693749 4 2 27535 2.29800000 3057175938 3057175938 -13.00000000
-2.62316704 0.24611473 -0.51213133 3 4 27536 2.68400000 3057175943 3057175943 -11.00000000
-5.56610775 0.52321178 0.48911804 11 5 27537 5.61200000 3057175945 3057175945 5.00000000
-3.16241288 0.29782230 -0.50309324 3 6 27538 3.21600000 3057175948 3057175948 -9.00000000
-3.95256472 0.37362736 -0.48747736 6 8 27540 4.00000000 3057175952 3057175952 -7.00000000
-5.21267557 0.49366087 -0.45809057 3 10 27541 5.25600000 3057175957 3057175957 -5.00000000
-7.12256622 0.67955238 -0.12488942 6 14 27545 7.15600000 3057175966 3057175966 -1.00000000
-10.11158943 0.96651113 2.72174096 45 15 27546 10.51600000 3057175968 3057175968 15.00000000
-1.94208920 0.18802828 -0.52281445 4 0 27553 2.02000000 3057175989 3057175989 -15.00000000
-2.24024343 0.21768419 -0.51963693 4 2 27555 2.31000000 3057175994 3057175994 -13.00000000
-2.61252189 0.25431871 -0.51022327 3 4 27556 2.67400000 3057175998 3057175998 -11.00000000
-5.54838371 0.54109091 0.48772353 11 5 27557 5.59600000 3057176001 3057176001 5.00000000
-3.15742207 0.30847523 -0.50246751 3 6 27558 3.21200000 3057176003 3057176003 -9.00000000
-3.95518780 0.38780954 -0.48796484 6 8 27560 4.00400000 3057176008 3057176008 -7.00000000
-5.22678375 0.51341164 -0.45948508 6 10 27561 5.27200000 3057176012 3057176012 -5.00000000
-7.28861952 0.71850860 -0.38383189 3 12 27563 7.33400000 3057176017 3057176017 -3.00000000
-6.47141695 0.64023012 -0.11351045 6 14 27565 6.50400000 3057176021 3057176021 -1.00000000
-10.10815430 1.00180125 2.72174096 47 15 27566 10.51600000 3057176024 3057176024 15.00000000
-1.93757665 0.19442053 -0.52177918 4 0 27573 2.01600000 3057176044 3057176044 -15.00000000
-5.80187464 0.58319515 0.10178243 5 1 27574 5.83200000 3057176047 3057176047 1.00000000
-2.24528670 0.22608849 -0.52098662 4 2 27575 2.31600000 3057176049 3057176049 -13.00000000
-6.16432524 0.62071490 0.32469228 2 3 27575 6.20400000 3057176051 3057176051 3.00000000
-2.61161804 0.26343656 -0.51022327 3 4 27576 2.67400000 3057176054 3057176054 -11.00000000
-5.53258514 0.55905294 0.48650336 11 5 27577 5.58200000 3057176056 3057176056 5.00000000
-3.15632606 0.31949481 -0.50246751 3 6 27578 3.21200000 3057176058 3057176058 -9.00000000
-3.96960926 0.40321821 -0.48991477 6 8 27580 4.02000000 3057176063 3057176063 -7.00000000
-5.20910215 0.53003985 -0.45809057 6 10 27581 5.25600000 3057176067 3057176067 -5.00000000
-7.27215862 0.74252611 -0.38309920 3 12 27583 7.32000000 3057176072 3057176072 -3.00000000
-6.21451473 0.63672704 -0.10904264 2 14 27585 6.24800000 3057176077 3057176077 -1.00000000
-10.07018375 1.03177130 2.71242356 45 15 27585 10.48000000 3057176079 3057176079 15.00000000
-1.94649374 0.20218068 -0.52436739 4 0 27593 2.02600000 3057176100 3057176100 -15.00000000
-5.51339340 0.57364422 0.09675614 2 1 27594 5.54400000 3057176102 3057176102 1.00000000
-2.24254560 0.23372263 -0.52053672 4 2 27595 2.31400000 3057176104 3057176104 -13.00000000
-5.74892902 0.59916496 0.30292052 4 3 27595 5.78800000 3057176107 3057176107 3.00000000
-2.61849332 0.27336663 -0.51174974 3 4 27596 2.68200000 3057176109 3057176109 -11.00000000
-5.52663660 0.57794738 0.48615474 14 5 27597 5.57800000 3057176111 3057176111 5.00000000
-3.16304994 0.33133367 -0.50371897 3 6 27598 3.22000000 3057176113 3057176113 -9.00000000
-3.95435810 0.41561979 -0.48820859 4 8 27600 4.00600000 3057176118 3057176118 -7.00000000
-4.91396761 0.51734591 -0.43229249 3 10 27601 4.96000000 3057176123 3057176123 -5.00000000
-5.11647272 0.54047167 -0.26963484 2 12 27603 5.15200000 3057176127 3057176127 -3.00000000
-5.11457014 0.54207605 -0.08977518 2 14 27605 5.14400000 3057176132 3057176132 -1.00000000
-10.07401943 1.06948924 2.71449423 47 15 27606 10.48800000 3057176134 3057176134 15.00000000
-1.94961774 0.20938656 -0.52540267 4 0 27613 2.03000000 3057176155 3057176155 -15.00000000
-5.14751244 0.55374533 0.09036856 9 1 27614 5.17800000 3057176157 3057176157 1.00000000
-2.22621608 0.23987897 -0.51693749 4 2 27615 2.29800000 3057176160 3057176160 -13.00000000
-5.40514946 0.58336937 0.28491694 4 3 27616 5.44400000 3057176162 3057176162 3.00000000
-2.61752295 0.28250521 -0.51174974 3 4 27616 2.68200000 3057176164 3057176164 -11.00000000
-5.52260494 0.59702128 0.48598042 28 5 27617 5.57600000 3057176166 3057176166 5.00000000
-3.15794635 0.34194747 -0.50309324 3 6 27618 3.21600000 3057176169 3057176169 -9.00000000
-3.93709540 0.42770544 -0.48625869 3 8 27620 3.99000000 3057176173 3057176173 -7.00000000
-4.77546358 0.51962465 -0.42026499 5 10 27621 4.82200000 3057176178 3057176178 -5.00000000
-4.88424110 0.53318608 -0.25749290 2 12 27623 4.92000000 3057176183 3057176183 -3.00000000
-4.92579269 0.53946203 -0.08649413 2 14 27625 4.95600000 3057176187 3057176187 -1.00000000
-10.08578014 1.10457253 2.71863532 45 15 27625 10.50400000 3057176190 3057176190 15.00000000
-1.95079505 0.21640372 -0.52592027 4 0 27633 2.03200000 3057176210 3057176210 -15.00000000
-4.71426821 0.52379161 0.08279422 2 1 27634 4.74400000 3057176213 3057176213 1.00000000
-2.23311234 0.24851058 -0.51873714 4 2 27635 2.30600000 3057176215 3057176215 -13.00000000
-4.88301849 0.54426670 0.25749290 6 3 27636 4.92000000 3057176217 3057176217 3.00000000
-2.61652088 0.29164034 -0.51174974 3 4 27636 2.68200000 3057176219 3057176219 -11.00000000
-5.49276590 0.61320043 0.48354006 8 5 27637 5.54800000 3057176222 3057176222 5.00000000
-3.14888096 0.35209063 -0.50184178 3 6 27638 3.20800000 3057176224 3057176224 -9.00000000
-3.95925117 0.44410118 -0.48918355 4 8 27640 4.01400000 3057176229 3057176229 -7.00000000
-4.73600197 0.53206474 -0.41695309 5 10 27641 4.78400000 3057176233 3057176233 -5.00000000
-4.63426304 0.52227306 -0.24440892 2 12 27643 4.67000000 3057176238 3057176238 -3.00000000
-4.65165567 0.52587759 -0.08171216 1 14 27645 4.68200000 3057176243 3057176243 -1.00000000
-10.08550262 1.14196610 2.71967053 45 15 27646 10.50800000 3057176245 3057176245 15.00000000
-1.94238925 0.22199415 -0.52384973 4 0 27652 2.02400000 3057176266 3057176266 -15.00000000
-4.57740831 0.52395773 0.08042069 6 1 27653 4.60800000 3057176268 3057176268 1.00000000
-2.23614788 0.25635839 -0.51963693 4 2 27654 2.31000000 3057176270 3057176270 -13.00000000
-4.78395987 0.54929280 0.25236398 6 3 27655 4.82200000 3057176272 3057176272 3.00000000
-2.61944032 0.30076334 -0.51251298 3 4 27655 2.68600000 3057176275 3057176275 -11.00000000
-5.55206203 0.63846785 0.48894373 2 5 27656 5.61000000 3057176277 3057176277 5.00000000
-3.17124486 0.36524296 -0.50559622 3 6 27657 3.23200000 3057176279 3057176279 -9.00000000
-3.96564460 0.45813936 -0.49015850 4 8 27659 4.02200000 3057176284 3057176284 -7.00000000
-4.73619080 0.54799592 -0.41712737 5 10 27660 4.78600000 3057176289 3057176289 -5.00000000
-4.60473061 0.53441447 -0.24294351 2 12 27662 4.64200000 3057176293 3057176293 -3.00000000
-4.56646252 0.53158867 -0.08024617 1 14 27664 4.59800000 3057176298 3057176298 -1.00000000
-10.07802773 1.17319810 2.71863532 47 15 27664 10.50400000 3057176300 3057176300 15.00000000
-1.93776536 0.22832088 -0.52281445 4 0 27672 2.02000000 3057176321 3057176321 -15.00000000
-4.55569220 0.53758925 0.08007164 6 1 27673 4.58800000 3057176323 3057176323 1.00000000
-2.25459218 0.26644957 -0.52413595 4 2 27674 2.33000000 3057176325 3057176325 -13.00000000
-4.72647810 0.55941552 0.24943317 4 3 27675 4.76600000 3057176328 3057176328 3.00000000
-2.61057591 0.30898201 -0.51098651 3 4 27675 2.67800000 3057176330 3057176330 -11.00000000
-5.45087242 0.64611799 0.48022816 2 5 27676 5.51000000 3057176332 3057176332 5.00000000
-3.15425777 0.37444752 -0.50309324 3 6 27677 3.21600000 3057176335 3057176335 -9.00000000
-3.95810771 0.47127515 -0.48942727 4 8 27679 4.01600000 3057176339 3057176339 -7.00000000
-4.72633553 0.56358135 -0.41643015 5 10 27680 4.77800000 3057176344 3057176344 -5.00000000
-4.61076975 0.55143338 -0.24336220 4 12 27682 4.65000000 3057176348 3057176348 -3.00000000
-4.49508762 0.53918982 -0.07902449 5 14 27684 4.52800000 3057176353 3057176353 -1.00000000
-10.06215191 1.20874560 2.71552944 45 15 27685 10.49200000 3057176355 3057176355 15.00000000
-1.93883324 0.23565471 -0.52333212 4 0 27693 2.02200000 3057176376 3057176376 -15.00000000
-4.53185558 0.55162525 0.07968768 6 1 27694 4.56600000 3057176378 3057176378 1.00000000
-2.24199390 0.27329645 -0.52143657 4 2 27695 2.31800000 3057176381 3057176381 -13.00000000
-4.68474483 0.57189476 0.24733973 2 3 27696 4.72600000 3057176383 3057176383 3.00000000
-2.62111878 0.31997558 -0.51327622 3 4 27696 2.69000000 3057176385 3057176385 -11.00000000
-5.32387495 0.65086025 0.46924651 2 5 27697 5.38400000 3057176388 3057176388 5.00000000
-3.15286422 0.38600594 -0.50309324 3 6 27698 3.21600000 3057176390 3057176390 -9.00000000
-3.95241332 0.48529533 -0.48893979 4 8 27700 4.01200000 3057176395 3057176395 -7.00000000
-4.71632814 0.57992786 -0.41573289 5 10 27701 4.77000000 3057176399 3057176399 -5.00000000
-4.60078859 0.56735122 -0.24294351 2 12 27703 4.64200000 3057176404 3057176404 -3.00000000
-4.47918940 0.55394346 -0.07878016 3 14 27705 4.51400000 3057176408 3057176408 -1.00000000
-10.06170559 1.24433589 2.71656466 45 15 27705 10.49600000 3057176411 3057176411 15.00000000
-1.93799889 0.24242106 -0.52333212 4 0 27713 2.02200000 3057176431 3057176431 -15.00000000
-4.49617147 0.56321561 0.07909431 4 1 27714 4.53200000 3057176434 3057176434 1.00000000
-2.21395612 0.27772504 -0.51513791 4 2 27715 2.29000000 3057176436 3057176436 -13.00000000
