# .PCD v0.7 - Point Cloud Data file format
VERSION 0.7
FIELDS x y z intensity laser_id azimuth distance_m adjustedtime timestamp vertical_angle
SIZE 4 4 4 1 1 2 8 8 4 8
TYPE F F F U U U F U U F
COUNT 1 1 1 1 1 1 1 1 1 1
WIDTH 524
HEIGHT 1
VIEWPOINT 0 0 0 1 0 0 0
POINTS 524
DATA ascii
4.20677185 -9.89612389 2.48255992 45 13 15697 11.03600000 3218542805 3218542805 13.00000000
3.34604716 -7.87896967 2.29365444 33 15 15699 8.86200000 3218542810 3218542810 15.00000000
0.79137355 -1.86980081 -0.54403764 4 0 15706 2.10200000 3218542830 3218542830 -15.00000000
0.91526723 -2.16463280 -0.54258192 3 2 15708 2.41200000 3218542835 3218542835 -13.00000000
1.31387639 -3.11189604 -0.53500587 1 6 15711 3.42000000 3218542844 3218542844 -9.00000000
1.69187617 -4.01108980 -0.53451896 2 8 15713 4.38600000 3218542849 3218542849 -7.00000000
2.42727947 -5.75738525 -0.54664081 7 10 15714 6.27200000 3218542853 3218542853 -5.00000000
3.84991241 -9.14071178 -0.51980072 4 12 15716 9.93200000 3218542858 3218542858 -3.00000000
4.17598295 -9.91972828 2.48480940 47 13 15717 11.04600000 3218542860 3218542860 13.00000000
3.32364750 -7.89892530 2.29624248 38 15 15718 8.87200000 3218542865 3218542865 15.00000000
0.79006916 -1.88502359 -0.54766113 4 0 15726 2.11600000 3218542886 3218542886 -15.00000000
0.90921098 -2.17140937 -0.54348177 4 2 15728 2.41600000 3218542890 3218542890 -13.00000000
1.30986381 -3.13286591 -0.53782171 1 6 15731 3.43800000 3218542899 3218542899 -9.00000000
1.68704581 -4.03895187 -0.53744382 2 8 15733 4.41000000 3218542904 3218542904 -7.00000000
2.40716767 -5.76582289 -0.54664081 7 10 15734 6.27200000 3218542909 3218542909 -5.00000000
3.81106257 -9.13750458 -0.51885867 4 12 15736 9.91400000 3218542913 3218542913 -3.00000000
4.14732981 -9.94863415 2.48840857 48 13 15737 11.06200000 3218542916 3218542916 13.00000000
3.30135846 -7.92710447 2.30090141 33 15 15739 8.89000000 3218542920 3218542920 15.00000000
0.78093427 -1.88255346 -0.54610819 4 0 15747 2.11000000 3218542941 3218542941 -15.00000000
0.89975411 -2.17112684 -0.54258192 3 2 15749 2.41200000 3218542946 3218542946 -13.00000000
1.29837239 -3.13764572 -0.53782171 1 6 15752 3.43800000 3218542955 3218542955 -9.00000000
1.67678130 -4.05611515 -0.53890622 2 8 15754 4.42200000 3218542959 3218542959 -7.00000000
2.38601875 -5.77460670 -0.54664081 7 10 15755 6.27200000 3218542964 3218542964 -5.00000000
3.77983260 -9.15695000 -0.51917267 4 12 15757 9.92000000 3218542969 3218542969 -3.00000000
4.12273026 -9.99259090 2.49560690 50 13 15758 11.09400000 3218542971 3218542971 13.00000000
3.27145815 -7.93322229 2.29934835 36 15 15759 8.88400000 3218542976 3218542976 15.00000000
0.77068824 -1.87633300 -0.54351997 4 0 15767 2.10000000 3218542996 3218542996 -15.00000000
0.89364952 -2.17786002 -0.54348177 3 2 15769 2.41600000 3218543001 3218543001 -13.00000000
1.27842498 -3.12022400 -0.53406727 1 6 15772 3.41400000 3218543010 3218543010 -9.00000000
1.64456522 -4.01785183 -0.53305650 2 8 15774 4.37400000 3218543015 3218543015 -7.00000000
2.35528517 -5.75708389 -0.54420048 7 10 15775 6.24400000 3218543019 3218543019 -5.00000000
3.74180079 -9.15529728 -0.51833528 4 12 15777 9.90400000 3218543024 3218543024 -3.00000000
4.10108948 -10.03939342 2.50370526 48 13 15778 11.13000000 3218543026 3218543026 13.00000000
3.24016976 -7.93979359 2.29779553 33 15 15780 8.87800000 3218543031 3218543031 15.00000000
0.76624650 -1.88232350 -0.54455525 4 0 15785 2.10400000 3218543052 3218543052 -15.00000000
0.88680321 -2.18065667 -0.54348177 3 2 15787 2.41600000 3218543056 3218543056 -13.00000000
1.27307522 -3.13520646 -0.53594446 1 6 15790 3.42600000 3218543065 3218543065 -9.00000000
1.66178250 -4.09657860 -0.54280603 2 8 15792 4.45400000 3218543070 3218543070 -7.00000000
2.32820368 -5.74229813 -0.54210871 7 10 15793 6.22000000 3218543075 3218543075 -5.00000000
3.70327282 -9.14294243 -0.51697457 8 12 15795 9.87800000 3218543079 3218543079 -3.00000000
4.08269215 -10.08474255 2.51180339 50 13 15796 11.16600000 3218543082 3218543082 13.00000000
3.21877146 -7.95474482 2.29934835 38 15 15797 8.88400000 3218543086 3218543086 15.00000000
0.75822705 -1.88140309 -0.54351997 4 0 15805 2.10000000 3218543107 3218543107 -15.00000000
0.87627465 -2.17650795 -0.54168212 3 2 15807 2.40800000 3218543111 3218543111 -13.00000000
1.03706157 -2.57717180 -0.53998947 3 4 15808 2.83000000 3218543116 3218543116 -11.00000000
1.25991321 -3.13413262 -0.53500587 1 6 15810 3.42000000 3218543121 3218543121 -9.00000000
1.64007497 -4.08393335 -0.54036868 2 8 15812 4.43400000 3218543125 3218543125 -7.00000000
2.30962944 -5.75408792 -0.54245734 7 10 15813 6.22400000 3218543130 3218543130 -5.00000000
3.65944219 -9.12615299 -0.51529980 4 12 15815 9.84600000 3218543134 3218543134 -3.00000000
4.05326462 -10.11340332 2.51540279 48 13 15816 11.18200000 3218543137 3218543137 13.00000000
3.19318461 -7.97545576 2.30193663 33 15 15818 8.89400000 3218543141 3218543141 15.00000000
0.75451857 -1.89121568 -0.54559052 4 0 15825 2.10800000 3218543162 3218543162 -15.00000000
0.87155783 -2.18679452 -0.54348177 3 2 15827 2.41600000 3218543167 3218543167 -13.00000000
1.02805924 -2.58077621 -0.53998947 3 4 15828 2.83000000 3218543171 3218543171 -11.00000000
1.24166155 -3.12015748 -0.53187716 3 6 15830 3.40000000 3218543176 3218543176 -9.00000000
2.29247284 -5.76952124 -0.54315460 7 10 15833 6.23200000 3218543185 3218543185 -5.00000000
3.61945820 -9.11845112 -0.51414841 4 12 15835 9.82400000 3218543190 3218543190 -3.00000000
4.02512407 -10.14560413 2.51990175 47 13 15836 11.20200000 3218543192 3218543192 13.00000000
3.17312837 -8.00216293 2.30659533 36 15 15837 8.91200000 3218543197 3218543197 15.00000000
0.74578357 -1.88844752 -0.54403764 4 0 15845 2.10200000 3218543217 3218543217 -15.00000000
0.86391920 -2.18982363 -0.54348177 3 2 15847 2.41600000 3218543222 3218543222 -13.00000000
1.01616371 -2.57704353 -0.53846300 3 4 15848 2.82200000 3218543227 3218543227 -11.00000000
1.24162221 -3.15204167 -0.53657019 3 6 15850 3.43000000 3218543231 3218543231 -9.00000000
2.27013159 -5.77192593 -0.54263163 7 10 15853 6.22600000 3218543240 3218543240 -5.00000000
3.58979774 -9.13660622 -0.51446247 8 12 15855 9.83000000 3218543245 3218543245 -3.00000000
3.99965739 -10.18498707 2.52620029 48 13 15856 11.23000000 3218543247 3218543247 13.00000000
3.14377761 -8.01373959 2.30659533 36 15 15858 8.91200000 3218543252 3218543252 15.00000000
0.73778051 -1.88744068 -0.54300237 4 0 15865 2.09800000 3218543273 3218543273 -15.00000000
0.86052305 -2.20371747 -0.54618114 3 2 15867 2.42800000 3218543277 3218543277 -13.00000000
1.00858951 -2.58423257 -0.53922623 3 4 15868 2.82600000 3218543282 3218543282 -11.00000000
1.22558904 -3.14347339 -0.53438014 3 6 15870 3.41600000 3218543287 3218543287 -9.00000000
1.59577811 -4.09718466 -0.53988117 2 8 15872 4.43000000 3218543291 3218543291 -7.00000000
2.24129701 -5.75753498 -0.54053992 7 10 15873 6.20200000 3218543296 3218543296 -5.00000000
3.55860710 -9.15094280 -0.51456714 4 12 15875 9.83200000 3218543300 3218543300 -3.00000000
3.97537637 -10.22794819 2.53339887 50 13 15876 11.26200000 3218543303 3218543303 13.00000000
3.11578679 -8.02051926 2.30556011 38 15 15877 8.90800000 3218543307 3218543307 15.00000000
0.72979355 -1.88640106 -0.54196709 4 0 15885 2.09400000 3218543328 3218543328 -15.00000000
0.85142040 -2.20307231 -0.54528135 3 2 15887 2.42400000 3218543333 3218543333 -13.00000000
1.00097752 -2.59140038 -0.53998947 3 4 15888 2.83000000 3218543337 3218543337 -11.00000000
1.21105325 -3.13851762 -0.53281581 1 6 15890 3.40600000 3218543342 3218543342 -9.00000000
1.57432675 -4.08420753 -0.53744382 2 8 15892 4.41000000 3218543346 3218543346 -7.00000000
2.22691584 -5.78019714 -0.54193443 7 10 15893 6.21800000 3218543351 3218543351 -5.00000000
3.51588202 -9.13534927 -0.51299703 8 12 15895 9.80200000 3218543356 3218543356 -3.00000000
3.59822774 -9.35417938 2.31384659 10 13 15896 10.28600000 3218543358 3218543358 13.00000000
3.08498335 -8.02827835 2.30452466 36 15 15898 8.90400000 3218543363 3218543363 15.00000000
0.72734874 -1.89976192 -0.54507291 4 0 15905 2.10600000 3218543383 3218543383 -15.00000000
0.83815593 -2.19146967 -0.54168212 3 2 15907 2.40800000 3218543388 3218543388 -13.00000000
0.99192578 -2.59487844 -0.53998947 3 4 15908 2.83000000 3218543393 3218543393 -11.00000000
1.20149970 -3.14641666 -0.53344154 1 6 15910 3.41000000 3218543397 3218543397 -9.00000000
2.20743561 -5.78979683 -0.54210871 7 10 15913 6.22000000 3218543406 3218543406 -5.00000000
3.47615266 -9.12703514 -0.51184565 4 12 15915 9.78000000 3218543411 3218543411 -3.00000000
3.56832671 -9.37396717 2.31564617 52 13 15916 10.29400000 3218543413 3218543413 13.00000000
3.06246543 -8.04929829 2.30763054 36 15 15917 8.91600000 3218543418 3218543418 15.00000000
0.72071290 -1.90228927 -0.54507291 4 0 15925 2.10600000 3218543439 3218543439 -15.00000000
0.83188069 -2.19802713 -0.54258192 3 2 15927 2.41200000 3218543443 3218543443 -13.00000000
0.97869432 -2.58730745 -0.53769976 3 4 15928 2.81800000 3218543448 3218543448 -11.00000000
1.18352687 -3.13211298 -0.53031284 1 6 15930 3.39000000 3218543452 3218543452 -9.00000000
1.53876519 -4.07652664 -0.53500640 2 8 15932 4.39000000 3218543457 3218543457 -7.00000000
2.18580532 -5.79373884 -0.54176009 3 10 15933 6.21600000 3218543462 3218543462 -5.00000000
3.43582010 -9.11668682 -0.51058960 4 12 15935 9.75600000 3218543466 3218543466 -3.00000000
3.53008842 -9.37177658 2.31204700 55 13 15936 10.27800000 3218543469 3218543469 13.00000000
3.03979468 -8.07440281 2.31177163 36 15 15937 8.93200000 3218543473 3218543473 15.00000000
0.71135581 -1.89755774 -0.54300237 4 0 15945 2.09800000 3218543494 3218543494 -15.00000000
0.82420307 -2.20091748 -0.54258192 3 2 15947 2.41200000 3218543499 3218543499 -13.00000000
0.96415144 -2.57599854 -0.53464681 3 4 15948 2.80200000 3218543503 3218543503 -11.00000000
1.18503881 -3.16953039 -0.53594446 1 6 15950 3.42600000 3218543508 3218543508 -9.00000000
1.52591515 -4.08559227 -0.53549391 2 8 15952 4.39400000 3218543512 3218543512 -7.00000000
2.16208434 -5.79200029 -0.54088855 3 10 15953 6.20600000 3218543517 3218543517 -5.00000000
3.40327811 -9.12675285 -0.51048493 8 12 15955 9.75400000 3218543522 3218543522 -3.00000000
3.49871445 -9.38769436 2.31294680 50 13 15956 10.28200000 3218543524 3218543524 13.00000000
3.00889373 -8.07772350 2.30970120 38 15 15957 8.92400000 3218543528 3218543528 15.00000000
0.70405596 -1.89821804 -0.54248470 4 0 15965 2.09600000 3218543549 3218543549 -15.00000000
0.81922364 -2.21109056 -0.54438156 3 2 15967 2.42000000 3218543554 3218543554 -13.00000000
0.95992601 -2.59223604 -0.53731811 3 4 15968 2.81600000 3218543558 3218543558 -11.00000000
1.16848528 -3.15882611 -0.53344154 1 6 15970 3.41000000 3218543563 3218543563 -9.00000000
1.50889230 -4.08344603 -0.53451896 2 8 15972 4.38600000 3218543568 3218543568 -7.00000000
2.13149953 -5.77147722 -0.53827387 3 10 15973 6.17600000 3218543572 3218543572 -5.00000000
3.36725140 -9.12733459 -0.50985688 8 12 15975 9.74200000 3218543577 3218543577 -3.00000000
3.46794629 -9.40533447 2.31429648 53 13 15976 10.28800000 3218543579 3218543579 13.00000000
2.97793174 -8.08507156 2.30866599 38 15 15978 8.92000000 3218543584 3218543584 15.00000000
0.69842422 -1.90441322 -0.54351997 4 0 15986 2.10000000 3218543605 3218543605 -15.00000000
0.80709201 -2.20309949 -0.54168212 4 2 15988 2.40800000 3218543609 3218543609 -13.00000000
0.95041853 -2.59573674 -0.53731811 3 4 15989 2.81600000 3218543614 3218543614 -11.00000000
1.15350711 -3.15381169 -0.53187716 1 6 15991 3.40000000 3218543618 3218543618 -9.00000000
1.48710334 -4.07030344 -0.53208154 2 8 15993 4.36600000 3218543623 3218543623 -7.00000000
2.10828137 -5.77363586 -0.53775096 7 10 15994 6.17000000 3218543628 3218543628 -5.00000000
3.32624674 -9.11897469 -0.50870550 4 12 15996 9.72000000 3218543632 3218543632 -3.00000000
3.43411827 -9.41981316 2.31474638 52 13 15997 10.29000000 3218543634 3218543634 13.00000000
2.95233703 -8.10267735 2.31073642 36 15 15998 8.92800000 3218543639 3218543639 15.00000000
0.69374883 -1.91228771 -0.54507291 4 0 16006 2.10600000 3218543660 3218543660 -15.00000000
0.79806894 -2.20223904 -0.54078233 3 2 16008 2.40400000 3218543664 3218543664 -13.00000000
0.94068336 -2.59719276 -0.53693652 3 4 16009 2.81400000 3218543669 3218543669 -11.00000000
1.14114702 -3.15410399 -0.53125143 1 6 16011 3.39600000 3218543674 3218543674 -9.00000000
1.47828388 -4.09040499 -0.53403145 2 8 16013 4.38200000 3218543678 3218543678 -7.00000000
2.08811474 -5.78096008 -0.53775096 7 10 16014 6.17000000 3218543683 3218543683 -5.00000000
3.28558326 -9.10610676 -0.50734478 4 12 16016 9.69400000 3218543687 3218543687 -3.00000000
3.39923286 -9.42624378 2.31339669 53 13 16017 10.28400000 3218543690 3218543690 13.00000000
2.92534542 -8.11656857 2.31177163 38 15 16018 8.93200000 3218543694 3218543694 15.00000000
0.68740362 -1.91457772 -0.54507291 4 0 16025 2.10600000 3218543715 3218543715 -15.00000000
0.79207742 -2.20854211 -0.54168212 3 2 16027 2.40800000 3218543720 3218543720 -13.00000000
0.93471539 -2.60769033 -0.53846300 3 4 16028 2.82200000 3218543724 3218543724 -11.00000000
1.12801790 -3.15043163 -0.52999997 1 6 16030 3.38800000 3218543729 3218543729 -9.00000000
1.45735788 -4.07472372 -0.53135031 2 8 16032 4.36000000 3218543733 3218543733 -7.00000000
2.06289721 -5.77096748 -0.53618211 3 10 16033 6.15200000 3218543738 3218543738 -5.00000000
3.25872636 -9.12635708 -0.50786811 4 12 16035 9.70400000 3218543743 3218543743 -3.00000000
3.36599064 -9.43195820 2.31204700 51 13 16036 10.27800000 3218543745 3218543745 13.00000000
2.90230775 -8.13714218 2.31487751 38 15 16037 8.94400000 3218543750 3218543750 15.00000000
0.67942339 -1.91332459 -0.54403764 4 0 16045 2.10200000 3218543770 3218543770 -15.00000000
0.78566629 -2.21496677 -0.54258192 3 2 16047 2.41200000 3218543775 3218543775 -13.00000000
0.92101520 -2.59798431 -0.53579164 3 4 16048 2.80800000 3218543780 3218543780 -11.00000000
1.12294853 -3.17110872 -0.53281581 1 6 16050 3.40600000 3218543784 3218543784 -9.00000000
1.44444954 -4.08352900 -0.53183782 2 8 16052 4.36400000 3218543789 3218543789 -7.00000000
2.04539657 -5.78564739 -0.53687936 3 10 16053 6.16000000 3218543793 3218543793 -5.00000000
3.22019911 -9.11884308 -0.50682139 8 12 16055 9.68400000 3218543798 3218543798 -3.00000000
3.33693790 -9.45467567 2.31474638 50 13 16056 10.29000000 3218543800 3218543800 13.00000000
2.87117958 -8.14408112 2.31384230 36 15 16058 8.94000000 3218543805 3218543805 15.00000000
0.66889995 -1.90474820 -0.54093182 4 0 16065 2.09000000 3218543826 3218543826 -15.00000000
0.77792978 -2.21769571 -0.54258192 3 2 16067 2.41200000 3218543830 3218543830 -13.00000000
0.91259044 -2.60303617 -0.53617328 3 4 16068 2.81000000 3218543835 3218543835 -11.00000000
1.11709547 -3.18992400 -0.53531873 1 6 16070 3.42200000 3218543839 3218543839 -9.00000000
1.43674099 -4.10728407 -0.53427517 2 8 16072 4.38400000 3218543844 3218543844 -7.00000000
2.01598287 -5.76642084 -0.53443903 3 10 16073 6.13200000 3218543849 3218543849 -5.00000000
3.18044686 -9.10740185 -0.50556535 8 12 16075 9.66000000 3218543853 3218543853 -3.00000000
3.30840969 -9.47914600 2.31789565 51 13 16076 10.30400000 3218543856 3218543856 13.00000000
2.84288454 -8.14990997 2.31280708 36 15 16077 8.93600000 3218543860 3218543860 15.00000000
0.66478199 -1.91437125 -0.54300237 4 0 16085 2.09800000 3218543881 3218543881 -15.00000000
0.76762933 -2.21303320 -0.54078233 3 2 16087 2.40400000 3218543885 3218543885 -13.00000000
0.90478474 -2.60991573 -0.53693652 3 4 16088 2.81400000 3218543890 3218543890 -11.00000000
1.09302628 -3.15647149 -0.52906138 1 6 16090 3.38200000 3218543895 3218543895 -9.00000000
1.41590619 -4.09351349 -0.53183782 2 8 16092 4.36400000 3218543899 3218543899 -7.00000000
1.99584210 -5.77342319 -0.53443903 3 10 16093 6.13200000 3218543904 3218543904 -5.00000000
3.14081407 -9.09579372 -0.50430930 4 12 16095 9.63600000 3218543909 3218543909 -3.00000000
3.27975130 -9.50353146 2.32104492 55 13 16096 10.31800000 3218543911 3218543911 13.00000000
2.81693816 -8.16708851 2.31487751 36 15 16097 8.94400000 3218543915 3218543915 15.00000000
0.65650690 -1.91314042 -0.54196709 4 0 16106 2.09400000 3218543936 3218543936 -15.00000000
0.75951302 -2.21583176 -0.54078233 3 2 16108 2.40400000 3218543941 3218543941 -13.00000000
0.90093917 -2.62993002 -0.54037106 3 4 16109 2.83200000 3218543945 3218543945 -11.00000000
1.08336842 -3.16606331 -0.52999997 1 6 16111 3.38800000 3218543950 3218543950 -9.00000000
1.39062083 -4.06862116 -0.52793801 2 8 16113 4.33200000 3218543955 3218543955 -7.00000000
1.97466803 -5.78069925 -0.53443903 3 10 16114 6.13200000 3218543959 3218543959 -5.00000000
3.10552049 -9.10157299 -0.50399524 4 12 16116 9.63000000 3218543964 3218543964 -3.00000000
3.24804211 -9.52471066 2.32329440 55 13 16117 10.32800000 3218543966 3218543966 13.00000000
2.78991842 -8.19064522 2.31850100 38 15 16119 8.95800000 3218543971 3218543971 15.00000000
0.65354872 -1.92639709 -0.54507291 4 0 16126 2.10600000 3218543991 3218543991 -15.00000000
0.74927193 -2.21108699 -0.53898275 3 2 16128 2.39600000 3218543996 3218543996 -13.00000000
0.88419622 -2.61074471 -0.53579164 3 4 16129 2.80800000 3218544001 3218544001 -11.00000000
1.08117223 -3.19602251 -0.53438014 1 6 16131 3.41600000 3218544005 3218544005 -9.00000000
1.95447767 -5.78755713 -0.53443903 3 10 16134 6.13200000 3218544015 3218544015 -5.00000000
3.06798577 -9.09532547 -0.50305319 4 12 16136 9.61200000 3218544019 3218544019 -3.00000000
3.21415234 -9.53414345 2.32284451 53 13 16137 10.32600000 3218544021 3218544021 13.00000000
2.76562619 -8.21315002 2.32212448 38 15 16139 8.97200000 3218544026 3218544026 15.00000000
0.64441907 -1.91928387 -0.54248470 4 0 16144 2.09600000 3218544047 3218544047 -15.00000000
0.74727899 -2.22821069 -0.54258192 3 2 16146 2.41200000 3218544051 3218544051 -13.00000000
0.87474215 -2.60978675 -0.53502840 3 4 16147 2.80400000 3218544056 3218544056 -11.00000000
1.06422806 -3.17879844 -0.53093857 1 6 16149 3.39400000 3218544061 3218544061 -9.00000000
1.36738360 -4.08905029 -0.52940041 2 8 16151 4.34400000 3218544065 3218544065 -7.00000000
1.92997050 -5.77477217 -0.53269589 3 10 16152 6.11200000 3218544070 3218544070 -5.00000000
3.04635334 -9.12575817 -0.50420463 4 12 16154 9.63400000 3218544074 3218544074 -3.00000000
3.18665099 -9.55158806 2.32464409 54 13 16155 10.33400000 3218544077 3218544077 13.00000000
2.73981023 -8.22179794 2.32212448 38 15 16157 8.97200000 3218544081 3218544081 15.00000000
0.63467306 -1.91235399 -0.53989655 4 0 16164 2.08600000 3218544102 3218544102 -15.00000000
0.73704386 -2.22340655 -0.54078233 3 2 16166 2.40400000 3218544107 3218544107 -13.00000000
0.86439210 -2.60909700 -0.53426516 3 4 16167 2.80000000 3218544111 3218544111 -11.00000000
1.05064309 -3.17499232 -0.52968711 1 6 16169 3.38600000 3218544116 3218544116 -9.00000000
1.35247886 -4.09191370 -0.52915668 2 8 16171 4.34200000 3218544121 3218544121 -7.00000000
1.91105092 -5.78525734 -0.53304452 3 10 16172 6.11600000 3218544125 3218544125 -5.00000000
3.00384140 -9.10409260 -0.50242519 4 12 16174 9.60000000 3218544130 3218544130 -3.00000000
3.16061354 -9.58486271 2.33004308 52 13 16175 10.35800000 3218544132 3218544132 13.00000000
2.71532464 -8.24415588 2.32574797 20 15 16177 8.98600000 3218544137 3218544137 15.00000000
0.62980014 -1.92006469 -0.54144943 4 0 16184 2.09200000 3218544157 3218544157 -15.00000000
0.73170507 -2.23337340 -0.54258192 3 2 16186 2.41200000 3218544162 3218544162 -13.00000000
0.85833400 -2.62142730 -0.53617328 3 4 16187 2.81000000 3218544167 3218544167 -11.00000000
1.03709781 -3.17113042 -0.52843565 1 6 16189 3.37800000 3218544171 3218544171 -9.00000000
1.34558392 -4.11925364 -0.53208154 2 8 16191 4.36600000 3218544176 3218544176 -7.00000000
1.88589835 -5.77674103 -0.53165001 3 10 16192 6.10000000 3218544180 3218544180 -5.00000000
2.96585226 -9.09553432 -0.50137848 4 12 16194 9.58000000 3218544185 3218544185 -3.00000000
3.12713695 -9.59583664 2.33004308 43 13 16195 10.35800000 3218544187 3218544187 13.00000000
2.68378329 -8.24025631 2.32212448 9 15 16196 8.97200000 3218544192 3218544192 15.00000000
0.62130696 -1.91673827 -0.53989655 4 0 16204 2.08600000 3218544213 3218544213 -15.00000000
0.72030318 -2.22478986 -0.53988254 3 2 16206 2.40000000 3218544217 3218544217 -13.00000000
0.85220027 -2.63374710 -0.53808135 3 4 16207 2.82000000 3218544222 3218544222 -11.00000000
1.03027451 -3.18788886 -0.53062570 1 6 16209 3.39200000 3218544226 3218544226 -9.00000000
1.32753801 -4.11259079 -0.53061914 2 8 16211 4.35400000 3218544231 3218544231 -7.00000000
1.86816907 -5.79087353 -0.53234726 3 10 16212 6.10800000 3218544236 3218544236 -5.00000000
2.93285966 -9.10202980 -0.50116915 8 12 16214 9.57600000 3218544240 3218544240 -3.00000000
3.08107805 -9.56774044 2.32059503 29 13 16215 10.31600000 3218544243 3218544243 13.00000000
2.64764786 -8.23164749 2.31694818 9 15 16217 8.95200000 3218544247 3218544247 15.00000000
0.61696959 -1.92625451 -0.54196709 4 0 16224 2.09400000 3218544268 3218544268 -15.00000000
0.71372038 -2.23100281 -0.54078233 3 2 16226 2.40400000 3218544273 3218544273 -13.00000000
0.83582705 -2.61426568 -0.53350192 3 4 16227 2.79600000 3218544277 3218544277 -11.00000000
1.01613581 -3.18205690 -0.52906138 1 6 16229 3.38200000 3218544282 3218544282 -9.00000000
1.30472946 -4.09072256 -0.52720678 2 8 16231 4.32600000 3218544286 3218544286 -7.00000000
1.84068274 -5.77458000 -0.53025556 3 10 16232 6.08400000 3218544291 3218544291 -5.00000000
2.89682841 -9.09888935 -0.50043643 8 12 16234 9.56200000 3218544296 3218544296 -3.00000000
3.03229928 -9.53015518 2.30889773 15 13 16235 10.26400000 3218544298 3218544298 13.00000000
2.61331129 -8.21828938 2.31073642 6 15 16236 8.92800000 3218544303 3218544303 15.00000000
0.60791051 -1.92102897 -0.53989655 4 0 16244 2.08600000 3218544323 3218544323 -15.00000000
0.70357919 -2.22604799 -0.53898275 3 2 16246 2.39600000 3218544328 3218544328 -13.00000000
0.82906187 -2.62465549 -0.53502840 3 4 16247 2.80400000 3218544332 3218544332 -11.00000000
1.00977695 -3.20065522 -0.53156430 1 6 16249 3.39800000 3218544337 3218544337 -9.00000000
1.29879451 -4.12175846 -0.53061914 2 8 16251 4.35400000 3218544342 3218544342 -7.00000000
1.82530212 -5.79617310 -0.53165001 3 10 16252 6.10000000 3218544346 3218544346 -5.00000000
2.86445045 -9.10704041 -0.50033176 8 12 16254 9.56000000 3218544351 3218544351 -3.00000000
2.95284867 -9.39381599 2.27335525 17 13 16255 10.10600000 3218544353 3218544353 13.00000000
2.69948435 -8.59828568 2.41478181 27 15 16257 9.33000000 3218544358 3218544358 15.00000000
0.59889555 -1.91576385 -0.53782600 4 0 16264 2.07800000 3218544379 3218544379 -15.00000000
0.70045102 -2.24337196 -0.54258192 3 2 16266 2.41200000 3218544383 3218544383 -13.00000000
0.81931025 -2.62565947 -0.53464681 3 4 16267 2.80200000 3218544388 3218544388 -11.00000000
0.99389631 -3.18907332 -0.52906138 1 6 16269 3.38200000 3218544392 3218544392 -9.00000000
1.28203905 -4.11868525 -0.52964419 2 8 16271 4.34600000 3218544397 3218544397 -7.00000000
1.80505860 -5.80250931 -0.53165001 3 10 16272 6.10000000 3218544402 3218544402 -5.00000000
2.83856964 -9.13605690 -0.50137848 4 12 16274 9.58000000 3218544406 3218544406 -3.00000000
2.89114594 -9.31101131 2.25086021 15 13 16275 10.00600000 3218544409 3218544409 13.00000000
2.69500375 -8.68468285 2.43652248 33 15 16276 9.41400000 3218544413 3218544413 15.00000000
0.59334457 -1.92153454 -0.53886127 4 0 16284 2.08200000 3218544434 3218544434 -15.00000000
0.69146729 -2.24207878 -0.54168212 3 2 16286 2.40800000 3218544438 3218544438 -13.00000000
0.81129652 -2.63225579 -0.53541005 3 4 16287 2.80600000 3218544443 3218544443 -11.00000000
0.98392069 -3.19629908 -0.52968711 1 6 16289 3.38600000 3218544448 3218544448 -9.00000000
1.26532090 -4.11554575 -0.52866924 2 8 16291 4.33800000 3218544452 3218544452 -7.00000000
1.77894127 -5.78972960 -0.52990693 3 10 16292 6.08000000 3218544457 3218544457 -5.00000000
2.79611444 -9.11154175 -0.49949437 8 12 16294 9.54400000 3218544461 3218544461 -3.00000000
2.84491372 -9.27633286 2.24006271 18 13 16295 9.95800000 3218544464 3218544464 13.00000000
2.69540453 -8.79978848 2.46602798 38 15 16297 9.52800000 3218544468 3218544468 15.00000000
0.58888769 -1.93098521 -0.54093182 4 0 16304 2.09000000 3218544489 3218544489 -15.00000000
0.68136555 -2.23702216 -0.53988254 3 2 16306 2.40000000 3218544494 3218544494 -13.00000000
0.80210328 -2.63507152 -0.53541005 3 4 16307 2.80600000 3218544498 3218544498 -11.00000000
0.97160834 -3.19593430 -0.52906138 1 6 16309 3.38200000 3218544503 3218544503 -9.00000000
1.25094724 -4.11993742 -0.52866924 2 8 16311 4.33800000 3218544508 3218544508 -7.00000000
1.77144814 -5.83784771 -0.53374177 3 10 16312 6.12400000 3218544512 3218544512 -5.00000000
2.74633479 -9.06199265 -0.49624953 8 12 16314 9.48200000 3218544517 3218544517 -3.00000000
2.80573750 -9.26382637 2.23466372 22 13 16315 9.93400000 3218544519 3218544519 13.00000000
2.69754934 -8.91222286 2.49501562 27 15 16316 9.64000000 3218544524 3218544524 15.00000000
0.58325785 -1.93672872 -0.54196709 4 0 16324 2.09400000 3218544544 3218544544 -15.00000000
0.67243016 -2.23565459 -0.53898275 3 2 16326 2.39600000 3218544549 3218544549 -13.00000000
0.79233515 -2.63597536 -0.53502840 3 4 16327 2.80400000 3218544554 3218544554 -11.00000000
0.96385443 -3.21065807 -0.53093857 3 6 16329 3.39400000 3218544558 3218544558 -9.00000000
1.23256767 -4.11096859 -0.52696306 4 8 16331 4.32400000 3218544563 3218544563 -7.00000000
1.74419701 -5.82109308 -0.53165001 3 10 16332 6.10000000 3218544567 3218544567 -5.00000000
2.71468592 -9.07152367 -0.49624953 4 12 16334 9.48200000 3218544572 3218544572 -3.00000000
2.76500821 -9.24555779 2.22791529 23 13 16335 9.90400000 3218544574 3218544574 13.00000000
2.69803882 -9.03311348 2.52607393 38 15 16337 9.76000000 3218544579 3218544579 15.00000000
0.57539260 -1.93504941 -0.54093182 4 0 16344 2.09000000 3218544600 3218544600 -15.00000000
0.66573173 -2.24172425 -0.53988254 3 2 16346 2.40000000 3218544604 3218544604 -13.00000000
0.78089470 -2.63119650 -0.53350192 3 4 16347 2.79600000 3218544609 3218544609 -11.00000000
0.95432532 -3.21968484 -0.53187716 1 6 16349 3.40000000 3218544614 3218544614 -9.00000000
1.21764672 -4.11334276 -0.52671933 4 8 16351 4.32200000 3218544618 3218544618 -7.00000000
1.72386694 -5.82714605 -0.53165001 3 10 16352 6.10000000 3218544623 3218544623 -5.00000000
2.68809700 -9.09818268 -0.49719158 4 12 16354 9.50000000 3218544627 3218544627 -3.00000000
2.73327017 -9.25702190 2.22836518 26 13 16355 9.90600000 3218544630 3218544630 13.00000000
2.69649935 -9.13836002 2.55299115 36 15 16356 9.86400000 3218544634 3218544634 15.00000000
0.56645793 -1.92963159 -0.53886127 4 0 16364 2.08200000 3218544655 3218544655 -15.00000000
0.66338509 -2.26273489 -0.54438156 3 2 16366 2.42000000 3218544660 3218544660 -13.00000000
0.77280939 -2.63767433 -0.53426516 3 4 16367 2.80000000 3218544664 3218544664 -11.00000000
0.94086170 -3.21541286 -0.53062570 1 6 16369 3.39200000 3218544669 3218544669 -9.00000000
1.20662200 -4.12900019 -0.52818173 2 8 16371 4.33400000 3218544673 3218544673 -7.00000000
1.69234538 -5.79487801 -0.52816379 3 10 16372 6.06000000 3218544678 3218544678 -5.00000000
2.65017056 -9.08642006 -0.49604020 4 12 16374 9.47800000 3218544683 3218544683 -3.00000000
2.69930434 -9.26089382 2.22701550 27 13 16375 9.90000000 3218544685 3218544685 13.00000000
2.69214439 -9.24834442 2.58094358 38 15 16377 9.97200000 3218544690 3218544690 15.00000000
0.56079417 -1.93530810 -0.53989655 4 0 16384 2.08600000 3218544710 3218544710 -15.00000000
0.65114886 -2.25006127 -0.54078233 3 2 16386 2.40400000 3218544715 3218544715 -13.00000000
0.76305205 -2.63846993 -0.53388357 5 4 16387 2.79800000 3218544720 3218544720 -11.00000000
3.31524944 -11.47092056 1.04464877 17 5 16388 11.98600000 3218544722 3218544722 5.00000000
0.92853582 -3.21488190 -0.52999997 1 6 16389 3.38800000 3218544724 3218544724 -9.00000000
1.18945086 -4.12365055 -0.52696306 4 8 16391 4.32400000 3218544729 3218544729 -7.00000000
1.66989970 -5.79309225 -0.52746654 3 10 16392 6.05200000 3218544733 3218544733 -5.00000000
2.61843681 -9.09561539 -0.49604020 4 12 16394 9.47800000 3218544738 3218544738 -3.00000000
2.66318989 -9.25715065 2.22386622 21 13 16395 9.88600000 3218544740 3218544740 13.00000000
2.69348812 -9.36861992 2.61200190 42 15 16396 10.09200000 3218544745 3218544745 15.00000000
0.55616003 -1.94468343 -0.54196709 4 0 16404 2.09400000 3218544766 3218544766 -15.00000000
3.28059316 -11.47858334 0.20838173 3 1 16405 11.94000000 3218544768 3218544768 1.00000000
0.64115000 -2.24482512 -0.53898275 3 2 16406 2.39600000 3218544770 3218544770 -13.00000000
3.27972031 -11.49070930 0.62625206 7 3 16407 11.96600000 3218544773 3218544773 3.00000000
0.75545394 -2.64678097 -0.53502840 3 4 16407 2.80400000 3218544775 3218544775 -11.00000000
3.27573466 -11.48433971 1.04482305 17 5 16408 11.98800000 3218544777 3218544777 5.00000000
0.91568363 -3.21240425 -0.52906138 3 6 16409 3.38200000 3218544779 3218544779 -9.00000000
1.16907096 -4.10677576 -0.52428192 2 8 16411 4.30200000 3218544784 3218544784 -7.00000000
1.64748728 -5.79122066 -0.52676928 3 10 16412 6.04400000 3218544789 3218544789 -5.00000000
2.58175898 -9.08740902 -0.49509814 4 12 16414 9.46000000 3218544793 3218544793 -3.00000000
2.62766695 -9.25514221 2.22116661 20 13 16415 9.87400000 3218544796 3218544796 13.00000000
3.26728296 -11.51564121 -0.20894021 6 14 16416 11.97200000 3218544798 3218544798 -1.00000000
2.68660688 -9.46903038 2.63736606 45 15 16416 10.19000000 3218544800 3218544800 15.00000000
0.54936844 -1.94661295 -0.54196709 4 0 16424 2.09400000 3218544821 3218544821 -15.00000000
0.63225287 -2.24329829 -0.53808290 3 2 16426 2.39200000 3218544826 3218544826 -13.00000000
0.74408138 -2.64184308 -0.53350192 3 4 16427 2.79600000 3218544830 3218544830 -11.00000000
3.23238802 -11.48419666 1.04377723 21 5 16428 11.97600000 3218544832 3218544832 5.00000000
0.90446466 -3.21558118 -0.52906138 3 6 16429 3.38200000 3218544835 3218544835 -9.00000000
1.15258110 -4.10318708 -0.52330697 2 8 16431 4.29400000 3218544839 3218544839 -7.00000000
1.63587761 -5.82762814 -0.52955830 3 10 16432 6.07600000 3218544844 3218544844 -5.00000000
2.54678750 -9.08482647 -0.49447012 4 12 16434 9.44800000 3218544849 3218544849 -3.00000000
2.59376717 -9.25862885 2.21981692 19 13 16435 9.86800000 3218544851 3218544851 13.00000000
2.65822482 -9.49509430 2.64202476 42 15 16436 10.20800000 3218544855 3218544855 15.00000000
0.54257011 -1.94851875 -0.54196709 4 0 16444 2.09400000 3218544876 3218544876 -15.00000000
0.62441844 -2.24549150 -0.53808290 3 2 16446 2.39200000 3218544881 3218544881 -13.00000000
0.73170120 -2.63307476 -0.53121227 3 4 16447 2.78400000 3218544885 3218544885 -11.00000000
3.18694973 -11.47621250 1.04203403 21 5 16448 11.95600000 3218544888 3218544888 5.00000000
0.89693230 -3.23204279 -0.53125143 3 6 16449 3.39600000 3218544890 3218544890 -9.00000000
1.14037192 -4.11483717 -0.52428192 2 8 16451 4.30200000 3218544895 3218544895 -7.00000000
1.60063577 -5.77953959 -0.52467757 3 10 16452 6.02000000 3218544899 3218544899 -5.00000000
2.51399517 -9.08981133 -0.49426076 4 12 16454 9.44400000 3218544904 3218544904 -3.00000000
2.56039453 -9.26386929 2.21891713 15 13 16455 9.86400000 3218544906 3218544906 13.00000000
2.62237763 -9.50104904 2.64098954 40 15 16457 10.20400000 3218544911 3218544911 15.00000000
0.52996117 -1.92795420 -0.53575540 4 0 16463 2.07000000 3218544932 3218544932 -15.00000000
0.62006390 -2.25882530 -0.54078233 3 2 16465 2.40400000 3218544936 3218544936 -13.00000000
3.15012789 -11.48342419 0.62405396 7 3 16466 11.92400000 3218544938 3218544938 3.00000000
0.72296560 -2.63548684 -0.53121227 3 4 16466 2.78400000 3218544941 3218544941 -11.00000000
3.14255500 -11.46365929 1.03994226 21 5 16467 11.93200000 3218544943 3218544943 5.00000000
0.88516569 -3.23118901 -0.53062570 3 6 16468 3.39200000 3218544945 3218544945 -9.00000000
1.12672043 -4.11859608 -0.52428192 2 8 16470 4.30200000 3218544950 3218544950 -7.00000000
1.60247743 -5.86169052 -0.53165001 3 10 16471 6.10000000 3218544955 3218544955 -5.00000000
2.47857833 -9.07883072 -0.49321404 4 12 16473 9.42400000 3218544959 3218544959 -3.00000000
2.53684115 -9.29862976 2.22521591 15 13 16474 9.89200000 3218544961 3218544961 13.00000000
3.13169861 -11.48693752 -0.20782326 6 14 16475 11.90800000 3218544964 3218544964 -1.00000000
2.58641887 -9.48687458 2.63477778 42 15 16475 10.18000000 3218544966 3218544966 15.00000000
0.52727240 -1.94470859 -0.53989655 4 0 16483 2.08600000 3218544987 3218544987 -15.00000000
0.60911953 -2.24968982 -0.53808290 3 2 16485 2.39200000 3218544991 3218544991 -13.00000000
0.71581262 -2.64557481 -0.53273869 3 4 16486 2.79200000 3218544996 3218544996 -11.00000000
3.09887981 -11.46109581 1.03872216 25 5 16487 11.91800000 3218544998 3218544998 5.00000000
0.86769825 -3.21137524 -0.52687126 1 6 16488 3.36800000 3218545001 3218545001 -9.00000000
1.11854243 -4.14550257 -0.52720678 2 8 16490 4.32600000 3218545005 3218545005 -7.00000000
1.58200657 -5.86724854 -0.53165001 3 10 16491 6.10000000 3218545010 3218545010 -5.00000000
2.44583368 -9.08357048 -0.49300471 4 12 16493 9.42000000 3218545014 3218545014 -3.00000000
2.55348253 -9.48996353 2.26885629 8 13 16494 10.08600000 3218545017 3218545017 13.00000000
2.55679917 -9.50890350 2.63840127 40 15 16495 10.19400000 3218545021 3218545021 15.00000000
0.52147889 -1.95026982 -0.54093182 4 0 16503 2.09000000 3218545043 3218545043 -15.00000000
0.60025752 -2.24803686 -0.53718311 3 2 16505 2.38800000 3218545048 3218545048 -13.00000000
0.70758581 -2.65185094 -0.53350192 3 4 16506 2.79600000 3218545052 3218545052 -11.00000000
3.05474782 -11.45644188 1.03732765 17 5 16507 11.90200000 3218545055 3218545055 5.00000000
0.85750037 -3.21820188 -0.52749699 1 6 16508 3.37200000 3218545057 3218545057 -9.00000000
1.10406518 -4.14938164 -0.52720678 2 8 16510 4.32600000 3218545061 3218545061 -7.00000000
1.54922903 -5.82652330 -0.52746654 3 10 16511 6.05200000 3218545066 3218545066 -5.00000000
2.40591025 -9.06116581 -0.49132997 8 12 16513 9.38800000 3218545071 3218545071 -3.00000000
2.56132197 -9.65327168 2.30574822 6 13 16514 10.25000000 3218545073 3218545073 13.00000000
2.52210593 -9.51216888 2.63684845 40 15 16515 10.18800000 3218545078 3218545078 15.00000000
0.51466805 -1.95207822 -0.54093182 4 0 16523 2.09000000 3218545098 3218545098 -15.00000000
0.59240675 -2.25011826 -0.53718311 3 2 16525 2.38800000 3218545103 3218545103 -13.00000000
3.01445818 -11.45783615 0.62091380 7 3 16526 11.86400000 3218545105 3218545105 3.00000000
0.69882429 -2.65620351 -0.53388357 5 4 16526 2.79800000 3218545108 3218545108 -11.00000000
3.00967288 -11.44776630 1.03558457 21 5 16527 11.88200000 3218545110 3218545110 5.00000000
0.84776729 -3.22690725 -0.52843565 1 6 16528 3.37800000 3218545112 3218545112 -9.00000000
1.08554447 -4.13784933 -0.52525687 2 8 16530 4.31000000 3218545117 3218545117 -7.00000000
1.54100728 -5.87814999 -0.53165001 3 10 16531 6.10000000 3218545121 3218545121 -5.00000000
2.37628961 -9.07723808 -0.49174863 4 12 16533 9.39600000 3218545126 3218545126 -3.00000000
2.99050236 -11.43978024 -0.20639215 6 14 16535 11.82600000 3218545131 3218545131 -1.00000000
2.48917818 -9.52882576 2.63891888 40 15 16536 10.19600000 3218545133 3218545133 15.00000000
0.50590694 -1.94638395 -0.53886127 4 0 16543 2.08200000 3218545154 3218545154 -15.00000000
0.58650702 -2.25971746 -0.53898275 3 2 16545 2.39600000 3218545158 3218545158 -13.00000000
0.68609798 -2.64532399 -0.53121227 3 4 16546 2.78400000 3218545163 3218545163 -11.00000000
2.96369600 -11.43505859 1.03349280 17 5 16547 11.85800000 3218545165 3218545165 5.00000000
0.84046024 -3.24514508 -0.53093857 1 6 16548 3.39400000 3218545167 3218545167 -9.00000000
1.07208812 -4.14545727 -0.52574432 2 8 16550 4.31400000 3218545172 3218545172 -7.00000000
1.49954152 -5.80247450 -0.52432895 3 10 16551 6.01600000 3218545177 3218545177 -5.00000000
2.34359145 -9.08160973 -0.49153930 8 12 16553 9.39200000 3218545181 3218545181 -3.00000000
2.67099285 -10.35778904 2.46951270 45 13 16554 10.97800000 3218545184 3218545184 13.00000000
2.45419121 -9.52393246 2.63529563 40 15 16555 10.18200000 3218545188 3218545188 15.00000000
0.49910972 -1.94813812 -0.53886127 4 0 16563 2.08200000 3218545209 3218545209 -15.00000000
0.57668364 -2.25419927 -0.53718311 3 2 16565 2.38800000 3218545213 3218545213 -13.00000000
0.67977738 -2.65911531 -0.53350192 3 4 16566 2.79600000 3218545218 3218545218 -11.00000000
2.91685820 -11.41830826 1.03105247 17 5 16567 11.83000000 3218545220 3218545220 5.00000000
0.82473016 -3.23083305 -0.52812278 1 6 16568 3.37600000 3218545223 3218545223 -9.00000000
1.06055319 -4.16071558 -0.52720678 2 8 16570 4.32600000 3218545227 3218545227 -7.00000000
1.46796703 -5.76326656 -0.52031976 3 10 16571 5.97000000 3218545232 3218545232 -5.00000000
2.30941486 -9.08005714 -0.49101594 8 12 16573 9.38200000 3218545237 3218545237 -3.00000000
2.67130256 -10.51058960 2.50370526 47 13 16574 11.13000000 3218545239 3218545239 13.00000000
2.41855407 -9.52307892 2.63270736 40 15 16575 10.17200000 3218545243 3218545243 15.00000000
0.49136057 -1.94612229 -0.53782600 4 0 16583 2.07800000 3218545264 3218545264 -15.00000000
0.57166982 -2.26753616 -0.53988254 3 2 16585 2.40000000 3218545269 3218545269 -13.00000000
2.88162303 -11.43841934 0.61819232 10 3 16586 11.81200000 3218545271 3218545271 3.00000000
0.67145044 -2.66527963 -0.53426516 3 4 16586 2.80000000 3218545273 3218545273 -11.00000000
2.87552404 -11.42262459 1.03052950 21 5 16587 11.82400000 3218545276 3218545276 5.00000000
0.81392932 -3.23560786 -0.52843565 1 6 16588 3.37800000 3218545278 3218545278 -9.00000000
1.04408872 -4.15669155 -0.52623183 2 8 16590 4.31800000 3218545283 3218545283 -7.00000000
1.44347513 -5.75096369 -0.51875097 3 10 16591 5.95200000 3218545287 3218545287 -5.00000000
2.27673435 -9.08418846 -0.49080661 4 12 16593 9.37800000 3218545292 3218545292 -3.00000000
2.67010427 -10.66162777 2.53744793 53 13 16594 11.28000000 3218545294 3218545294 13.00000000
2.86180520 -11.43555164 -0.20576388 6 14 16595 11.79000000 3218545296 3218545296 -1.00000000
2.38457131 -9.53562737 2.63374257 40 15 16596 10.17600000 3218545299 3218545299 15.00000000
0.48549709 -1.95157504 -0.53886127 4 0 16603 2.08200000 3218545319 3218545319 -15.00000000
2.85300469 -11.47690487 0.20642707 37 1 16604 11.82800000 3218545322 3218545322 1.00000000
0.56281161 -2.26573539 -0.53898275 3 2 16605 2.39600000 3218545324 3218545324 -13.00000000
2.84849095 -11.46729565 0.61923903 10 3 16605 11.83200000 3218545326 3218545326 3.00000000
0.66119683 -2.66379619 -0.53350192 3 4 16606 2.79600000 3218545329 3218545329 -11.00000000
0.80263001 -3.23842931 -0.52843565 1 6 16608 3.37800000 3218545333 3218545333 -9.00000000
1.02098906 -4.12562513 -0.52184451 2 8 16610 4.28200000 3218545338 3218545338 -7.00000000
1.42626154 -5.76757193 -0.51979685 3 10 16611 5.96400000 3218545343 3218545343 -5.00000000
2.24453211 -9.09014130 -0.49070191 4 12 16613 9.37600000 3218545347 3218545347 -3.00000000
2.66835046 -10.81467533 2.57164049 49 13 16614 11.43200000 3218545349 3218545349 13.00000000
2.82474232 -11.45712090 -0.20597330 6 14 16615 11.80200000 3218545352 3218545352 -1.00000000
2.35358167 -9.55327225 2.63633084 7 15 16616 10.18600000 3218545354 3218545354 15.00000000
0.48006135 -1.95888686 -0.54041415 4 0 16623 2.08800000 3218545375 3218545375 -15.00000000
0.55489928 -2.26768613 -0.53898275 3 2 16625 2.39600000 3218545379 3218545379 -13.00000000
0.65096182 -2.66227388 -0.53273869 3 4 16626 2.79200000 3218545384 3218545384 -11.00000000
0.79178941 -3.24313045 -0.52874851 1 6 16628 3.38000000 3218545389 3218545389 -9.00000000
1.00658166 -4.12916422 -0.52184451 2 8 16630 4.28200000 3218545393 3218545393 -7.00000000
1.40140486 -5.75315762 -0.51805371 3 10 16631 5.94400000 3218545398 3218545398 -5.00000000
2.20570779 -9.06881046 -0.48913184 4 12 16633 9.34600000 3218545402 3218545402 -3.00000000
2.66233873 -10.95458317 2.60268378 48 13 16634 11.57000000 3218545405 3218545405 13.00000000
2.31976461 -9.55955219 2.63581324 30 15 16636 10.18400000 3218545409 3218545409 15.00000000
0.47186080 -1.95491683 -0.53886127 4 0 16643 2.08200000 3218545430 3218545430 -15.00000000
0.54606706 -2.26582026 -0.53808290 3 2 16645 2.39200000 3218545435 3218545435 -13.00000000
0.63706833 -2.64544296 -0.52892256 3 4 16646 2.77200000 3218545439 3218545439 -11.00000000
0.77815485 -3.23627138 -0.52718413 1 6 16648 3.37000000 3218545444 3218545444 -9.00000000
0.99401575 -4.14037371 -0.52281946 2 8 16650 4.29000000 3218545449 3218545449 -7.00000000
1.38131404 -5.75801420 -0.51805371 3 10 16651 5.94400000 3218545453 3218545453 -5.00000000
2.17264247 -9.07062721 -0.48881784 4 12 16653 9.34000000 3218545458 3218545458 -3.00000000
2.65991831 -11.11353111 2.63822603 53 13 16654 11.72800000 3218545460 3218545460 13.00000000
2.28548336 -9.56383324 2.63477778 33 15 16656 10.18000000 3218545465 3218545465 15.00000000
0.46414056 -1.95279312 -0.53782600 4 0 16663 2.07800000 3218545485 3218545485 -15.00000000
0.53995436 -2.27529693 -0.53988254 3 2 16665 2.40000000 3218545490 3218545490 -13.00000000
0.63054800 -2.65911245 -0.53121227 3 4 16666 2.78400000 3218545495 3218545495 -11.00000000
0.76639831 -3.23704553 -0.52687126 1 6 16668 3.36800000 3218545499 3218545499 -9.00000000
0.98412377 -4.16313648 -0.52525687 2 8 16670 4.31000000 3218545504 3218545504 -7.00000000
1.35754240 -5.74728870 -0.51665926 3 10 16671 5.92800000 3218545508 3218545508 -5.00000000
2.13959146 -9.07232475 -0.48850381 4 12 16673 9.33400000 3218545513 3218545513 -3.00000000
2.64166999 -11.21000099 2.65892148 49 13 16674 11.82000000 3218545515 3218545515 13.00000000
2.25641274 -9.58264256 2.63788366 38 15 16675 10.19200000 3218545520 3218545520 15.00000000
0.45732120 -1.95440137 -0.53782600 4 0 16683 2.07800000 3218545541 3218545541 -15.00000000
0.52934873 -2.26578212 -0.53718311 3 2 16685 2.38800000 3218545545 3218545545 -13.00000000
0.62126213 -2.66129732 -0.53121227 3 4 16686 2.78400000 3218545550 3218545550 -11.00000000
0.75554264 -3.24162483 -0.52718413 1 6 16688 3.37000000 3218545554 3218545554 -9.00000000
0.96688616 -4.15494585 -0.52379441 2 8 16690 4.29800000 3218545559 3218545559 -7.00000000
1.34017968 -5.76363611 -0.51770508 3 10 16691 5.94000000 3218545564 3218545564 -5.00000000
2.10700679 -9.07584667 -0.48829448 4 12 16693 9.33000000 3218545568 3218545568 -3.00000000
2.60560608 -11.23244190 2.66207075 48 13 16694 11.83400000 3218545571 3218545571 13.00000000
2.22301912 -9.59837627 2.63995433 38 15 16696 10.20000000 3218545575 3218545575 15.00000000
0.45223063 -1.96351600 -0.53989655 4 0 16703 2.08600000 3218545596 3218545596 -15.00000000
0.52143645 -2.26761603 -0.53718311 3 2 16705 2.38800000 3218545601 3218545601 -13.00000000
0.74819773 -3.26157069 -0.52999997 1 6 16708 3.38800000 3218545610 3218545610 -9.00000000
0.95104730 -4.15249062 -0.52306324 2 8 16710 4.29200000 3218545614 3218545614 -7.00000000
1.32005274 -5.76827908 -0.51770508 3 10 16711 5.94000000 3218545619 3218545619 -5.00000000
2.07086468 -9.06367493 -0.48724777 4 12 16713 9.31000000 3218545624 3218545624 -3.00000000
2.56638169 -11.24146843 2.66207075 47 13 16714 11.83400000 3218545626 3218545626 13.00000000
2.19074774 -9.60381222 2.63943672 35 15 16715 10.19800000 3218545631 3218545631 15.00000000
0.44537392 -1.96508265 -0.53989655 4 0 16723 2.08600000 3218545651 3218545651 -15.00000000
0.51480812 -2.27512431 -0.53853285 4 2 16725 2.39400000 3218545656 3218545656 -13.00000000
0.60310072 -2.66748452 -0.53159386 3 4 16726 2.78600000 3218545660 3218545660 -11.00000000
0.73332858 -3.24874735 -0.52749699 1 6 16728 3.37200000 3218545665 3218545665 -9.00000000
0.93261886 -4.13835621 -0.52086955 2 8 16730 4.27400000 3218545670 3218545670 -7.00000000
1.29728353 -5.76118946 -0.51665926 3 10 16731 5.92800000 3218545674 3218545674 -5.00000000
2.04359460 -9.09033489 -0.48829448 4 12 16733 9.33000000 3218545679 3218545679 -3.00000000
2.52541757 -11.24275303 2.66027117 46 13 16734 11.82600000 3218545681 3218545681 13.00000000
2.15891528 -9.62685680 2.64357781 35 15 16736 10.21400000 3218545686 3218545686 15.00000000
0.43919826 -1.96647215 -0.53989655 4 0 16741 2.08600000 3218545707 3218545707 -15.00000000
0.50765806 -2.27673054 -0.53853285 4 2 16743 2.39400000 3218545711 3218545711 -13.00000000
0.59300989 -2.66170096 -0.53006738 3 4 16744 2.77800000 3218545716 3218545716 -11.00000000
0.72311872 -3.25103521 -0.52749699 1 6 16746 3.37200000 3218545720 3218545720 -9.00000000
0.91574031 -4.12382460 -0.51867592 2 8 16748 4.25600000 3218545725 3218545725 -7.00000000
1.27917790 -5.76523638 -0.51665926 3 10 16749 5.92800000 3218545730 3218545730 -5.00000000
2.01848197 -9.11231041 -0.48913184 4 12 16751 9.34600000 3218545734 3218545734 -3.00000000
2.49008512 -11.25063133 2.66027117 46 13 16752 11.82600000 3218545737 3218545737 13.00000000
2.12909079 -9.62756157 2.64202476 38 15 16753 10.20800000 3218545741 3218545741 15.00000000
0.42984426 -1.95667207 -0.53679073 4 0 16761 2.07400000 3218545762 3218545762 -15.00000000
0.49845529 -2.27277827 -0.53718311 3 2 16763 2.38800000 3218545766 3218545766 -13.00000000
0.71261042 -3.25739908 -0.52812278 1 6 16766 3.37600000 3218545776 3218545776 -9.00000000
0.90430480 -4.14057207 -0.52038211 2 8 16768 4.27000000 3218545780 3218545780 -7.00000000
1.25139964 -5.73462820 -0.51352161 3 10 16769 5.89200000 3218545785 3218545785 -5.00000000
1.98666179 -9.11930084 -0.48913184 4 12 16771 9.34600000 3218545789 3218545789 -3.00000000
2.45328474 -11.27067947 2.66297054 50 13 16772 11.83800000 3218545792 3218545792 13.00000000
2.09214902 -9.62774944 2.63995433 38 15 16774 10.20000000 3218545796 3218545796 15.00000000
0.42430016 -1.96578789 -0.53886127 4 0 16782 2.08200000 3218545817 3218545817 -15.00000000
0.49012178 -2.27458978 -0.53718311 4 2 16784 2.38800000 3218545822 3218545822 -13.00000000
0.57394814 -2.66587615 -0.53006738 3 4 16785 2.77800000 3218545826 3218545826 -11.00000000
0.69734597 -3.24453878 -0.52561980 1 6 16787 3.36000000 3218545831 3218545831 -9.00000000
0.89203793 -4.15744495 -0.52208829 2 8 16789 4.28400000 3218545836 3218545836 -7.00000000
1.23789024 -5.77424240 -0.51665926 3 10 16790 5.92800000 3218545840 3218545840 -5.00000000
2.41440415 -11.29102993 2.66566992 47 13 16793 11.85000000 3218545847 3218545847 13.00000000
2.06014347 -9.64255047 2.64202476 38 15 16794 10.20800000 3218545852 3218545852 15.00000000
0.41663373 -1.96347737 -0.53782600 4 0 16802 2.07800000 3218545872 3218545872 -15.00000000
0.48015982 -2.26675463 -0.53493363 4 2 16804 2.37800000 3218545877 3218545877 -13.00000000
0.68642449 -3.24888611 -0.52593267 1 6 16807 3.36200000 3218545886 3218545886 -9.00000000
0.87547195 -4.15082169 -0.52086955 2 8 16809 4.27400000 3218545891 3218545891 -7.00000000
1.21526182 -5.76683092 -0.51561338 3 10 16810 5.91600000 3218545895 3218545895 -5.00000000
2.37417459 -11.29557514 2.66477013 46 13 16813 11.84600000 3218545902 3218545902 13.00000000
2.02756500 -9.66327095 2.64564824 35 15 16815 10.22200000 3218545907 3218545907 15.00000000
0.41248864 -1.97619486 -0.54093182 4 0 16821 2.09000000 3218545928 3218545928 -15.00000000
0.47423041 -2.27596545 -0.53673321 4 2 16823 2.38600000 3218545932 3218545932 -13.00000000
0.67564702 -3.25114441 -0.52593267 1 6 16826 3.36200000 3218545942 3218545942 -9.00000000
0.85404116 -4.11677170 -0.51623851 4 8 16828 4.23600000 3218545946 3218545946 -7.00000000
1.19694042 -5.77473068 -0.51596200 3 10 16829 5.92000000 3218545951 3218545951 -5.00000000
2.33473158 -11.29384422 2.66252065 12 13 16832 11.83600000 3218545958 3218545958 13.00000000
1.99875998 -9.67716122 2.64771891 35 15 16833 10.23000000 3218545962 3218545962 15.00000000
0.40442356 -1.97194529 -0.53937888 4 0 16841 2.08400000 3218545983 3218545983 -15.00000000
0.46706462 -2.28142524 -0.53763300 4 2 16843 2.39000000 3218545988 3218545988 -13.00000000
0.66192323 -3.24187040 -0.52405548 1 6 16846 3.35000000 3218545997 3218545997 -9.00000000
