# .PCD v0.7 - Point Cloud Data file format
VERSION 0.7
FIELDS x y z intensity laser_id azimuth distance_m adjustedtime timestamp vertical_angle
SIZE 4 4 4 1 1 2 8 8 4 8
TYPE F F F U U U F U U F
COUNT 1 1 1 1 1 1 1 1 1 1
WIDTH 521
HEIGHT 1
VIEWPOINT 0 0 0 1 0 0 0
POINTS 521
DATA ascii
-4.18993139 -6.27304506 -0.39534581 4 12 21374 7.55400000 3217958600 3217958600 -3.00000000
-5.15415955 -7.71083117 2.48518038 47 15 21376 9.60200000 3217958607 3217958607 15.00000000
-1.07364953 -1.60137892 -0.51660281 5 0 21384 1.99600000 3217958628 3217958628 -15.00000000
-1.23343563 -1.83831680 -0.51108879 4 2 21386 2.27200000 3217958632 3217958632 -13.00000000
-1.44098520 -2.14683962 -0.50259089 4 4 21387 2.63400000 3217958637 3217958637 -11.00000000
-1.73261309 -2.57937264 -0.49214283 3 6 21389 3.14600000 3217958642 3217958642 -9.00000000
-2.16066051 -3.21419001 -0.47553417 3 8 21391 3.90200000 3217958646 3217958646 -7.00000000
-2.86183143 -4.25564480 -0.44867778 3 10 21392 5.14800000 3217958651 3217958651 -5.00000000
-5.18104410 -7.69279289 2.48518038 47 15 21396 9.60200000 3217958662 3217958662 15.00000000
-1.07815135 -1.59602058 -0.51608515 4 0 21404 1.99400000 3217958683 3217958683 -15.00000000
-1.23547935 -1.82754242 -0.50928921 4 2 21406 2.26400000 3217958688 3217958688 -13.00000000
-1.44077158 -2.13041258 -0.49991956 4 4 21407 2.62000000 3217958692 3217958692 -11.00000000
-1.73717749 -2.56676531 -0.49089134 2 6 21409 3.13800000 3217958697 3217958697 -9.00000000
-2.17298007 -3.20827198 -0.47577792 3 8 21411 3.90400000 3217958702 3217958702 -7.00000000
-2.92584276 -4.31820393 -0.45634747 3 10 21412 5.23600000 3217958706 3217958706 -5.00000000
-5.21679974 -7.68494034 2.48880386 38 15 21417 9.61600000 3217958718 3217958718 15.00000000
-1.08588994 -1.59544146 -0.51712048 4 0 21424 1.99800000 3217958738 3217958738 -15.00000000
-1.24514234 -1.82805049 -0.51063889 4 2 21426 2.27000000 3217958743 3217958743 -13.00000000
-1.44598830 -2.12212563 -0.49915633 3 4 21427 2.61600000 3217958748 3217958748 -11.00000000
-1.75057817 -2.56721401 -0.49214283 3 6 21429 3.14600000 3217958752 3217958752 -9.00000000
-2.18192792 -3.19738793 -0.47529045 3 8 21431 3.90000000 3217958757 3217958757 -7.00000000
-2.90944481 -4.26189041 -0.45146674 3 10 21432 5.18000000 3217958762 3217958762 -5.00000000
-6.35972261 -9.31252670 2.19201374 31 11 21433 11.48800000 3217958764 3217958764 11.00000000
-5.93285131 -8.67445087 2.81595111 57 15 21437 10.88000000 3217958773 3217958773 15.00000000
-1.08489716 -1.58208191 -0.51401460 4 0 21444 1.98600000 3217958794 3217958794 -15.00000000
-1.25592637 -1.83012009 -0.51243848 4 2 21446 2.27800000 3217958798 3217958798 -13.00000000
-1.45560932 -2.12030220 -0.49991956 3 4 21447 2.62000000 3217958803 3217958803 -11.00000000
-1.75617301 -2.55620313 -0.49120423 1 6 21449 3.14000000 3217958808 3217958808 -9.00000000
-2.18070436 -3.17175865 -0.47260931 1 8 21451 3.87800000 3217958812 3217958812 -7.00000000
-2.90398049 -4.22215986 -0.44832915 3 10 21452 5.14400000 3217958817 3217958817 -5.00000000
-5.95761395 -8.64573479 2.81336308 52 15 21457 10.87000000 3217958828 3217958828 15.00000000
-1.09370732 -1.58305347 -0.51556754 5 0 21464 1.99200000 3217958849 3217958849 -15.00000000
-1.26009059 -1.82251906 -0.51153868 4 2 21466 2.27400000 3217958854 3217958854 -13.00000000
-1.46300173 -2.11520839 -0.49991956 3 4 21467 2.62000000 3217958858 3217958858 -11.00000000
-1.75946379 -2.54193616 -0.48963988 2 6 21469 3.13000000 3217958863 3217958863 -9.00000000
-2.20419669 -3.18207741 -0.47529045 3 8 21471 3.90000000 3217958868 3217958868 -7.00000000
-2.92097068 -4.21527243 -0.44867778 3 10 21472 5.14800000 3217958872 3217958872 -5.00000000
-5.98885870 -8.62647247 2.81388068 54 15 21477 10.87200000 3217958884 3217958884 15.00000000
-1.10419452 -1.58518302 -0.51763809 4 0 21486 2.00000000 3217958904 3217958904 -15.00000000
-1.26485038 -1.81446993 -0.51063889 4 2 21488 2.27000000 3217958909 3217958909 -13.00000000
-1.47335875 -2.11279607 -0.50068283 3 4 21489 2.62400000 3217958914 3217958914 -11.00000000
-1.76808071 -2.53354168 -0.48932701 2 6 21491 3.12800000 3217958918 3217958918 -9.00000000
-2.21185207 -3.16708040 -0.47431549 3 8 21493 3.89200000 3217958923 3217958923 -7.00000000
-2.94854522 -4.22035837 -0.45042089 3 10 21494 5.16800000 3217958927 3217958927 -5.00000000
-4.31567669 -6.17259216 -0.39471778 4 12 21496 7.54200000 3217958932 3217958932 -3.00000000
-6.02708101 -8.61396217 2.81698656 54 15 21498 10.88400000 3217958939 3217958939 15.00000000
-1.11416006 -1.58764422 -0.51970863 4 0 21506 2.00800000 3217958960 3217958960 -15.00000000
-1.27117634 -1.81004381 -0.51063889 4 2 21508 2.27000000 3217958964 3217958964 -13.00000000
-1.47846758 -2.10442734 -0.49991956 3 4 21509 2.62000000 3217958969 3217958969 -11.00000000
-1.78486657 -2.53866625 -0.49151710 2 6 21511 3.14200000 3217958973 3217958973 -9.00000000
-2.22403622 -3.16096401 -0.47455922 1 8 21513 3.89400000 3217958978 3217958978 -7.00000000
-2.97472692 -4.22633314 -0.45216399 3 10 21514 5.18800000 3217958983 3217958983 -5.00000000
-4.34179735 -6.16402149 -0.39513648 4 12 21516 7.55000000 3217958987 3217958987 -3.00000000
-6.05527258 -8.58707714 2.81543350 49 15 21519 10.87800000 3217958994 3217958994 15.00000000
-1.10938406 -1.56974220 -0.51504987 4 0 21525 1.99000000 3217959015 3217959015 -15.00000000
-1.27942228 -1.80900049 -0.51153868 4 2 21527 2.27400000 3217959020 3217959020 -13.00000000
-1.47976840 -2.09149957 -0.49801147 3 4 21528 2.61000000 3217959024 3217959024 -11.00000000
-1.79327524 -2.53273344 -0.49151710 2 6 21530 3.14200000 3217959029 3217959029 -9.00000000
-2.23335838 -3.15195155 -0.47431549 3 8 21532 3.89200000 3217959033 3217959033 -7.00000000
-2.96568203 -4.18393612 -0.44867778 3 10 21533 5.14800000 3217959038 3217959038 -5.00000000
-6.38661337 -9.00679779 2.14621949 34 11 21534 11.24800000 3217959040 3217959040 11.00000000
-4.35759211 -6.14307356 -0.39471778 4 12 21535 7.54200000 3217959043 3217959043 -3.00000000
-6.08110142 -8.56643677 2.81491590 54 15 21537 10.87600000 3217959050 3217959050 15.00000000
-1.11261582 -1.56271267 -0.51401460 5 0 21545 1.98600000 3217959070 3217959070 -15.00000000
-1.28912151 -1.80928481 -0.51288843 4 2 21547 2.28000000 3217959075 3217959075 -13.00000000
-1.49161816 -2.09271622 -0.49953794 3 4 21548 2.61800000 3217959079 3217959079 -11.00000000
-1.80210519 -2.52645826 -0.49151710 2 6 21550 3.14200000 3217959084 3217959084 -9.00000000
-2.24550056 -3.14575219 -0.47455922 1 8 21552 3.89400000 3217959089 3217959089 -7.00000000
-2.97332168 -4.16382980 -0.44763190 3 10 21553 5.13600000 3217959093 3217959093 -5.00000000
-4.38829851 -6.14082527 -0.39555517 4 12 21555 7.55800000 3217959098 3217959098 -3.00000000
-6.10908604 -8.53937721 2.81336308 52 15 21558 10.87000000 3217959105 3217959105 15.00000000
-1.12004316 -1.56215453 -0.51504987 4 0 21564 1.99000000 3217959126 3217959126 -15.00000000
-1.28943384 -1.79708326 -0.51063889 4 2 21566 2.27000000 3217959130 3217959130 -13.00000000
-1.50427365 -2.09573293 -0.50144607 3 4 21567 2.62800000 3217959135 3217959135 -11.00000000
-1.79203439 -2.49479842 -0.48651120 2 6 21569 3.11000000 3217959139 3217959139 -9.00000000
-2.25823712 -3.14151239 -0.47504669 1 8 21571 3.89800000 3217959144 3217959144 -7.00000000
-2.97431779 -4.13615370 -0.44571447 3 10 21572 5.11400000 3217959149 3217959149 -5.00000000
-4.39697218 -6.11002827 -0.39450845 4 12 21574 7.53800000 3217959153 3217959153 -3.00000000
-6.13926983 -8.52484512 2.81491590 47 15 21576 10.87600000 3217959160 3217959160 15.00000000
-1.13001394 -1.56449962 -0.51712048 5 0 21584 1.99800000 3217959181 3217959181 -15.00000000
-1.29113269 -1.78625393 -0.50883931 4 2 21586 2.26200000 3217959185 3217959185 -13.00000000
-1.51848209 -2.10001493 -0.50373572 3 4 21587 2.64000000 3217959190 3217959190 -11.00000000
-1.81115425 -2.50293088 -0.48932701 2 6 21589 3.12800000 3217959195 3217959195 -9.00000000
-2.27850366 -3.14647293 -0.47699660 1 8 21591 3.91400000 3217959199 3217959199 -7.00000000
-3.01094556 -4.15640306 -0.44902638 3 10 21592 5.15200000 3217959204 3217959204 -5.00000000
-4.41827297 -6.09464264 -0.39450845 4 12 21594 7.53800000 3217959208 3217959208 -3.00000000
-6.18068600 -8.51635838 2.81957459 28 15 21597 10.89400000 3217959215 3217959215 15.00000000
-1.13546813 -1.56054556 -0.51712048 4 0 21604 1.99800000 3217959236 3217959236 -15.00000000
-1.29735994 -1.78173614 -0.50883931 4 2 21606 2.26200000 3217959241 3217959241 -13.00000000
-1.51886785 -2.08518028 -0.50144607 3 4 21607 2.62800000 3217959245 3217959245 -11.00000000
-1.82569802 -2.50457501 -0.49089134 2 6 21609 3.13800000 3217959250 3217959250 -9.00000000
-2.26373529 -3.10321832 -0.47163436 1 8 21611 3.87000000 3217959255 3217959255 -7.00000000
-3.02308702 -4.14264870 -0.44867778 3 10 21612 5.14800000 3217959259 3217959259 -5.00000000
-4.44423199 -6.08563471 -0.39492711 4 12 21614 7.54600000 3217959264 3217959264 -3.00000000
-1.13634038 -1.55034006 -0.51504987 4 0 21624 1.99000000 3217959291 3217959291 -15.00000000
-1.31048703 -1.78662479 -0.51153868 4 2 21626 2.27400000 3217959296 3217959296 -13.00000000
-1.52381432 -2.07669997 -0.50068283 3 4 21627 2.62400000 3217959301 3217959301 -11.00000000
-1.84495211 -2.51251698 -0.49370718 3 6 21629 3.15600000 3217959305 3217959305 -9.00000000
-2.28160667 -3.10489511 -0.47309679 1 8 21631 3.88200000 3217959310 3217959310 -7.00000000
-3.02572823 -4.11601782 -0.44693464 3 10 21632 5.12800000 3217959314 3217959314 -5.00000000
-6.35401964 -8.64046383 2.08477902 3 11 21633 10.92600000 3217959317 3217959317 11.00000000
-4.45597982 -6.05721378 -0.39408976 4 12 21634 7.53000000 3217959319 3217959319 -3.00000000
-5.12304688 -6.95635462 2.31487751 6 15 21637 8.94400000 3217959326 3217959326 15.00000000
-1.13715518 -1.54014754 -0.51297933 5 0 21644 1.98200000 3217959347 3217959347 -15.00000000
-1.31439936 -1.77890480 -0.51063889 4 2 21646 2.27000000 3217959351 3217959351 -13.00000000
-1.52872014 -2.06821060 -0.49991956 3 4 21647 2.62000000 3217959356 3217959356 -11.00000000
-1.83843982 -2.48541594 -0.48963988 2 6 21649 3.13000000 3217959361 3217959361 -9.00000000
-2.29715514 -3.10329413 -0.47407174 1 8 21651 3.89000000 3217959365 3217959365 -7.00000000
-3.04956269 -4.11824036 -0.44832915 3 10 21652 5.14400000 3217959370 3217959370 -5.00000000
-6.37596130 -8.60718822 2.08210778 18 11 21653 10.91200000 3217959372 3217959372 11.00000000
-4.47471809 -6.03841305 -0.39388040 4 12 21654 7.52600000 3217959374 3217959374 -3.00000000
-5.15529251 -6.95174170 2.31901860 9 15 21656 8.96000000 3217959381 3217959381 15.00000000
-1.14483023 -1.53926897 -0.51401460 4 0 21664 1.98600000 3217959402 3217959402 -15.00000000
-1.32409143 -1.77899563 -0.51198858 4 2 21666 2.27600000 3217959407 3217959407 -13.00000000
-1.53827512 -2.06601119 -0.50068283 3 4 21667 2.62400000 3217959411 3217959411 -11.00000000
-1.84710431 -2.47898340 -0.48963988 2 6 21669 3.13000000 3217959416 3217959416 -9.00000000
-2.29848075 -3.08252549 -0.47212183 1 8 21671 3.87400000 3217959420 3217959420 -7.00000000
-3.06868458 -4.11395836 -0.44902638 3 10 21672 5.15200000 3217959425 3217959425 -5.00000000
-6.40596724 -8.58487988 2.08210778 12 11 21673 10.91200000 3217959427 3217959427 11.00000000
-4.49098969 -6.01635456 -0.39346170 4 12 21674 7.51800000 3217959430 3217959430 -3.00000000
-5.18883228 -6.94363213 2.32264209 9 15 21677 8.97400000 3217959437 3217959437 15.00000000
-1.15714610 -1.54453981 -0.51712048 4 0 21684 1.99800000 3217959457 3217959457 -15.00000000
-1.32211041 -1.76344848 -0.50883931 4 2 21686 2.26200000 3217959462 3217959462 -13.00000000
-1.54783344 -2.06377029 -0.50144607 3 4 21687 2.62800000 3217959467 3217959467 -11.00000000
-1.85811782 -2.47568035 -0.49026561 2 6 21689 3.13400000 3217959471 3217959471 -9.00000000
-2.31876397 -3.08718133 -0.47407174 1 8 21691 3.89000000 3217959476 3217959476 -7.00000000
-3.08302641 -4.10322189 -0.44902638 3 10 21692 5.15200000 3217959480 3217959480 -5.00000000
-4.51196337 -6.00064135 -0.39346170 4 12 21694 7.51800000 3217959485 3217959485 -3.00000000
-5.23157597 -6.95262957 2.33144188 9 15 21696 9.00800000 3217959492 3217959492 15.00000000
-1.16718531 -1.54665935 -0.51919103 5 0 21704 2.00600000 3217959513 3217959513 -15.00000000
-1.33060682 -1.76193297 -0.50973910 4 2 21706 2.26600000 3217959517 3217959517 -13.00000000
-1.55266106 -2.05522180 -0.50068283 3 4 21707 2.62400000 3217959522 3217959522 -11.00000000
-1.86198318 -2.46287632 -0.48901415 2 6 21709 3.12600000 3217959526 3217959526 -9.00000000
-2.31994462 -3.06640410 -0.47212183 1 8 21711 3.87400000 3217959531 3217959531 -7.00000000
-3.08771133 -4.07972527 -0.44763190 3 10 21712 5.13600000 3217959536 3217959536 -5.00000000
-4.53770542 -5.99122381 -0.39388040 4 12 21714 7.52600000 3217959540 3217959540 -3.00000000
-5.27098322 -6.95433998 2.33817124 9 15 21716 9.03400000 3217959547 3217959547 15.00000000
-1.16673160 -1.53488588 -0.51660281 4 0 21724 1.99600000 3217959568 3217959568 -15.00000000
-1.33792877 -1.75882852 -0.51018900 4 2 21726 2.26800000 3217959573 3217959573 -13.00000000
-1.54793668 -2.03416610 -0.49686661 3 4 21727 2.60400000 3217959577 3217959577 -11.00000000
-1.87535596 -2.46264815 -0.49026561 2 6 21729 3.13400000 3217959582 3217959582 -9.00000000
-2.33544707 -3.06460285 -0.47309679 1 8 21731 3.88200000 3217959586 3217959586 -7.00000000
-3.10193348 -4.06892252 -0.44763190 3 10 21732 5.13600000 3217959591 3217959591 -5.00000000
-4.54889965 -5.96264458 -0.39304304 4 12 21734 7.51000000 3217959596 3217959596 -3.00000000
-5.29170942 -6.93129206 2.33661842 15 15 21736 9.02800000 3217959602 3217959602 15.00000000
-1.16386127 -1.52006686 -0.51297933 4 0 21744 1.98200000 3217959623 3217959623 -15.00000000
-1.34998631 -1.76188183 -0.51243848 4 2 21746 2.27800000 3217959628 3217959628 -13.00000000
-1.57174861 -2.05056477 -0.50220925 3 4 21747 2.63200000 3217959632 3217959632 -11.00000000
-1.88995206 -2.46392369 -0.49182996 3 6 21749 3.14400000 3217959637 3217959637 -9.00000000
-2.35821748 -3.07217860 -0.47553417 1 8 21751 3.90200000 3217959642 3217959642 -7.00000000
-3.10883713 -4.04858828 -0.44658601 3 10 21752 5.12400000 3217959646 3217959646 -5.00000000
-4.58185530 -5.96256638 -0.39408976 4 12 21754 7.53000000 3217959651 3217959651 -3.00000000
-5.33003521 -6.92869377 2.34231234 18 15 21757 9.05000000 3217959658 3217959658 15.00000000
-1.17859840 -1.52823305 -0.51712048 4 0 21764 1.99800000 3217959679 3217959679 -15.00000000
-1.35136569 -1.75098789 -0.51063889 4 2 21766 2.27000000 3217959683 3217959683 -13.00000000
-1.57409775 -2.03884983 -0.50068283 3 4 21767 2.62400000 3217959688 3217959688 -11.00000000
-1.88163316 -2.43542719 -0.48744980 1 6 21769 3.11600000 3217959692 3217959692 -9.00000000
-2.36649871 -3.06078720 -0.47504669 1 8 21771 3.89800000 3217959697 3217959697 -7.00000000
-3.12660718 -4.04243994 -0.44710895 3 10 21772 5.13000000 3217959702 3217959702 -5.00000000
-4.57330084 -5.90862989 -0.39157763 3 12 21774 7.48200000 3217959706 3217959706 -3.00000000
-5.36362934 -6.92472601 2.34697104 18 15 21776 9.06800000 3217959713 3217959713 15.00000000
-1.18155551 -1.52105832 -0.51608515 5 0 21784 1.99400000 3217959734 3217959734 -15.00000000
-1.35507751 -1.74318302 -0.50973910 4 2 21786 2.26600000 3217959738 3217959738 -13.00000000
-1.58843625 -2.04264164 -0.50297248 3 4 21787 2.63600000 3217959743 3217959743 -11.00000000
-1.90589416 -2.44911051 -0.49151710 2 6 21789 3.14200000 3217959748 3217959748 -9.00000000
-2.35277462 -3.02118421 -0.47017193 1 8 21791 3.85800000 3217959752 3217959752 -7.00000000
-3.14927006 -4.04250336 -0.44832915 3 10 21792 5.14400000 3217959757 3217959757 -5.00000000
-4.57425022 -5.86742783 -0.38990286 3 12 21794 7.45000000 3217959761 3217959761 -3.00000000
-5.40202808 -6.92423916 2.35318279 20 15 21796 9.09200000 3217959768 3217959768 15.00000000
-1.19042909 -1.52148914 -0.51763809 5 0 21804 2.00000000 3217959789 3217959789 -15.00000000
-1.35755002 -1.73383915 -0.50838935 4 2 21806 2.26000000 3217959794 3217959794 -13.00000000
-1.58587193 -2.02471995 -0.49991956 3 4 21807 2.62000000 3217959798 3217959798 -11.00000000
-1.90711987 -2.43311453 -0.48963988 2 6 21809 3.13000000 3217959803 3217959803 -9.00000000
-2.37923312 -3.03325796 -0.47334054 1 8 21811 3.88400000 3217959807 3217959807 -7.00000000
-3.16090202 -4.02835083 -0.44798052 3 10 21812 5.14000000 3217959812 3217959812 -5.00000000
-4.60087109 -5.85927916 -0.39042625 3 12 21814 7.46000000 3217959817 3217959817 -3.00000000
-5.44526291 -6.92964411 2.36146498 20 15 21816 9.12400000 3217959824 3217959824 15.00000000
-1.19094992 -1.51125526 -0.51556754 5 0 21824 1.99200000 3217959844 3217959844 -15.00000000
-1.37566113 -1.74439156 -0.51288843 4 2 21826 2.28000000 3217959849 3217959849 -13.00000000
-4.34200478 -5.50385427 0.36739841 2 3 21827 7.02000000 3217959851 3217959851 3.00000000
-1.58806598 -2.01300645 -0.49839309 3 4 21827 2.61200000 3217959854 3217959854 -11.00000000
-4.30892467 -5.45996284 0.60852140 3 5 21828 6.98200000 3217959856 3217959856 5.00000000
-1.91927350 -2.43109393 -0.49057847 1 6 21829 3.13600000 3217959858 3217959858 -9.00000000
-2.38365364 -3.01714635 -0.47212183 1 8 21831 3.87400000 3217959863 3217959863 -7.00000000
-3.16382575 -4.00322437 -0.44641173 3 10 21832 5.12200000 3217959867 3217959867 -5.00000000
-4.32488108 -5.47035837 1.35550714 21 11 21833 7.10400000 3217959870 3217959870 11.00000000
-4.45899296 -5.63796711 -0.37671420 3 12 21834 7.19800000 3217959872 3217959872 -3.00000000
-4.31293964 -5.45134115 1.60480082 57 13 21835 7.13400000 3217959874 3217959874 13.00000000
-4.33609581 -5.47864437 -0.12195741 19 14 21836 6.98800000 3217959877 3217959877 -1.00000000
-4.30023241 -5.43138266 1.85625017 40 15 21837 7.17200000 3217959879 3217959879 15.00000000
-1.19261491 -1.50254941 -0.51401460 4 0 21844 1.98600000 3217959900 3217959900 -15.00000000
-4.34718323 -5.47495842 0.12202723 11 1 21845 6.99200000 3217959902 3217959902 1.00000000
-1.37568152 -1.73194921 -0.51063889 4 2 21846 2.27000000 3217959904 3217959904 -13.00000000
-4.34781027 -5.47378588 0.36635169 10 3 21846 7.00000000 3217959907 3217959907 3.00000000
-1.59752572 -2.01052499 -0.49915633 3 4 21847 2.61600000 3217959909 3217959909 -11.00000000
-4.33415604 -5.45268679 0.60939294 13 5 21848 6.99200000 3217959911 3217959911 5.00000000
-1.93635392 -2.43520284 -0.49276856 3 6 21849 3.15000000 3217959913 3217959913 -9.00000000
-4.34242201 -5.45917273 0.85649776 7 7 21850 7.02800000 3217959916 3217959916 7.00000000
-2.39911509 -3.01502085 -0.47309679 1 8 21851 3.88200000 3217959918 3217959918 -7.00000000
-4.33659744 -5.44794607 1.10286295 60 9 21852 7.05000000 3217959920 3217959920 9.00000000
-4.35285187 -5.46836567 -0.61148471 4 10 21852 7.01600000 3217959923 3217959923 -5.00000000
-4.33049726 -5.43833399 1.35130930 50 11 21853 7.08200000 3217959925 3217959925 11.00000000
-4.36789274 -5.48333216 -0.36739841 11 12 21854 7.02000000 3217959927 3217959927 -3.00000000
-4.31372547 -5.41339254 1.59805226 75 13 21855 7.10400000 3217959930 3217959930 13.00000000
-4.35394716 -5.46191168 -0.12192251 4 14 21856 6.98600000 3217959932 3217959932 -1.00000000
-4.30256557 -5.39745474 1.84952092 63 15 21856 7.14600000 3217959934 3217959934 15.00000000
-1.19664621 -1.49686825 -0.51349699 4 0 21864 1.98400000 3217959955 3217959955 -15.00000000
-4.35627651 -5.44725704 0.12174799 5 1 21865 6.97600000 3217959957 3217959957 1.00000000
-1.38780570 -1.73474514 -0.51288843 4 2 21866 2.28000000 3217959959 3217959959 -13.00000000
-4.34692764 -5.43362236 0.36467695 7 3 21866 6.96800000 3217959962 3217959962 3.00000000
-1.60944080 -2.01106763 -0.50068283 3 4 21867 2.62400000 3217959964 3217959964 -11.00000000
-4.33573055 -5.41574955 0.60695261 10 5 21868 6.96400000 3217959966 3217959966 5.00000000
-1.92755508 -2.40684271 -0.48838839 2 6 21869 3.12200000 3217959969 3217959969 -9.00000000
-4.34531641 -5.42384148 0.85332912 10 7 21870 7.00200000 3217959971 3217959971 7.00000000
-2.41955638 -3.01902008 -0.47504669 1 8 21871 3.89800000 3217959973 3217959973 -7.00000000
-4.34446764 -5.41890430 1.10004711 62 9 21872 7.03200000 3217959976 3217959976 9.00000000
-3.19294262 -3.98259401 -0.44658601 3 10 21872 5.12400000 3217959978 3217959978 -5.00000000
-4.31628990 -5.38183308 1.34100556 59 11 21873 7.02800000 3217959980 3217959980 11.00000000
-4.35451031 -5.42754793 -0.36467695 10 12 21874 6.96800000 3217959983 3217959983 -3.00000000
-4.31307888 -5.37398529 1.59085381 78 13 21875 7.07200000 3217959985 3217959985 13.00000000
-4.36171865 -5.43264627 -0.12160837 10 14 21876 6.96800000 3217959987 3217959987 -1.00000000
-4.29960966 -5.35528755 1.84020340 67 15 21876 7.11000000 3217959989 3217959989 15.00000000
-1.20575988 -1.49698591 -0.51504987 4 0 21885 1.99000000 3217960010 3217960010 -15.00000000
-4.35488319 -5.40478277 0.12115461 11 1 21886 6.94200000 3217960012 3217960012 1.00000000
-1.38192511 -1.71447468 -0.50838935 4 2 21887 2.26000000 3217960015 3217960015 -13.00000000
-4.35271549 -5.39823389 0.36342087 7 3 21888 6.94400000 3217960017 3217960017 3.00000000
-1.61680090 -2.00515509 -0.50068283 3 4 21888 2.62400000 3217960019 3217960019 -11.00000000
-4.34804583 -5.39051723 0.60590672 13 5 21889 6.95200000 3217960022 3217960022 5.00000000
-1.93760407 -2.40129900 -0.48870125 1 6 21890 3.12400000 3217960024 3217960024 -9.00000000
-4.34771109 -5.38625336 0.84991682 10 7 21891 6.97400000 3217960026 3217960026 7.00000000
-2.42312264 -3.00086498 -0.47358426 1 8 21892 3.88600000 3217960029 3217960029 -7.00000000
-4.33605433 -5.36989450 1.09316409 57 9 21892 6.98800000 3217960031 3217960031 9.00000000
-3.20251012 -3.96466494 -0.44588879 3 10 21893 5.11600000 3217960033 3217960033 -5.00000000
-4.32734919 -5.35528803 1.33833432 62 11 21894 7.01400000 3217960036 3217960036 11.00000000
-4.36558533 -5.40067816 -0.36394423 10 12 21895 6.95400000 3217960038 3217960038 -3.00000000
-4.31191635 -5.33238077 1.58320546 74 13 21896 7.03800000 3217960040 3217960040 13.00000000
-4.36022139 -5.39019299 -0.12101499 12 14 21897 6.93400000 3217960042 3217960042 -1.00000000
-4.30434275 -5.31921625 1.83347416 58 15 21898 7.08400000 3217960045 3217960045 15.00000000
-1.21462917 -1.49726868 -0.51660281 4 0 21905 1.99600000 3217960065 3217960065 -15.00000000
-4.35230160 -5.36315203 0.12056123 11 1 21906 6.90800000 3217960068 3217960068 1.00000000
-1.39281428 -1.71569216 -0.51018900 4 2 21907 2.26800000 3217960070 3217960070 -13.00000000
-4.34541655 -5.35275745 0.36132744 10 3 21907 6.90400000 3217960072 3217960072 3.00000000
-1.62131512 -1.99645126 -0.49991956 3 4 21908 2.62000000 3217960075 3217960075 -11.00000000
-4.34673548 -5.35056448 0.60311776 13 5 21909 6.92000000 3217960077 3217960077 5.00000000
-1.95220351 -2.40218592 -0.49026561 2 6 21910 3.13400000 3217960079 3217960079 -9.00000000
-4.34394598 -5.34331894 0.84552950 10 7 21911 6.93800000 3217960082 3217960082 7.00000000
-2.42105818 -2.97698736 -0.47114688 1 8 21912 3.86600000 3217960084 3217960084 -7.00000000
-4.33077431 -5.32331944 1.08690667 55 9 21913 6.94800000 3217960086 3217960086 9.00000000
-3.22387409 -3.96273494 -0.44693464 3 10 21913 5.12800000 3217960089 3217960089 -5.00000000
-4.33114529 -5.32187748 1.33375490 62 11 21914 6.99000000 3217960091 3217960091 11.00000000
-4.36549568 -5.36217356 -0.36237416 7 12 21915 6.92400000 3217960093 3217960093 -3.00000000
-4.30958319 -5.29160929 1.57555723 70 13 21916 7.00400000 3217960095 3217960095 13.00000000
-4.35627508 -5.34703445 -0.12038670 8 14 21917 6.89800000 3217960098 3217960098 -1.00000000
-4.31067944 -5.28918362 1.82829773 60 15 21918 7.06400000 3217960100 3217960100 15.00000000
-1.21714354 -1.49024010 -0.51556754 4 0 21924 1.99200000 3217960121 3217960121 -15.00000000
-4.35994101 -5.33630133 0.12028199 14 1 21925 6.89200000 3217960123 3217960123 1.00000000
-1.40096247 -1.71408176 -0.51108879 4 2 21926 2.27200000 3217960125 3217960125 -13.00000000
-4.35050344 -5.32285404 0.36028072 7 3 21926 6.88400000 3217960128 3217960128 3.00000000
-1.62544131 -1.98802400 -0.49915633 3 4 21927 2.61600000 3217960130 3217960130 -11.00000000
-4.34301090 -5.30990267 0.60015446 10 5 21928 6.88600000 3217960132 3217960132 5.00000000
-1.96266055 -2.39875674 -0.49089134 2 6 21929 3.13800000 3217960135 3217960135 -9.00000000
-4.33398008 -5.29508924 0.84016722 10 7 21930 6.89400000 3217960137 3217960137 7.00000000
-4.37514734 -5.34348249 -0.84796691 2 8 21931 6.95800000 3217960139 3217960139 -7.00000000
-4.32244825 -5.27911949 1.08064926 57 9 21931 6.90800000 3217960142 3217960142 9.00000000
-3.22437239 -3.93660903 -0.44519153 3 10 21932 5.10800000 3217960144 3217960144 -5.00000000
-4.32886076 -5.28318787 1.32764900 62 11 21933 6.95800000 3217960146 3217960146 11.00000000
-4.35539913 -5.31368494 -0.36007139 7 12 21934 6.88000000 3217960148 3217960148 -3.00000000
-4.30980873 -5.25619221 1.56925857 75 13 21935 6.97600000 3217960151 3217960151 13.00000000
-4.34735060 -5.30009079 -0.11965370 6 14 21936 6.85600000 3217960153 3217960153 -1.00000000
-4.30368710 -5.24499083 1.81794500 65 15 21937 7.02400000 3217960155 3217960155 15.00000000
-1.21742904 -1.48001456 -0.51349699 5 0 21944 1.98400000 3217960176 3217960176 -15.00000000
-4.35312939 -5.29016733 0.11958389 17 1 21945 6.85200000 3217960178 3217960178 1.00000000
-1.40446019 -1.70617199 -0.51018900 4 2 21946 2.26800000 3217960181 3217960181 -13.00000000
-4.34747839 -5.28142118 0.35850132 10 3 21946 6.85000000 3217960183 3217960183 3.00000000
-1.62987494 -1.97930694 -0.49839309 3 4 21947 2.61200000 3217960185 3217960185 -11.00000000
-4.33871746 -5.26702976 0.59701681 10 5 21948 6.85000000 3217960188 3217960188 5.00000000
-1.95971572 -2.37817073 -0.48807552 1 6 21949 3.12000000 3217960190 3217960190 -9.00000000
-4.33728504 -5.26154757 0.83724236 10 7 21950 6.87000000 3217960192 3217960192 7.00000000
-4.37356567 -5.30367327 -0.84406710 2 8 21951 6.92600000 3217960195 3217960195 -7.00000000
-4.32828188 -5.24875879 1.07752061 65 9 21951 6.88800000 3217960197 3217960197 9.00000000
-3.22795129 -3.91303444 -0.44379705 3 10 21952 5.09200000 3217960199 3217960199 -5.00000000
-4.32478380 -5.24078894 1.32077992 62 11 21953 6.92200000 3217960201 3217960201 11.00000000
-4.36120605 -5.28304672 -0.35902467 7 12 21954 6.86000000 3217960204 3217960204 -3.00000000
-4.31323957 -5.22308445 1.56385970 50 13 21955 6.95200000 3217960206 3217960206 13.00000000
-4.35054207 -5.26638317 -0.11923484 6 14 21956 6.83200000 3217960208 3217960208 -1.00000000
-4.30350971 -5.20759916 1.81018043 67 15 21957 6.99400000 3217960211 3217960211 15.00000000
-1.22382033 -1.47724366 -0.51401460 4 0 21964 1.98600000 3217960231 3217960231 -15.00000000
-4.34987688 -5.24876499 0.11899051 11 1 21965 6.81800000 3217960234 3217960234 1.00000000
-1.41289485 -1.70425951 -0.51108879 4 2 21966 2.27200000 3217960236 3217960236 -13.00000000
-4.31489897 -5.20471001 0.35431442 32 3 21966 6.77000000 3217960238 3217960238 3.00000000
-1.64429367 -1.98267269 -0.50068283 3 4 21967 2.62400000 3217960241 3217960241 -11.00000000
-4.33926630 -5.23038530 0.59457648 10 5 21968 6.82200000 3217960243 3217960243 5.00000000
-1.97431290 -2.37891603 -0.48963988 2 6 21969 3.13000000 3217960245 3217960245 -9.00000000
-4.33914089 -5.22652006 0.83407378 10 7 21970 6.84400000 3217960247 3217960247 7.00000000
-2.47314525 -2.97786021 -0.47529045 1 8 21971 3.90000000 3217960250 3217960250 -7.00000000
-4.32512188 -5.20778465 1.07220185 67 9 21971 6.85400000 3217960252 3217960252 9.00000000
-3.24668360 -3.90787292 -0.44449428 3 10 21972 5.10000000 3217960254 3217960254 -5.00000000
-4.31544447 -5.19244385 1.31238425 62 11 21973 6.87800000 3217960257 3217960257 11.00000000
-4.35663700 -5.24014664 -0.35714057 7 12 21974 6.82400000 3217960259 3217960259 -3.00000000
-4.31275368 -5.18552256 1.55711114 19 13 21975 6.92200000 3217960261 3217960261 13.00000000
-4.35482979 -5.23425531 -0.11885089 8 14 21976 6.81000000 3217960264 3217960264 -1.00000000
-4.30098629 -5.16953802 1.80189824 67 15 21976 6.96200000 3217960266 3217960266 15.00000000
-1.22773182 -1.47147942 -0.51349699 4 0 21984 1.98400000 3217960287 3217960287 -15.00000000
-4.34767008 -5.20898581 0.11843203 11 1 21985 6.78600000 3217960289 3217960289 1.00000000
-1.41134131 -1.69034195 -0.50838935 4 2 21986 2.26000000 3217960291 3217960291 -13.00000000
-4.31127930 -5.16355371 0.35253501 30 3 21986 6.73600000 3217960294 3217960294 3.00000000
-1.65372157 -1.97993457 -0.50144607 3 4 21987 2.62800000 3217960296 3217960296 -11.00000000
-4.33450270 -5.18768549 0.59143889 10 5 21988 6.78600000 3217960298 3217960298 5.00000000
-1.99527323 -2.38716650 -0.49276856 3 6 21989 3.15000000 3217960300 3217960300 -9.00000000
-4.33316469 -5.18240690 0.82944274 10 7 21990 6.80600000 3217960303 3217960303 7.00000000
-2.47715688 -2.96159577 -0.47407174 1 8 21991 3.89000000 3217960305 3217960305 -7.00000000
-4.32933283 -5.17598820 1.06876028 20 9 21991 6.83200000 3217960307 3217960307 9.00000000
-3.28076172 -3.92096472 -0.44728327 3 10 21992 5.13200000 3217960310 3217960310 -5.00000000
-4.31842184 -5.15928268 1.30780482 62 11 21993 6.85400000 3217960312 3217960312 11.00000000
-4.35438681 -5.20040607 -0.35546583 7 12 21994 6.79200000 3217960314 3217960314 -3.00000000
-4.30580187 -5.14055824 1.54811311 49 13 21995 6.88200000 3217960317 3217960317 13.00000000
-4.35124111 -5.19296551 -0.11825751 6 14 21996 6.77600000 3217960319 3217960319 -1.00000000
-4.29880762 -5.12857056 1.79309833 63 15 21997 6.92800000 3217960321 3217960321 15.00000000
-1.23410356 -1.46866381 -0.51401460 4 0 22004 1.98600000 3217960342 3217960342 -15.00000000
-4.35553265 -5.18153191 0.11815279 8 1 22005 6.77000000 3217960344 3217960344 1.00000000
-1.41848731 -1.68689668 -0.50883931 4 2 22006 2.26200000 3217960347 3217960347 -13.00000000
-4.29931927 -5.11103535 0.35002288 25 3 22007 6.68800000 3217960349 3217960349 3.00000000
-1.65556753 -1.96814036 -0.49991956 3 4 22007 2.62000000 3217960351 3217960351 -11.00000000
-4.33462524 -5.15118122 0.58899850 10 5 22008 6.75800000 3217960353 3217960353 5.00000000
-1.98832834 -2.36205244 -0.48901415 2 6 22009 3.12600000 3217960356 3217960356 -9.00000000
-4.34611368 -5.16117620 0.82846779 10 7 22010 6.79800000 3217960358 3217960358 7.00000000
-2.48236394 -2.94685793 -0.47309679 1 8 22011 3.88200000 3217960360 3217960360 -7.00000000
-4.33082962 -5.14120388 1.06469297 57 9 22011 6.80600000 3217960363 3217960363 9.00000000
-4.37673664 -5.19386101 -0.59422785 4 10 22012 6.81800000 3217960365 3217960365 -5.00000000
-4.32375097 -5.12916613 1.30398870 62 11 22013 6.83400000 3217960367 3217960367 11.00000000
-4.35448742 -5.16379881 -0.35400042 10 12 22014 6.76400000 3217960370 3217960370 -3.00000000
-4.30612803 -5.10464334 1.54181457 32 13 22015 6.85400000 3217960372 3217960372 13.00000000
-4.35773468 -5.16399097 -0.11794336 6 14 22016 6.75800000 3217960374 3217960374 -1.00000000
-4.30333185 -5.09952307 1.78792191 63 15 22016 6.90800000 3217960377 3217960377 15.00000000
-1.23922265 -1.46434700 -0.51401460 5 0 22024 1.98600000 3217960397 3217960397 -15.00000000
-4.36067247 -5.15103436 0.11780374 8 1 22025 6.75000000 3217960400 3217960400 1.00000000
-1.42688584 -1.68490922 -0.50973910 4 2 22026 2.26600000 3217960402 3217960402 -13.00000000
-4.30293322 -5.07923365 0.34887147 30 3 22027 6.66600000 3217960404 3217960404 3.00000000
-1.65481341 -1.95336151 -0.49762985 3 4 22027 2.60800000 3217960406 3217960406 -11.00000000
-4.33454609 -5.11473942 0.58655816 10 5 22028 6.73000000 3217960409 3217960409 5.00000000
-2.00167084 -2.36112452 -0.49026561 2 6 22029 3.13400000 3217960411 3217960411 -9.00000000
-4.33842468 -5.11569452 0.82359302 10 7 22030 6.75800000 3217960413 3217960413 7.00000000
-2.47850919 -2.92152381 -0.47041565 1 8 22031 3.86000000 3217960416 3217960416 -7.00000000
-4.33558416 -5.10872889 1.06125140 40 9 22032 6.78400000 3217960418 3217960418 9.00000000
-4.36905622 -5.14816999 -0.59074163 8 10 22032 6.77800000 3217960420 3217960420 -5.00000000
-4.32511091 -5.09458590 1.29902768 53 11 22033 6.80800000 3217960423 3217960423 11.00000000
-4.36602163 -5.14095592 -0.35347706 10 12 22034 6.75400000 3217960425 3217960425 -3.00000000
-4.31508827 -5.07918549 1.53866518 25 13 22035 6.84000000 3217960427 3217960427 13.00000000
-4.34853935 -5.11674929 -0.11721036 14 14 22036 6.71600000 3217960430 3217960430 -1.00000000
-4.29947042 -5.05722284 1.77860451 60 15 22037 6.87200000 3217960432 3217960432 15.00000000
-1.24056733 -1.45560157 -0.51246172 4 0 22044 1.98000000 3217960453 3217960453 -15.00000000
-4.35008430 -5.10230398 0.11703584 8 1 22045 6.70600000 3217960455 3217960455 1.00000000
-1.43275857 -1.67991817 -0.50973910 4 2 22046 2.26600000 3217960457 3217960457 -13.00000000
-4.30896997 -5.05050755 0.34792945 45 3 22047 6.64800000 3217960459 3217960459 3.00000000
-1.66417038 -1.95056033 -0.49839309 3 4 22047 2.61200000 3217960462 3217960462 -11.00000000
-4.33038521 -5.07381487 0.58359486 13 5 22048 6.69600000 3217960464 3217960464 5.00000000
-2.00477004 -2.34811378 -0.48901415 2 6 22049 3.12600000 3217960466 3217960466 -9.00000000
-4.33562756 -5.07636786 0.81969321 10 7 22050 6.72600000 3217960469 3217960469 7.00000000
-2.48869205 -2.91285443 -0.47041565 1 8 22051 3.86000000 3217960471 3217960471 -7.00000000
-4.32298851 -5.05978060 1.05405545 40 9 22051 6.73800000 3217960473 3217960473 9.00000000
-4.36240482 -5.10411119 -0.58742970 4 10 22052 6.74000000 3217960476 3217960476 -5.00000000
-4.31480026 -5.04662895 1.29063201 59 11 22053 6.76400000 3217960478 3217960478 11.00000000
-4.36316919 -5.10139894 -0.35180229 10 12 22054 6.72200000 3217960480 3217960480 -3.00000000
-4.30365276 -5.03003502 1.52831745 55 13 22055 6.79400000 3217960483 3217960483 13.00000000
-4.34426880 -5.07571220 -0.11661698 14 14 22056 6.68200000 3217960485 3217960485 -1.00000000
-4.29360580 -5.01651955 1.76928699 60 15 22056 6.83600000 3217960487 3217960487 15.00000000
-1.25193179 -1.45859182 -0.51504987 4 0 22064 1.99000000 3217960508 3217960508 -15.00000000
-4.34051228 -5.05522728 0.11630283 8 1 22065 6.66400000 3217960510 3217960510 1.00000000
-1.43480456 -1.67047179 -0.50838935 4 2 22066 2.26000000 3217960512 3217960512 -13.00000000
-4.31225538 -5.01877213 0.34677804 55 3 22067 6.62600000 3217960515 3217960515 3.00000000
-1.67864561 -1.95367384 -0.50068283 3 4 22067 2.62400000 3217960517 3217960517 -11.00000000
-4.33897877 -5.04809141 0.58237469 13 5 22068 6.68200000 3217960519 3217960519 5.00000000
-2.01295424 -2.34110165 -0.48901415 2 6 22069 3.12600000 3217960522 3217960522 -9.00000000
-4.33519840 -5.04013348 0.81628084 10 7 22070 6.69800000 3217960524 3217960524 7.00000000
-2.51308680 -2.92070174 -0.47309679 1 8 22071 3.88200000 3217960526 3217960526 -7.00000000
-4.32861805 -5.02893066 1.05092669 52 9 22072 6.71800000 3217960529 3217960529 9.00000000
-4.36199856 -5.06771183 -0.58498937 4 10 22072 6.71200000 3217960531 3217960531 -5.00000000
-4.31061268 -5.00624514 1.28414452 62 11 22073 6.73000000 3217960533 3217960533 11.00000000
-4.35879087 -5.06041193 -0.35002288 10 12 22074 6.68800000 3217960535 3217960535 -3.00000000
-4.30464792 -4.99579000 1.52246869 15 13 22075 6.76800000 3217960538 3217960538 13.00000000
-4.34759808 -5.04385567 -0.11623303 18 14 22076 6.66000000 3217960540 3217960540 -1.00000000
-4.29682493 -4.98319244 1.76307535 63 15 22077 6.81200000 3217960542 3217960542 15.00000000
-1.25347865 -1.44960964 -0.51349699 4 0 22085 1.98400000 3217960563 3217960563 -15.00000000
-4.33938789 -5.01659870 0.11577927 8 1 22086 6.63400000 3217960565 3217960565 1.00000000
-1.43836725 -1.66225445 -0.50748956 4 2 22087 2.25600000 3217960568 3217960568 -13.00000000
-4.32669973 -4.99840307 0.34646404 75 3 22088 6.62000000 3217960570 3217960570 3.00000000
-1.68579495 -1.94750822 -0.50068283 3 4 22088 2.62400000 3217960572 3217960572 -11.00000000
-4.34180117 -5.01408005 0.58028293 13 5 22089 6.65800000 3217960575 3217960575 5.00000000
-2.01376104 -2.32474947 -0.48713693 2 6 22090 3.11400000 3217960577 3217960577 -9.00000000
-4.32504272 -4.99120522 0.81091863 10 7 22091 6.65400000 3217960579 3217960579 7.00000000
-2.51467299 -2.90097117 -0.47139063 1 8 22092 3.86800000 3217960582 3217960582 -7.00000000
-4.33061934 -4.99587870 1.04717231 60 9 22092 6.69400000 3217960584 3217960584 9.00000000
-4.37401676 -5.04416370 -0.58411777 4 10 22093 6.70200000 3217960586 3217960586 -5.00000000
-4.31349516 -4.97261572 1.27956510 62 11 22094 6.70600000 3217960588 3217960588 11.00000000
-4.35112906 -5.01423216 -0.34792945 10 12 22095 6.64800000 3217960591 3217960591 -3.00000000
-4.30760002 -4.96231985 1.51706994 25 13 22096 6.74400000 3217960593 3217960593 13.00000000
-4.35163307 -5.01127815 -0.11584907 18 14 22097 6.63800000 3217960595 3217960595 -1.00000000
-4.30152702 -4.95357656 1.75789893 65 15 22097 6.79200000 3217960598 3217960598 15.00000000
-1.26487458 -1.45250976 -0.51608515 4 0 22105 1.99400000 3217960618 3217960618 -15.00000000
-4.34505129 -4.98785067 0.11546512 11 1 22106 6.61600000 3217960621 3217960621 1.00000000
-1.45184255 -1.66603851 -0.51018900 4 2 22107 2.26800000 3217960623 3217960623 -13.00000000
-4.33099651 -4.96821451 0.34541732 27 3 22108 6.60000000 3217960625 3217960625 3.00000000
-1.69000256 -1.93865204 -0.49991956 3 4 22108 2.62000000 3217960628 3217960628 -11.00000000
-4.34094429 -4.97787142 0.57784259 13 5 22109 6.63000000 3217960630 3217960630 5.00000000
-2.02186370 -2.31770587 -0.48713693 2 6 22110 3.11400000 3217960632 3217960632 -9.00000000
-4.32547140 -4.95663404 0.80774999 10 7 22111 6.62800000 3217960635 3217960635 7.00000000
-4.37986088 -5.01719189 -0.81774330 2 8 22112 6.71000000 3217960637 3217960637 -7.00000000
-4.32031536 -4.94723892 1.04028916 65 9 22113 6.65000000 3217960639 3217960639 9.00000000
-3.34972334 -3.83580375 -0.44554016 3 10 22113 5.11200000 3217960641 3217960641 -5.00000000
-4.31532717 -4.93978643 1.27498567 62 11 22114 6.68200000 3217960644 3217960644 11.00000000
-4.35546303 -4.98397446 -0.34688273 7 12 22115 6.62800000 3217960646 3217960646 -3.00000000
-4.30180883 -4.92084408 1.50897169 71 13 22116 6.70800000 3217960648 3217960648 13.00000000
-4.34935331 -4.97347832 -0.11532550 15 14 22117 6.60800000 3217960651 3217960651 -1.00000000
-4.30184603 -4.91742134 1.75065207 65 15 22118 6.76400000 3217960653 3217960653 15.00000000
-1.26841080 -1.44685459 -0.51556754 5 0 22124 1.99200000 3217960674 3217960674 -15.00000000
-4.34970093 -4.95988369 0.11515098 11 1 22125 6.59800000 3217960676 3217960676 1.00000000
-1.46249998 -1.66707456 -0.51198858 4 2 22126 2.27600000 3217960678 3217960678 -13.00000000
-4.33822632 -4.94331694 0.34468460 7 3 22127 6.58600000 3217960681 3217960681 3.00000000
-1.69124222 -1.92713475 -0.49839309 3 4 22127 2.61200000 3217960683 3217960683 -11.00000000
-4.33245277 -4.93500042 0.57453066 9 5 22128 6.59200000 3217960685 3217960685 5.00000000
-2.03735948 -2.31989408 -0.48901415 2 6 22129 3.12600000 3217960688 3217960688 -9.00000000
-4.34450436 -4.94524574 0.80823749 26 7 22130 6.63200000 3217960690 3217960690 7.00000000
-4.37550735 -4.97878265 -0.81384349 2 8 22131 6.67800000 3217960692 3217960692 -7.00000000
-4.31236410 -4.90693331 1.03465760 60 9 22131 6.61400000 3217960694 3217960694 9.00000000
-3.36242509 -3.82467461 -0.44554016 3 10 22132 5.11200000 3217960697 3217960697 -5.00000000
-4.31871891 -4.91070652 1.27116954 62 11 22133 6.66200000 3217960699 3217960699 11.00000000
-4.36009312 -4.95600748 -0.34594068 10 12 22134 6.61000000 3217960701 3217960701 -3.00000000
-4.29750443 -4.88314533 1.50177324 75 13 22135 6.67600000 3217960704 3217960704 13.00000000
-4.35128736 -4.94251823 -0.11494155 9 14 22136 6.58600000 3217960706 3217960706 -1.00000000
-4.28918934 -4.87198257 1.73926401 65 15 22136 6.72000000 3217960708 3217960708 15.00000000
-1.27089632 -1.43952179 -0.51453227 5 0 22144 1.98800000 3217960729 3217960729 -15.00000000
-4.34448433 -4.91918993 0.11455759 11 1 22145 6.56400000 3217960731 3217960731 1.00000000
-1.46443951 -1.65757811 -0.51063889 4 2 22146 2.27000000 3217960734 3217960734 -13.00000000
-4.34355116 -4.91467476 0.34374255 7 3 22147 6.56800000 3217960736 3217960736 3.00000000
-1.69535863 -1.91827726 -0.49762985 3 4 22147 2.60800000 3217960738 3217960738 -11.00000000
-4.32721806 -4.89447212 0.57156736 9 5 22148 6.55800000 3217960741 3217960741 5.00000000
-2.04282761 -2.30980873 -0.48838839 2 6 22149 3.12200000 3217960743 3217960743 -9.00000000
-4.34069443 -4.90626240 0.80433768 47 7 22150 6.60000000 3217960745 3217960745 7.00000000
-4.38891315 -4.95901966 -0.81311226 2 8 22151 6.67200000 3217960747 3217960747 -7.00000000
-4.31853485 -4.87778378 1.03184175 57 9 22152 6.59600000 3217960750 3217960750 9.00000000
-4.35836935 -4.92277670 -0.57522792 4 10 22152 6.60000000 3217960752 3217960752 -5.00000000
-4.31761074 -4.87502575 1.26582682 62 11 22153 6.63400000 3217960754 3217960754 11.00000000
-4.36809492 -4.93029356 -0.34520796 10 12 22154 6.59600000 3217960757 3217960757 -3.00000000
-4.30030537 -4.85207224 1.49682426 74 13 22155 6.65400000 3217960759 3217960759 13.00000000
-4.35922718 -4.91682529 -0.11469722 6 14 22156 6.57200000 3217960761 3217960761 -1.00000000
-4.28907156 -4.83599520 1.73201704 63 15 22157 6.69200000 3217960764 3217960764 15.00000000
-1.27102852 -1.42908001 -0.51246172 4 0 22165 1.98000000 3217960784 3217960784 -15.00000000
-4.33855915 -4.87634182 0.11392931 11 1 22166 6.52800000 3217960787 3217960787 1.00000000
-1.46532249 -1.64637673 -0.50883931 4 2 22167 2.26200000 3217960789 3217960789 -13.00000000
-4.34161377 -4.87634611 0.34217247 10 3 22168 6.53800000 3217960791 3217960791 3.00000000
-1.71021104 -1.92084837 -0.49991956 3 4 22168 2.62000000 3217960794 3217960794 -11.00000000
-4.32392597 -4.85477400 0.56877840 9 5 22169 6.52600000 3217960796 3217960796 5.00000000
-2.04865146 -2.29935598 -0.48776266 2 6 22170 3.11800000 3217960798 3217960798 -9.00000000
-4.32958984 -4.85771799 0.79897541 52 7 22171 6.55600000 3217960800 3217960800 7.00000000
-2.54172134 -2.85076118 -0.46895322 1 8 22172 3.84800000 3217960803 3217960803 -7.00000000
-4.32370377 -4.84940958 1.02902591 60 9 22172 6.57800000 3217960805 3217960805 9.00000000
-3.39766455 -3.80943727 -0.44658601 3 10 22173 5.12400000 3217960807 3217960807 -5.00000000
-4.31715107 -4.83865881 1.26048422 62 11 22174 6.60600000 3217960810 3217960810 11.00000000
-4.35953760 -4.88444901 -0.34311453 10 12 22175 6.55600000 3217960812 3217960812 -3.00000000
-4.30637932 -4.82319546 1.49277520 68 13 22176 6.63600000 3217960814 3217960814 13.00000000
-4.34258461 -4.86203766 -0.11378969 6 14 22177 6.52000000 3217960817 3217960817 -1.00000000
-4.29305696 -4.80658579 1.72684062 63 15 22177 6.67200000 3217960819 3217960819 15.00000000
-1.28245366 -1.43182969 -0.51504987 4 0 22185 1.99000000 3217960840 3217960840 -15.00000000
-4.33954096 -4.84329557 0.11351045 14 1 22186 6.50400000 3217960842 3217960842 1.00000000
-1.46715856 -1.63689828 -0.50748956 4 2 22187 2.25600000 3217960844 3217960844 -13.00000000
-4.34394217 -4.84480381 0.34102109 12 3 22188 6.51600000 3217960847 3217960847 3.00000000
-1.71690571 -1.91486692 -0.49991956 3 4 22188 2.62000000 3217960849 3217960849 -11.00000000
-4.33552456 -4.83371830 0.56808114 9 5 22189 6.51800000 3217960851 3217960851 5.00000000
-2.05006909 -2.28483939 -0.48619831 2 6 22190 3.10800000 3217960853 3217960853 -9.00000000
-4.32530499 -4.81893873 0.79507560 57 7 22191 6.52400000 3217960856 3217960856 7.00000000
-2.56757140 -2.85959649 -0.47187811 1 8 22192 3.87200000 3217960858 3217960858 -7.00000000
-4.32344866 -4.81517982 1.02495861 57 9 22192 6.55200000 3217960860 3217960860 9.00000000
-3.38963938 -3.77383780 -0.44379705 3 10 22193 5.09200000 3217960863 3217960863 -5.00000000
-4.31826925 -4.80603552 1.25590479 65 11 22194 6.58200000 3217960865 3217960865 11.00000000
-4.35786915 -4.84840584 -0.34164912 10 12 22195 6.52800000 3217960867 3217960867 -3.00000000
-4.30494785 -4.78784657 1.48647654 66 13 22196 6.60800000 3217960870 3217960870 13.00000000
-4.34615707 -4.83198214 -0.11344064 6 14 22197 6.50000000 3217960872 3217960872 -1.00000000
-4.29688978 -4.77720785 1.72166431 58 15 22197 6.65200000 3217960874 3217960874 15.00000000
-1.29132557 -1.43164790 -0.51660281 5 0 22205 1.99600000 3217960895 3217960895 -15.00000000
-4.34704351 -4.81772566 0.11326612 14 1 22206 6.49000000 3217960897 3217960897 1.00000000
-1.47155774 -1.63032043 -0.50703967 4 2 22207 2.25400000 3217960900 3217960900 -13.00000000
-4.33673429 -4.80292845 0.33913699 12 3 22208 6.48000000 3217960902 3217960902 3.00000000
-1.72357941 -1.90886211 -0.49991956 3 4 22208 2.62000000 3217960904 3217960904 -11.00000000
-4.34035158 -4.80524826 0.56651235 9 5 22209 6.50000000 3217960906 3217960906 5.00000000
-2.06730270 -2.28792930 -0.48838839 2 6 22210 3.12200000 3217960909 3217960909 -9.00000000
-4.33145094 -4.79202986 0.79312569 65 7 22211 6.50800000 3217960911 3217960911 7.00000000
-2.55756712 -2.82853007 -0.46822202 1 8 22212 3.84200000 3217960913 3217960913 -7.00000000
-4.32516670 -4.78172112 1.02120423 65 9 22213 6.52800000 3217960916 3217960916 9.00000000
-3.41883039 -3.77971411 -0.44588879 3 10 22213 5.11600000 3217960918 3217960918 -5.00000000
-4.31921244 -4.77346325 1.25132537 62 11 22214 6.55800000 3217960920 3217960920 11.00000000
-4.36270380 -4.81983757 -0.34070706 10 12 22215 6.51000000 3217960923 3217960923 -3.00000000
-4.29939842 -4.74823284 1.47882819 74 13 22216 6.57400000 3217960925 3217960925 13.00000000
-4.34688807 -4.79899645 -0.11302178 6 14 22217 6.47600000 3217960927 3217960927 -1.00000000
-4.30316401 -4.75072527 1.71752322 58 15 22217 6.63600000 3217960929 3217960929 15.00000000
-1.28852165 -1.41855168 -0.51349699 5 0 22225 1.98400000 3217960950 3217960950 -15.00000000
-4.33021450 -4.76552296 0.11239350 11 1 22226 6.44000000 3217960953 3217960953 1.00000000
-1.48248267 -1.63094199 -0.50883931 4 2 22227 2.26200000 3217960955 3217960955 -13.00000000
-4.32391262 -4.75525141 0.33683422 15 3 22228 6.43600000 3217960957 3217960957 3.00000000
-1.73023200 -1.90283406 -0.49991956 3 4 22228 2.62000000 3217960959 3217960959 -11.00000000
-4.32090139 -4.75027370 0.56180590 9 5 22229 6.44600000 3217960962 3217960962 5.00000000
-2.08591223 -2.29238749 -0.49089134 2 6 22230 3.13800000 3217960964 3217960964 -9.00000000
-4.33478928 -4.76220131 0.79068828 70 7 22231 6.48800000 3217960966 3217960966 7.00000000
-2.58613610 -2.84013414 -0.47163436 1 8 22232 3.87000000 3217960969 3217960969 -7.00000000
-4.31921816 -4.74176836 1.01588547 65 9 22233 6.49400000 3217960971 3217960971 9.00000000
-3.41053629 -3.74419022 -0.44309980 3 10 22233 5.08400000 3217960973 3217960973 -5.00000000
-4.31733608 -4.73804140 1.24598277 65 11 22234 6.53000000 3217960976 3217960976 11.00000000
-4.35662842 -4.77948666 -0.33892766 10 12 22235 6.47600000 3217960978 3217960978 -3.00000000
-4.30412912 -4.72023678 1.47477913 78 13 22236 6.55600000 3217960980 3217960980 13.00000000
-4.32722712 -4.74390411 -0.11207935 13 14 22237 6.42200000 3217960982 3217960982 -1.00000000
-4.30231714 -4.71494293 1.71027625 63 15 22238 6.60800000 3217960985 3217960985 15.00000000
-1.29061139 -1.41141963 -0.51246172 5 0 22244 1.98000000 3217961006 3217961006 -15.00000000
-4.32979774 -4.73343134 0.11197464 5 1 22245 6.41600000 3217961008 3217961008 1.00000000
-1.49314511 -1.63176763 -0.51063889 4 2 22246 2.27000000 3217961010 3217961010 -13.00000000
-4.31538391 -4.71436834 0.33495012 2 3 22247 6.40000000 3217961012 3217961012 3.00000000
-1.72857893 -1.88839698 -0.49762985 3 4 22247 2.60800000 3217961015 3217961015 -11.00000000
-4.29222775 -4.68742847 0.55605364 3 5 22248 6.38000000 3217961017 3217961017 5.00000000
-2.08015966 -2.27089143 -0.48776266 2 6 22249 3.11800000 3217961019 3217961019 -9.00000000
-4.34251070 -4.73901892 0.78922588 52 7 22250 6.47600000 3217961022 3217961022 7.00000000
-2.58749175 -2.82276249 -0.47017193 1 8 22251 3.85800000 3217961024 3217961024 -7.00000000
-4.31889772 -4.70994806 1.01213098 42 9 22252 6.47000000 3217961026 3217961026 9.00000000
-3.42293382 -3.73285985 -0.44309980 3 10 22252 5.08400000 3217961029 3217961029 -5.00000000
