# .PCD v0.7 - Point Cloud Data file format
VERSION 0.7
FIELDS x y z intensity laser_id azimuth distance_m adjustedtime timestamp vertical_angle
SIZE 4 4 4 1 1 2 8 8 4 8
TYPE F F F U U U F U U F
COUNT 1 1 1 1 1 1 1 1 1 1
WIDTH 541
HEIGHT 1
VIEWPOINT 0 0 0 1 0 0 0
POINTS 541
DATA ascii
3.25540638 2.50609541 0.35943028 6 5 5241 4.12400000 3218413726 3218413726 5.00000000
3.22178078 2.47931409 -0.64388424 9 6 5242 4.11600000 3218413728 3218413728 -9.00000000
3.27424955 2.51878166 0.50722021 7 7 5243 4.16200000 3218413730 3218413730 7.00000000
3.25423217 2.50247884 -0.50405163 8 8 5244 4.13600000 3218413733 3218413733 -7.00000000
3.28102493 2.52217102 0.65546042 8 9 5245 4.19000000 3218413735 3218413735 9.00000000
3.25241637 2.50017929 -0.35890734 9 10 5245 4.11800000 3218413737 3218413737 -5.00000000
3.28467846 2.52406764 0.80521399 8 11 5246 4.22000000 3218413740 3218413740 11.00000000
3.25015330 2.49663520 -0.21478677 7 12 5247 4.10400000 3218413742 3218413742 -3.00000000
3.28445363 2.52207208 0.95604199 7 13 5248 4.25000000 3218413744 3218413744 13.00000000
3.26133513 2.50341511 -0.07176430 7 14 5249 4.11200000 3218413747 3218413747 -1.00000000
3.28444958 2.52024674 1.10929847 8 15 5250 4.28600000 3218413749 3218413749 15.00000000
1.82199597 1.39554226 -0.61495405 4 0 5255 2.37600000 3218413770 3218413770 -15.00000000
3.26756668 2.50185990 0.07183410 7 1 5256 4.11600000 3218413772 3218413772 1.00000000
2.15719795 1.65109277 -0.62716353 3 2 5257 2.78800000 3218413774 3218413774 -13.00000000
3.27195191 2.50431180 0.21593815 7 3 5257 4.12600000 3218413777 3218413777 3.00000000
2.59766316 1.98750067 -0.63577557 5 4 5258 3.33200000 3218413779 3218413779 -11.00000000
3.28541946 2.51280165 0.36187065 6 5 5259 4.15200000 3218413781 3218413781 5.00000000
3.24210787 2.47877860 -0.64638722 9 6 5260 4.13200000 3218413783 3218413783 -9.00000000
3.29634118 2.51933169 0.50941384 7 7 5261 4.18000000 3218413786 3218413786 7.00000000
3.26681018 2.49585843 -0.50478280 8 8 5262 4.14200000 3218413788 3218413788 -7.00000000
3.29678178 2.51784587 0.65702474 8 9 5263 4.20000000 3218413790 3218413790 9.00000000
3.27925587 2.50446081 -0.36099908 9 10 5263 4.14200000 3218413793 3218413793 -5.00000000
3.30039430 2.51969290 0.80712205 8 11 5264 4.23000000 3218413795 3218413795 11.00000000
3.27703309 2.50095248 -0.21604283 7 12 5265 4.12800000 3218413797 3218413797 -3.00000000
3.29545951 2.51410508 0.95694178 7 13 5266 4.25400000 3218413800 3218413800 13.00000000
3.27554417 2.49800730 -0.07190391 7 14 5267 4.12000000 3218413802 3218413802 -1.00000000
3.30420184 2.51986241 1.11343956 8 15 5267 4.30200000 3218413804 3218413804 15.00000000
1.82685626 1.38917375 -0.61495405 4 0 5275 2.37600000 3218413825 3218413825 -15.00000000
3.30175161 2.50980091 0.07239258 7 1 5276 4.14800000 3218413827 3218413827 1.00000000
2.15674162 1.63883662 -0.62536395 3 2 5277 2.78000000 3218413829 3218413829 -13.00000000
3.30293703 2.50979257 0.21740356 7 3 5277 4.15400000 3218413832 3218413832 3.00000000
2.60145831 1.97604597 -0.63501233 5 4 5278 3.32800000 3218413834 3218413834 -11.00000000
3.31162548 2.51457167 0.36378807 7 5 5279 4.17400000 3218413836 3218413836 5.00000000
3.25860786 2.47341800 -0.64795154 9 6 5280 4.14200000 3218413839 3218413839 -9.00000000
3.32092929 2.51980901 0.51185125 7 7 5281 4.20000000 3218413841 3218413841 7.00000000
3.29922652 2.50243449 -0.50843889 8 8 5282 4.17200000 3218413843 3218413843 -7.00000000
3.31184697 2.51109648 0.65827620 8 9 5283 4.20800000 3218413846 3218413846 9.00000000
3.30067921 2.50262904 -0.36239359 9 10 5283 4.15800000 3218413848 3218413848 -5.00000000
3.32481575 2.52001595 0.81093824 8 11 5284 4.25000000 3218413850 3218413850 11.00000000
3.30803013 2.50638437 -0.21750824 7 12 5285 4.15600000 3218413853 3218413853 -3.00000000
3.32130337 2.51552892 0.96189070 8 13 5286 4.27600000 3218413855 3218413855 13.00000000
3.30656385 2.50345731 -0.07239258 7 14 5287 4.14800000 3218413857 3218413857 -1.00000000
3.32529926 2.51764226 1.11758065 8 15 5287 4.31800000 3218413859 3218413859 15.00000000
1.82552695 1.37813258 -0.61288351 4 0 5295 2.36800000 3218413880 3218413880 -15.00000000
3.32006931 2.50548768 0.07260201 7 1 5296 4.16000000 3218413882 3218413882 1.00000000
2.16556048 1.63364542 -0.62626374 3 2 5297 2.78400000 3218413885 3218413885 -13.00000000
3.32646561 2.50849271 0.21834561 7 3 5298 4.17200000 3218413887 3218413887 3.00000000
2.60207009 1.96222496 -0.63348585 5 4 5298 3.32000000 3218413889 3218413889 -11.00000000
3.32674670 2.50779390 0.36448532 7 5 5299 4.18200000 3218413892 3218413892 5.00000000
3.27037716 2.46440601 -0.64857727 9 6 5300 4.14600000 3218413894 3218413894 -9.00000000
3.34873152 2.52253413 0.51477611 7 7 5301 4.22400000 3218413896 3218413896 7.00000000
3.31428456 2.49567914 -0.50941384 8 8 5302 4.18000000 3218413899 3218413899 -7.00000000
3.33278012 2.50960636 0.66077918 8 9 5302 4.22400000 3218413901 3218413901 9.00000000
3.31894588 2.49828148 -0.36343944 9 10 5303 4.17000000 3218413903 3218413903 -5.00000000
3.34614182 2.51783824 0.81399119 8 11 5304 4.26600000 3218413906 3218413906 11.00000000
3.33112407 2.50562739 -0.21845028 7 12 5305 4.17400000 3218413908 3218413908 -3.00000000
3.34875464 2.51797390 0.96728951 8 13 5306 4.30000000 3218413910 3218413910 13.00000000
3.33446431 2.50631785 -0.07281144 7 14 5307 4.17200000 3218413912 3218413912 -1.00000000
3.33759356 2.50775838 1.11861587 8 15 5308 4.32200000 3218413915 3218413915 15.00000000
1.82568872 1.36827612 -0.61133057 3 0 5315 2.36200000 3218413935 3218413935 -15.00000000
3.33359599 2.49748015 0.07270672 7 1 5316 4.16600000 3218413938 3218413938 1.00000000
2.16501069 1.62140357 -0.62446415 3 2 5317 2.77600000 3218413940 3218413940 -13.00000000
3.34915352 2.50822306 0.21928766 7 3 5317 4.19000000 3218413942 3218413942 3.00000000
2.61519027 1.95783639 -0.63501233 5 4 5318 3.32800000 3218413945 3218413945 -11.00000000
3.34505129 2.50332880 0.36553118 7 5 5319 4.19400000 3218413947 3218413947 5.00000000
3.27737784 2.45179200 -0.64826441 9 6 5320 4.14400000 3218413949 3218413949 -9.00000000
3.36387539 2.51558471 0.51575106 7 7 5321 4.23200000 3218413952 3218413952 7.00000000
3.34841514 2.50311208 -0.51331365 8 8 5322 4.21200000 3218413954 3218413954 -7.00000000
3.36410880 2.51392889 0.66515934 8 9 5323 4.25200000 3218413956 3218413956 9.00000000
3.34360623 2.49860764 -0.36518255 9 10 5323 4.19000000 3218413959 3218413959 -5.00000000
3.36277461 2.51201725 0.81589925 8 11 5324 4.27600000 3218413961 3218413961 11.00000000
3.34945178 2.50115442 -0.21907832 8 12 5325 4.18600000 3218413963 3218413963 -3.00000000
3.37782502 2.52142334 0.97313827 8 13 5326 4.32600000 3218413965 3218413965 13.00000000
3.35601425 2.50423050 -0.07309068 7 14 5327 4.18800000 3218413968 3218413968 -1.00000000
3.36336040 2.50879836 1.12430990 8 15 5328 4.34400000 3218413970 3218413970 15.00000000
1.83689189 1.36618710 -0.61340111 4 0 5336 2.37000000 3218413991 3218413991 -15.00000000
3.37000847 2.50552797 0.07330011 7 1 5337 4.20000000 3218413993 3218413993 1.00000000
2.17093873 1.61345756 -0.62446415 3 2 5338 2.77600000 3218413995 3218413995 -13.00000000
3.37435436 2.50784469 0.22033438 7 3 5338 4.21000000 3218413998 3218413998 3.00000000
2.62077260 1.94706726 -0.63463074 5 4 5339 3.32600000 3218414000 3218414000 -11.00000000
3.38459492 2.51362205 0.36884311 7 5 5340 4.23200000 3218414002 3218414002 5.00000000
3.28475595 2.43858576 -0.64795154 9 6 5341 4.14200000 3218414005 3218414005 -9.00000000
3.38263750 2.51033664 0.51721346 7 7 5342 4.24400000 3218414007 3218414007 7.00000000
3.37032127 2.50028443 -0.51526356 8 8 5343 4.22800000 3218414009 3218414009 -7.00000000
3.39666080 2.51982474 0.66985238 8 9 5343 4.28200000 3218414012 3218414012 9.00000000
3.36394405 2.49464345 -0.36640275 9 10 5344 4.20400000 3218414014 3218414014 -5.00000000
3.38615346 2.51019764 0.81933385 8 11 5345 4.29400000 3218414016 3218414016 11.00000000
3.36982942 2.49718523 -0.21981102 8 12 5346 4.20000000 3218414018 3218414018 -3.00000000
3.39643931 2.51598597 0.97583765 9 13 5347 4.33800000 3218414021 3218414021 13.00000000
3.39249015 2.51214361 -0.07368406 7 14 5348 4.22200000 3218414023 3218414023 -1.00000000
3.39737678 2.51484442 1.13259208 8 15 5349 4.37600000 3218414025 3218414025 15.00000000
1.84942031 1.36550426 -0.61598933 4 0 5356 2.38000000 3218414046 3218414046 -15.00000000
3.39160514 2.50324917 0.07357935 7 1 5357 4.21600000 3218414048 3218414048 1.00000000
2.17969394 1.60818362 -0.62536395 3 2 5358 2.78000000 3218414051 3218414051 -13.00000000
3.38951659 2.50079393 0.22075306 7 3 5358 4.21800000 3218414053 3218414053 3.00000000
2.62755322 1.93790722 -0.63463074 8 4 5359 3.32600000 3218414055 3218414055 -11.00000000
3.41098881 2.51479793 0.37076053 7 5 5360 4.25400000 3218414058 3218414058 5.00000000
3.30755997 2.43765259 -0.65076739 9 6 5361 4.16000000 3218414060 3218414060 -9.00000000
3.41055799 2.51264310 0.52013838 7 7 5362 4.26800000 3218414062 3218414062 7.00000000
3.38222504 2.49085903 -0.51575106 8 8 5363 4.23200000 3218414065 3218414065 -7.00000000
3.41816068 2.51732397 0.67235535 8 9 5363 4.29800000 3218414067 3218414067 9.00000000
3.39669871 2.50060391 -0.36901742 9 10 5364 4.23400000 3218414069 3218414069 -5.00000000
3.42651963 2.52163553 0.82696617 8 11 5365 4.33400000 3218414071 3218414071 11.00000000
3.39461374 2.49724221 -0.22085774 8 12 5366 4.22000000 3218414074 3218414074 -3.00000000
3.41462064 2.51104188 0.97853708 8 13 5367 4.35000000 3218414076 3218414076 13.00000000
3.40123844 2.50028634 -0.07368406 7 14 5368 4.22200000 3218414078 3218414078 -1.00000000
3.43104219 2.52127314 1.14087439 8 15 5369 4.40800000 3218414081 3218414081 15.00000000
1.84482670 1.35218787 -0.61288351 4 0 5376 2.36800000 3218414101 3218414101 -15.00000000
3.41967916 2.50557756 0.07399821 7 1 5377 4.24000000 3218414104 3218414104 1.00000000
2.19472718 1.60747421 -0.62806332 3 2 5378 2.79200000 3218414106 3218414106 -13.00000000
3.41433835 2.50074863 0.22179978 7 3 5378 4.23800000 3218414108 3218414108 3.00000000
2.61846113 1.91712570 -0.63081455 5 4 5379 3.30600000 3218414111 3218414111 -11.00000000
3.42939305 2.50993633 0.37180641 7 5 5380 4.26600000 3218414113 3218414113 5.00000000
3.30967164 2.42142653 -0.64951593 9 6 5381 4.15200000 3218414115 3218414115 -9.00000000
3.44013786 2.51595664 0.52330697 7 7 5382 4.29400000 3218414117 3218414117 7.00000000
3.41012931 2.49309635 -0.51867592 8 8 5383 4.25600000 3218414120 3218414120 -7.00000000
3.43171096 2.50887442 0.67329395 8 9 5383 4.30400000 3218414122 3218414122 9.00000000
3.41827559 2.49813676 -0.37041190 9 10 5384 4.25000000 3218414124 3218414124 -5.00000000
3.44639778 2.51776624 0.82963753 8 11 5385 4.34800000 3218414127 3218414127 11.00000000
3.42427850 2.50069046 -0.22221847 8 12 5386 4.24600000 3218414129 3218414129 -3.00000000
3.44225240 2.51289558 0.98393589 9 13 5387 4.37400000 3218414131 3218414131 13.00000000
3.41640663 2.49311376 -0.07382368 7 14 5388 4.23000000 3218414134 3218414134 -1.00000000
3.45811057 2.52354693 1.14708602 8 15 5388 4.43200000 3218414136 3218414136 15.00000000
1.84641135 1.34346676 -0.61184824 4 0 5396 2.36400000 3218414157 3218414157 -15.00000000
3.44295907 2.50421143 0.07431234 7 1 5397 4.25800000 3218414159 3218414159 1.00000000
2.19717264 1.59751141 -0.62716353 3 2 5398 2.78800000 3218414161 3218414161 -13.00000000
3.45535469 2.51230550 0.22389323 7 3 5398 4.27800000 3218414164 3218414164 3.00000000
2.64101815 1.91951632 -0.63463074 5 4 5399 3.32600000 3218414166 3218414166 -11.00000000
3.44296908 2.50146341 0.37232932 7 5 5400 4.27200000 3218414168 3218414168 5.00000000
3.32130051 2.41218042 -0.65014166 9 6 5401 4.15600000 3218414170 3218414170 -9.00000000
3.46978211 2.51909423 0.52647555 7 7 5402 4.32000000 3218414173 3218414173 7.00000000
3.44451642 2.49983311 -0.52257574 8 8 5403 4.28800000 3218414175 3218414175 -7.00000000
3.46922469 2.51776505 0.67892557 8 9 5403 4.34000000 3218414177 3218414177 9.00000000
3.42697501 2.48618937 -0.37041190 9 10 5404 4.25000000 3218414180 3218414180 -5.00000000
3.47105861 2.51724672 0.83345371 8 11 5405 4.36800000 3218414182 3218414182 11.00000000
3.44754004 2.49927258 -0.22316052 8 12 5406 4.26400000 3218414184 3218414184 -3.00000000
3.47151661 2.51573014 0.98978466 9 13 5407 4.40000000 3218414187 3218414187 13.00000000
3.44290209 2.49407744 -0.07420763 7 14 5408 4.25200000 3218414189 3218414189 -1.00000000
3.47046590 2.51312160 1.14812124 8 15 5409 4.43600000 3218414191 3218414191 15.00000000
1.85375416 1.33992290 -0.61288351 4 0 5414 2.36800000 3218414212 3218414212 -15.00000000
3.45405102 2.49572515 0.07438216 7 1 5415 4.26200000 3218414214 3218414214 1.00000000
2.19902086 1.58831882 -0.62626374 3 2 5416 2.78400000 3218414217 3218414217 -13.00000000
3.47500205 2.50901747 0.22462593 7 3 5417 4.29200000 3218414219 3218414219 3.00000000
2.64226031 1.90776217 -0.63348585 5 4 5417 3.32000000 3218414221 3218414221 -11.00000000
3.47504377 2.50812507 0.37494400 7 5 5418 4.30200000 3218414223 3218414223 5.00000000
3.32565832 2.39942288 -0.64951593 9 6 5419 4.15200000 3218414226 3218414226 -9.00000000
3.49055934 2.51747060 0.52842546 7 7 5420 4.33600000 3218414228 3218414228 7.00000000
3.46684504 2.49944782 -0.52476937 8 8 5421 4.30600000 3218414230 3218414230 -7.00000000
3.48352671 2.51147461 0.68017703 8 9 5421 4.34800000 3218414233 3218414233 9.00000000
3.46386313 2.49637914 -0.37354952 9 10 5422 4.28600000 3218414235 3218414235 -5.00000000
3.49169302 2.51551032 0.83650666 8 11 5423 4.38400000 3218414237 3218414237 11.00000000
3.46671963 2.49659991 -0.22389323 8 12 5424 4.27800000 3218414240 3218414240 -3.00000000
3.50470757 2.52302861 0.99698305 8 13 5425 4.43200000 3218414242 3218414242 13.00000000
3.47019768 2.49726534 -0.07462649 7 14 5426 4.27600000 3218414244 3218414244 -1.00000000
3.49829173 2.51748276 1.15485060 8 15 5426 4.46200000 3218414247 3218414247 15.00000000
1.85528088 1.33119154 -0.61184824 4 0 5434 2.36400000 3218414267 3218414267 -15.00000000
3.49036551 2.50346637 0.07497554 7 1 5435 4.29600000 3218414270 3218414270 1.00000000
2.19504952 1.57382011 -0.62356430 3 2 5436 2.77200000 3218414272 3218414272 -13.00000000
3.49834919 2.50734353 0.22556797 7 3 5437 4.31000000 3218414274 3218414274 3.00000000
2.65049934 1.89967096 -0.63386750 5 4 5437 3.32200000 3218414276 3218414276 -11.00000000
3.50483251 2.51106453 0.37721005 7 5 5438 4.32800000 3218414279 3218414279 5.00000000
3.33401346 2.38779950 -0.64951593 9 6 5439 4.15200000 3218414281 3218414281 -9.00000000
3.50578189 2.50989342 0.52940041 7 7 5440 4.34400000 3218414283 3218414283 7.00000000
3.48684859 2.49541807 -0.52647555 8 8 5441 4.32000000 3218414286 3218414286 -7.00000000
3.51520061 2.51478100 0.68455720 8 9 5442 4.37600000 3218414288 3218414288 9.00000000
3.49524188 2.50050235 -0.37598988 10 10 5442 4.31400000 3218414290 3218414290 -5.00000000
3.51642179 2.51472688 0.84032279 8 11 5443 4.40400000 3218414293 3218414293 11.00000000
3.49003649 2.49493718 -0.22483526 8 12 5444 4.29600000 3218414295 3218414295 -3.00000000
3.52459192 2.51871061 1.00013244 8 13 5445 4.44600000 3218414297 3218414297 13.00000000
3.49679255 2.49792290 -0.07501044 7 14 5446 4.29800000 3218414300 3218414300 -1.00000000
3.52164459 2.51474786 1.15950930 8 15 5447 4.48000000 3218414302 3218414302 15.00000000
1.86463690 1.32806945 -0.61340111 4 0 5454 2.37000000 3218414323 3218414323 -15.00000000
3.51211500 2.50054574 0.07525478 7 1 5455 4.31200000 3218414325 3218414325 1.00000000
2.20370507 1.56840825 -0.62446415 3 2 5456 2.77600000 3218414327 3218414327 -13.00000000
3.51684451 2.50206375 0.22619601 7 3 5457 4.32200000 3218414329 3218414329 3.00000000
2.65231514 1.88699305 -0.63272262 5 4 5457 3.31600000 3218414332 3218414332 -11.00000000
3.52981281 2.51036239 0.37895316 7 5 5458 4.34800000 3218414334 3218414334 5.00000000
3.35037804 2.38187003 -0.65108025 9 6 5459 4.16200000 3218414336 3218414336 -9.00000000
3.53717518 2.51373959 0.53281277 7 7 5460 4.37200000 3218414339 3218414339 7.00000000
3.51172090 2.49472785 -0.52891296 8 8 5461 4.34000000 3218414341 3218414341 -7.00000000
3.53962421 2.51455045 0.68768591 8 9 5461 4.39600000 3218414343 3218414343 9.00000000
3.52344227 2.50212955 -0.37808162 10 10 5462 4.33800000 3218414346 3218414346 -5.00000000
3.55239367 2.52175641 0.84681034 8 11 5463 4.43800000 3218414348 3218414348 11.00000000
3.51175475 2.49198604 -0.22567265 8 12 5464 4.31200000 3218414350 3218414350 -3.00000000
3.53972030 2.51090193 1.00193202 8 13 5465 4.45400000 3218414353 3218414353 13.00000000
3.52017164 2.49611187 -0.07532459 7 14 5466 4.31600000 3218414355 3218414355 -1.00000000
3.54729915 2.51534772 1.16520333 8 15 5466 4.50200000 3218414357 3218414357 15.00000000
1.86452901 1.31820691 -0.61184824 4 0 5474 2.36400000 3218414378 3218414378 -15.00000000
3.54368448 2.50442863 0.07574344 7 1 5475 4.34000000 3218414380 3218414380 1.00000000
2.21553278 1.56520402 -0.62626374 3 2 5476 2.78400000 3218414382 3218414382 -13.00000000
3.54187155 2.50129390 0.22724272 7 3 5477 4.34200000 3218414385 3218414385 3.00000000
2.65888572 1.87772334 -0.63272262 5 4 5477 3.31600000 3218414387 3218414387 -11.00000000
3.55157566 2.50721812 0.38034767 7 5 5478 4.36400000 3218414389 3218414389 5.00000000
3.35221624 2.36560464 -0.64982879 9 6 5479 4.15400000 3218414392 3218414392 -9.00000000
3.56214929 2.51282001 0.53525013 7 7 5480 4.39200000 3218414394 3218414394 7.00000000
3.53987551 2.49618220 -0.53183782 8 8 5481 4.36400000 3218414396 3218414396 -7.00000000
3.55688977 2.50725079 0.68925023 8 9 5482 4.40600000 3218414399 3218414399 9.00000000
3.54192567 2.49670267 -0.37912747 10 10 5482 4.35000000 3218414401 3218414401 -5.00000000
3.57401347 2.51838756 0.84986329 9 11 5483 4.45400000 3218414403 3218414403 11.00000000
3.54002619 2.49351430 -0.22692871 8 12 5484 4.33600000 3218414405 3218414405 -3.00000000
3.56439710 2.50975013 1.00643098 7 13 5485 4.47400000 3218414408 3218414408 13.00000000
3.54030991 2.49186563 -0.07556892 7 14 5486 4.33000000 3218414410 3218414410 -1.00000000
3.56755424 2.51011086 1.16882682 8 15 5487 4.51600000 3218414412 3218414412 15.00000000
1.86730897 1.31090665 -0.61133057 4 0 5493 2.36200000 3218414433 3218414433 -15.00000000
3.56179118 2.49955583 0.07595287 7 1 5494 4.35200000 3218414435 3218414435 1.00000000
2.22390175 1.56008685 -0.62716353 3 2 5495 2.78800000 3218414438 3218414438 -13.00000000
3.57794595 2.50902915 0.22902215 7 3 5496 4.37600000 3218414440 3218414440 3.00000000
2.66831279 1.87115014 -0.63348585 5 4 5496 3.32000000 3218414442 3218414442 -11.00000000
3.56639624 2.50000143 0.38104489 7 5 5497 4.37200000 3218414445 3218414445 5.00000000
3.35518909 2.35107446 -0.64889014 9 6 5498 4.14800000 3218414447 3218414447 -9.00000000
3.59647679 2.51921582 0.53915000 7 7 5499 4.42400000 3218414449 3218414449 7.00000000
3.56439447 2.49581599 -0.53427517 8 8 5500 4.38400000 3218414452 3218414452 -7.00000000
3.58578467 2.51079345 0.69331753 8 9 5500 4.43200000 3218414454 3218414454 9.00000000
3.56650829 2.49636841 -0.38087061 10 10 5501 4.37000000 3218414456 3218414456 -5.00000000
3.59843111 2.51777697 0.85367942 9 11 5502 4.47400000 3218414458 3218414458 11.00000000
3.57609868 2.50122190 -0.22870813 8 12 5503 4.37000000 3218414461 3218414461 -3.00000000
3.59186530 2.51131606 1.01182985 8 13 5504 4.49800000 3218414463 3218414463 13.00000000
3.58133483 2.50302291 -0.07626702 7 14 5505 4.37000000 3218414465 3218414465 -1.00000000
3.58492303 2.50553083 1.17193258 8 15 5505 4.52800000 3218414468 3218414468 15.00000000
1.87345850 1.30548501 -0.61184824 4 0 5513 2.36400000 3218414488 3218414488 -15.00000000
3.58526230 2.49739432 0.07626702 7 1 5514 4.37000000 3218414491 3218414491 1.00000000
2.22293711 1.54786015 -0.62536395 3 2 5515 2.78000000 3218414493 3218414493 -13.00000000
3.60307479 2.50793457 0.23006886 7 3 5516 4.39600000 3218414495 3218414495 3.00000000
2.67321658 1.86070311 -0.63310426 5 4 5516 3.31800000 3218414498 3218414498 -11.00000000
3.59636188 2.50233030 0.38331094 7 5 5517 4.39800000 3218414500 3218414500 5.00000000
3.34715867 2.32806897 -0.64576149 9 6 5518 4.12800000 3218414502 3218414502 -9.00000000
3.61176801 2.51117921 0.54012495 7 7 5519 4.43200000 3218414505 3218414505 7.00000000
3.59590578 2.49921966 -0.53768754 8 8 5520 4.41200000 3218414507 3218414507 -7.00000000
3.60956359 2.50777769 0.69613338 8 9 5521 4.45000000 3218414509 3218414509 9.00000000
3.58829045 2.49299812 -0.38226509 10 10 5521 4.38600000 3218414511 3218414511 -5.00000000
3.61687279 2.51192021 0.85596913 9 11 5522 4.48600000 3218414514 3218414514 11.00000000
3.59957361 2.49897480 -0.22965017 8 12 5523 4.38800000 3218414516 3218414516 -3.00000000
3.62942719 2.51876163 1.01992810 9 13 5524 4.53400000 3218414518 3218414518 13.00000000
3.61305285 2.50646400 -0.07675568 7 14 5525 4.39800000 3218414521 3218414521 -1.00000000
3.62741947 2.51549292 1.18280303 8 15 5526 4.57000000 3218414523 3218414523 15.00000000
1.87800407 1.29893744 -0.61184824 4 0 5533 2.36400000 3218414544 3218414544 -15.00000000
3.61205101 2.49737382 0.07665097 7 1 5534 4.39200000 3218414546 3218414546 1.00000000
2.22832656 1.54009128 -0.62536395 3 2 5535 2.78000000 3218414548 3218414548 -13.00000000
3.62002325 2.50101852 0.23059222 7 3 5536 4.40600000 3218414551 3218414551 3.00000000
2.68292594 1.85359240 -0.63386750 5 4 5536 3.32200000 3218414553 3218414553 -11.00000000
3.62474775 2.50334811 0.38540271 7 5 5537 4.42200000 3218414555 3218414555 5.00000000
3.36176705 2.32086015 -0.64701295 9 6 5538 4.13600000 3218414558 3218414558 -9.00000000
3.63031459 2.50532150 0.54158735 7 7 5539 4.44400000 3218414560 3218414560 7.00000000
3.61114359 2.49116111 -0.53866249 8 8 5540 4.42000000 3218414562 3218414562 -7.00000000
3.64550185 2.51486325 0.70145214 8 9 5540 4.48400000 3218414564 3218414564 9.00000000
3.61665344 2.49403048 -0.38435683 10 10 5541 4.41000000 3218414567 3218414567 -5.00000000
3.63855052 2.50819373 0.85902208 9 11 5542 4.50200000 3218414569 3218414569 11.00000000
3.61978698 2.49432755 -0.23038287 8 12 5543 4.40200000 3218414571 3218414571 -3.00000000
3.65103602 2.51492095 1.02352726 8 13 5544 4.55000000 3218414574 3218414574 13.00000000
3.64154410 2.50744581 -0.07717454 7 14 5545 4.42200000 3218414576 3218414576 -1.00000000
3.64528823 2.51002359 1.18590891 8 15 5545 4.58200000 3218414578 3218414578 15.00000000
1.89208281 1.29893434 -0.61495405 4 0 5553 2.37600000 3218414599 3218414599 -15.00000000
3.64218068 2.49945951 0.07710473 7 1 5554 4.41800000 3218414601 3218414601 1.00000000
2.23368883 1.53230357 -0.62536395 3 2 5555 2.78000000 3218414604 3218414604 -13.00000000
3.65014482 2.50305104 0.23195297 7 3 5556 4.43200000 3218414606 3218414606 3.00000000
2.68452239 1.84088504 -0.63272262 5 4 5556 3.31600000 3218414608 3218414608 -11.00000000
3.66140103 2.50983071 0.38836598 7 5 5557 4.45600000 3218414611 3218414611 5.00000000
3.37310696 2.31134439 -0.64763868 6 6 5558 4.14000000 3218414613 3218414613 -9.00000000
3.65705252 2.50497389 0.54426849 7 7 5559 4.46600000 3218414615 3218414615 7.00000000
3.62309337 2.48078370 -0.53915000 8 8 5560 4.42400000 3218414617 3218414617 -7.00000000
3.66121531 2.50594783 0.70270360 8 9 5561 4.49200000 3218414620 3218414620 9.00000000
3.64506674 2.49489498 -0.38644856 10 10 5561 4.43400000 3218414622 3218414622 -5.00000000
3.67320824 2.51321530 0.86512798 9 11 5562 4.53400000 3218414624 3218414624 11.00000000
3.64330888 2.49182463 -0.23132493 8 12 5563 4.42000000 3218414627 3218414627 -3.00000000
3.66944480 2.50876021 1.02622676 9 13 5564 4.56200000 3218414629 3218414629 13.00000000
3.65522742 2.49810410 -0.07727925 7 14 5565 4.42800000 3218414631 3218414631 -1.00000000
3.68955636 2.52062082 1.19729686 8 15 5566 4.62600000 3218414634 3218414634 15.00000000
1.89021945 1.28797054 -0.61288351 4 0 5573 2.36800000 3218414654 3218414654 -15.00000000
3.67897987 2.50586796 0.07769811 8 1 5574 4.45200000 3218414657 3218414657 1.00000000
2.23902392 1.52449715 -0.62536395 3 2 5575 2.78000000 3218414659 3218414659 -13.00000000
3.67702198 2.50265598 0.23310435 7 3 5576 4.45400000 3218414661 3218414661 3.00000000
2.68281698 1.82597983 -0.63081455 5 4 5576 3.30600000 3218414664 3218414664 -11.00000000
3.68331790 2.50600076 0.38976049 8 5 5577 4.47200000 3218414666 3218414666 5.00000000
3.38442135 2.30177784 -0.64826441 6 6 5578 4.14400000 3218414668 3218414668 -9.00000000
3.69204044 2.51005030 0.54816830 7 7 5579 4.49800000 3218414670 3218414670 7.00000000
3.66785097 2.49266911 -0.54451221 8 8 5580 4.46800000 3218414673 3218414673 -7.00000000
3.68911076 2.50711703 0.70645803 8 9 5580 4.51600000 3218414675 3218414675 9.00000000
3.66034579 2.48663449 -0.38714582 10 10 5581 4.44200000 3218414677 3218414677 -5.00000000
3.70794511 2.51802516 0.87123388 9 11 5582 4.56600000 3218414680 3218414680 11.00000000
3.66850948 2.49030948 -0.23237164 8 12 5583 4.44000000 3218414682 3218414682 -3.00000000
3.69914246 2.51016116 1.03207541 9 13 5584 4.58800000 3218414684 3218414684 13.00000000
3.67385459 2.49206495 -0.07748868 7 14 5585 4.44000000 3218414687 3218414687 -1.00000000
3.71068478 2.51704788 1.20143795 8 15 5585 4.64200000 3218414689 3218414689 15.00000000
1.89150333 1.27920020 -0.61184824 4 0 5593 2.36400000 3218414710 3218414710 -15.00000000
3.69433117 2.49749064 0.07783774 8 1 5594 4.46000000 3218414712 3218414712 1.00000000
2.25079036 1.52103674 -0.62716353 3 2 5595 2.78800000 3218414714 3218414714 -13.00000000
3.70228577 2.50098562 0.23415107 7 3 5596 4.47400000 3218414717 3218414717 3.00000000
2.69242811 1.81880188 -0.63157779 5 4 5596 3.31000000 3218414719 3218414719 -11.00000000
3.69534540 2.49535823 0.39010909 8 5 5597 4.47600000 3218414721 3218414721 5.00000000
3.39079809 2.28884482 -0.64795154 6 6 5598 4.14200000 3218414723 3218414723 -9.00000000
3.72546268 2.51380229 0.55182439 8 7 5599 4.52800000 3218414726 3218414726 7.00000000
3.69627833 2.49317122 -0.54743707 8 8 5600 4.49200000 3218414728 3218414728 -7.00000000
3.71421623 2.50527048 0.70958674 8 9 5600 4.53600000 3218414730 3218414730 9.00000000
3.68882680 2.48720860 -0.38923755 10 10 5601 4.46600000 3218414733 3218414733 -5.00000000
3.73136401 2.51494217 0.87466842 9 11 5602 4.58400000 3218414735 3218414735 11.00000000
3.70202565 2.49422860 -0.23394172 8 12 5603 4.47000000 3218414737 3218414737 -3.00000000
3.73859239 2.51791668 1.04062355 9 13 5604 4.62600000 3218414740 3218414740 13.00000000
3.70741320 2.49597716 -0.07801226 7 14 5605 4.47000000 3218414742 3218414742 -1.00000000
3.72746086 2.50947404 1.20402622 8 15 5605 4.65200000 3218414744 3218414744 15.00000000
1.88954091 1.26828325 -0.60977769 4 0 5613 2.35600000 3218414765 3218414765 -15.00000000
3.71132922 2.49015045 0.07801226 8 1 5614 4.47000000 3218414767 3218414767 1.00000000
2.24637556 1.50665784 -0.62446415 3 2 5615 2.77600000 3218414770 3218414770 -13.00000000
3.73919487 2.50695491 0.23593049 7 3 5616 4.50800000 3218414772 3218414772 3.00000000
2.69876051 1.80939245 -0.63157779 5 4 5616 3.31000000 3218414774 3218414774 -11.00000000
3.72885942 2.49908209 0.39272377 8 5 5617 4.50600000 3218414776 3218414776 5.00000000
3.39056158 2.27149749 -0.64638722 9 6 5618 4.13200000 3218414779 3218414779 -9.00000000
3.74081230 2.50520110 0.55279934 8 7 5619 4.53600000 3218414781 3218414781 7.00000000
3.73300147 2.49902678 -0.55158067 8 8 5620 4.52600000 3218414783 3218414783 -7.00000000
3.74635744 2.50702095 0.71396691 8 9 5621 4.56400000 3218414786 3218414786 9.00000000
3.72066808 2.48983002 -0.39167792 10 10 5621 4.49400000 3218414788 3218414788 -5.00000000
3.75154281 2.50954294 0.87733978 9 11 5622 4.59800000 3218414790 3218414790 11.00000000
3.72565222 2.49128270 -0.23488377 8 12 5623 4.48800000 3218414793 3218414793 -3.00000000
3.76842046 2.51892948 1.04647231 8 13 5624 4.65200000 3218414795 3218414795 13.00000000
3.73272991 2.49413037 -0.07836130 7 14 5625 4.49000000 3218414797 3218414797 -1.00000000
3.76511073 2.51576662 1.21334374 8 15 5625 4.68800000 3218414799 3218414799 15.00000000
1.90360320 1.26810598 -0.61288351 4 0 5633 2.36800000 3218414820 3218414820 -15.00000000
3.74662971 2.49491405 0.07857073 8 1 5634 4.50200000 3218414823 3218414823 1.00000000
2.25486541 1.50096703 -0.62536395 3 2 5635 2.78000000 3218414825 3218414825 -13.00000000
3.75623679 2.49941945 0.23645385 7 3 5636 4.51800000 3218414827 3218414827 3.00000000
2.71486688 1.80648649 -0.63386750 5 4 5636 3.32200000 3218414829 3218414829 -11.00000000
3.75912619 2.50039554 0.39498982 8 5 5637 4.53200000 3218414832 3218414832 5.00000000
3.39517999 2.25746083 -0.64576149 9 6 5638 4.12800000 3218414834 3218414834 -9.00000000
3.75945354 2.49872088 0.55426174 8 7 5639 4.54800000 3218414836 3218414836 7.00000000
3.74831581 2.49037504 -0.55255562 8 8 5640 4.53400000 3218414839 3218414839 -7.00000000
3.77318645 2.50594997 0.71740848 8 9 5641 4.58600000 3218414841 3218414841 9.00000000
3.75755143 2.49556589 -0.39464119 10 10 5641 4.52800000 3218414843 3218414843 -5.00000000
3.78644967 2.51380634 0.88344562 9 11 5642 4.63000000 3218414846 3218414846 11.00000000
3.74431038 2.48488903 -0.23551181 8 12 5643 4.50000000 3218414848 3218414848 -3.00000000
8.31598949 5.51676559 2.30394864 11 13 5644 10.24200000 3218414850 3218414850 13.00000000
3.76641178 2.49766302 -0.07888488 7 14 5645 4.52000000 3218414852 3218414852 -1.00000000
3.78879809 2.51155639 1.21800244 6 15 5646 4.70600000 3218414855 3218414855 15.00000000
1.90457523 1.25965500 -0.61184824 4 0 5652 2.36400000 3218414876 3218414876 -15.00000000
3.78324008 2.50122428 0.07916412 8 1 5653 4.53600000 3218414878 3218414878 1.00000000
2.25657892 1.49133241 -0.62446415 3 2 5654 2.77600000 3218414880 3218414880 -13.00000000
8.24391556 5.44618845 0.51781195 31 3 5655 9.89400000 3218414882 3218414882 3.00000000
2.70609975 1.78773427 -0.63043290 5 4 5655 3.30400000 3218414885 3218414885 -11.00000000
8.27131557 5.46221638 0.86719966 38 5 5656 9.95000000 3218414887 3218414887 5.00000000
3.41583586 2.25489569 -0.64826441 9 6 5657 4.14400000 3218414889 3218414889 -9.00000000
3.79091525 2.50154710 0.55767411 6 7 5658 4.57600000 3218414892 3218414892 7.00000000
3.76483870 2.48339677 -0.55377430 8 8 5659 4.54400000 3218414894 3218414894 -7.00000000
3.77911305 2.49186587 -0.39603570 10 10 5660 4.54400000 3218414899 3218414899 -5.00000000
8.64681816 5.69936132 2.01303482 28 11 5661 10.55000000 3218414901 3218414901 11.00000000
3.78421807 2.49333739 -0.23750056 8 12 5662 4.53800000 3218414903 3218414903 -3.00000000
3.77968407 2.48845816 -0.07898960 5 14 5664 4.52600000 3218414908 3218414908 -1.00000000
6.26539230 4.12499237 2.00998878 11 15 5664 7.76600000 3218414910 3218414910 15.00000000
1.90896070 1.25299919 -0.61184824 4 0 5672 2.36400000 3218414931 3218414931 -15.00000000
8.24765396 5.41151619 0.17218544 13 1 5673 9.86600000 3218414933 3218414933 1.00000000
2.26177073 1.48344648 -0.62446415 3 2 5674 2.77600000 3218414935 3218414935 -13.00000000
8.25285435 5.41080809 0.51718390 91 3 5675 9.88200000 3218414938 3218414938 3.00000000
2.70739818 1.77504802 -0.62928808 8 4 5675 3.29800000 3218414940 3218414940 -11.00000000
8.26533604 5.41692924 0.86458498 77 5 5676 9.92000000 3218414942 3218414942 5.00000000
3.41542435 2.23754597 -0.64670008 6 6 5677 4.13400000 3218414945 3218414945 -9.00000000
8.36149788 5.47578049 1.22722423 2 7 5678 10.07000000 3218414947 3218414947 7.00000000
4.59893417 3.01060486 -0.67491245 4 8 5679 5.53800000 3218414949 3218414949 -7.00000000
7.06209135 4.62130308 -0.73838347 8 10 5680 8.47200000 3218414954 3218414954 -5.00000000
8.67816162 5.67666674 2.01570630 34 11 5681 10.56400000 3218414956 3218414956 11.00000000
8.22602654 5.37886047 -0.51509047 12 12 5682 9.84200000 3218414958 3218414958 -3.00000000
8.31583023 5.43551064 2.29360104 70 13 5683 10.19600000 3218414961 3218414961 13.00000000
8.24128819 5.38473415 -0.17183639 12 14 5684 9.84600000 3218414963 3218414963 -1.00000000
6.29916000 4.11577702 2.01620030 2 15 5684 7.79000000 3218414965 3218414965 15.00000000
1.90684795 1.24211025 -0.60977769 4 0 5692 2.35600000 3218414986 3218414986 -15.00000000
8.23800564 5.36414385 0.17159206 13 1 5693 9.83200000 3218414988 3218414988 1.00000000
2.28000116 1.48404694 -0.62806332 3 2 5694 2.79200000 3218414991 3218414991 -13.00000000
8.25903416 5.37578440 0.51645124 89 3 5694 9.86800000 3218414993 3218414993 3.00000000
2.71357775 1.76558661 -0.62928808 9 4 5695 3.29800000 3218414995 3218414995 -11.00000000
8.24577904 5.36305952 0.86057580 69 5 5696 9.87400000 3218414998 3218414998 5.00000000
3.41990161 2.22345686 -0.64607435 6 6 5697 4.13000000 3218415000 3218415000 -9.00000000
8.34061432 5.42059851 1.22137451 2 7 5698 10.02200000 3218415002 3218415002 7.00000000
4.61274433 2.99669600 -0.67539990 6 8 5699 5.54200000 3218415004 3218415004 -7.00000000
7.05144405 4.57926130 -0.73559445 8 10 5700 8.44000000 3218415009 3218415009 -5.00000000
8.68968964 5.64099455 2.01379824 37 11 5701 10.55400000 3218415011 3218415011 11.00000000
8.23469925 5.34359026 -0.51446247 12 12 5702 9.83000000 3218415014 3218415014 -3.00000000
8.31349945 5.39266300 2.28775215 74 13 5703 10.17000000 3218415016 3218415016 13.00000000
8.23989964 5.34287882 -0.17141753 12 14 5704 9.82200000 3218415018 3218415018 -1.00000000
7.38815928 4.79059696 2.35939431 29 15 5704 9.11600000 3218415021 3218415021 15.00000000
1.91441691 1.23754406 -0.61081296 4 0 5712 2.36000000 3218415041 3218415041 -15.00000000
8.23148632 5.31907558 0.17106849 13 1 5713 9.80200000 3218415044 3218415044 1.00000000
2.26879811 1.46550560 -0.62356430 3 2 5714 2.77200000 3218415046 3218415046 -13.00000000
8.26190281 5.33464336 0.51540452 89 3 5715 9.84800000 3218415048 3218415048 3.00000000
2.72467232 1.75929856 -0.63043290 11 4 5715 3.30400000 3218415051 3218415051 -11.00000000
8.24771023 5.32343912 0.85883272 73 5 5716 9.85400000 3218415053 3218415053 5.00000000
3.41602302 2.20400906 -0.64388424 6 6 5717 4.11600000 3218415055 3218415055 -9.00000000
8.34780693 5.38391972 1.21966839 2 7 5718 10.00800000 3218415057 3218415057 7.00000000
4.62818193 2.98380327 -0.67613113 4 8 5719 5.54800000 3218415060 3218415060 -7.00000000
7.07408476 4.55893660 -0.73629171 13 10 5720 8.44800000 3218415064 3218415064 -5.00000000
8.69282341 5.59999561 2.00998187 43 11 5721 10.53400000 3218415067 3218415067 11.00000000
8.24322605 5.30832529 -0.51383442 12 12 5722 9.81800000 3218415069 3218415069 -3.00000000
8.31588650 5.35306263 2.28325319 74 13 5723 10.15000000 3218415071 3218415071 13.00000000
8.24168301 5.30326271 -0.17106849 12 14 5724 9.80200000 3218415074 3218415074 -1.00000000
7.41704130 4.77080107 2.36301780 40 15 5725 9.13000000 3218415076 3218415076 15.00000000
1.91829526 1.23152375 -0.61081296 4 0 5730 2.36000000 3218415097 3218415097 -15.00000000
8.23300934 5.28346920 0.17075434 13 1 5731 9.78400000 3218415099 3218415099 1.00000000
2.26354957 1.45205736 -0.62086493 3 2 5732 2.76000000 3218415101 3218415101 -13.00000000
8.24911594 5.29177332 0.51362509 94 3 5732 9.81400000 3218415104 3218415104 3.00000000
2.73514366 1.75390935 -0.63157779 9 4 5733 3.31000000 3218415106 3218415106 -11.00000000
8.24761963 5.28675032 0.85708958 73 5 5734 9.83400000 3218415108 3218415108 5.00000000
3.42958331 2.19752932 -0.64513576 6 6 5735 4.12400000 3218415110 3218415110 -9.00000000
8.32957649 5.33518362 1.21454990 2 7 5736 9.96600000 3218415113 3218415113 7.00000000
4.63084602 2.96496701 -0.67515618 4 8 5737 5.54000000 3218415115 3218415115 -7.00000000
7.10515356 4.54743052 -0.73803484 13 10 5738 8.46800000 3218415120 3218415120 -5.00000000
8.70706558 5.57054234 2.00921869 37 11 5739 10.53000000 3218415122 3218415122 11.00000000
8.22621059 5.26088095 -0.51174098 12 12 5740 9.77800000 3218415124 3218415124 -3.00000000
8.29654121 5.30381918 2.27335525 74 13 5741 10.10600000 3218415127 3218415127 13.00000000
8.24819279 5.27088404 -0.17085905 12 14 5742 9.79000000 3218415129 3218415129 -1.00000000
7.43116379 4.74877357 2.36301780 45 15 5742 9.13000000 3218415131 3218415131 15.00000000
1.92584109 1.22689605 -0.61184824 4 0 5750 2.36400000 3218415152 3218415152 -15.00000000
8.23790836 5.24610567 0.17047511 13 1 5751 9.76800000 3218415154 3218415154 1.00000000
2.27517986 1.44833326 -0.62266451 3 2 5752 2.76800000 3218415156 3218415156 -13.00000000
8.24732018 5.25007582 0.51236904 99 3 5752 9.79000000 3218415159 3218415159 3.00000000
2.73628044 1.74118936 -0.63043290 6 4 5753 3.30400000 3218415161 3218415161 -11.00000000
8.24753094 5.24616575 0.85517216 77 5 5754 9.81200000 3218415163 3218415163 5.00000000
3.45723653 2.19826341 -0.64889014 6 6 5755 4.14800000 3218415166 3218415166 -9.00000000
8.34982395 5.30714035 1.21479356 2 7 5756 9.96800000 3218415168 3218415168 7.00000000
4.63446522 2.94452620 -0.67418122 4 8 5757 5.53200000 3218415170 3218415170 -7.00000000
7.11761999 4.52046490 -0.73768622 13 10 5758 8.46400000 3218415175 3218415175 -5.00000000
8.72314262 5.53801060 2.00845551 34 11 5759 10.52600000 3218415177 3218415177 11.00000000
8.23103333 5.22357273 -0.51090360 17 12 5760 9.76200000 3218415180 3218415180 -3.00000000
8.29361153 5.26125574 2.26750660 72 13 5761 10.08000000 3218415182 3218415182 13.00000000
8.24289894 5.22706747 -0.17037039 14 14 5762 9.76200000 3218415184 3218415184 -1.00000000
7.44932652 4.72383976 2.36353540 45 15 5762 9.13200000 3218415186 3218415186 15.00000000
1.93011200 1.22016621 -0.61184824 4 0 5770 2.36400000 3218415207 3218415207 -15.00000000
8.24433804 5.20984030 0.17023078 13 1 5771 9.75400000 3218415209 3218415209 1.00000000
2.29010701 1.44662702 -0.62536395 3 2 5772 2.78000000 3218415212 3218415212 -13.00000000
8.25637436 5.21341419 0.51174098 99 3 5773 9.77800000 3218415214 3218415214 3.00000000
2.73404145 1.72638631 -0.62852484 5 4 5773 3.29400000 3218415216 3218415216 -11.00000000
8.24726009 5.20564651 0.85325474 81 5 5774 9.79000000 3218415219 3218415219 5.00000000
3.45486498 2.17985749 -0.64701295 6 6 5775 4.13600000 3218415221 3218415221 -9.00000000
8.35654545 5.27054882 1.21308744 2 7 5776 9.95400000 3218415223 3218415223 7.00000000
4.63799858 2.92409611 -0.67320627 4 8 5777 5.52400000 3218415226 3218415226 -7.00000000
7.13672686 4.49771690 -0.73803484 13 10 5778 8.46800000 3218415230 3218415230 -5.00000000
8.73743725 5.50438786 2.00731063 31 11 5779 10.52000000 3218415233 3218415233 11.00000000
8.24414635 5.19161606 -0.51058960 17 12 5780 9.75600000 3218415235 3218415235 -3.00000000
8.29873276 5.22396851 2.26390743 72 13 5781 10.06400000 3218415237 3218415237 13.00000000
8.22893715 5.17802763 -0.16970719 16 14 5782 9.72400000 3218415239 3218415239 -1.00000000
7.46331978 4.69444752 2.36250019 45 15 5783 9.12800000 3218415242 3218415242 15.00000000
1.92617679 1.20828843 -0.60926002 4 0 5790 2.35400000 3218415262 3218415262 -15.00000000
8.23875427 5.16615772 0.16974211 13 1 5791 9.72600000 3218415265 3218415265 1.00000000
2.28853798 1.43448424 -0.62356430 3 2 5792 2.77200000 3218415267 3218415267 -13.00000000
8.25330925 5.17327785 0.51048493 99 3 5792 9.75400000 3218415269 3218415269 3.00000000
2.74836946 1.72204423 -0.63043290 5 4 5793 3.30400000 3218415272 3218415272 -11.00000000
8.23836422 5.15990496 0.85046571 77 5 5794 9.75800000 3218415274 3218415274 5.00000000
3.46747589 2.17092919 -0.64795154 4 6 5795 4.14200000 3218415276 3218415276 -9.00000000
8.36984444 5.23818731 1.21235621 2 7 5796 9.94800000 3218415279 3218415279 7.00000000
4.65490913 2.91210008 -0.67418122 4 8 5797 5.53200000 3218415281 3218415281 -7.00000000
7.13549089 4.46221352 -0.73629171 13 10 5798 8.44800000 3218415286 3218415286 -5.00000000
8.24358749 5.15116501 -0.50943822 17 12 5800 9.73400000 3218415290 3218415290 -3.00000000
8.30038929 5.18464470 2.25940847 70 13 5801 10.04400000 3218415292 3218415292 13.00000000
8.23339176 5.14079905 -0.16942796 14 14 5802 9.70800000 3218415295 3218415295 -1.00000000
7.47638321 4.66632128 2.36146498 45 15 5803 9.12400000 3218415297 3218415297 15.00000000
1.93551326 1.20428228 -0.61081296 4 0 5811 2.36000000 3218415318 3218415318 -15.00000000
8.22367287 5.11480379 0.16904400 13 1 5812 9.68600000 3218415320 3218415320 1.00000000
2.29378033 1.42608666 -0.62356430 3 2 5813 2.77200000 3218415322 3218415322 -13.00000000
8.26203823 5.13666582 0.50985688 94 3 5813 9.74200000 3218415325 3218415325 3.00000000
2.75799751 1.71403193 -0.63119614 5 4 5814 3.30800000 3218415327 3218415327 -11.00000000
8.24368191 5.12126446 0.84907126 77 5 5815 9.74200000 3218415329 3218415329 5.00000000
3.46198440 2.14986873 -0.64544863 4 6 5816 4.12600000 3218415332 3218415332 -9.00000000
4.67229795 2.89920592 -0.67515618 4 8 5818 5.54000000 3218415336 3218415336 -7.00000000
7.16872883 4.44653273 -0.73803484 13 10 5819 8.46800000 3218415341 3218415341 -5.00000000
8.22506332 5.09776831 -0.50713539 17 12 5821 9.69000000 3218415345 3218415345 -3.00000000
8.30442715 5.14495087 2.25535917 74 13 5822 10.02600000 3218415348 3218415348 13.00000000
8.23687840 5.10111189 -0.16911381 12 14 5823 9.69000000 3218415350 3218415350 -1.00000000
7.49015045 4.63685417 2.36042976 45 15 5824 9.12000000 3218415352 3218415352 15.00000000
1.93641758 1.19548905 -0.60977769 4 0 5831 2.35600000 3218415373 3218415373 -15.00000000
8.23126698 5.07976580 0.16883458 13 1 5832 9.67400000 3218415375 3218415375 1.00000000
2.29874444 1.41807127 -0.62356430 3 2 5833 2.77200000 3218415378 3218415378 -13.00000000
8.25102043 5.08996820 0.50807744 89 3 5833 9.70800000 3218415380 3218415380 3.00000000
2.76897693 1.70748568 -0.63234103 5 4 5834 3.31400000 3218415382 3218415382 -11.00000000
8.24624348 5.08304834 0.84750247 77 5 5835 9.72400000 3218415385 3218415385 5.00000000
3.46610427 2.13569856 -0.64482284 4 6 5836 4.12200000 3218415387 3218415387 -9.00000000
4.68408012 2.88391972 -0.67539990 4 8 5838 5.54200000 3218415392 3218415392 -7.00000000
7.17402601 4.41521645 -0.73698896 13 10 5839 8.45600000 3218415396 3218415396 -5.00000000
8.21728897 5.05333281 -0.50556535 12 12 5841 9.66000000 3218415401 3218415401 -3.00000000
8.30407429 5.10470581 2.25041032 68 13 5842 10.00400000 3218415403 3218415403 13.00000000
8.23930073 5.06290627 -0.16879967 16 14 5843 9.67200000 3218415405 3218415405 -1.00000000
7.51616716 4.61674690 2.36353540 45 15 5844 9.13200000 3218415408 3218415408 15.00000000
1.94366574 1.19107985 -0.61081296 4 0 5850 2.36000000 3218415428 3218415428 -15.00000000
8.23442459 5.04408550 0.16855533 13 1 5851 9.65800000 3218415431 3218415431 1.00000000
2.30011034 1.40840530 -0.62266451 3 2 5852 2.76800000 3218415433 3218415433 -13.00000000
8.23719501 5.04380512 0.50619334 70 3 5852 9.67200000 3218415435 3218415435 3.00000000
2.75955367 1.68906975 -0.62890643 5 4 5853 3.29600000 3218415438 3218415438 -11.00000000
8.24605942 5.04527617 0.84575933 73 5 5854 9.70400000 3218415440 3218415440 5.00000000
3.47653770 2.12625432 -0.64544863 6 6 5855 4.12600000 3218415442 3218415442 -9.00000000
4.69192410 2.86733580 -0.67515618 4 8 5857 5.54000000 3218415447 3218415447 -7.00000000
7.19202852 4.39347935 -0.73733759 8 10 5858 8.46000000 3218415451 3218415451 -5.00000000
8.22206783 5.01877165 -0.50483263 12 12 5860 9.64600000 3218415456 3218415456 -3.00000000
8.29766750 5.06293011 2.24411178 72 13 5861 9.97600000 3218415458 3218415458 13.00000000
8.22872925 5.01889563 -0.16824120 14 14 5862 9.64000000 3218415461 3218415461 -1.00000000
7.53063440 4.59311152 2.36353540 45 15 5862 9.13200000 3218415463 3218415463 15.00000000
1.94946218 1.18529153 -0.61133057 4 0 5870 2.36200000 3218415484 3218415484 -15.00000000
8.23831081 5.00700235 0.16827610 13 1 5871 9.64200000 3218415486 3218415486 1.00000000
2.31167436 1.40441513 -0.62446415 3 2 5872 2.77600000 3218415488 3218415488 -13.00000000
8.24109554 5.00672531 0.50535601 70 3 5872 9.65600000 3218415491 3218415491 3.00000000
2.75872064 1.67535055 -0.62737995 5 4 5873 3.28800000 3218415493 3218415493 -11.00000000
8.24318314 5.00405455 0.84366757 73 5 5874 9.68000000 3218415495 3218415495 5.00000000
3.49407125 2.12025452 -0.64732581 6 6 5875 4.13800000 3218415497 3218415497 -9.00000000
4.69171953 2.84476495 -0.67369372 4 8 5877 5.52800000 3218415502 3218415502 -7.00000000
6.69275522 4.05647039 -0.68469554 8 10 5878 7.85600000 3218415507 3218415507 -5.00000000
8.22928619 4.98383284 -0.50420463 17 12 5880 9.63400000 3218415511 3218415511 -3.00000000
8.30195332 5.02586126 2.24051261 75 13 5881 9.96000000 3218415514 3218415514 13.00000000
8.22224617 4.97564745 -0.16775253 14 14 5882 9.61200000 3218415516 3218415516 -1.00000000
7.54080629 4.56148005 2.36146498 45 15 5883 9.12400000 3218415518 3218415518 15.00000000
1.94531679 1.17349017 -0.60874242 4 0 5890 2.35200000 3218415539 3218415539 -15.00000000
8.23518944 4.96582365 0.16785724 13 1 5891 9.61800000 3218415541 3218415541 1.00000000
2.31656265 1.39633727 -0.62446415 3 2 5892 2.77600000 3218415544 3218415544 -13.00000000
8.24570465 4.96824026 0.50451863 70 3 5893 9.64000000 3218415546 3218415546 3.00000000
2.76959658 1.66875029 -0.62852484 5 4 5893 3.29400000 3218415548 3218415548 -11.00000000
8.23499870 4.95983124 0.84105289 77 5 5894 9.65000000 3218415550 3218415550 5.00000000
3.49806643 2.10600734 -0.64670008 6 6 5895 4.13400000 3218415553 3218415553 -9.00000000
4.70332193 2.82939386 -0.67393744 4 8 5897 5.53000000 3218415557 3218415557 -7.00000000
8.36530018 5.03234291 1.54619825 2 9 5897 9.88400000 3218415560 3218415560 9.00000000
6.68297005 4.01870918 -0.68225515 12 10 5898 7.82800000 3218415562 3218415562 -5.00000000
8.33421993 5.00968456 1.89015388 3 11 5899 9.90600000 3218415564 3218415564 11.00000000
8.22951221 4.94478989 -0.50315785 17 12 5900 9.61400000 3218415567 3218415567 -3.00000000
8.30942249 4.99083090 2.23781300 75 13 5901 9.94800000 3218415569 3218415569 13.00000000
8.22584915 4.93868160 -0.16747329 16 14 5902 9.59600000 3218415571 3218415571 -1.00000000
7.55257893 4.53445959 2.36042976 45 15 5902 9.12000000 3218415574 3218415574 15.00000000
1.95437419 1.16966879 -0.61029530 4 0 5910 2.35800000 3218415594 3218415594 -15.00000000
8.22329998 4.91959476 0.16726387 13 1 5911 9.58400000 3218415597 3218415597 1.00000000
2.31138778 1.38224149 -0.62176472 3 2 5912 2.76400000 3218415599 3218415599 -13.00000000
8.23728180 4.92405558 0.50294852 49 3 5913 9.61000000 3218415601 3218415601 3.00000000
2.77877498 1.66108704 -0.62928808 5 4 5913 3.29800000 3218415603 3218415603 -11.00000000
8.24199963 4.92492342 0.84000707 73 5 5914 9.63800000 3218415606 3218415606 5.00000000
3.49522114 2.08770609 -0.64482284 4 6 5915 4.12200000 3218415608 3218415608 -9.00000000
8.34817410 4.98441315 1.19383204 2 7 5916 9.79600000 3218415610 3218415610 7.00000000
4.71998835 2.81702828 -0.67491245 6 8 5917 5.53800000 3218415613 3218415613 -7.00000000
8.37690353 4.99760056 1.54494679 2 9 5918 9.87600000 3218415615 3218415615 9.00000000
6.69011307 3.99127364 -0.68155789 12 10 5918 7.82000000 3218415617 3218415617 -5.00000000
8.33142185 4.96849537 1.88557446 3 11 5919 9.88200000 3218415620 3218415620 11.00000000
8.22613621 4.90376139 -0.50190181 12 12 5920 9.59000000 3218415622 3218415622 -3.00000000
8.30335617 4.94782972 2.23151445 75 13 5921 9.92000000 3218415624 3218415624 13.00000000
8.24475574 4.91096115 -0.16750820 14 14 5922 9.59800000 3218415627 3218415627 -1.00000000
1.96010625 1.16382599 -0.61081296 4 0 5930 2.36000000 3218415650 3218415650 -15.00000000
8.22322655 4.88065386 0.16691482 13 1 5931 9.56400000 3218415652 3218415652 1.00000000
2.31619859 1.37416482 -0.62176472 3 2 5932 2.76400000 3218415654 3218415654 -13.00000000
8.23208809 4.88202810 0.50158781 34 3 5933 9.58400000 3218415656 3218415656 3.00000000
2.79468822 1.65738583 -0.63157779 5 4 5933 3.31000000 3218415659 3218415659 -11.00000000
8.23857403 4.88393164 0.83791530 81 5 5934 9.61400000 3218415661 3218415661 5.00000000
3.50928497 2.07952094 -0.64607435 4 6 5935 4.13000000 3218415663 3218415663 -9.00000000
4.72466850 2.79750109 -0.67418122 4 8 5937 5.53200000 3218415668 3218415668 -7.00000000
6.68857336 3.95876312 -0.67998910 29 10 5938 7.80200000 3218415673 3218415673 -5.00000000
8.33857632 4.93338490 1.88328481 3 11 5939 9.87000000 3218415675 3218415675 11.00000000
