# .PCD v0.7 - Point Cloud Data file format
VERSION 0.7
FIELDS x y z intensity laser_id azimuth distance_m adjustedtime timestamp vertical_angle
SIZE 4 4 4 1 1 2 8 8 4 8
TYPE F F F U U U F U U F
COUNT 1 1 1 1 1 1 1 1 1 1
WIDTH 523
HEIGHT 1
VIEWPOINT 0 0 0 1 0 0 0
POINTS 523
DATA ascii
2.50605559 -9.08578777 -0.49394676 4 12 16458 9.43800000 3218044973 3218044973 -3.00000000
2.55133748 -9.25626183 2.21666765 15 13 16459 9.85400000 3218044975 3218044975 13.00000000
2.61471868 -9.49915218 2.63995433 38 15 16461 10.20000000 3218044980 3218044980 15.00000000
0.53338265 -1.94704795 -0.54093182 4 0 16468 2.09000000 3218045000 3218045000 -15.00000000
3.14742208 -11.49715328 0.20806760 10 1 16469 11.92200000 3218045003 3218045003 1.00000000
0.61706400 -2.25560617 -0.53988254 3 2 16470 2.40000000 3218045005 3218045005 -13.00000000
3.14052916 -11.47984123 0.62373990 5 3 16470 11.91800000 3218045007 3218045007 3.00000000
0.72066540 -2.63611674 -0.53121227 3 4 16471 2.78400000 3218045010 3218045010 -11.00000000
3.13097453 -11.46063137 1.03941941 21 5 16472 11.92600000 3218045012 3218045012 5.00000000
0.87922412 -3.22052646 -0.52874851 1 6 16473 3.38000000 3218045014 3218045014 -9.00000000
1.12312579 -4.11957788 -0.52428192 2 8 16475 4.30200000 3218045019 3218045019 -7.00000000
1.58374476 -5.81310606 -0.52711791 3 10 16476 6.04800000 3218045024 3218045024 -5.00000000
2.47170329 -9.08484459 -0.49342340 4 12 16478 9.42800000 3218045028 3218045028 -3.00000000
2.52003407 -9.26887226 2.21756744 10 13 16479 9.85800000 3218045030 3218045030 13.00000000
3.11433315 -11.46265030 -0.20733459 6 14 16480 11.88000000 3218045033 3218045033 -1.00000000
2.58053231 -9.50449276 2.63891888 38 15 16481 10.19600000 3218045035 3218045035 15.00000000
0.52557510 -1.94516802 -0.53989655 4 0 16488 2.08600000 3218045056 3218045056 -15.00000000
0.60918671 -2.25774622 -0.53988254 3 2 16490 2.40000000 3218045060 3218045060 -13.00000000
0.71248144 -2.64240718 -0.53197551 3 4 16491 2.78800000 3218045065 3218045065 -11.00000000
3.08576679 -11.45225334 1.03767622 17 5 16492 11.90600000 3218045067 3218045067 5.00000000
0.86335468 -3.20640874 -0.52593267 3 6 16493 3.36200000 3218045070 3218045070 -9.00000000
1.11080074 -4.13114119 -0.52525687 2 8 16495 4.31000000 3218045074 3218045074 -7.00000000
1.56344354 -5.81859922 -0.52711791 3 10 16496 6.04800000 3218045079 3218045079 -5.00000000
2.44256425 -9.10306263 -0.49394676 8 12 16498 9.43800000 3218045083 3218045083 -3.00000000
2.52955437 -9.43383884 2.25490928 10 13 16499 10.02400000 3218045086 3218045086 13.00000000
2.54434156 -9.50224590 2.63581324 40 15 16501 10.18400000 3218045090 3218045090 15.00000000
0.51679242 -1.93952382 -0.53782600 4 0 16508 2.07800000 3218045111 3218045111 -15.00000000
0.60029984 -2.25609255 -0.53898275 3 2 16510 2.39600000 3218045116 3218045116 -13.00000000
0.70527136 -2.65246749 -0.53350192 3 4 16511 2.79600000 3218045120 3218045120 -11.00000000
3.04167914 -11.44755077 1.03628182 21 5 16512 11.89000000 3218045123 3218045123 5.00000000
0.85367775 -3.21513057 -0.52687126 1 6 16513 3.36800000 3218045125 3218045125 -9.00000000
1.09739113 -4.13883114 -0.52574432 2 8 16515 4.31400000 3218045130 3218045130 -7.00000000
1.53597927 -5.79705811 -0.52467757 3 10 16516 6.02000000 3218045134 3218045134 -5.00000000
2.40515423 -9.09029388 -0.49279538 8 12 16518 9.41600000 3218045139 3218045139 -3.00000000
2.57581067 -9.74216747 2.32644391 7 13 16519 10.34200000 3218045141 3218045141 13.00000000
2.51066399 -9.50920105 2.63529563 40 15 16521 10.18200000 3218045146 3218045146 15.00000000
0.51198256 -1.94878983 -0.53989655 4 0 16528 2.08600000 3218045166 3218045166 -15.00000000
3.00552726 -11.44824696 0.20660159 6 1 16529 11.83800000 3218045169 3218045169 1.00000000
0.59143192 -2.25440431 -0.53808290 3 2 16530 2.39200000 3218045171 3218045171 -13.00000000
3.00747204 -11.46380138 0.62112314 7 3 16530 11.86800000 3218045173 3218045173 3.00000000
0.69501251 -2.65111518 -0.53273869 3 4 16531 2.79200000 3218045176 3218045176 -11.00000000
2.99867177 -11.44653416 1.03523588 21 5 16532 11.87800000 3218045178 3218045178 5.00000000
0.84094882 -3.21235800 -0.52593267 1 6 16533 3.36200000 3218045180 3218045180 -9.00000000
1.08494544 -4.15031862 -0.52671933 2 8 16535 4.32200000 3218045185 3218045185 -7.00000000
1.51069868 -5.78310728 -0.52293444 3 10 16536 6.00000000 3218045189 3218045189 -5.00000000
2.36635065 -9.07157803 -0.49132997 4 12 16538 9.38800000 3218045194 3218045194 -3.00000000
2.98555875 -11.46173668 -0.20674121 6 14 16540 11.84600000 3218045199 3218045199 -1.00000000
2.48203826 -9.52869129 2.63840127 40 15 16540 10.19400000 3218045201 3218045201 15.00000000
0.50614560 -1.95430541 -0.54093182 4 0 16548 2.09000000 3218045222 3218045222 -15.00000000
0.58355898 -2.25645518 -0.53808290 3 2 16550 2.39200000 3218045226 3218045226 -13.00000000
0.68477166 -2.64972329 -0.53197551 3 4 16551 2.78800000 3218045231 3218045231 -11.00000000
2.95072675 -11.42606544 1.03244698 17 5 16552 11.84600000 3218045233 3218045233 5.00000000
0.83367926 -3.23057556 -0.52843565 1 6 16553 3.37800000 3218045235 3218045235 -9.00000000
1.06153524 -4.11947918 -0.52233201 2 8 16555 4.28600000 3218045240 3218045240 -7.00000000
1.49348366 -5.79992199 -0.52398032 3 10 16556 6.01200000 3218045245 3218045245 -5.00000000
2.33666015 -9.08751965 -0.49174863 8 12 16558 9.39600000 3218045249 3218045249 -3.00000000
2.66777253 -10.38276482 2.47491145 45 13 16559 11.00200000 3218045252 3218045252 13.00000000
2.44661713 -9.53585339 2.63788366 40 15 16561 10.19200000 3218045256 3218045256 15.00000000
0.49740943 -1.94857287 -0.53886127 4 0 16568 2.08200000 3218045277 3218045277 -15.00000000
0.57567894 -2.25847840 -0.53808290 3 2 16570 2.39200000 3218045282 3218045282 -13.00000000
0.67357987 -2.64448738 -0.53044903 3 4 16571 2.78000000 3218045286 3218045286 -11.00000000
2.90934992 -11.43050385 1.03192401 17 5 16572 11.84000000 3218045288 3218045288 5.00000000
0.82239735 -3.23346591 -0.52843565 1 6 16573 3.37800000 3218045291 3218045291 -9.00000000
1.04812634 -4.12700748 -0.52281946 2 8 16575 4.29000000 3218045295 3218045295 -7.00000000
1.46097672 -5.75682068 -0.51962256 3 10 16576 5.96200000 3218045300 3218045300 -5.00000000
2.29756522 -9.06657982 -0.49017856 8 12 16578 9.36600000 3218045305 3218045305 -3.00000000
2.67169690 -10.55069923 2.51270318 47 13 16579 11.17000000 3218045307 3218045307 13.00000000
2.41308594 -9.53642273 2.63581324 40 15 16580 10.18400000 3218045312 3218045312 15.00000000
0.48966205 -1.94655037 -0.53782600 4 0 16588 2.07800000 3218045332 3218045332 -15.00000000
2.87377882 -11.43254852 0.20576388 3 1 16589 11.79000000 3218045335 3218045335 1.00000000
0.57158977 -2.27559423 -0.54168212 3 2 16590 2.40800000 3218045337 3218045337 -13.00000000
2.87212634 -11.44286633 0.61829698 23 3 16591 11.81400000 3218045339 3218045339 3.00000000
0.66625661 -2.65443945 -0.53197551 3 4 16591 2.78800000 3218045341 3218045341 -11.00000000
2.86216187 -11.41160202 1.02930927 12 5 16592 11.81000000 3218045344 3218045344 5.00000000
0.81206590 -3.24014926 -0.52906138 1 6 16593 3.38200000 3218045346 3218045346 -9.00000000
1.03371406 -4.13064098 -0.52281946 2 8 16595 4.29000000 3218045351 3218045351 -7.00000000
1.43845594 -5.75222111 -0.51875097 3 10 16596 5.95200000 3218045355 3218045355 -5.00000000
2.26541901 -9.07260704 -0.49007389 4 12 16598 9.36400000 3218045360 3218045360 -3.00000000
2.66834760 -10.69420624 2.54464626 53 13 16599 11.31200000 3218045362 3218045362 13.00000000
2.85521102 -11.45162678 -0.20600821 19 14 16600 11.80400000 3218045365 3218045365 -1.00000000
2.37718296 -9.54145432 2.63477778 38 15 16601 10.18000000 3218045367 3218045367 15.00000000
0.48472330 -1.95574820 -0.53989655 4 0 16608 2.08600000 3218045388 3218045388 -15.00000000
2.84298801 -11.47939014 0.20642707 33 1 16609 11.82800000 3218045390 3218045390 1.00000000
0.55989784 -2.26244235 -0.53808290 3 2 16610 2.39200000 3218045392 3218045392 -13.00000000
2.83839869 -11.47802734 0.61965770 7 3 16611 11.84000000 3218045394 3218045394 3.00000000
0.65887201 -2.66437221 -0.53350192 3 4 16611 2.79600000 3218045397 3218045397 -11.00000000
0.79790950 -3.23145747 -0.52718413 1 6 16613 3.37000000 3218045401 3218045401 -9.00000000
2.83642745 -11.50451469 -1.45487618 2 8 16615 11.93800000 3218045406 3218045406 -7.00000000
1.41836822 -5.75720692 -0.51875097 3 10 16616 5.95200000 3218045411 3218045411 -5.00000000
2.23612142 -9.09015656 -0.49059725 4 12 16618 9.37400000 3218045415 3218045415 -3.00000000
2.66681981 -10.84917068 2.57928872 52 13 16619 11.46600000 3218045418 3218045418 13.00000000
2.34645081 -9.55303669 2.63581324 16 15 16620 10.18400000 3218045422 3218045422 15.00000000
0.47697714 -1.95367479 -0.53886127 4 0 16628 2.08200000 3218045443 3218045443 -15.00000000
0.54922783 -2.25302315 -0.53538352 3 2 16630 2.38000000 3218045447 3218045447 -13.00000000
0.65049684 -2.67047095 -0.53426516 3 4 16631 2.80000000 3218045452 3218045452 -11.00000000
0.78755844 -3.23806190 -0.52780986 1 6 16633 3.37400000 3218045457 3218045457 -9.00000000
1.00859952 -4.15318918 -0.52476937 2 8 16635 4.30600000 3218045461 3218045461 -7.00000000
1.39591396 -5.75244188 -0.51787943 3 10 16636 5.94200000 3218045466 3218045466 -5.00000000
2.19497085 -9.05908489 -0.48850381 4 12 16638 9.33400000 3218045470 3218045470 -3.00000000
2.66378355 -11.00235844 2.61348128 53 13 16639 11.61800000 3218045473 3218045473 13.00000000
2.31051373 -9.55781746 2.63477778 30 15 16641 10.18000000 3218045477 3218045477 15.00000000
0.47355092 -1.96643257 -0.54196709 4 0 16646 2.09400000 3218045498 3218045498 -15.00000000
0.54579175 -2.26989532 -0.53898275 3 2 16648 2.39600000 3218045503 3218045503 -13.00000000
0.63843495 -2.65722990 -0.53121227 3 4 16649 2.78400000 3218045507 3218045507 -11.00000000
0.78291154 -3.26357055 -0.53156430 1 6 16651 3.39800000 3218045512 3218045512 -9.00000000
0.99184769 -4.14089346 -0.52281946 2 8 16653 4.29000000 3218045517 3218045517 -7.00000000
1.37644398 -5.75098610 -0.51735651 3 10 16654 5.93600000 3218045521 3218045521 -5.00000000
2.16417909 -9.05622292 -0.48798046 4 12 16656 9.32400000 3218045526 3218045526 -3.00000000
2.66315103 -11.15283203 2.64722395 56 13 16657 11.76800000 3218045528 3218045528 13.00000000
2.28662848 -9.58342171 2.63995433 38 15 16658 10.20000000 3218045533 3218045533 15.00000000
0.46356374 -1.95491552 -0.53834361 4 0 16666 2.08000000 3218045553 3218045553 -15.00000000
0.53786498 -2.27178669 -0.53898275 3 2 16668 2.39600000 3218045558 3218045558 -13.00000000
0.62689573 -2.64988971 -0.52930415 3 4 16669 2.77400000 3218045563 3218045563 -11.00000000
0.76788199 -3.25090384 -0.52906138 1 6 16671 3.38200000 3218045567 3218045567 -9.00000000
0.97738725 -4.14433050 -0.52281946 2 8 16673 4.29000000 3218045572 3218045572 -7.00000000
1.35361886 -5.74412012 -0.51631063 3 10 16674 5.92400000 3218045576 3218045576 -5.00000000
2.13209629 -9.06177807 -0.48787579 4 12 16676 9.32200000 3218045581 3218045581 -3.00000000
2.63713789 -11.21707344 2.66027117 52 13 16677 11.82600000 3218045583 3218045583 13.00000000
2.25104666 -9.58985710 2.63943672 35 15 16679 10.19800000 3218045588 3218045588 15.00000000
0.45717615 -1.95840299 -0.53886127 4 0 16686 2.08200000 3218045609 3218045609 -15.00000000
0.52993172 -2.27365041 -0.53898275 3 2 16688 2.39600000 3218045613 3218045613 -13.00000000
0.61942327 -2.65971017 -0.53083062 3 4 16689 2.78200000 3218045618 3218045618 -11.00000000
0.75831908 -3.26126051 -0.53031284 1 6 16691 3.39000000 3218045623 3218045623 -9.00000000
0.96560836 -4.15931892 -0.52428192 2 8 16693 4.30200000 3218045627 3218045627 -7.00000000
1.33446038 -5.75269175 -0.51665926 3 10 16694 5.92800000 3218045632 3218045632 -5.00000000
2.10676098 -9.09640598 -0.48934120 4 12 16696 9.35000000 3218045636 3218045636 -3.00000000
2.59972453 -11.23380470 2.66207075 48 13 16697 11.83400000 3218045639 3218045639 13.00000000
2.21792746 -9.59162331 2.63788366 38 15 16698 10.19200000 3218045643 3218045643 15.00000000
0.44860688 -1.95245576 -0.53679073 4 0 16706 2.07400000 3218045664 3218045664 -15.00000000
0.52199197 -2.27548623 -0.53898275 3 2 16708 2.39600000 3218045669 3218045669 -13.00000000
0.74516791 -3.25618529 -0.52906138 1 6 16711 3.38200000 3218045678 3218045678 -9.00000000
0.94533569 -4.13750601 -0.52111334 2 8 16713 4.27600000 3218045682 3218045682 -7.00000000
1.31348467 -5.75342989 -0.51631063 3 10 16714 5.92400000 3218045687 3218045687 -5.00000000
2.06434321 -9.05696869 -0.48682907 4 12 16716 9.30200000 3218045692 3218045692 -3.00000000
2.56222630 -11.25041103 2.66387033 48 13 16717 11.84200000 3218045694 3218045694 13.00000000
2.18489909 -9.60910606 2.64047194 35 15 16719 10.20200000 3218045699 3218045699 15.00000000
0.44349289 -1.96154702 -0.53886127 4 0 16726 2.08200000 3218045719 3218045719 -15.00000000
0.51018405 -2.26018643 -0.53493363 4 2 16728 2.37800000 3218045724 3218045724 -13.00000000
0.60127199 -2.66588473 -0.53121227 3 4 16729 2.78400000 3218045729 3218045729 -11.00000000
0.73162746 -3.24913096 -0.52749699 1 6 16731 3.37200000 3218045733 3218045733 -9.00000000
0.93045193 -4.13884401 -0.52086955 2 8 16733 4.27400000 3218045738 3218045738 -7.00000000
1.29077351 -5.74631643 -0.51526475 3 10 16734 5.91200000 3218045742 3218045742 -5.00000000
2.04233098 -9.10699463 -0.48913184 4 12 16736 9.34600000 3218045747 3218045747 -3.00000000
2.52038288 -11.24787712 2.66117096 46 13 16737 11.83000000 3218045749 3218045749 13.00000000
2.15386629 -9.62006950 2.64150715 35 15 16738 10.20600000 3218045754 3218045754 15.00000000
0.43748200 -1.96685469 -0.53989655 4 0 16746 2.08600000 3218045775 3218045775 -15.00000000
0.50271392 -2.26385593 -0.53538352 4 2 16748 2.38000000 3218045779 3218045779 -13.00000000
0.58983636 -2.65838408 -0.52930415 3 4 16749 2.77400000 3218045784 3218045784 -11.00000000
0.72498071 -3.27287984 -0.53093857 1 6 16751 3.39400000 3218045788 3218045788 -9.00000000
0.91256988 -4.12656069 -0.51891965 2 8 16753 4.25800000 3218045793 3218045793 -7.00000000
1.27672553 -5.77802324 -0.51770508 3 10 16754 5.94000000 3218045798 3218045798 -5.00000000
2.01052928 -9.11406803 -0.48913184 4 12 16756 9.34600000 3218045802 3218045802 -3.00000000
2.48110509 -11.25660610 2.66117096 45 13 16757 11.83000000 3218045805 3218045805 13.00000000
2.12359691 -9.64262199 2.64564824 35 15 16758 10.22200000 3218045809 3218045809 15.00000000
0.42978802 -1.96459532 -0.53886127 4 0 16766 2.08200000 3218045830 3218045830 -15.00000000
0.49605590 -2.27130842 -0.53673321 4 2 16768 2.38600000 3218045835 3218045835 -13.00000000
0.71186996 -3.26767015 -0.52968711 1 6 16771 3.38600000 3218045844 3218045844 -9.00000000
0.90111303 -4.14329910 -0.52062583 2 8 16773 4.27200000 3218045848 3218045848 -7.00000000
1.25147164 -5.75908136 -0.51561338 3 10 16774 5.91600000 3218045853 3218045853 -5.00000000
2.44344831 -11.27281666 2.66297054 47 13 16777 11.83800000 3218045860 3218045860 13.00000000
2.08788037 -9.64053631 2.64306021 38 15 16778 10.21200000 3218045864 3218045864 15.00000000
0.42049006 -1.95475173 -0.53575540 4 0 16786 2.07000000 3218045885 3218045885 -15.00000000
0.48812455 -2.27302623 -0.53673321 4 2 16788 2.38600000 3218045890 3218045890 -13.00000000
0.57496995 -2.67971325 -0.53273869 3 4 16789 2.79200000 3218045894 3218045894 -11.00000000
0.69549441 -3.24695659 -0.52593267 1 6 16791 3.36200000 3218045899 3218045899 -9.00000000
0.88705981 -4.14836073 -0.52086955 2 8 16793 4.27400000 3218045904 3218045904 -7.00000000
1.22969604 -5.75562096 -0.51491612 3 10 16794 5.90800000 3218045908 3218045908 -5.00000000
2.40570855 -11.28890038 2.66477013 48 13 16797 11.84600000 3218045915 3218045915 13.00000000
2.05253196 -9.64812374 2.64306021 38 15 16799 10.21200000 3218045920 3218045920 15.00000000
0.41286480 -1.95242751 -0.53472012 4 0 16806 2.06600000 3218045941 3218045941 -15.00000000
0.48018724 -2.27471614 -0.53673321 4 2 16808 2.38600000 3218045945 3218045945 -13.00000000
0.56115568 -2.66057301 -0.52854091 3 4 16809 2.77000000 3218045950 3218045950 -11.00000000
0.68619114 -3.25902939 -0.52749699 1 6 16811 3.37200000 3218045954 3218045954 -9.00000000
0.87379885 -4.15725946 -0.52160078 2 8 16813 4.28000000 3218045959 3218045959 -7.00000000
1.20795977 -5.75207901 -0.51421887 3 10 16814 5.90000000 3218045964 3218045964 -5.00000000
2.36828589 -11.30676651 2.66701961 51 13 16817 11.85600000 3218045970 3218045970 13.00000000
2.02052641 -9.65487671 2.64306021 38 15 16818 10.21200000 3218045975 3218045975 15.00000000
0.40840548 -1.96520543 -0.53782600 4 0 16826 2.07800000 3218045996 3218045996 -15.00000000
0.47105652 -2.27065420 -0.53538352 4 2 16828 2.38000000 3218046000 3218046000 -13.00000000
0.85366052 -4.13306761 -0.51818848 4 8 16833 4.25200000 3218046014 3218046014 -7.00000000
1.19109523 -5.77187061 -0.51561338 3 10 16834 5.91600000 3218046019 3218046019 -5.00000000
2.32880330 -11.31496429 2.66701961 21 13 16837 11.85600000 3218046026 3218046026 13.00000000
1.98875785 -9.67133236 2.64564824 35 15 16838 10.22200000 3218046030 3218046030 15.00000000
0.40274447 -1.97426057 -0.53989655 4 0 16847 2.08600000 3218046051 3218046051 -15.00000000
0.46389756 -2.27809405 -0.53673321 4 2 16849 2.38600000 3218046056 3218046056 -13.00000000
0.66167325 -3.25804853 -0.52655840 1 6 16852 3.36600000 3218046065 3218046065 -9.00000000
0.83732313 -4.13033199 -0.51745725 6 8 16854 4.24600000 3218046069 3218046069 -7.00000000
1.16676819 -5.76057577 -0.51421887 3 10 16855 5.90000000 3218046074 3218046074 -5.00000000
2.28654456 -11.31960392 2.66611981 46 13 16858 11.85200000 3218046081 3218046081 13.00000000
1.95482600 -9.68613148 2.64771891 33 15 16859 10.23000000 3218046086 3218046086 15.00000000
0.39281431 -1.96050072 -0.53575540 4 0 16867 2.07000000 3218046106 3218046106 -15.00000000
0.45747143 -2.28734303 -0.53853285 4 2 16869 2.39400000 3218046111 3218046111 -13.00000000
0.53164452 -2.66062093 -0.52739608 3 4 16870 2.76400000 3218046116 3218046116 -11.00000000
0.64913732 -3.25452685 -0.52561980 1 6 16872 3.36000000 3218046120 3218046120 -9.00000000
0.82716423 -4.15464544 -0.52013838 4 8 16874 4.26800000 3218046125 3218046125 -7.00000000
1.14665282 -5.76461315 -0.51421887 3 10 16875 5.90000000 3218046129 3218046129 -5.00000000
2.24815536 -11.33325005 2.66746950 47 13 16878 11.85800000 3218046136 3218046136 13.00000000
1.91931140 -9.69323063 2.64771891 35 15 16880 10.23000000 3218046141 3218046141 15.00000000
0.38556442 -1.95800161 -0.53472012 4 0 16886 2.06600000 3218046162 3218046162 -15.00000000
0.44800457 -2.27928686 -0.53628331 3 2 16888 2.38400000 3218046166 3218046166 -13.00000000
0.52319694 -2.66429567 -0.52777767 3 4 16889 2.76600000 3218046171 3218046171 -11.00000000
0.64024115 -3.26635385 -0.52718413 1 6 16891 3.37000000 3218046175 3218046175 -9.00000000
0.80957085 -4.13788414 -0.51770097 2 8 16893 4.24800000 3218046180 3218046180 -7.00000000
1.12753046 -5.76838398 -0.51421887 3 10 16894 5.90000000 3218046185 3218046185 -5.00000000
2.21130633 -11.34446907 2.66836929 48 13 16897 11.86200000 3218046192 3218046192 13.00000000
1.88774204 -9.69352436 2.64616585 38 15 16898 10.22400000 3218046196 3218046196 15.00000000
0.38092712 -1.97071600 -0.53782600 4 0 16906 2.07800000 3218046217 3218046217 -15.00000000
0.44152233 -2.28849053 -0.53808290 3 2 16908 2.39200000 3218046221 3218046221 -13.00000000
0.51686627 -2.68152785 -0.53083062 3 4 16909 2.78200000 3218046226 3218046226 -11.00000000
0.62659639 -3.25693011 -0.52530694 1 6 16911 3.35800000 3218046231 3218046231 -9.00000000
0.79624504 -4.14653301 -0.51843220 2 8 16913 4.25400000 3218046235 3218046235 -7.00000000
1.10363424 -5.75271749 -0.51247579 3 10 16914 5.88000000 3218046240 3218046240 -5.00000000
2.17315793 -11.35977459 2.67016912 48 13 16917 11.87000000 3218046247 3218046247 13.00000000
1.85425639 -9.70195198 2.64668345 35 15 16918 10.22600000 3218046251 3218046251 15.00000000
0.37330890 -1.96627462 -0.53627306 4 0 16925 2.07200000 3218046272 3218046272 -15.00000000
0.43211690 -2.28036880 -0.53583342 4 2 16927 2.38200000 3218046277 3218046277 -13.00000000
0.51089263 -2.69865918 -0.53388357 3 4 16928 2.79800000 3218046281 3218046281 -11.00000000
0.61359197 -3.24734378 -0.52342969 1 6 16930 3.34600000 3218046286 3218046286 -9.00000000
0.78138661 -4.14329863 -0.51770097 2 8 16932 4.24800000 3218046291 3218046291 -7.00000000
1.08602715 -5.76417732 -0.51317298 3 10 16933 5.88800000 3218046295 3218046295 -5.00000000
2.13547564 -11.36691856 2.67016912 50 13 16936 11.87000000 3218046302 3218046302 13.00000000
1.82180309 -9.71596050 2.64875412 35 15 16938 10.23400000 3218046307 3218046307 15.00000000
0.36750418 -1.97326326 -0.53782600 4 0 16945 2.07800000 3218046327 3218046327 -15.00000000
0.42415428 -2.28186321 -0.53583342 4 2 16947 2.38200000 3218046332 3218046332 -13.00000000
0.49860185 -2.68498397 -0.53083062 3 4 16948 2.78200000 3218046337 3218046337 -11.00000000
0.60261291 -3.25140810 -0.52374262 1 6 16950 3.34800000 3218046341 3218046341 -9.00000000
0.76439154 -4.13233709 -0.51599479 2 8 16952 4.23400000 3218046346 3218046346 -7.00000000
1.06300330 -5.75225973 -0.51177853 3 10 16953 5.87200000 3218046351 3218046351 -5.00000000
2.09472537 -11.36855412 2.66881943 51 13 16956 11.86400000 3218046357 3218046357 13.00000000
1.78892517 -9.72796059 2.65030694 38 15 16958 10.24000000 3218046362 3218046362 15.00000000
0.35922563 -1.96693242 -0.53575540 4 0 16965 2.07000000 3218046383 3218046383 -15.00000000
0.41583708 -2.28141284 -0.53538352 3 2 16967 2.38000000 3218046387 3218046387 -13.00000000
0.48570940 -2.66739321 -0.52701443 3 4 16968 2.76200000 3218046392 3218046392 -11.00000000
0.59585130 -3.27875805 -0.52780986 1 6 16970 3.37400000 3218046397 3218046397 -9.00000000
0.75244212 -4.14865303 -0.51770097 2 8 16972 4.24800000 3218046401 3218046401 -7.00000000
1.03652370 -5.72064686 -0.50864089 3 10 16973 5.83600000 3218046406 3218046406 -5.00000000
2.05502892 -11.37579727 2.66881943 48 13 16976 11.86400000 3218046413 3218046413 13.00000000
1.75495744 -9.73414612 2.65030694 40 15 16978 10.24000000 3218046417 3218046417 15.00000000
0.35167670 -1.96437109 -0.53472012 4 0 16985 2.06600000 3218046438 3218046438 -15.00000000
0.41027015 -2.29627895 -0.53853285 4 2 16987 2.39400000 3218046443 3218046443 -13.00000000
0.47846529 -2.68066859 -0.52930415 3 4 16988 2.77400000 3218046447 3218046447 -11.00000000
0.58267063 -3.27109408 -0.52624553 1 6 16990 3.36400000 3218046452 3218046452 -9.00000000
0.73969322 -4.16102648 -0.51891965 2 8 16992 4.25800000 3218046457 3218046457 -7.00000000
1.02281940 -5.75954056 -0.51177853 3 10 16993 5.87200000 3218046461 3218046461 -5.00000000
2.01632667 -11.38865757 2.67016912 48 13 16996 11.87000000 3218046468 3218046468 13.00000000
1.71962368 -9.73260307 2.64823651 38 15 16998 10.23200000 3218046473 3218046473 15.00000000
0.34548521 -1.96939230 -0.53575540 4 0 17005 2.07000000 3218046493 3218046493 -15.00000000
0.39989981 -2.28426027 -0.53538352 4 2 17007 2.38000000 3218046498 3218046498 -13.00000000
0.47045794 -2.69005799 -0.53083062 3 4 17008 2.78200000 3218046503 3218046503 -11.00000000
0.56649405 -3.24586463 -0.52186537 1 6 17010 3.33600000 3218046507 3218046507 -9.00000000
0.72720772 -4.17531681 -0.52038211 2 8 17012 4.27000000 3218046512 3218046512 -7.00000000
1.00202549 -5.75915003 -0.51142991 3 10 17013 5.86800000 3218046516 3218046516 -5.00000000
1.97855866 -11.40714741 2.67286849 50 13 17016 11.88200000 3218046523 3218046523 13.00000000
1.68865895 -9.74586582 2.65030694 38 15 17017 10.24000000 3218046528 3218046528 15.00000000
0.33991727 -1.97820210 -0.53782600 4 0 17025 2.07800000 3218046549 3218046549 -15.00000000
0.39093578 -2.27988005 -0.53403378 4 2 17027 2.37400000 3218046553 3218046553 -13.00000000
0.46106502 -2.69168377 -0.53083062 3 4 17028 2.78200000 3218046558 3218046558 -11.00000000
0.55782306 -3.26339936 -0.52436835 1 6 17030 3.35200000 3218046562 3218046562 -9.00000000
0.70862329 -4.15434790 -0.51745725 2 8 17032 4.24600000 3218046567 3218046567 -7.00000000
0.98727089 -5.79403782 -0.51421887 3 10 17033 5.90000000 3218046572 3218046572 -5.00000000
1.93807566 -11.41014194 2.67196870 47 13 17036 11.87800000 3218046579 3218046579 13.00000000
1.65421867 -9.75960827 2.65237761 38 15 17038 10.24800000 3218046583 3218046583 15.00000000
0.33295873 -1.98330307 -0.53886127 4 0 17047 2.08200000 3218046604 3218046604 -15.00000000
0.38153484 -2.27752042 -0.53313398 4 2 17049 2.37000000 3218046609 3218046609 -13.00000000
0.45007828 -2.68956161 -0.53006738 3 4 17050 2.77800000 3218046613 3218046613 -11.00000000
0.54268563 -3.24992990 -0.52186537 1 6 17052 3.33600000 3218046618 3218046618 -9.00000000
0.69331908 -4.16095448 -0.51794469 2 8 17054 4.25000000 3218046622 3218046622 -7.00000000
0.96501619 -5.79778624 -0.51421887 3 10 17055 5.90000000 3218046627 3218046627 -5.00000000
1.48859632 -8.96275425 -0.47615254 4 12 17057 9.09800000 3218046632 3218046632 -3.00000000
1.89361179 -11.41365433 2.67106891 50 13 17058 11.87400000 3218046634 3218046634 13.00000000
1.61970019 -9.77322960 2.65444803 40 15 17059 10.25600000 3218046639 3218046639 15.00000000
0.32290176 -1.96539032 -0.53368485 4 0 17067 2.06200000 3218046659 3218046659 -15.00000000
0.37484354 -2.28653073 -0.53493363 4 2 17069 2.37800000 3218046664 3218046664 -13.00000000
0.43751451 -2.67174196 -0.52625120 3 4 17070 2.75800000 3218046668 3218046668 -11.00000000
0.53356779 -3.26545119 -0.52405548 1 6 17072 3.35000000 3218046673 3218046673 -9.00000000
0.67559612 -4.14375687 -0.51550734 2 8 17074 4.23000000 3218046678 3218046678 -7.00000000
0.93964809 -5.76965570 -0.51142991 3 10 17075 5.86800000 3218046682 3218046682 -5.00000000
1.85500813 -11.42788887 2.67286849 48 13 17078 11.88200000 3218046689 3218046689 13.00000000
1.58386862 -9.77910042 2.65444803 40 15 17080 10.25600000 3218046694 3218046694 15.00000000
0.31764734 -1.97211683 -0.53523779 4 0 17085 2.06800000 3218046715 3218046715 -15.00000000
0.36889523 -2.29539323 -0.53673321 4 2 17087 2.38600000 3218046719 3218046719 -13.00000000
0.43129712 -2.68667221 -0.52892256 3 4 17088 2.77200000 3218046724 3218046724 -11.00000000
0.52361888 -3.26906180 -0.52436835 1 6 17090 3.35200000 3218046728 3218046728 -9.00000000
0.66633409 -4.16938162 -0.51843220 2 8 17092 4.25400000 3218046733 3218046733 -7.00000000
1.81970954 -11.43750954 2.67376828 50 13 17096 11.88600000 3218046745 3218046745 13.00000000
1.55393696 -9.77803326 2.65289521 42 15 17097 10.25000000 3218046749 3218046749 15.00000000
0.31136250 -1.97703028 -0.53627306 4 0 17105 2.07200000 3218046770 3218046770 -15.00000000
0.36027557 -2.29281664 -0.53583342 4 2 17107 2.38200000 3218046774 3218046774 -13.00000000
0.42100301 -2.68234277 -0.52777767 3 4 17108 2.76600000 3218046779 3218046779 -11.00000000
0.50945401 -3.25330544 -0.52155250 1 6 17110 3.33400000 3218046784 3218046784 -9.00000000
0.65238905 -4.17560482 -0.51891965 2 8 17112 4.25800000 3218046788 3218046788 -7.00000000
1.78157103 -11.45534515 2.67646766 50 13 17116 11.89800000 3218046800 3218046800 13.00000000
1.48876321 -9.59467125 2.60164905 26 15 17118 10.05200000 3218046804 3218046804 15.00000000
0.30416560 -1.97619569 -0.53575540 4 0 17125 2.07000000 3218046825 3218046825 -15.00000000
0.35108683 -2.28635550 -0.53403378 4 2 17127 2.37400000 3218046830 3218046830 -13.00000000
0.41431609 -2.70126104 -0.53121227 3 4 17128 2.78400000 3218046834 3218046834 -11.00000000
0.50168031 -3.27849555 -0.52530694 1 6 17130 3.35800000 3218046839 3218046839 -9.00000000
0.63541281 -4.16215754 -0.51696974 2 8 17132 4.24200000 3218046844 3218046844 -7.00000000
1.36885011 -8.99798489 -0.47698990 4 12 17135 9.11400000 3218046853 3218046853 -3.00000000
1.74215901 -11.46534729 2.67736745 48 13 17136 11.90200000 3218046855 3218046855 13.00000000
1.48766518 -9.80201244 2.65651870 42 15 17137 10.26400000 3218046860 3218046860 15.00000000
0.29783997 -1.98106611 -0.53679073 4 0 17145 2.07400000 3218046880 3218046880 -15.00000000
0.34310383 -2.28756714 -0.53403378 4 2 17147 2.37400000 3218046885 3218046885 -13.00000000
0.40284833 -2.68909979 -0.52854091 3 4 17148 2.77000000 3218046890 3218046890 -11.00000000
0.48731339 -3.26068997 -0.52217823 1 6 17150 3.33800000 3218046894 3218046894 -9.00000000
0.62088031 -4.16435051 -0.51696974 2 8 17152 4.24200000 3218046899 3218046899 -7.00000000
0.86219168 -5.78979492 -0.51212716 3 10 17153 5.87600000 3218046903 3218046903 -5.00000000
1.33743298 -9.00270748 -0.47698990 4 12 17155 9.11400000 3218046908 3218046908 -3.00000000
1.70155478 -11.46750355 2.67646766 48 13 17156 11.89800000 3218046910 3218046910 13.00000000
1.45370913 -9.82077694 2.66014218 38 15 17158 10.27800000 3218046915 3218046915 15.00000000
0.28973636 -1.97641027 -0.53523779 4 0 17166 2.06800000 3218046936 3218046936 -15.00000000
0.33528113 -2.29266572 -0.53493363 4 2 17168 2.37800000 3218046940 3218046940 -13.00000000
0.39185461 -2.68278766 -0.52701443 3 4 17169 2.76200000 3218046945 3218046945 -11.00000000
0.47906172 -3.28786588 -0.52624553 1 6 17171 3.36400000 3218046950 3218046950 -9.00000000
0.60561305 -4.16659784 -0.51696974 2 8 17173 4.24200000 3218046954 3218046954 -7.00000000
0.83008820 -5.71799088 -0.50550330 3 10 17174 5.80000000 3218046959 3218046959 -5.00000000
1.66062868 -11.48137760 2.67826724 48 13 17177 11.90600000 3218046966 3218046966 13.00000000
1.41914320 -9.82387924 2.65962458 40 15 17178 10.27600000 3218046970 3218046970 15.00000000
0.28338271 -1.98123431 -0.53627306 4 0 17186 2.07200000 3218046991 3218046991 -15.00000000
0.32782671 -2.29768062 -0.53583342 4 2 17188 2.38200000 3218046996 3218046996 -13.00000000
0.38387236 -2.69385719 -0.52892256 3 4 17189 2.77200000 3218047000 3218047000 -11.00000000
0.46758199 -3.28951812 -0.52624553 1 6 17191 3.36400000 3218047005 3218047005 -9.00000000
0.58827847 -4.14903212 -0.51453239 2 8 17193 4.22200000 3218047009 3218047009 -7.00000000
0.81012362 -5.72085381 -0.50550330 3 10 17194 5.80000000 3218047014 3218047014 -5.00000000
1.62217450 -11.49868202 2.68096662 48 13 17197 11.91800000 3218047021 3218047021 13.00000000
1.38151217 -9.81753635 2.65651870 38 15 17199 10.26400000 3218047026 3218047026 15.00000000
0.27574238 -1.97451007 -0.53420252 4 0 17205 2.06400000 3218047046 3218047046 -15.00000000
0.31859240 -2.28717446 -0.53313398 4 2 17207 2.37000000 3218047051 3218047051 -13.00000000
0.37385502 -2.68733740 -0.52739608 3 4 17208 2.76400000 3218047056 3218047056 -11.00000000
0.45395595 -3.27148414 -0.52311683 1 6 17210 3.34400000 3218047060 3218047060 -9.00000000
0.56961781 -4.11556578 -0.51014507 2 8 17212 4.18600000 3218047065 3218047065 -7.00000000
0.78678322 -5.69193077 -0.50271434 3 10 17213 5.76800000 3218047069 3218047069 -5.00000000
1.58509779 -11.51172066 2.68276620 48 13 17216 11.92600000 3218047076 3218047076 13.00000000
1.35276818 -9.83713913 2.66065979 42 15 17217 10.28000000 3218047081 3218047081 15.00000000
0.26936939 -1.97928894 -0.53523779 4 0 17225 2.06800000 3218047102 3218047102 -15.00000000
0.31008250 -2.28441048 -0.53223419 4 2 17227 2.36600000 3218047106 3218047106 -13.00000000
0.36499965 -2.69251680 -0.52815932 3 4 17228 2.76800000 3218047111 3218047111 -11.00000000
0.44412160 -3.28479433 -0.52499408 3 6 17230 3.35600000 3218047115 3218047115 -9.00000000
0.55524832 -4.11752939 -0.51014507 2 8 17232 4.18600000 3218047120 3218047120 -7.00000000
0.77116454 -5.72623539 -0.50550330 3 10 17233 5.80000000 3218047125 3218047125 -5.00000000
1.54490471 -11.51718330 2.68276620 46 13 17236 11.92600000 3218047132 3218047132 13.00000000
1.31790888 -9.83797169 2.65962458 40 15 17237 10.27600000 3218047136 3218047136 15.00000000
0.26347408 -1.98787761 -0.53730834 4 0 17245 2.07600000 3218047157 3218047157 -15.00000000
0.30210653 -2.28547907 -0.53223419 4 2 17247 2.36600000 3218047162 3218047162 -13.00000000
0.35457104 -2.68598914 -0.52663285 3 4 17248 2.76000000 3218047166 3218047166 -11.00000000
0.43213716 -3.28240752 -0.52436835 1 6 17250 3.35200000 3218047171 3218047171 -9.00000000
0.54293942 -4.13518810 -0.51209497 2 8 17252 4.20200000 3218047175 3218047175 -7.00000000
0.75894231 -5.78815699 -0.51073265 3 10 17253 5.86000000 3218047180 3218047180 -5.00000000
1.50368357 -11.51477623 2.68096662 48 13 17256 11.91800000 3218047187 3218047187 13.00000000
1.28430939 -9.84825897 2.66117740 42 15 17257 10.28200000 3218047191 3218047191 15.00000000
0.25554490 -1.98112118 -0.53523779 4 0 17265 2.06800000 3218047212 3218047212 -15.00000000
0.29512137 -2.29425097 -0.53403378 4 2 17267 2.37400000 3218047217 3218047217 -13.00000000
0.34569332 -2.69110489 -0.52739608 3 4 17268 2.76400000 3218047221 3218047221 -11.00000000
0.42042577 -3.28193665 -0.52405548 1 6 17270 3.35000000 3218047226 3218047226 -9.00000000
0.52950782 -4.14493418 -0.51306993 2 8 17272 4.21000000 3218047231 3218047231 -7.00000000
0.73722047 -5.77891254 -0.50968677 3 10 17273 5.84800000 3218047235 3218047235 -5.00000000
1.14204776 -8.97722912 -0.47426844 4 12 17275 9.06200000 3218047240 3218047240 -3.00000000
1.46495390 -11.53155422 2.68366599 48 13 17276 11.93000000 3218047242 3218047242 13.00000000
1.24796236 -9.85098362 2.66065979 40 15 17278 10.28000000 3218047247 3218047247 15.00000000
0.24838749 -1.98008430 -0.53472012 4 0 17285 2.06600000 3218047268 3218047268 -15.00000000
0.28759491 -2.29913449 -0.53493363 4 2 17287 2.37800000 3218047272 3218047272 -13.00000000
0.33483747 -2.68060660 -0.52510637 3 4 17288 2.75200000 3218047277 3218047277 -11.00000000
0.40896711 -3.28338408 -0.52405548 1 6 17290 3.35000000 3218047281 3218047281 -9.00000000
0.51185530 -4.12114811 -0.50990134 2 8 17292 4.18400000 3218047286 3218047286 -7.00000000
0.71115839 -5.73399687 -0.50550330 3 10 17293 5.80000000 3218047291 3218047291 -5.00000000
1.10972393 -8.97323227 -0.47384974 4 12 17295 9.05400000 3218047295 3218047295 -3.00000000
1.42612529 -11.54820251 2.68636560 48 13 17296 11.94200000 3218047297 3218047297 13.00000000
1.21552491 -9.85698509 2.66117740 42 15 17297 10.28200000 3218047302 3218047302 15.00000000
0.24124043 -1.97902167 -0.53420252 4 0 17305 2.06400000 3218047323 3218047323 -15.00000000
0.27768666 -2.28464842 -0.53133440 4 2 17307 2.36200000 3218047327 3218047327 -13.00000000
0.32595143 -2.68565679 -0.52586961 3 4 17308 2.75600000 3218047332 3218047332 -11.00000000
0.39631692 -3.27498651 -0.52249110 1 6 17310 3.34000000 3218047337 3218047337 -9.00000000
0.49960685 -4.14064693 -0.51209497 2 8 17312 4.20200000 3218047341 3218047341 -7.00000000
0.68875539 -5.71666336 -0.50376022 3 10 17313 5.78000000 3218047346 3218047346 -5.00000000
1.38719845 -11.56471920 2.68906498 46 13 17316 11.95400000 3218047353 3218047353 13.00000000
1.18133986 -9.86308670 2.66169500 42 15 17317 10.28400000 3218047357 3218047357 15.00000000
0.23478502 -1.98368859 -0.53523779 4 0 17325 2.06800000 3218047378 3218047378 -15.00000000
0.27016681 -2.28947425 -0.53223419 4 2 17327 2.36600000 3218047383 3218047383 -13.00000000
0.31611529 -2.68287873 -0.52510637 3 4 17328 2.75200000 3218047387 3218047387 -11.00000000
0.38419124 -3.27046418 -0.52155250 3 6 17330 3.33400000 3218047392 3218047392 -9.00000000
0.48884487 -4.17391157 -0.51599479 2 8 17332 4.23400000 3218047396 3218047396 -7.00000000
0.66925919 -5.72299051 -0.50410879 3 10 17333 5.78400000 3218047401 3218047401 -5.00000000
1.34637094 -11.56561947 2.68816519 46 13 17336 11.95000000 3218047408 3218047408 13.00000000
1.14846539 -9.88058281 2.66531849 47 15 17337 10.29800000 3218047413 3218047413 15.00000000
0.22829996 -1.98833454 -0.53627306 4 0 17345 2.07200000 3218047433 3218047433 -15.00000000
0.26305988 -2.29814792 -0.53403378 4 2 17347 2.37400000 3218047438 3218047438 -13.00000000
0.30786300 -2.69371867 -0.52701443 3 4 17348 2.76200000 3218047443 3218047443 -11.00000000
0.37322009 -3.27571082 -0.52217823 3 6 17350 3.33800000 3218047447 3218047447 -9.00000000
0.46665519 -4.10853052 -0.50770766 2 8 17352 4.16600000 3218047452 3218047452 -7.00000000
0.65107423 -5.74112940 -0.50550330 3 10 17353 5.80000000 3218047456 3218047456 -5.00000000
1.30555403 -11.56637573 2.68726540 50 13 17356 11.94600000 3218047463 3218047463 13.00000000
1.11289155 -9.89048481 2.66687155 42 15 17358 10.30400000 3218047468 3218047468 15.00000000
0.22084914 -1.98140085 -0.53420252 4 0 17364 2.06400000 3218047489 3218047489 -15.00000000
0.25522229 -2.29707074 -0.53358388 3 2 17366 2.37200000 3218047493 3218047493 -13.00000000
0.30628818 -2.76106834 -0.53998947 1 4 17367 2.83000000 3218047498 3218047498 -11.00000000
0.36148694 -3.26907659 -0.52092677 3 6 17369 3.33000000 3218047502 3218047502 -9.00000000
0.45781299 -4.15346432 -0.51306993 2 8 17371 4.21000000 3218047507 3218047507 -7.00000000
0.62549406 -5.68384409 -0.50027394 3 10 17372 5.74000000 3218047512 3218047512 -5.00000000
1.26846433 -11.58226490 2.68996477 46 13 17375 11.95800000 3218047519 3218047519 13.00000000
1.08139431 -9.89009094 2.66583610 40 15 17376 10.30000000 3218047523 3218047523 15.00000000
0.21185844 -1.96295273 -0.52902615 3 0 17384 2.04400000 3218047544 3218047544 -15.00000000
0.35511965 -3.31745839 -0.52843565 1 6 17389 3.37800000 3218047558 3218047558 -9.00000000
0.44415432 -4.16293287 -0.51404488 2 8 17391 4.21800000 3218047562 3218047562 -7.00000000
0.60480583 -5.67806816 -0.49957672 3 10 17392 5.73200000 3218047567 3218047567 -5.00000000
1.22925925 -11.59824944 2.69266415 48 13 17395 11.97000000 3218047574 3218047574 13.00000000
1.04767799 -9.90149021 2.66790676 42 15 17396 10.30800000 3218047578 3218047578 15.00000000
0.43043509 -4.17235613 -0.51501983 2 8 17411 4.22600000 3218047618 3218047618 -7.00000000
0.58661491 -5.69600010 -0.50097120 3 10 17412 5.74800000 3218047622 3218047622 -5.00000000
1.18995810 -11.61410046 2.69536352 46 13 17415 11.98200000 3218047629 3218047629 13.00000000
1.01118398 -9.90334225 2.66738915 45 15 17417 10.30600000 3218047634 3218047634 15.00000000
0.16876701 -1.68191600 -0.32857308 1 4 17427 1.72200000 3218047664 3218047664 -11.00000000
0.41508096 -4.16593218 -0.51404488 2 8 17431 4.21800000 3218047673 3218047673 -7.00000000
0.56515104 -5.68215179 -0.49957672 3 10 17432 5.73200000 3218047678 3218047678 -5.00000000
1.14902627 -11.61430550 2.69446373 46 13 17435 11.97800000 3218047684 3218047684 13.00000000
0.97717720 -9.91257858 2.66894197 42 15 17437 10.31200000 3218047689 3218047689 15.00000000
0.16100307 -1.66295373 -0.32475692 1 4 17447 1.70200000 3218047719 3218047719 -11.00000000
0.16634466 -1.72440064 -0.27438605 1 6 17449 1.75400000 3218047724 3218047724 -9.00000000
0.54797697 -5.71185589 -0.50201708 3 10 17452 5.76000000 3218047733 3218047733 -5.00000000
1.10810769 -11.61436558 2.69356394 48 13 17455 11.97400000 3218047740 3218047740 13.00000000
0.94348395 -9.92554569 2.67153025 42 15 17457 10.32200000 3218047744 3218047744 15.00000000
0.15410307 -1.65177691 -0.32246721 1 4 17467 1.69000000 3218047774 3218047774 -11.00000000
0.16032436 -1.72497082 -0.27438605 1 6 17469 1.75400000 3218047779 3218047779 -9.00000000
0.15355307 -1.65839875 -0.20449676 1 8 17471 1.67800000 3218047784 3218047784 -7.00000000
1.06862903 -11.62980652 2.69626331 47 13 17475 11.98600000 3218047795 3218047795 13.00000000
0.90795112 -9.91915894 2.66894197 42 15 17477 10.31200000 3218047800 3218047800 15.00000000
0.15184727 -1.69141269 -0.33009955 1 4 17487 1.73000000 3218047830 3218047830 -11.00000000
0.14972760 -1.67436433 -0.26625144 1 6 17489 1.70200000 3218047834 3218047834 -9.00000000
0.14987667 -1.68265188 -0.20742162 3 8 17491 1.70200000 3218047839 3218047839 -7.00000000
0.78970766 -8.91881847 -0.46924418 4 12 17494 8.96600000 3218047848 3218047848 -3.00000000
1.02837002 -11.63734818 2.69716311 46 13 17495 11.99000000 3218047850 3218047850 13.00000000
0.87369531 -9.90672016 2.66480088 40 15 17496 10.29600000 3218047855 3218047855 15.00000000
0.13362269 -1.53969395 -0.41411048 1 0 17504 1.60000000 3218047876 3218047876 -15.00000000
0.14196798 -1.64251018 -0.38061717 1 2 17506 1.69200000 3218047880 3218047880 -13.00000000
0.14594221 -1.69193232 -0.33009955 1 4 17507 1.73000000 3218047885 3218047885 -11.00000000
0.14219132 -1.65519547 -0.26312277 1 6 17509 1.68200000 3218047889 3218047889 -9.00000000
0.14298691 -1.67129755 -0.20595919 12 8 17511 1.69000000 3218047894 3218047894 -7.00000000
0.98840088 -11.64863396 2.69896269 45 13 17515 11.99800000 3218047906 3218047906 13.00000000
0.83835542 -9.92140579 2.66790676 42 15 17517 10.30800000 3218047910 3218047910 15.00000000
0.12888858 -1.54785180 -0.41618103 1 0 17524 1.60800000 3218047931 3218047931 -15.00000000
0.13333510 -1.60803843 -0.37251896 1 2 17526 1.65600000 3218047936 3218047936 -13.00000000
0.14003538 -1.69243145 -0.33009955 1 4 17527 1.73000000 3218047940 3218047940 -11.00000000
0.13803478 -1.67536879 -0.26625144 1 6 17529 1.70200000 3218047945 3218047945 -9.00000000
0.13504209 -1.64606667 -0.20279059 22 8 17531 1.66400000 3218047949 3218047949 -7.00000000
0.94773352 -11.65201283 2.69896269 45 13 17535 11.99800000 3218047961 3218047961 13.00000000
0.80638790 -9.93568516 2.67101264 42 15 17536 10.32000000 3218047966 3218047966 15.00000000
0.12425273 -1.55792093 -0.41876921 3 0 17544 1.61800000 3218047986 3218047986 -15.00000000
0.12772118 -1.60849404 -0.37251896 4 2 17546 1.65600000 3218047991 3218047991 -13.00000000
0.13412684 -1.69290996 -0.33009955 1 4 17547 1.73000000 3218047995 3218047995 -11.00000000
0.13094316 -1.66008627 -0.26374850 1 6 17549 1.68600000 3218048000 3218048000 -9.00000000
0.12836300 -1.63465405 -0.20132816 30 8 17551 1.65200000 3218048005 3218048005 -7.00000000
0.90675223 -11.65136433 2.69806290 46 13 17555 11.99400000 3218048016 3218048016 13.00000000
0.77056330 -9.94627762 2.67308307 42 15 17557 10.32800000 3218048021 3218048021 15.00000000
0.11763889 -1.54293501 -0.41462812 4 0 17564 1.60200000 3218048042 3218048042 -15.00000000
0.12181077 -1.60504377 -0.37161914 4 2 17566 1.65200000 3218048046 3218048046 -13.00000000
0.12643793 -1.66987610 -0.32552016 1 4 17567 1.70600000 3218048051 3218048051 -11.00000000
0.12455376 -1.65265417 -0.26249704 1 6 17569 1.67800000 3218048055 3218048055 -9.00000000
0.12369567 -1.64894891 -0.20303433 41 8 17571 1.66600000 3218048060 3218048060 -7.00000000
0.12282066 -1.64112413 -0.14398129 2 10 17572 1.65200000 3218048065 3218048065 -5.00000000
0.12773924 -1.71488905 -0.09012251 1 12 17574 1.72200000 3218048069 3218048069 -3.00000000
0.86636472 -11.65834522 2.69896269 45 13 17575 11.99800000 3218048072 3218048072 13.00000000
0.73700470 -9.94107246 2.67101264 42 15 17576 10.32000000 3218048076 3218048076 15.00000000
0.11169177 -1.53562927 -0.41255757 6 0 17584 1.59400000 3218048097 3218048097 -15.00000000
0.11662944 -1.61129010 -0.37296885 6 2 17586 1.65800000 3218048101 3218048101 -13.00000000
0.12060821 -1.67030728 -0.32552016 1 4 17587 1.70600000 3218048106 3218048106 -11.00000000
0.11906733 -1.65701938 -0.26312277 1 6 17589 1.68200000 3218048111 3218048111 -9.00000000
0.11779743 -1.64739060 -0.20279059 43 8 17591 1.66400000 3218048115 3218048115 -7.00000000
0.11581551 -1.62365687 -0.14241248 2 10 17592 1.63400000 3218048120 3218048120 -5.00000000
0.70042813 -9.94177914 2.67049479 42 15 17597 10.31800000 3218048131 3218048131 15.00000000
0.10646188 -1.54181015 -0.41411048 6 0 17605 1.60000000 3218048152 3218048152 -15.00000000
0.11032230 -1.60587430 -0.37161914 4 2 17607 1.65200000 3218048157 3218048157 -13.00000000
0.11394855 -1.66290343 -0.32399368 1 4 17608 1.69800000 3218048161 3218048161 -11.00000000
0.11138097 -1.63379502 -0.25936833 1 6 17610 1.65800000 3218048166 3218048166 -9.00000000
0.11135567 -1.64186966 -0.20205937 50 8 17612 1.65800000 3218048171 3218048171 -7.00000000
0.10999820 -1.62605822 -0.14258680 2 10 17613 1.63600000 3218048175 3218048175 -5.00000000
0.10956395 -1.62807822 -0.08551695 1 12 17615 1.63400000 3218048180 3218048180 -3.00000000
0.66559148 -9.94223690 2.66997719 42 15 17617 10.31600000 3218048187 3218048187 15.00000000
0.10082661 -1.53831685 -0.41307521 6 0 17625 1.59600000 3218048207 3218048207 -15.00000000
0.10446253 -1.60236037 -0.37071934 4 2 17627 1.64800000 3218048212 3218048212 -13.00000000
0.10941702 -1.68288219 -0.32780984 1 4 17628 1.71800000 3218048217 3218048217 -11.00000000
0.10491243 -1.62234640 -0.25749114 1 6 17630 1.64600000 3218048221 3218048221 -9.00000000
0.10511415 -1.63432431 -0.20108442 15 8 17632 1.65000000 3218048226 3218048226 -7.00000000
0.10228101 -1.59461939 -0.13979781 2 10 17633 1.60400000 3218048230 3218048230 -5.00000000
0.10426167 -1.63443029 -0.08583097 7 12 17635 1.64000000 3218048235 3218048235 -3.00000000
0.62987876 -9.95617676 2.67308307 40 15 17638 10.32800000 3218048242 3218048242 15.00000000
0.09584478 -1.54057097 -0.41359285 6 0 17644 1.59800000 3218048263 3218048263 -15.00000000
0.09878736 -1.59686291 -0.36936963 4 2 17646 1.64200000 3218048267 3218048267 -13.00000000
0.10165994 -1.64796424 -0.32094073 1 4 17647 1.68200000 3218048272 3218048272 -11.00000000
0.09953196 -1.62268531 -0.25749114 4 6 17649 1.64600000 3218048277 3218048277 -9.00000000
0.09848555 -1.61484981 -0.19864704 5 8 17651 1.63000000 3218048281 3218048281 -7.00000000
0.09783906 -1.60887086 -0.14101799 2 10 17652 1.61800000 3218048286 3218048286 -5.00000000
0.09920275 -1.64074790 -0.08614498 24 12 17654 1.64600000 3218048290 3218048290 -3.00000000
0.59882927 -9.96196365 2.67411828 42 15 17656 10.33200000 3218048297 3218048297 15.00000000
0.08990047 -1.53125346 -0.41100463 6 0 17664 1.58800000 3218048318 3218048318 -15.00000000
0.09207731 -1.57774365 -0.36487061 4 2 17666 1.62200000 3218048323 3218048323 -13.00000000
0.09590685 -1.64830911 -0.32094073 1 4 17667 1.68200000 3218048327 3218048327 -11.00000000
0.09420929 -1.62893915 -0.25842974 4 6 17669 1.65200000 3218048332 3218048332 -9.00000000
0.09364554 -1.62905645 -0.20035321 3 8 17671 1.64400000 3218048336 3218048336 -7.00000000
0.09210847 -1.60721350 -0.14084367 4 10 17672 1.61600000 3218048341 3218048341 -5.00000000
0.09313414 -1.63510215 -0.08583097 47 12 17674 1.64000000 3218048346 3218048346 -3.00000000
0.56220400 -9.96216297 2.67360067 42 15 17677 10.33000000 3218048353 3218048353 15.00000000
0.08253150 -1.49490857 -0.40116951 22 0 17684 1.55000000 3218048373 3218048373 -15.00000000
0.07895482 -1.44385839 0.07578246 2 3 17687 1.44800000 3218048380 3218048380 3.00000000
0.09079578 -1.66039574 -0.32323045 1 4 17687 1.69400000 3218048383 3218048383 -11.00000000
0.08820115 -1.62334061 -0.25749114 3 6 17689 1.64600000 3218048387 3218048387 -9.00000000
0.08849353 -1.63928449 -0.20157190 4 8 17691 1.65400000 3218048392 3218048392 -7.00000000
0.08628358 -1.60354614 -0.14049506 6 10 17692 1.61200000 3218048396 3218048396 -5.00000000
0.08785246 -1.64339495 -0.08624966 100 12 17694 1.64800000 3218048401 3218048401 -3.00000000
0.52885783 -9.95818520 2.67204785 40 15 17696 10.32400000 3218048408 3218048408 15.00000000
0.07711328 -1.49132895 -0.40013424 40 0 17704 1.54600000 3218048429 3218048429 -15.00000000
0.07228087 -1.41221082 0.07410771 2 3 17707 1.41600000 3218048436 3218048436 3.00000000
0.08419654 -1.64501715 -0.32017750 1 4 17707 1.67800000 3218048438 3218048438 -11.00000000
0.08273466 -1.62758434 -0.25811687 1 6 17709 1.65000000 3218048442 3218048442 -9.00000000
0.08267073 -1.63760090 -0.20132816 2 8 17711 1.65200000 3218048447 3218048447 -7.00000000
0.08178680 -1.62572622 -0.14241248 23 10 17712 1.63400000 3218048452 3218048452 -5.00000000
0.08121852 -1.62573862 -0.08530761 100 12 17714 1.63000000 3218048456 3218048456 -3.00000000
0.49409404 -9.95997047 2.67204785 40 15 17716 10.32400000 3218048463 3218048463 15.00000000
0.07209314 -1.49544835 -0.40116951 50 0 17724 1.55000000 3218048484 3218048484 -15.00000000
0.06801679 -1.42641950 0.07484042 2 3 17727 1.43000000 3218048491 3218048491 3.00000000
0.07845384 -1.64530098 -0.32017750 1 4 17727 1.67800000 3218048493 3218048493 -11.00000000
0.07780001 -1.64364851 -0.26061982 1 6 17729 1.66600000 3218048498 3218048498 -9.00000000
0.07620862 -1.62201619 -0.19937825 2 8 17731 1.63600000 3218048502 3218048502 -7.00000000
0.07555250 -1.61406052 -0.14136662 81 10 17732 1.62200000 3218048507 3218048507 -5.00000000
0.07461622 -1.60606122 -0.08426089 100 12 17734 1.61000000 3218048512 3218048512 -3.00000000
