# .PCD v0.7 - Point Cloud Data file format
VERSION 0.7
FIELDS x y z intensity laser_id azimuth distance_m adjustedtime timestamp vertical_angle
SIZE 4 4 4 1 1 2 8 8 4 8
TYPE F F F U U U F U U F
COUNT 1 1 1 1 1 1 1 1 1 1
WIDTH 528
HEIGHT 1
VIEWPOINT 0 0 0 1 0 0 0
POINTS 528
DATA ascii
2.80937362 -2.23387623 -0.56848282 5 6 12849 3.63400000 3218734888 3218734888 -9.00000000
3.91494465 -3.11408758 0.61422151 22 7 12850 5.04000000 3218734890 3218734890 7.00000000
3.70314765 -2.94667196 -0.58107305 4 8 12851 4.76800000 3218734893 3218734893 -7.00000000
6.67972279 -5.31709909 1.35221946 47 9 12852 8.64400000 3218734895 3218734895 9.00000000
5.27818871 -4.20146990 -0.59021866 12 10 12852 6.77200000 3218734897 3218734897 -5.00000000
4.87776041 -3.88411736 1.21201873 34 11 12853 6.35200000 3218734900 3218734900 11.00000000
4.08672285 -3.25538683 -0.27382171 2 12 12854 5.23200000 3218734902 3218734902 -3.00000000
4.49744415 -3.58384109 1.32766116 19 13 12855 5.90200000 3218734904 3218734904 13.00000000
3.69965148 -2.94916654 -0.08258479 5 14 12856 4.73200000 3218734907 3218734907 -1.00000000
6.50685692 -5.18877983 2.22998500 45 15 12857 8.61600000 3218734909 3218734909 15.00000000
1.64950132 -1.31819427 -0.56577843 4 0 12863 2.18600000 3218734930 3218734930 -15.00000000
3.98136353 -3.18283415 0.08897237 40 1 12864 5.09800000 3218734932 3218734932 1.00000000
1.92979300 -1.54329264 -0.57047588 3 2 12865 2.53600000 3218734934 3218734934 -13.00000000
3.53141189 -2.82413816 0.23697720 28 3 12865 4.52800000 3218734937 3218734937 3.00000000
2.28729558 -1.82984912 -0.56937402 3 4 12866 2.98400000 3218734939 3218734939 -11.00000000
3.89204454 -3.11477113 0.43612733 26 5 12867 5.00400000 3218734941 3218734941 5.00000000
2.78961372 -2.23330379 -0.56597990 5 6 12868 3.61800000 3218734943 3218734943 -9.00000000
3.91544247 -3.13573909 0.61592764 22 7 12869 5.05400000 3218734946 3218734946 7.00000000
3.69490504 -2.96017694 -0.58131677 6 8 12870 4.77000000 3218734948 3218734948 -7.00000000
6.64663935 -5.32686710 1.34909081 47 9 12871 8.62400000 3218734950 3218734950 9.00000000
5.27044582 -4.22393370 -0.59091592 12 10 12871 6.78000000 3218734953 3218734953 -5.00000000
4.85413122 -3.89167500 1.20934737 34 11 12872 6.33800000 3218734955 3218734955 11.00000000
4.04630184 -3.24517894 -0.27183294 2 12 12873 5.19400000 3218734957 3218734957 -3.00000000
4.49161482 -3.60361338 1.32946074 21 13 12874 5.91000000 3218734960 3218734960 13.00000000
3.70856571 -2.97643852 -0.08300365 5 14 12875 4.75600000 3218734962 3218734962 -1.00000000
6.47244453 -5.19468594 2.22377324 45 15 12875 8.59200000 3218734964 3218734964 15.00000000
1.64338493 -1.32273281 -0.56526077 4 0 12883 2.18400000 3218734985 3218734985 -15.00000000
3.99047732 -3.21301556 0.08942613 52 1 12884 5.12400000 3218734987 3218734987 1.00000000
1.91832352 -1.54512990 -0.56867629 3 2 12885 2.52800000 3218734989 3218734989 -13.00000000
3.50442219 -2.82266665 0.23582582 26 3 12885 4.50600000 3218734992 3218734992 3.00000000
2.28242302 -1.83905387 -0.56975567 3 4 12886 2.98600000 3218734994 3218734994 -11.00000000
3.89355779 -3.13834047 0.43752182 26 5 12887 5.02000000 3218734996 3218734996 5.00000000
2.78795218 -2.24798751 -0.56723136 5 6 12888 3.62600000 3218734999 3218734999 -9.00000000
3.91683364 -3.15935779 0.61787754 22 7 12889 5.07000000 3218735001 3218735001 7.00000000
3.67373538 -2.96433067 -0.57961059 4 8 12890 4.75600000 3218735003 3218735003 -7.00000000
6.60033655 -5.32770252 1.34345913 45 9 12891 8.58800000 3218735006 3218735006 9.00000000
5.24946833 -4.23729992 -0.59021866 12 10 12891 6.77200000 3218735008 3218735008 -5.00000000
4.82524252 -3.89626145 1.20553124 31 11 12892 6.31800000 3218735010 3218735010 11.00000000
4.03805685 -3.26179338 -0.27204230 2 12 12893 5.19800000 3218735013 3218735013 -3.00000000
4.47597694 -3.61682057 1.32856095 20 13 12894 5.90600000 3218735015 3218735015 13.00000000
3.70592904 -2.99565125 -0.08317817 7 14 12895 4.76600000 3218735017 3218735017 -1.00000000
6.43924809 -5.20510292 2.21859694 45 15 12895 8.57200000 3218735019 3218735019 15.00000000
1.64325988 -1.33211088 -0.56681371 4 0 12903 2.19000000 3218735040 3218735040 -15.00000000
3.99787569 -3.24203968 0.08984499 54 1 12904 5.14800000 3218735042 3218735042 1.00000000
1.91594505 -1.55427206 -0.56957608 3 2 12905 2.53200000 3218735045 3218735045 -13.00000000
3.49250221 -2.83423352 0.23572114 31 3 12906 4.50400000 3218735047 3218735047 3.00000000
2.26989198 -1.84206140 -0.56822920 3 4 12906 2.97800000 3218735049 3218735049 -11.00000000
3.90423512 -3.16949296 0.43996218 23 5 12907 5.04800000 3218735052 3218735052 5.00000000
2.78622198 -2.26268673 -0.56848282 5 6 12908 3.63400000 3218735054 3218735054 -9.00000000
3.91348529 -3.17926931 0.61909628 22 7 12909 5.08000000 3218735056 3218735056 7.00000000
3.65104127 -2.96712089 -0.57766068 4 8 12910 4.74000000 3218735059 3218735059 -7.00000000
6.55657244 -5.32838202 1.33814037 50 9 12910 8.55400000 3218735061 3218735061 9.00000000
5.23619127 -4.25685501 -0.59039301 12 10 12911 6.77400000 3218735063 3218735063 -5.00000000
4.80095053 -3.90441012 1.20285988 9 11 12912 6.30400000 3218735066 3218735066 11.00000000
3.80974340 -3.09940815 -0.25738823 2 12 12913 4.91800000 3218735068 3218735068 -3.00000000
4.45576763 -3.62627220 1.32631147 21 13 12914 5.89600000 3218735070 3218735070 13.00000000
3.71871114 -3.02750683 -0.08370174 5 14 12915 4.79600000 3218735072 3218735072 -1.00000000
6.41413546 -5.22378922 2.21652627 45 15 12916 8.56400000 3218735075 3218735075 15.00000000
1.63111770 -1.33172989 -0.56422549 4 0 12923 2.18000000 3218735095 3218735095 -15.00000000
4.00821733 -3.27368450 0.09033366 54 1 12924 5.17600000 3218735098 3218735098 1.00000000
1.91654432 -1.56588244 -0.57137567 3 2 12925 2.54000000 3218735100 3218735100 -13.00000000
3.47844458 -2.84200835 0.23540713 30 3 12925 4.49800000 3218735102 3218735102 3.00000000
2.26344824 -1.84997356 -0.56822920 3 4 12926 2.97800000 3218735105 3218735105 -11.00000000
3.89623260 -3.18562412 0.44031081 23 5 12927 5.05200000 3218735107 3218735107 5.00000000
2.77524853 -2.26989722 -0.56785709 5 6 12928 3.63000000 3218735109 3218735109 -9.00000000
3.91465473 -3.20296693 0.62104619 22 7 12929 5.09600000 3218735112 3218735112 7.00000000
3.65295100 -2.98990583 -0.57961059 4 8 12930 4.75600000 3218735114 3218735114 -7.00000000
6.49420357 -5.31733704 1.32938004 52 9 12931 8.49800000 3218735116 3218735116 9.00000000
5.19971800 -4.25743580 -0.58795261 12 10 12931 6.74600000 3218735119 3218735119 -5.00000000
4.66426849 -3.82037926 1.17194879 9 11 12932 6.14200000 3218735121 3218735121 11.00000000
3.79890132 -3.11268759 -0.25738823 2 12 12933 4.91800000 3218735123 3218735123 -3.00000000
4.43705368 -3.63686228 1.32451177 14 13 12934 5.88800000 3218735125 3218735125 13.00000000
3.70812058 -3.04046917 -0.08370174 5 14 12935 4.79600000 3218735128 3218735128 -1.00000000
6.38988733 -5.24124622 2.21445584 45 15 12936 8.55600000 3218735130 3218735130 15.00000000
1.63093567 -1.34109640 -0.56577843 4 0 12943 2.18600000 3218735151 3218735151 -15.00000000
3.99985433 -3.29019642 0.09040347 52 1 12944 5.18000000 3218735153 3218735153 1.00000000
1.91558099 -1.57627761 -0.57272536 4 2 12945 2.54600000 3218735155 3218735155 -13.00000000
3.47158742 -2.85667109 0.23561648 30 3 12945 4.50200000 3218735158 3218735158 3.00000000
2.25697684 -1.85786319 -0.56822920 2 4 12946 2.97800000 3218735160 3218735160 -11.00000000
3.89124107 -3.20427132 0.44100806 26 5 12947 5.06000000 3218735162 3218735162 5.00000000
2.76120949 -2.27454710 -0.56660563 5 6 12948 3.62200000 3218735165 3218735165 -9.00000000
3.91570616 -3.22671127 0.62299609 22 7 12949 5.11200000 3218735167 3218735167 7.00000000
3.62870622 -2.99127460 -0.57741696 6 8 12950 4.73800000 3218735169 3218735169 -7.00000000
6.44909859 -5.31622648 1.32374847 50 9 12950 8.46200000 3218735172 3218735172 9.00000000
5.18175077 -4.27302504 -0.58760405 12 10 12951 6.74200000 3218735174 3218735174 -5.00000000
4.62667322 -3.81664824 1.16584301 18 11 12952 6.11000000 3218735176 3218735176 11.00000000
3.78801274 -3.12592936 -0.25738823 2 12 12953 4.91800000 3218735178 3218735178 -3.00000000
4.41531467 -3.64488459 1.32181239 10 13 12954 5.87600000 3218735181 3218735181 13.00000000
3.71136189 -3.06485415 -0.08401588 12 14 12955 4.81400000 3218735183 3218735183 -1.00000000
6.34623384 -5.24260283 2.20565581 36 15 12956 8.52200000 3218735185 3218735185 15.00000000
1.62326872 -1.34431684 -0.56474316 4 0 12963 2.18200000 3218735206 3218735206 -15.00000000
3.99758434 -3.31179285 0.09061290 54 1 12964 5.19200000 3218735208 3218735208 1.00000000
1.90556574 -1.57922411 -0.57137567 3 2 12965 2.54000000 3218735211 3218735211 -13.00000000
3.46467018 -2.87132072 0.23582582 30 3 12965 4.50600000 3218735213 3218735213 3.00000000
2.24443221 -1.86071813 -0.56670272 3 4 12966 2.97000000 3218735215 3218735215 -11.00000000
3.89230132 -3.22800970 0.44240254 23 5 12967 5.07600000 3218735218 3218735218 5.00000000
2.75021243 -2.28164911 -0.56597990 5 6 12968 3.61800000 3218735220 3218735220 -9.00000000
3.91358423 -3.24796653 0.62445849 20 7 12969 5.12400000 3218735222 3218735222 7.00000000
3.61824274 -3.00392294 -0.57741696 6 8 12970 4.73800000 3218735225 3218735225 -7.00000000
6.40618420 -5.31851673 1.31874251 50 9 12970 8.43000000 3218735227 3218735227 9.00000000
5.15607452 -4.28217602 -0.58638382 12 10 12971 6.72800000 3218735229 3218735229 -5.00000000
4.60577202 -3.82650232 1.16393483 21 11 12972 6.10000000 3218735231 3218735231 11.00000000
3.73406959 -3.10338855 -0.25445741 9 12 12973 4.86200000 3218735234 3218735234 -3.00000000
4.39956760 -3.65778303 1.32091260 10 13 12974 5.87200000 3218735236 3218735236 13.00000000
3.70679069 -3.08290529 -0.08415551 28 14 12975 4.82200000 3218735238 3218735238 -1.00000000
6.30561876 -5.24619007 2.19789124 36 15 12976 8.49200000 3218735241 3218735241 15.00000000
1.61559916 -1.34750021 -0.56370789 4 0 12983 2.17800000 3218735261 3218735261 -15.00000000
3.99828315 -3.33597565 0.09089214 54 1 12984 5.20800000 3218735264 3218735264 1.00000000
1.88208854 -1.57088161 -0.56597686 3 2 12985 2.51600000 3218735266 3218735266 -13.00000000
3.45769286 -2.88595676 0.23603517 30 3 12985 4.51000000 3218735268 3218735268 3.00000000
3.64246535 -3.04125547 -0.92237067 4 4 12986 4.83400000 3218735271 3218735271 -11.00000000
3.89324307 -3.25179434 0.44379705 25 5 12987 5.09200000 3218735273 3218735273 5.00000000
2.75435829 -2.30136776 -0.56848282 5 6 12988 3.63400000 3218735275 3218735275 -9.00000000
3.90983844 -3.26797295 0.62567723 20 7 12989 5.13400000 3218735277 3218735277 7.00000000
3.60164356 -3.01144147 -0.57644200 6 8 12990 4.73000000 3218735280 3218735280 -7.00000000
6.36787939 -5.32437372 1.31467521 47 9 12990 8.40400000 3218735282 3218735282 9.00000000
5.14415216 -4.30270481 -0.58673245 12 10 12991 6.73200000 3218735284 3218735284 -5.00000000
4.68875170 -3.92318678 1.18835843 12 11 12992 6.22800000 3218735287 3218735287 11.00000000
3.72627711 -3.11896777 -0.25466678 4 12 12993 4.86600000 3218735289 3218735289 -3.00000000
4.36137247 -3.65185022 1.31326425 9 13 12994 5.83800000 3218735291 3218735291 13.00000000
3.70827055 -3.10609794 -0.08443474 32 14 12995 4.83800000 3218735294 3218735294 -1.00000000
6.26004887 -5.24350214 2.18805623 31 15 12995 8.45400000 3218735296 3218735296 15.00000000
1.62567794 -1.36555696 -0.56888425 4 0 13003 2.19800000 3218735317 3218735317 -15.00000000
4.00498581 -3.36534929 0.09131099 54 1 13004 5.23200000 3218735319 3218735319 1.00000000
1.88554406 -1.58496535 -0.56867629 3 2 13005 2.52800000 3218735321 3218735321 -13.00000000
3.43689585 -2.88901281 0.23530246 28 3 13005 4.49600000 3218735324 3218735324 3.00000000
3.63934016 -3.06026912 -0.92427880 4 4 13006 4.84400000 3218735326 3218735326 -11.00000000
3.90016484 -3.28075504 0.44588879 25 5 13007 5.11600000 3218735328 3218735328 5.00000000
2.74026251 -2.30588078 -0.56723136 5 6 13008 3.62600000 3218735330 3218735330 -9.00000000
3.91814995 -3.29821992 0.62884581 20 7 13009 5.16000000 3218735333 3218735333 7.00000000
3.57136989 -3.00737262 -0.57327342 4 8 13010 4.70400000 3218735335 3218735335 -7.00000000
6.31903505 -5.32112169 1.30841792 50 9 13010 8.36400000 3218735337 3218735337 9.00000000
5.13214922 -4.32320213 -0.58708107 12 10 13011 6.73600000 3218735340 3218735340 -5.00000000
4.68854046 -3.95091558 1.19179296 25 11 13012 6.24600000 3218735342 3218735342 11.00000000
3.87265563 -3.26454592 -0.26544797 5 12 13013 5.07200000 3218735344 3218735344 -3.00000000
4.33221149 -3.65323281 1.30831528 10 13 13014 5.81600000 3218735347 3218735347 13.00000000
3.69740558 -3.11902332 -0.08443474 30 14 13015 4.83800000 3218735349 3218735349 -1.00000000
6.22011852 -5.24896860 2.18080926 31 15 13016 8.42600000 3218735351 3218735351 15.00000000
1.60762739 -1.35999405 -0.56422549 4 0 13023 2.18000000 3218735372 3218735372 -15.00000000
4.00847864 -3.39222670 0.09166004 54 1 13024 5.25200000 3218735374 3218735374 1.00000000
1.88297462 -1.59405565 -0.56957608 3 2 13025 2.53200000 3218735377 3218735377 -13.00000000
3.44000149 -2.91320705 0.23624450 31 3 13026 4.51400000 3218735379 3218735379 3.00000000
3.64062119 -3.08310437 -0.92733175 4 4 13026 4.86000000 3218735381 3218735381 -11.00000000
3.90237093 -3.30593991 0.44745758 27 5 13027 5.13400000 3218735383 3218735383 5.00000000
2.73521066 -2.31798649 -0.56785709 5 6 13028 3.63000000 3218735386 3218735386 -9.00000000
3.91569829 -3.31957889 0.63030827 20 7 13029 5.17200000 3218735388 3218735388 7.00000000
3.54722476 -3.00826526 -0.57107973 4 8 13030 4.68600000 3218735390 3218735390 -7.00000000
6.26577139 -5.31376076 1.30122185 52 9 13030 8.31800000 3218735393 3218735393 9.00000000
5.09119892 -4.31917858 -0.58411777 12 10 13031 6.70200000 3218735395 3218735395 -5.00000000
4.67022991 -3.96344662 1.19064808 31 11 13032 6.24000000 3218735397 3218735397 11.00000000
3.97542930 -3.37498951 -0.27329835 10 12 13033 5.22200000 3218735400 3218735400 -3.00000000
4.31052065 -3.66076422 1.30561590 12 13 13034 5.80400000 3218735402 3218735402 13.00000000
3.68954372 -3.13450003 -0.08450455 30 14 13035 4.84200000 3218735404 3218735404 -1.00000000
6.17323256 -5.24455070 2.17045641 33 15 13035 8.38600000 3218735407 3218735407 15.00000000
1.60139978 -1.36434460 -0.56370789 4 0 13043 2.17800000 3218735427 3218735427 -15.00000000
3.99965692 -3.40879250 0.09172985 52 1 13044 5.25600000 3218735430 3218735430 1.00000000
1.88036478 -1.60314739 -0.57047588 3 2 13045 2.53600000 3218735432 3218735432 -13.00000000
3.43437028 -2.92908525 0.23655853 31 3 13046 4.52000000 3218735434 3218735434 3.00000000
3.63879967 -3.10343766 -0.92962140 4 4 13046 4.87200000 3218735436 3218735436 -11.00000000
3.88929152 -3.31824851 0.44728327 27 5 13047 5.13200000 3218735439 3218735439 5.00000000
2.71958995 -2.32110810 -0.56629276 5 6 13048 3.62000000 3218735441 3218735441 -9.00000000
3.92371297 -3.34998322 0.63347685 18 7 13049 5.19800000 3218735443 3218735443 7.00000000
3.54123068 -3.02449679 -0.57181096 4 8 13050 4.69200000 3218735446 3218735446 -7.00000000
6.21621609 -5.31102705 1.29496455 50 9 13051 8.27800000 3218735448 3218735448 9.00000000
5.07154655 -4.33304119 -0.58359486 12 10 13051 6.69600000 3218735450 3218735450 -5.00000000
4.63994980 -3.96569347 1.18645036 34 11 13052 6.21800000 3218735453 3218735453 11.00000000
3.97880459 -3.40182471 -0.27434507 31 12 13053 5.24200000 3218735455 3218735455 -3.00000000
4.28883028 -3.66818857 1.30291653 11 13 13054 5.79200000 3218735457 3218735457 13.00000000
3.68769646 -3.15515995 -0.08471398 28 14 13055 4.85400000 3218735460 3218735460 -1.00000000
6.11874485 -5.23699331 2.15803313 31 15 13056 8.33800000 3218735462 3218735462 15.00000000
1.59516144 -1.36866820 -0.56319022 4 0 13063 2.17600000 3218735483 3218735483 -15.00000000
1.87180018 -1.60716236 -0.56957608 3 2 13065 2.53200000 3218735487 3218735487 -13.00000000
3.43624592 -2.95146632 0.23739590 30 3 13066 4.53600000 3218735489 3218735489 3.00000000
3.64581609 -3.13147092 -0.93420082 4 4 13066 4.89600000 3218735492 3218735492 -11.00000000
3.89279675 -3.34478879 0.44902638 25 5 13067 5.15200000 3218735494 3218735494 5.00000000
2.70547915 -2.32543659 -0.56504130 5 6 13068 3.61200000 3218735496 3218735496 -9.00000000
3.91500568 -3.36624765 0.63396430 18 7 13069 5.20200000 3218735499 3218735499 7.00000000
3.54269147 -3.04719543 -0.57376087 4 8 13070 4.70800000 3218735501 3218735501 -7.00000000
6.18359423 -5.31872988 1.29183578 50 9 13070 8.25800000 3218735503 3218735503 9.00000000
5.04430866 -4.34032202 -0.58220035 12 10 13071 6.68000000 3218735506 3218735506 -5.00000000
4.61417484 -3.97161984 1.18339741 34 11 13072 6.20200000 3218735508 3218735508 11.00000000
3.97296000 -3.42090559 -0.27476376 10 12 13073 5.25000000 3218735510 3218735510 -3.00000000
4.25828171 -3.66787529 1.29751766 14 13 13074 5.76800000 3218735513 3218735513 13.00000000
3.69483924 -3.18367720 -0.08513284 26 14 13075 4.87800000 3218735515 3218735515 -1.00000000
6.09110022 -5.24842787 2.15440965 24 15 13075 8.32400000 3218735517 3218735517 15.00000000
1.59768295 -1.38054335 -0.56577843 4 0 13083 2.18600000 3218735538 3218735538 -15.00000000
3.99845457 -3.45624757 0.09225342 35 1 13084 5.28600000 3218735540 3218735540 1.00000000
1.85143805 -1.60094011 -0.56507707 3 2 13085 2.51200000 3218735542 3218735542 -13.00000000
3.42139077 -2.95952320 0.23708189 28 3 13086 4.53000000 3218735545 3218735545 3.00000000
3.65565062 -3.16215944 -0.93954349 4 4 13086 4.92400000 3218735547 3218735547 -11.00000000
3.90068388 -3.37530518 0.45129243 30 5 13087 5.17800000 3218735549 3218735549 5.00000000
2.70331955 -2.34003758 -0.56629276 5 6 13088 3.62000000 3218735552 3218735552 -9.00000000
3.91823816 -3.39288759 0.63640171 18 7 13089 5.22200000 3218735554 3218735554 7.00000000
3.51102710 -3.04134703 -0.57034850 4 8 13090 4.68000000 3218735556 3218735556 -7.00000000
6.13718653 -5.31807327 1.28620422 50 9 13091 8.22200000 3218735559 3218735559 9.00000000
5.02912712 -4.35790348 -0.58220035 12 10 13091 6.68000000 3218735561 3218735561 -5.00000000
4.58989906 -3.97870040 1.18072605 34 11 13092 6.18800000 3218735563 3218735563 11.00000000
3.95344973 -3.42821050 -0.27424040 7 12 13093 5.24000000 3218735565 3218735565 -3.00000000
4.21012259 -3.65207052 1.28672004 30 13 13094 5.72000000 3218735568 3218735568 13.00000000
3.69729662 -3.20835042 -0.08544698 14 14 13095 4.89600000 3218735570 3218735570 -1.00000000
6.08057594 -5.27831602 2.15751553 31 15 13096 8.33600000 3218735572 3218735572 15.00000000
1.59139681 -1.38484371 -0.56526077 4 0 13103 2.18400000 3218735593 3218735593 -15.00000000
3.99089026 -3.47412252 0.09235813 28 1 13104 5.29200000 3218735595 3218735595 1.00000000
1.86053455 -1.62019074 -0.56957608 3 2 13105 2.53200000 3218735598 3218735598 -13.00000000
3.42459297 -2.98325515 0.23802392 26 3 13106 4.54800000 3218735600 3218735600 3.00000000
2.19237947 -1.90984082 -0.56517625 3 4 13106 2.96200000 3218735602 3218735602 -11.00000000
3.90690303 -3.40460801 0.45338416 30 5 13107 5.20200000 3218735605 3218735605 5.00000000
2.69662380 -2.35075784 -0.56660563 5 6 13108 3.62200000 3218735607 3218735607 -9.00000000
3.91534758 -3.41437221 0.63786417 20 7 13109 5.23400000 3218735609 3218735609 7.00000000
3.49889350 -3.05227923 -0.57010478 6 8 13110 4.67800000 3218735612 3218735612 -7.00000000
6.09421206 -5.31631994 1.28088546 47 9 13110 8.18800000 3218735614 3218735614 9.00000000
5.01088238 -4.37281179 -0.58185172 12 10 13111 6.67600000 3218735616 3218735616 -5.00000000
4.56562996 -3.98566008 1.17805469 37 11 13112 6.17400000 3218735618 3218735618 11.00000000
3.90535402 -3.41046000 -0.27172828 5 12 13113 5.19200000 3218735621 3218735621 -3.00000000
4.19588137 -3.66546226 1.28627014 48 13 13114 5.71800000 3218735623 3218735623 13.00000000
3.69059205 -3.22518444 -0.08555169 10 14 13115 4.90200000 3218735625 3218735625 -1.00000000
6.05285645 -5.28955221 2.15389204 51 15 13115 8.32200000 3218735628 3218735628 15.00000000
1.58364737 -1.38784385 -0.56422549 4 0 13123 2.18000000 3218735648 3218735648 -15.00000000
1.84900725 -1.62153578 -0.56777644 3 2 13125 2.52400000 3218735653 3218735653 -13.00000000
3.42166567 -3.00177670 0.23854730 26 3 13126 4.55800000 3218735655 3218735655 3.00000000
2.17684460 -1.90971375 -0.56288654 3 4 13126 2.95000000 3218735658 3218735658 -11.00000000
3.89948750 -3.42216754 0.45390710 27 5 13127 5.20800000 3218735660 3218735660 5.00000000
2.69137073 -2.36276293 -0.56723136 5 6 13128 3.62600000 3218735662 3218735662 -9.00000000
3.92130423 -3.44373751 0.64078903 16 7 13129 5.25800000 3218735665 3218735665 7.00000000
3.48225236 -3.05923343 -0.56912982 4 8 13130 4.67000000 3218735667 3218735667 -7.00000000
6.04946089 -5.31645250 1.27556658 50 9 13131 8.15400000 3218735669 3218735669 9.00000000
4.97613239 -4.37317801 -0.57958567 12 10 13131 6.65000000 3218735671 3218735671 -5.00000000
4.54284286 -3.99379539 1.17576504 46 11 13132 6.16200000 3218735674 3218735674 11.00000000
3.90392399 -3.43330431 -0.27246100 2 12 13133 5.20600000 3218735676 3218735676 -3.00000000
4.18159771 -3.67879891 1.28582025 27 13 13134 5.71600000 3218735678 3218735678 13.00000000
3.67931151 -3.23804736 -0.08555169 14 14 13135 4.90200000 3218735681 3218735681 -1.00000000
5.99862862 -5.28106451 2.14146876 47 15 13136 8.27400000 3218735683 3218735683 15.00000000
1.57058620 -1.38514531 -0.56111968 4 0 13141 2.16800000 3218735704 3218735704 -15.00000000
3.39793944 -2.99779510 0.07909431 8 1 13142 4.53200000 3218735706 3218735706 1.00000000
1.84974825 -1.63249457 -0.56957608 3 2 13143 2.53200000 3218735708 3218735708 -13.00000000
3.42419624 -3.02308631 0.23938467 24 3 13144 4.57400000 3218735711 3218735711 3.00000000
2.17672133 -1.92174041 -0.56441301 3 4 13144 2.95800000 3218735713 3218735713 -11.00000000
3.89319730 -3.43835783 0.45443004 30 5 13145 5.21400000 3218735715 3218735715 5.00000000
2.68097377 -2.36859059 -0.56660563 5 6 13146 3.62200000 3218735718 3218735718 -9.00000000
3.92087793 -3.46524167 0.64249516 11 7 13147 5.27200000 3218735720 3218735720 7.00000000
3.48600912 -3.08199167 -0.57132345 4 8 13148 4.68800000 3218735722 3218735722 -7.00000000
6.00406170 -5.30820990 1.26930928 52 9 13148 8.11400000 3218735724 3218735724 9.00000000
4.88326979 -4.31883287 -0.57034719 12 10 13149 6.54400000 3218735727 3218735727 -5.00000000
4.50968790 -3.98983479 1.17042243 43 11 13150 6.13400000 3218735729 3218735729 11.00000000
3.95593500 -3.50114679 -0.27685720 2 12 13151 5.29000000 3218735731 3218735731 -3.00000000
4.15834713 -3.68158340 1.28222096 9 13 13152 5.70000000 3218735734 3218735734 13.00000000
3.67510867 -3.25489354 -0.08569132 8 14 13153 4.91000000 3218735736 3218735736 -1.00000000
5.95834780 -5.27706528 2.13266897 45 15 13153 8.24000000 3218735738 3218735738 15.00000000
1.56863046 -1.39318490 -0.56215495 4 0 13161 2.17200000 3218735759 3218735759 -15.00000000
3.36951566 -2.99369979 0.07867545 8 1 13162 4.50800000 3218735761 3218735761 1.00000000
1.84695172 -1.64153063 -0.57047588 3 2 13163 2.53600000 3218735764 3218735764 -13.00000000
3.42407131 -3.04431009 0.24011737 22 3 13164 4.58800000 3218735766 3218735766 3.00000000
2.17440152 -1.93324029 -0.56555784 3 4 13164 2.96400000 3218735768 3218735768 -11.00000000
3.90201402 -3.47046399 0.45687041 31 5 13165 5.24200000 3218735771 3218735771 5.00000000
2.65645576 -2.36349106 -0.56316406 7 6 13166 3.60000000 3218735773 3218735773 -9.00000000
3.92951798 -3.49738359 0.64590752 9 7 13167 5.30000000 3218735775 3218735775 7.00000000
3.46188641 -3.08226109 -0.56912982 2 8 13168 4.67000000 3218735777 3218735777 -7.00000000
5.96391392 -5.31178665 1.26492906 50 9 13169 8.08600000 3218735780 3218735780 9.00000000
4.73426008 -4.21658993 -0.55465913 15 10 13169 6.36400000 3218735782 3218735782 -5.00000000
4.46201897 -3.97551394 1.16164517 18 11 13170 6.08800000 3218735784 3218735784 11.00000000
3.88554072 -3.46310711 -0.27277499 7 12 13171 5.21200000 3218735787 3218735787 -3.00000000
4.13819790 -3.68959212 1.27997148 8 13 13172 5.69000000 3218735789 3218735789 13.00000000
3.69357181 -3.29432321 -0.08638941 8 14 13173 4.95000000 3218735791 3218735791 -1.00000000
5.92166853 -5.28343439 2.12645721 45 15 13174 8.21600000 3218735794 3218735794 15.00000000
1.56326950 -1.39919782 -0.56215495 4 0 13183 2.17200000 3218735814 3218735814 -15.00000000
3.37289381 -3.01995492 0.07902449 6 1 13184 4.52800000 3218735817 3218735817 1.00000000
1.82321584 -1.63300824 -0.56507707 3 2 13185 2.51200000 3218735819 3218735819 -13.00000000
3.41979432 -3.06409907 0.24064073 28 3 13186 4.59800000 3218735821 3218735821 3.00000000
2.17134905 -1.94550550 -0.56670272 3 4 13186 2.97000000 3218735824 3218735824 -11.00000000
3.89904523 -3.49472976 0.45809057 28 5 13187 5.25600000 3218735826 3218735826 5.00000000
2.64883161 -2.37499237 -0.56347692 5 6 13188 3.60200000 3218735828 3218735828 -9.00000000
3.92640424 -3.52172422 0.64761370 9 7 13189 5.31400000 3218735830 3218735830 7.00000000
3.45741343 -3.10215974 -0.57034850 4 8 13190 4.68000000 3218735833 3218735833 -7.00000000
5.92088079 -5.31250238 1.25992322 50 9 13190 8.05400000 3218735835 3218735835 9.00000000
4.89447927 -4.39310694 -0.57540220 12 10 13191 6.60200000 3218735837 3218735837 -5.00000000
5.90461493 -5.30162954 1.54249990 37 11 13192 8.08400000 3218735840 3218735840 11.00000000
3.93610764 -3.53538942 -0.27727589 2 12 13193 5.29800000 3218735842 3218735842 -3.00000000
4.10950518 -3.69242978 1.27547252 9 13 13194 5.67000000 3218735844 3218735844 13.00000000
3.68684411 -3.31382823 -0.08652903 16 14 13195 4.95800000 3218735847 3218735847 -1.00000000
5.87927532 -5.28444052 2.11817503 47 15 13195 8.18400000 3218735849 3218735849 15.00000000
1.56268072 -1.40852630 -0.56370789 4 0 13203 2.17800000 3218735870 3218735870 -15.00000000
4.01430321 -3.61957240 0.09434771 55 1 13204 5.40600000 3218735872 3218735872 1.00000000
1.82329261 -1.64458346 -0.56687665 3 2 13205 2.52000000 3218735874 3218735874 -13.00000000
3.40907764 -3.07601762 0.24064073 26 3 13206 4.59800000 3218735877 3218735877 3.00000000
2.14996862 -1.93992102 -0.56288654 3 4 13206 2.95000000 3218735879 3218735879 -11.00000000
3.89865446 -3.51899838 0.45948508 26 5 13207 5.27200000 3218735881 3218735881 5.00000000
2.63905907 -2.38290024 -0.56316406 5 6 13208 3.60000000 3218735883 3218735883 -9.00000000
3.93913031 -3.55802870 0.65175724 7 7 13209 5.34800000 3218735886 3218735886 7.00000000
3.43478084 -3.10356259 -0.56839859 4 8 13210 4.66400000 3218735888 3218735888 -7.00000000
5.87298679 -5.30665064 1.25366580 50 9 13210 8.01400000 3218735890 3218735890 9.00000000
4.90571976 -4.43421364 -0.57853985 12 10 13211 6.63800000 3218735893 3218735893 -5.00000000
5.86859798 -5.30640745 1.53792048 40 11 13212 8.06000000 3218735895 3218735895 11.00000000
3.91041207 -3.53704929 -0.27633384 5 12 13213 5.28000000 3218735897 3218735897 -3.00000000
4.09948111 -3.70936728 1.27637231 13 13 13214 5.67400000 3218735900 3218735900 13.00000000
3.30758047 -2.99387550 -0.07787263 7 14 13215 4.46200000 3218735902 3218735902 -1.00000000
5.83930969 -5.28548431 2.11041045 47 15 13215 8.15400000 3218735904 3218735904 15.00000000
1.55395532 -1.40953493 -0.56215495 4 0 13221 2.17200000 3218735925 3218735925 -15.00000000
4.02512598 -3.65232229 0.09487128 62 1 13222 5.43600000 3218735927 3218735927 1.00000000
1.82100296 -1.65292287 -0.56777644 3 2 13223 2.52400000 3218735930 3218735930 -13.00000000
3.40974784 -3.09611082 0.24137343 22 3 13224 4.61200000 3218735932 3218735932 3.00000000
2.14677048 -1.94930530 -0.56364977 3 4 13224 2.95400000 3218735934 3218735934 -11.00000000
3.89347935 -3.53658748 0.46018231 26 5 13225 5.28000000 3218735936 3218735936 5.00000000
2.64179397 -2.40047812 -0.56535417 5 6 13226 3.61400000 3218735939 3218735939 -9.00000000
3.94996715 -3.59041476 0.65541333 7 7 13227 5.37800000 3218735941 3218735941 7.00000000
3.41473269 -3.10498953 -0.56669247 4 8 13228 4.65000000 3218735943 3218735943 -7.00000000
5.83343792 -5.30615902 1.24897277 45 9 13229 7.98400000 3218735946 3218735946 9.00000000
4.87850046 -4.43753767 -0.57697099 12 10 13229 6.62000000 3218735948 3218735948 -5.00000000
4.28364754 -3.89781952 1.12577307 48 11 13230 5.90000000 3218735950 3218735950 11.00000000
4.09424496 -3.72678256 -0.29015055 5 12 13231 5.54400000 3218735953 3218735953 -3.00000000
4.07051659 -3.70648336 1.27097344 9 13 13232 5.65000000 3218735955 3218735955 13.00000000
3.28781033 -2.99482560 -0.07762831 11 14 13233 4.44800000 3218735957 3218735957 -1.00000000
5.79411268 -5.27778482 2.10005784 47 15 13233 8.11400000 3218735959 3218735959 15.00000000
1.54902565 -1.41495061 -0.56215495 4 0 13241 2.17200000 3218735980 3218735980 -15.00000000
4.00644732 -3.66095471 0.09473166 85 1 13242 5.42800000 3218735983 3218735983 1.00000000
1.80946863 -1.65401018 -0.56597686 3 2 13243 2.51600000 3218735985 3218735985 -13.00000000
3.41660690 -3.12416768 0.24262950 26 3 13244 4.63600000 3218735987 3218735987 3.00000000
2.14574862 -1.96208644 -0.56517625 3 4 13244 2.96200000 3218735989 3218735989 -11.00000000
3.88993120 -3.55822539 0.46122819 26 5 13245 5.29200000 3218735992 3218735992 5.00000000
2.62611198 -2.40301752 -0.56378978 5 6 13246 3.60400000 3218735994 3218735994 -9.00000000
5.82631254 -5.33322239 0.96983624 7 7 13247 7.95800000 3218735996 3218735996 7.00000000
3.41265774 -3.12493396 -0.56815487 4 8 13248 4.66200000 3218735999 3218735999 -7.00000000
5.79594421 -5.30914354 1.24490547 50 9 13249 7.95800000 3218736001 3218736001 9.00000000
4.85710382 -4.44915628 -0.57627380 8 10 13249 6.61200000 3218736003 3218736003 -5.00000000
4.25409365 -3.89815855 1.12157524 57 11 13250 5.87800000 3218736006 3218736006 11.00000000
4.23433018 -3.88140845 -0.30103642 18 12 13251 5.75200000 3218736008 3218736008 -3.00000000
4.04031849 -3.70486498 1.26557457 8 13 13252 5.62600000 3218736010 3218736010 13.00000000
3.40996242 -3.12794113 -0.08076974 7 14 13253 4.62800000 3218736012 3218736012 -1.00000000
5.74199152 -5.26894474 2.08815217 47 15 13254 8.06800000 3218736015 3218736015 15.00000000
1.54265535 -1.41904128 -0.56163734 4 0 13261 2.17000000 3218736036 3218736036 -15.00000000
3.98187184 -3.66408491 0.09445243 82 1 13262 5.41200000 3218736038 3218736038 1.00000000
1.80941916 -1.66559553 -0.56777644 3 2 13263 2.52400000 3218736040 3218736040 -13.00000000
3.41302681 -3.14283943 0.24315286 22 3 13264 4.64600000 3218736042 3218736042 3.00000000
2.13599801 -1.96690476 -0.56441301 3 4 13264 2.95800000 3218736045 3218736045 -11.00000000
3.89067578 -3.58393097 0.46279699 26 5 13265 5.31000000 3218736047 3218736047 5.00000000
2.61916041 -2.41350842 -0.56410271 5 6 13266 3.60600000 3218736049 3218736049 -9.00000000
5.76679277 -5.31585503 0.96301156 17 7 13267 7.90200000 3218736052 3218736052 7.00000000
3.40318823 -3.13817286 -0.56839859 4 8 13268 4.66400000 3218736054 3218736054 -7.00000000
5.75704908 -5.31059170 1.24052536 52 9 13269 7.93000000 3218736056 3218736056 9.00000000
4.21182108 -3.88519573 -0.50131983 7 10 13269 5.75200000 3218736059 3218736059 -5.00000000
4.22170401 -3.89567614 1.11661422 57 11 13270 5.85200000 3218736061 3218736061 11.00000000
4.21488523 -3.89074636 -0.30061772 30 12 13271 5.74400000 3218736063 3218736063 -3.00000000
4.04310989 -3.73348832 1.27052355 15 13 13272 5.64800000 3218736065 3218736065 13.00000000
3.70749116 -3.42477036 -0.08809975 26 14 13273 5.04800000 3218736068 3218736068 -1.00000000
5.71171570 -5.27615929 2.08349323 45 15 13273 8.05000000 3218736070 3218736070 15.00000000
1.53769255 -1.42441750 -0.56163734 4 0 13281 2.17000000 3218736091 3218736091 -15.00000000
3.97785830 -3.68611717 0.09466185 60 1 13282 5.42400000 3218736093 3218736093 1.00000000
1.79930663 -1.66792703 -0.56642675 4 2 13283 2.51800000 3218736095 3218736095 -13.00000000
3.41228700 -3.16424036 0.24388556 22 3 13284 4.66000000 3218736098 3218736098 3.00000000
2.13199830 -1.97701859 -0.56517625 3 4 13284 2.96200000 3218736100 3218736100 -11.00000000
3.88836670 -3.60697508 0.46401718 26 5 13285 5.32400000 3218736102 3218736102 5.00000000
2.60782385 -2.41994882 -0.56347692 5 6 13286 3.60200000 3218736105 3218736105 -9.00000000
5.73074341 -5.31974602 0.96008670 32 7 13287 7.87800000 3218736107 3218736107 7.00000000
3.37475753 -3.13382363 -0.56547374 4 8 13288 4.64000000 3218736109 3218736109 -7.00000000
5.71966171 -5.31317759 1.23645806 52 9 13289 7.90400000 3218736112 3218736112 9.00000000
4.19531393 -3.89716196 -0.50097120 10 10 13289 5.74800000 3218736114 3218736114 -5.00000000
4.20807981 -3.91038895 1.11661422 57 11 13290 5.85200000 3218736116 3218736116 11.00000000
4.13691330 -3.84560275 -0.29601216 21 12 13291 5.65600000 3218736118 3218736118 -3.00000000
4.10854197 -3.82056618 1.29526818 32 13 13292 5.75800000 3218736121 3218736121 13.00000000
3.70576286 -3.44722509 -0.08834408 30 14 13293 5.06200000 3218736123 3218736123 -1.00000000
5.67204666 -5.27632809 2.07572865 45 15 13293 8.02000000 3218736125 3218736125 15.00000000
1.53861201 -1.43477893 -0.56370789 4 0 13300 2.17800000 3218736146 3218736146 -15.00000000
3.98900867 -3.72111249 0.09522033 67 1 13301 5.45600000 3218736148 3218736148 1.00000000
1.79234087 -1.67255497 -0.56597686 3 2 13302 2.51600000 3218736151 3218736151 -13.00000000
3.40232944 -3.17494464 0.24388556 22 3 13302 4.66000000 3218736153 3218736153 3.00000000
2.12543058 -1.98407769 -0.56517625 3 4 13303 2.96200000 3218736155 3218736155 -11.00000000
3.90987659 -3.65112543 0.46802634 31 5 13304 5.37000000 3218736158 3218736158 5.00000000
2.60267162 -2.43128037 -0.56410271 5 6 13305 3.60600000 3218736160 3218736160 -9.00000000
5.69856691 -5.32516718 0.95764929 62 7 13306 7.85800000 3218736162 3218736162 7.00000000
3.36724710 -3.14770865 -0.56596124 4 8 13307 4.64400000 3218736164 3218736164 -7.00000000
4.21371222 -3.93898559 0.91357726 21 9 13307 5.84000000 3218736167 3218736167 9.00000000
4.16199398 -3.89200115 -0.49853083 10 10 13308 5.72000000 3218736169 3218736169 -5.00000000
5.65605831 -5.29099464 1.50548303 37 11 13309 7.89000000 3218736171 3218736171 11.00000000
4.13726282 -3.87158227 -0.29695421 12 12 13310 5.67400000 3218736174 3218736174 -3.00000000
4.07024193 -3.81019783 1.28716993 19 13 13311 5.72200000 3218736176 3218736176 13.00000000
3.68555331 -3.45129371 -0.08813465 28 14 13312 5.05000000 3218736178 3218736178 -1.00000000
5.64041758 -5.28190327 2.07055235 45 15 13312 8.00000000 3218736181 3218736181 15.00000000
1.53359437 -1.44014096 -0.56370789 4 0 13320 2.17800000 3218736201 3218736201 -15.00000000
3.99057007 -3.74870563 0.09556938 100 1 13321 5.47600000 3218736204 3218736204 1.00000000
1.78649163 -1.67880130 -0.56597686 3 2 13322 2.51600000 3218736206 3218736206 -13.00000000
3.40376687 -3.19970536 0.24482760 20 3 13323 4.67800000 3218736208 3218736208 3.00000000
2.09846568 -1.97265911 -0.55983359 3 4 13323 2.93400000 3218736211 3218736211 -11.00000000
3.89275360 -3.66065645 0.46750340 26 5 13324 5.36400000 3218736213 3218736213 5.00000000
2.58841395 -2.43493652 -0.56285119 5 6 13325 3.59800000 3218736215 3218736215 -9.00000000
5.64380264 -5.31101656 0.95155585 50 7 13326 7.80800000 3218736217 3218736217 7.00000000
3.34467578 -3.14855814 -0.56401134 4 8 13327 4.62800000 3218736220 3218736220 -7.00000000
4.19349432 -3.94898629 0.91232580 59 9 13328 5.83200000 3218736222 3218736222 9.00000000
4.12517548 -3.88465095 -0.49574187 10 10 13328 5.68800000 3218736224 3218736224 -5.00000000
5.63040972 -5.30397463 1.50357485 56 11 13329 7.88000000 3218736227 3218736227 11.00000000
4.13099098 -3.89284921 -0.29747757 9 12 13330 5.68400000 3218736229 3218736229 -3.00000000
3.92787862 -3.70273995 1.24622881 7 13 13331 5.54000000 3218736231 3218736231 13.00000000
3.68366766 -3.47374129 -0.08837899 30 14 13332 5.06400000 3218736234 3218736234 -1.00000000
5.58869934 -5.27205133 2.05864668 47 15 13333 7.95400000 3218736236 3218736236 15.00000000
1.52013612 -1.43752134 -0.56060207 4 0 13340 2.16600000 3218736257 3218736257 -15.00000000
3.98327112 -3.76810932 0.09570900 100 1 13341 5.48400000 3218736259 3218736259 1.00000000
1.78628242 -1.69038486 -0.56777644 3 2 13342 2.52400000 3218736261 3218736261 -13.00000000
3.40474296 -3.22195745 0.24566498 22 3 13342 4.69400000 3218736264 3218736264 3.00000000
2.09441853 -1.98267150 -0.56059682 3 4 13343 2.93800000 3218736266 3218736266 -11.00000000
3.89152503 -3.68518209 0.46889791 26 5 13344 5.38000000 3218736268 3218736268 5.00000000
2.58133268 -2.44531560 -0.56316406 5 6 13345 3.60000000 3218736270 3218736270 -9.00000000
5.61658430 -5.32249212 0.95009339 55 7 13346 7.79600000 3218736273 3218736273 7.00000000
3.33654618 -3.16294551 -0.56449878 4 8 13347 4.63200000 3218736275 3218736275 -7.00000000
4.15675020 -3.94185209 0.90731990 52 9 13348 5.80000000 3218736277 3218736277 9.00000000
4.09713316 -3.88531709 -0.49399874 14 10 13348 5.66800000 3218736280 3218736280 -5.00000000
5.58337450 -5.29657269 1.49594247 53 11 13349 7.84000000 3218736282 3218736282 11.00000000
4.06232452 -3.85500216 -0.29350004 2 12 13350 5.60800000 3218736284 3218736284 -3.00000000
3.90079641 -3.70301151 1.24172986 7 13 13351 5.52000000 3218736287 3218736287 13.00000000
3.69472027 -3.50861049 -0.08893746 30 14 13352 5.09600000 3218736289 3218736289 -1.00000000
5.55157423 -5.27193117 2.05139971 47 15 13352 7.92600000 3218736291 3218736291 15.00000000
1.51091206 -1.43882203 -0.55904913 4 0 13360 2.16000000 3218736312 3218736312 -15.00000000
3.95995831 -3.77233553 0.09546466 82 1 13361 5.47000000 3218736314 3218736314 1.00000000
1.77472794 -1.69123232 -0.56597686 3 2 13362 2.51600000 3218736316 3218736316 -13.00000000
3.41371775 -3.25311255 0.24713038 20 3 13362 4.72200000 3218736319 3218736319 3.00000000
2.09885311 -2.00080752 -0.56364977 3 4 13363 2.95400000 3218736321 3218736321 -11.00000000
3.89305639 -3.71249366 0.47064102 27 5 13364 5.40000000 3218736323 3218736323 5.00000000
2.56849313 -2.45022058 -0.56222546 5 6 13365 3.59400000 3218736326 3218736326 -9.00000000
3.34271574 -3.19102144 -0.56742364 4 8 13367 4.65600000 3218736330 3218736330 -7.00000000
4.13867950 -3.95224500 0.90638131 66 9 13368 5.79400000 3218736333 3218736333 9.00000000
4.07634163 -3.89271498 -0.49312720 17 10 13368 5.65800000 3218736335 3218736335 -5.00000000
5.53929901 -5.29161978 1.48907340 53 11 13369 7.80400000 3218736337 3218736337 11.00000000
4.04739952 -3.86777878 -0.29339537 2 12 13370 5.60600000 3218736340 3218736340 -3.00000000
3.85122204 -3.68159389 1.23003232 10 13 13371 5.46800000 3218736342 3218736342 13.00000000
3.69256711 -3.53116059 -0.08918180 30 14 13372 5.11000000 3218736344 3218736344 -1.00000000
5.50800610 -5.26724482 2.04208231 47 15 13372 7.89000000 3218736346 3218736346 15.00000000
1.51424634 -1.45211005 -0.56215495 4 0 13380 2.17200000 3218736367 3218736367 -15.00000000
3.92944980 -3.76952338 0.09504580 62 1 13381 5.44600000 3218736369 3218736369 1.00000000
1.76178348 -1.69067049 -0.56372732 4 2 13382 2.50600000 3218736372 3218736372 -13.00000000
3.41185737 -3.27528453 0.24786308 22 3 13383 4.73600000 3218736374 3218736374 3.00000000
2.09468889 -2.01084089 -0.56441301 3 4 13383 2.95800000 3218736376 3218736376 -11.00000000
3.89588141 -3.74124050 0.47255844 27 5 13384 5.42200000 3218736379 3218736379 5.00000000
2.56134915 -2.46053982 -0.56253833 5 6 13385 3.59600000 3218736381 3218736381 -9.00000000
3.31867671 -3.19028902 -0.56523001 6 8 13387 4.63800000 3218736386 3218736386 -7.00000000
4.14406347 -3.98374438 0.91044861 33 9 13387 5.82000000 3218736388 3218736388 9.00000000
4.04836750 -3.89311004 -0.49138409 17 10 13388 5.63800000 3218736390 3218736390 -5.00000000
5.50381565 -5.29459047 1.48449397 53 11 13389 7.78000000 3218736393 3218736393 11.00000000
4.03962994 -3.88742304 -0.29381406 5 12 13390 5.61400000 3218736395 3218736395 -3.00000000
5.48515844 -5.28033018 1.75776756 18 13 13391 7.81400000 3218736397 3218736397 13.00000000
3.69894361 -3.56206083 -0.08963556 26 14 13392 5.13600000 3218736399 3218736399 -1.00000000
5.47614193 -5.27533484 2.03742361 47 15 13393 7.87200000 3218736402 3218736402 15.00000000
1.51194763 -1.46007085 -0.56319022 4 0 13400 2.17600000 3218736422 3218736422 -15.00000000
3.90188551 -3.76932335 0.09469676 60 1 13401 5.42600000 3218736425 3218736425 1.00000000
1.75727248 -1.69816411 -0.56417722 3 2 13402 2.50800000 3218736427 3218736427 -13.00000000
3.40241361 -3.28796864 0.24796776 24 3 13402 4.73800000 3218736429 3218736429 3.00000000
2.07636476 -2.00722408 -0.56136006 3 4 13403 2.94200000 3218736432 3218736432 -11.00000000
3.89998507 -3.77143717 0.47465017 27 5 13404 5.44600000 3218736434 3218736434 5.00000000
2.55274463 -2.46946573 -0.56253833 5 6 13405 3.59600000 3218736436 3218736436 -9.00000000
4.11405802 -3.98123384 0.70294237 55 7 13406 5.76800000 3218736439 3218736439 7.00000000
3.28612638 -3.18114328 -0.56157392 4 8 13407 4.60800000 3218736441 3218736441 -7.00000000
5.47753191 -5.30439138 1.20767403 50 9 13408 7.72000000 3218736443 3218736443 9.00000000
4.01757812 -3.89058542 -0.48929235 17 10 13408 5.61400000 3218736446 3218736446 -5.00000000
5.46273899 -5.29191399 1.47838807 56 11 13409 7.74800000 3218736448 3218736448 11.00000000
3.94141316 -3.81949496 -0.28763843 8 12 13410 5.49600000 3218736450 3218736450 -3.00000000
5.42751551 -5.26146555 1.74517024 49 13 13411 7.75800000 3218736452 3218736452 13.00000000
3.69222951 -3.58051920 -0.08977518 14 14 13412 5.14400000 3218736455 3218736455 -1.00000000
5.44105530 -5.27827644 2.03121185 47 15 13413 7.84800000 3218736457 3218736457 15.00000000
1.50381660 -1.46290851 -0.56215495 4 0 13421 2.17200000 3218736478 3218736478 -15.00000000
1.75662208 -1.71003079 -0.56597686 3 2 13423 2.51600000 3218736482 3218736482 -13.00000000
3.40751338 -3.31713510 0.24922383 24 3 13423 4.76200000 3218736485 3218736485 3.00000000
2.05211568 -1.99838459 -0.55678064 3 4 13424 2.91800000 3218736487 3218736487 -11.00000000
3.90326190 -3.80238938 0.47674191 27 5 13425 5.47000000 3218736489 3218736489 5.00000000
2.54367661 -2.47880530 -0.56253833 5 6 13426 3.59600000 3218736492 3218736492 -9.00000000
4.09090948 -3.98797178 0.70147991 55 7 13427 5.75600000 3218736494 3218736494 7.00000000
3.27870846 -3.19732380 -0.56230515 4 8 13428 4.61400000 3218736496 3218736496 -7.00000000
5.43352652 -5.29865456 1.20204246 55 9 13428 7.68400000 3218736499 3218736499 9.00000000
3.98332477 -3.88580680 -0.48685199 14 10 13429 5.58600000 3218736501 3218736501 -5.00000000
5.42925549 -5.29818869 1.47457194 56 11 13430 7.72800000 3218736503 3218736503 11.00000000
3.95454192 -3.86042356 -0.28962719 2 12 13431 5.53400000 3218736505 3218736505 -3.00000000
5.40401220 -5.27723837 1.74382055 60 13 13432 7.75200000 3218736508 3218736508 13.00000000
3.67622042 -3.59123325 -0.08970537 8 14 13433 5.14000000 3218736510 3218736510 -1.00000000
5.40232944 -5.27928066 2.02396488 45 15 13434 7.82000000 3218736512 3218736512 15.00000000
1.48766077 -1.45733380 -0.55801386 4 0 13441 2.15600000 3218736533 3218736533 -15.00000000
3.68342900 -3.60959983 0.09001951 11 1 13442 5.15800000 3218736535 3218736535 1.00000000
1.75064218 -1.71615207 -0.56597686 3 2 13443 2.51600000 3218736538 3218736538 -13.00000000
3.40447116 -3.33739829 0.24985185 24 3 13443 4.77400000 3218736540 3218736540 3.00000000
2.06194830 -2.02203083 -0.56136006 3 4 13444 2.94200000 3218736542 3218736542 -11.00000000
3.89565444 -3.82157207 0.47743917 27 5 13445 5.47800000 3218736545 3218736545 5.00000000
2.53218865 -2.48490214 -0.56191260 5 6 13446 3.59200000 3218736547 3218736547 -9.00000000
4.08263063 -4.00779009 0.70245492 52 7 13447 5.76400000 3218736549 3218736549 7.00000000
3.26894403 -3.21014023 -0.56254888 4 8 13448 4.61600000 3218736552 3218736552 -7.00000000
5.39526558 -5.29821205 1.19766223 55 9 13448 7.65600000 3218736554 3218736554 9.00000000
3.95694470 -3.88712144 -0.48528317 10 10 13449 5.56800000 3218736556 3218736556 -5.00000000
5.38552332 -5.29233885 1.46770275 56 11 13450 7.69200000 3218736558 3218736558 11.00000000
3.88691902 -3.82099843 -0.28564966 2 12 13451 5.45800000 3218736561 3218736561 -3.00000000
5.38000059 -5.29060459 1.74202096 68 13 13452 7.74400000 3218736563 3218736563 13.00000000
3.68361998 -3.62367654 -0.09019404 6 14 13453 5.16800000 3218736565 3218736565 -1.00000000
5.35495234 -5.26965094 2.01309443 47 15 13454 7.77800000 3218736568 3218736568 15.00000000
1.48832202 -1.46768486 -0.56008440 4 0 13460 2.16400000 3218736588 3218736588 -15.00000000
3.86789441 -3.81559372 0.09483638 22 1 13461 5.43400000 3218736591 3218736591 1.00000000
1.74355459 -1.72057915 -0.56552696 4 2 13462 2.51400000 3218736593 3218736593 -13.00000000
3.41470933 -3.36971259 0.25142193 26 3 13462 4.80400000 3218736595 3218736595 3.00000000
2.05942297 -2.03299499 -0.56250495 3 4 13463 2.94800000 3218736598 3218736598 -11.00000000
3.89004850 -3.84146929 0.47831070 27 5 13464 5.48800000 3218736600 3218736600 5.00000000
2.52393436 -2.49328566 -0.56191260 5 6 13465 3.59200000 3218736602 3218736602 -9.00000000
5.36833668 -5.30499887 0.92669451 50 7 13466 7.60400000 3218736604 3218736604 7.00000000
3.26675129 -3.22933602 -0.56401134 4 8 13467 4.62800000 3218736607 3218736607 -7.00000000
5.36080837 -5.29940939 1.19390786 55 9 13467 7.63200000 3218736609 3218736609 9.00000000
3.93269944 -3.88901424 -0.48388869 10 10 13468 5.55200000 3218736611 3218736611 -5.00000000
5.34561205 -5.28807783 1.46159685 53 11 13469 7.66000000 3218736614 3218736614 11.00000000
3.81176209 -3.77205300 -0.28104410 2 12 13470 5.37000000 3218736616 3218736616 -3.00000000
5.34026766 -5.28648043 1.73482251 68 13 13471 7.71200000 3218736618 3218736618 13.00000000
3.68295050 -3.64712858 -0.09047327 14 14 13472 5.18400000 3218736621 3218736621 -1.00000000
5.31915331 -5.26741695 2.00584769 47 15 13472 7.75000000 3218736623 3218736623 15.00000000
1.49278533 -1.48239994 -0.56370789 4 0 13480 2.17800000 3218736644 3218736644 -15.00000000
3.89001894 -3.86430454 0.09570900 22 1 13481 5.48400000 3218736646 3218736646 1.00000000
1.72233284 -1.71154487 -0.56057805 3 2 13482 2.49200000 3218736648 3218736648 -13.00000000
3.41142631 -3.39005876 0.25204995 26 3 13482 4.81600000 3218736651 3218736651 3.00000000
2.05649114 -2.04432368 -0.56364977 3 4 13483 2.95400000 3218736653 3218736653 -11.00000000
3.89780688 -3.87609792 0.48092538 33 5 13484 5.51800000 3218736655 3218736655 5.00000000
2.51241493 -2.49929428 -0.56128687 5 6 13485 3.58800000 3218736657 3218736657 -9.00000000
5.32727242 -5.30130196 0.92279464 52 7 13486 7.57200000 3218736660 3218736660 7.00000000
3.23576283 -3.22111273 -0.56059897 4 8 13487 4.60000000 3218736662 3218736662 -7.00000000
5.33107758 -5.30694103 1.19140494 52 9 13487 7.61600000 3218736664 3218736664 9.00000000
3.91062951 -3.89428282 -0.48284280 7 10 13488 5.54000000 3218736667 3218736667 -5.00000000
5.31043005 -5.29007864 1.45701754 53 11 13489 7.63600000 3218736669 3218736669 11.00000000
3.90184784 -3.88825154 -0.28868514 5 12 13490 5.51600000 3218736671 3218736671 -3.00000000
5.29141903 -5.27482176 1.72492468 66 13 13491 7.66800000 3218736674 3218736674 13.00000000
3.69002080 -3.67973065 -0.09096194 19 14 13492 5.21200000 3218736676 3218736676 -1.00000000
5.28613472 -5.27323389 2.00067115 47 15 13493 7.73000000 3218736678 3218736678 15.00000000
1.47914732 -1.47966373 -0.56060207 4 0 13501 2.16600000 3218736699 3218736699 -15.00000000
3.89420485 -3.89692450 0.09616276 20 1 13502 5.51000000 3218736701 3218736701 1.00000000
1.72431159 -1.72611821 -0.56327742 3 2 13503 2.50400000 3218736704 3218736704 -13.00000000
3.39838433 -3.40313268 0.25204995 24 3 13504 4.81600000 3218736706 3218736706 3.00000000
2.04066086 -2.04351211 -0.56136006 3 4 13504 2.94200000 3218736708 3218736708 -11.00000000
3.89342737 -3.90022850 0.48214558 27 5 13505 5.53200000 3218736710 3218736710 5.00000000
2.50323772 -2.50848603 -0.56128687 5 6 13506 3.58800000 3218736713 3218736713 -9.00000000
5.29098320 -5.30392694 0.91986978 50 7 13507 7.54800000 3218736715 3218736715 7.00000000
3.22814035 -3.23716760 -0.56133020 2 8 13508 4.60600000 3218736717 3218736717 -7.00000000
5.28229904 -5.29707098 1.18483460 52 9 13508 7.57400000 3218736720 3218736720 9.00000000
3.90758300 -3.91987824 -0.48423731 7 10 13509 5.55600000 3218736722 3218736722 -5.00000000
