# .PCD v0.7 - Point Cloud Data file format
VERSION 0.7
FIELDS x y z intensity laser_id azimuth distance_m adjustedtime timestamp vertical_angle
SIZE 4 4 4 1 1 2 8 8 4 8
TYPE F F F U U U F U U F
COUNT 1 1 1 1 1 1 1 1 1 1
WIDTH 539
HEIGHT 1
VIEWPOINT 0 0 0 1 0 0 0
POINTS 539
DATA ascii
8.27019787 3.92697883 2.11364007 70 13 6460 9.39600000 3219717073 3219717073 13.00000000
8.20352173 3.89356375 -0.15850276 16 14 6461 9.08200000 3219717075 3219717075 -1.00000000
7.95836020 3.77720523 2.36042976 47 15 6461 9.12000000 3219717077 3219717077 15.00000000
2.06076288 0.97455823 -0.61081296 4 0 6469 2.36000000 3219717098 3219717098 -15.00000000
8.20962715 3.88067293 0.15850276 18 1 6470 9.08200000 3219717100 3219717100 1.00000000
8.18433762 3.86697125 -2.08979535 8 2 6471 9.29000000 3219717103 3219717103 -13.00000000
8.20639515 3.87564135 0.47562918 10 3 6472 9.08800000 3219717105 3219717105 3.00000000
2.91138840 1.37496376 -0.62585348 5 4 6472 3.28000000 3219717107 3219717107 -11.00000000
8.21949291 3.88007236 0.79520899 82 5 6473 9.12400000 3219717110 3219717110 5.00000000
3.68196106 1.73731124 -0.64482284 6 6 6474 4.12200000 3219717112 3219717112 -9.00000000
8.22126007 3.87739801 1.11607945 87 7 6475 9.15800000 3219717114 3219717114 7.00000000
4.96476412 2.34047556 -0.67393744 6 8 6476 5.53000000 3219717117 3219717117 -7.00000000
8.30319786 3.91427088 1.45390189 2 9 6476 9.29400000 3219717119 3219717119 9.00000000
7.60580492 3.58388543 -0.73559445 13 10 6477 8.44000000 3219717121 3219717121 -5.00000000
8.20028210 3.86050820 -0.47500113 17 12 6479 9.07600000 3219717126 3219717126 -3.00000000
8.26269627 3.88812971 2.10824132 72 13 6480 9.37200000 3219717128 3219717128 13.00000000
8.19896698 3.85639334 -0.15815371 16 14 6481 9.06200000 3219717130 3219717130 -1.00000000
7.98788500 3.75540829 2.36508846 47 15 6482 9.13800000 3219717133 3219717133 15.00000000
2.05365658 0.96244013 -0.60770714 4 0 6489 2.34800000 3219717153 3219717153 -15.00000000
8.21044731 3.84605455 0.15825842 15 1 6490 9.06800000 3219717156 3219717156 1.00000000
8.17660809 3.82846308 -2.08439636 8 2 6491 9.26600000 3219717158 3219717158 -13.00000000
8.21015835 3.84417200 0.47510582 10 3 6491 9.07800000 3219717160 3219717160 3.00000000
2.91083574 1.36229622 -0.62470865 5 4 6492 3.27400000 3219717163 3219717163 -11.00000000
8.21854877 3.84460354 0.79381448 78 5 6493 9.10800000 3219717165 3219717165 5.00000000
3.68800306 1.72444820 -0.64482284 6 6 6494 4.12200000 3219717167 3219717167 -9.00000000
8.23114777 3.84699583 1.11559200 90 7 6495 9.15400000 3219717170 3219717170 7.00000000
4.97290373 2.32313108 -0.67393744 9 8 6496 5.53000000 3219717172 3219717172 -7.00000000
8.34433651 3.89634824 1.45859492 2 9 6497 9.32400000 3219717174 3219717174 9.00000000
7.61104727 3.55394244 -0.73489720 13 10 6497 8.43200000 3219717177 3219717177 -5.00000000
8.20284748 3.82679391 -0.47437310 17 12 6499 9.06400000 3219717181 3219717181 -3.00000000
8.26032257 3.85185170 2.10419226 74 13 6500 9.35400000 3219717183 3219717183 13.00000000
8.18881607 3.81676793 -0.15769994 14 14 6501 9.03600000 3219717186 3219717186 -1.00000000
7.99919415 3.72668672 2.36457086 45 15 6502 9.13600000 3219717188 3219717188 15.00000000
2.05174708 0.95282459 -0.60615420 4 0 6509 2.34200000 3219717209 3219717209 -15.00000000
8.19661522 3.80474210 0.15773486 12 1 6510 9.03800000 3219717211 3219717211 1.00000000
8.18461895 3.79743743 -2.08304667 8 2 6511 9.26000000 3219717213 3219717213 -13.00000000
8.20722103 3.80792427 0.47416377 10 3 6511 9.06000000 3219717216 3219717216 3.00000000
2.91201115 1.35047519 -0.62394542 5 4 6512 3.27000000 3219717218 3219717218 -11.00000000
8.20480442 3.80332303 0.79119980 71 5 6513 9.07800000 3219717220 3219717220 5.00000000
3.67249203 1.70159864 -0.64106846 6 6 6514 4.09800000 3219717223 3219717223 -9.00000000
8.23191738 3.81240058 1.11388576 90 7 6515 9.14000000 3219717225 3219717225 7.00000000
4.97557831 2.30325651 -0.67320627 9 8 6516 5.52400000 3219717227 3219717227 -7.00000000
7.62340641 3.52735329 -0.73489720 13 10 6517 8.43200000 3219717232 3219717232 -5.00000000
8.19621372 3.78891850 -0.47322172 17 12 6519 9.04200000 3219717236 3219717236 -3.00000000
8.26133442 3.81727242 2.10104275 75 13 6520 9.34000000 3219717239 3219717239 13.00000000
8.19301224 3.78396797 -0.15752542 16 14 6521 9.02600000 3219717241 3219717241 -1.00000000
8.00513840 3.69550276 2.36250019 45 15 6522 9.12800000 3219717243 3219717243 15.00000000
2.05857062 0.94727200 -0.60718948 4 0 6529 2.34600000 3219717264 3219717264 -15.00000000
8.19712925 3.77025819 0.15749052 12 1 6530 9.02400000 3219717266 3219717266 1.00000000
8.17303658 3.75744867 -2.07674813 8 2 6531 9.23200000 3219717269 3219717269 -13.00000000
8.21501923 3.77674985 0.47384974 13 3 6531 9.05400000 3219717271 3219717271 3.00000000
2.93454671 1.34849977 -0.62776160 5 4 6532 3.29000000 3219717273 3219717273 -11.00000000
8.20716763 3.76967025 0.79015398 78 5 6533 9.06600000 3219717276 3219717276 5.00000000
3.68559027 1.69206572 -0.64231992 4 6 6534 4.10600000 3219717278 3219717278 -9.00000000
8.22352409 3.77370763 1.11096096 92 7 6535 9.11600000 3219717280 3219717280 7.00000000
4.98900080 2.28835726 -0.67393744 9 8 6536 5.53000000 3219717283 3219717283 -7.00000000
8.34193611 3.82628322 1.45358908 2 9 6536 9.29200000 3219717285 3219717285 9.00000000
7.62480640 3.49573922 -0.73385137 13 10 6537 8.42000000 3219717287 3219717287 -5.00000000
8.19486332 3.75363135 -0.47238433 17 12 6539 9.02600000 3219717292 3219717292 -3.00000000
8.26397800 3.78354454 2.09834337 76 13 6540 9.32800000 3219717294 3219717294 13.00000000
8.20071602 3.75284958 -0.15742071 14 14 6541 9.02000000 3219717296 3219717296 -1.00000000
8.02150249 3.66914415 2.36353540 45 15 6542 9.13200000 3219717299 3219717299 15.00000000
2.06521583 0.94204378 -0.60822475 4 0 6548 2.35000000 3219717319 3219717319 -15.00000000
8.18775272 3.73309994 0.15707166 12 1 6549 9.00000000 3219717322 3219717322 1.00000000
8.17303848 3.72466826 -2.07359886 8 2 6550 9.21800000 3219717324 3219717324 -13.00000000
8.20750713 3.74037623 0.47269836 13 3 6550 9.03200000 3219717326 3219717326 3.00000000
2.92470932 1.33225036 -0.62470865 5 4 6551 3.27400000 3219717329 3219717329 -11.00000000
8.20511723 3.73582864 0.78875947 75 5 6552 9.05000000 3219717331 3219717331 5.00000000
3.70196867 1.68474400 -0.64419711 6 6 6553 4.11800000 3219717333 3219717333 -9.00000000
8.21792412 3.73819709 1.10852349 95 7 6554 9.09600000 3219717335 3219717335 7.00000000
5.00017595 2.27344394 -0.67442495 6 8 6555 5.53400000 3219717338 3219717338 -7.00000000
8.34738541 3.79532909 1.45233762 2 9 6555 9.28400000 3219717340 3219717340 9.00000000
7.62910128 3.46713781 -0.73315412 13 10 6556 8.41200000 3219717342 3219717342 -5.00000000
8.19271660 3.71983004 -0.47154698 17 12 6558 9.01000000 3219717347 3219717347 -3.00000000
8.24986076 3.74403930 2.09159493 74 13 6559 9.29800000 3219717349 3219717349 13.00000000
8.20218945 3.72067785 -0.15721127 16 14 6560 9.00800000 3219717352 3219717352 -1.00000000
8.03299046 3.64392591 2.36353540 45 15 6560 9.13200000 3219717354 3219717354 15.00000000
2.07553315 0.93801153 -0.61029530 4 0 6568 2.35800000 3219717375 3219717375 -15.00000000
8.20073414 3.70449638 0.15707166 12 1 6569 9.00000000 3219717377 3219717377 1.00000000
8.16645336 3.68729496 -2.06865001 8 2 6570 9.19600000 3219717379 3219717379 -13.00000000
8.20777130 3.70595074 0.47196564 13 3 6570 9.01800000 3219717382 3219717382 3.00000000
2.93292069 1.32364833 -0.62547189 5 4 6571 3.27800000 3219717384 3219717384 -11.00000000
8.21447468 3.70552635 0.78841084 78 5 6572 9.04600000 3219717386 3219717386 5.00000000
3.70422530 1.67018747 -0.64357138 6 6 6573 4.11400000 3219717388 3219717388 -9.00000000
8.21282482 3.70133209 1.10608613 97 7 6574 9.07600000 3219717391 3219717391 7.00000000
4.98998213 2.24782300 -0.67198753 9 8 6575 5.51400000 3219717393 3219717393 -7.00000000
7.64479065 3.44212222 -0.73350275 13 10 6576 8.41600000 3219717398 3219717398 -5.00000000
8.20018673 3.68875122 -0.47123295 12 12 6578 9.00400000 3219717402 3219717402 -3.00000000
8.24688339 3.70802665 2.08754587 72 13 6579 9.28000000 3219717405 3219717405 13.00000000
8.20418262 3.68710589 -0.15700185 14 14 6580 8.99600000 3219717407 3219717407 -1.00000000
2.06997895 0.92681360 -0.60770714 4 0 6588 2.34800000 3219717430 3219717430 -15.00000000
8.20448875 3.67176366 0.15689713 12 1 6589 8.99000000 3219717432 3219717432 1.00000000
8.17215919 3.65558338 -2.06685019 8 2 6590 9.18800000 3219717435 3219717435 -13.00000000
8.20853519 3.67013621 0.47123295 13 3 6591 9.00400000 3219717437 3219717437 3.00000000
2.93573093 1.31260109 -0.62509024 5 4 6591 3.27600000 3219717439 3219717439 -11.00000000
8.20735073 3.66788769 0.78649342 78 5 6592 9.02400000 3219717441 3219717441 5.00000000
3.70642567 1.65563583 -0.64294565 6 6 6593 4.11000000 3219717444 3219717444 -9.00000000
8.22206974 3.67102289 1.10559869 92 7 6594 9.07200000 3219717446 3219717446 7.00000000
5.00142336 2.23200893 -0.67247504 9 8 6595 5.51800000 3219717448 3219717448 -7.00000000
7.66403770 3.41866255 -0.73420000 13 10 6596 8.42400000 3219717453 3219717453 -5.00000000
8.20936489 3.65847874 -0.47102362 12 12 6598 9.00000000 3219717458 3219717458 -3.00000000
8.24553585 3.67287374 2.08394647 66 13 6599 9.26400000 3219717460 3219717460 13.00000000
8.18777466 3.64543200 -0.15644337 14 14 6600 8.96400000 3219717462 3219717462 -1.00000000
7.12287140 3.17130661 2.08918738 42 15 6600 8.07200000 3219717465 3219717465 15.00000000
2.06613779 0.91644919 -0.60563654 4 0 6608 2.34000000 3219717485 3219717485 -15.00000000
8.19897461 3.63499761 0.15654808 12 1 6609 8.97000000 3219717488 3219717488 1.00000000
8.18130589 3.62545586 -2.06595039 8 2 6610 9.18400000 3219717490 3219717490 -13.00000000
8.21581841 3.63903403 0.47091892 13 3 6611 8.99800000 3219717492 3219717492 3.00000000
2.94568014 1.30473077 -0.62623513 5 4 6611 3.28200000 3219717494 3219717494 -11.00000000
8.20006371 3.63034415 0.78457600 86 5 6612 9.00200000 3219717497 3219717497 5.00000000
3.71218228 1.64268792 -0.64294565 6 6 6613 4.11000000 3219717499 3219717499 -9.00000000
8.22031021 3.63587642 1.10364878 97 7 6614 9.05600000 3219717501 3219717501 7.00000000
5.01644659 2.21774793 -0.67344999 9 8 6615 5.52600000 3219717504 3219717504 -7.00000000
7.66316748 3.38625216 -0.73297977 13 10 6616 8.41000000 3219717508 3219717508 -5.00000000
8.20929527 3.62415409 -0.47029090 17 12 6618 8.98600000 3219717513 3219717513 -3.00000000
8.25474072 3.64249563 2.08304667 68 13 6619 9.26000000 3219717515 3219717515 13.00000000
8.18581200 3.61037326 -0.15616414 18 14 6620 8.94800000 3219717518 3219717518 -1.00000000
7.12207270 3.13972378 2.08556390 45 15 6621 8.05800000 3219717520 3219717520 15.00000000
2.06932425 0.90923142 -0.60563654 4 0 6628 2.34000000 3219717541 3219717541 -15.00000000
8.18781185 3.59590244 0.15609433 12 1 6629 8.94400000 3219717543 3219717543 1.00000000
8.18320560 3.59217596 -2.06325102 8 2 6630 9.17200000 3219717545 3219717545 -13.00000000
8.21201038 3.60311103 0.46997687 13 3 6631 8.98000000 3219717547 3219717547 3.00000000
2.94841862 1.29365158 -0.62585348 5 4 6631 3.28000000 3219717550 3219717550 -11.00000000
8.20173836 3.59689736 0.78353012 86 5 6632 8.99000000 3219717552 3219717552 5.00000000
3.70522928 1.62416863 -0.64075559 6 6 6633 4.09600000 3219717554 3219717554 -9.00000000
8.21476936 3.59919357 1.10121143 95 7 6634 9.03600000 3219717557 3219717557 7.00000000
5.02961254 2.20261264 -0.67418122 9 8 6635 5.53200000 3219717559 3219717559 -7.00000000
7.68224192 3.36267781 -0.73367703 13 10 6636 8.41800000 3219717564 3219717564 -5.00000000
8.20725632 3.58907437 -0.46945351 17 12 6638 8.97000000 3219717568 3219717568 -3.00000000
8.25669098 3.60897589 2.08034730 68 13 6639 9.24800000 3219717571 3219717571 13.00000000
8.19103527 3.57857513 -0.15602452 20 14 6640 8.94000000 3219717573 3219717573 -1.00000000
7.13244534 3.11608887 2.08556390 45 15 6640 8.05800000 3219717575 3219717575 15.00000000
2.07957077 0.90508640 -0.60770714 4 0 6648 2.34800000 3219717596 3219717596 -15.00000000
8.18381023 3.56012058 0.15578018 15 1 6649 8.92600000 3219717598 3219717598 1.00000000
8.17067528 3.55271053 -2.05695248 8 2 6650 9.14400000 3219717600 3219717600 -13.00000000
8.21171474 3.56885123 0.46924418 13 3 6651 8.96600000 3219717603 3219717603 3.00000000
2.96011877 1.28648198 -0.62737995 5 4 6651 3.28800000 3219717605 3219717605 -11.00000000
8.19231510 3.55872011 0.78143841 78 5 6652 8.96600000 3219717607 3219717607 5.00000000
3.71631193 1.61358523 -0.64169419 6 6 6653 4.10200000 3219717610 3219717610 -9.00000000
8.20543098 3.56101346 1.09828651 95 7 6654 9.01200000 3219717612 3219717612 7.00000000
5.02998590 2.18188262 -0.67320627 9 8 6655 5.52400000 3219717614 3219717614 -7.00000000
7.69027710 3.33425617 -0.73332840 13 10 6656 8.41400000 3219717619 3219717619 -5.00000000
8.18857861 3.54690838 -0.46767411 17 12 6658 8.93600000 3219717623 3219717623 -3.00000000
8.25135517 3.57239032 2.07584834 64 13 6659 9.22800000 3219717626 3219717626 13.00000000
8.20531178 3.55075550 -0.15605941 16 14 6660 8.94200000 3219717628 3219717628 -1.00000000
7.14381838 3.08992624 2.08556390 45 15 6661 8.05800000 3219717630 3219717630 15.00000000
2.08949900 0.90161026 -0.60977769 4 0 6666 2.35600000 3219717651 3219717651 -15.00000000
8.18944550 3.53201699 0.15567547 18 1 6667 8.92000000 3219717653 3219717653 1.00000000
8.18179607 3.52702427 -2.05695248 8 2 6668 9.14400000 3219717656 3219717656 -13.00000000
8.19353867 3.53039074 0.46756944 10 3 6669 8.93400000 3219717658 3219717658 3.00000000
2.94972157 1.27096117 -0.62432700 6 4 6669 3.27200000 3219717660 3219717660 -11.00000000
8.19247532 3.52823710 0.78039253 75 5 6670 8.95400000 3219717663 3219717663 5.00000000
3.73587823 1.60815048 -0.64419711 6 6 6671 4.11800000 3219717665 3219717665 -9.00000000
8.20928383 3.53207946 1.09731162 97 7 6672 9.00400000 3219717667 3219717667 7.00000000
5.03134489 2.16371703 -0.67247504 9 8 6673 5.51800000 3219717670 3219717670 -7.00000000
7.71535778 3.31637454 -0.73472291 13 10 6674 8.43000000 3219717674 3219717674 -5.00000000
8.19233990 3.51801348 -0.46725541 17 12 6676 8.92800000 3219717679 3219717679 -3.00000000
8.24821186 3.54030132 2.07224917 64 13 6677 9.21200000 3219717681 3219717681 13.00000000
8.18334770 3.51076913 -0.15543114 18 14 6678 8.90600000 3219717683 3219717683 -1.00000000
7.15828133 3.07100129 2.08711672 47 15 6678 8.06400000 3219717686 3219717686 15.00000000
2.09085703 0.89355189 -0.60926002 4 0 6686 2.35400000 3219717706 3219717706 -15.00000000
8.19436932 3.50026679 0.15553585 15 1 6687 8.91200000 3219717709 3219717709 1.00000000
8.18151188 3.49308658 -2.05380321 8 2 6688 9.13000000 3219717711 3219717711 -13.00000000
8.19662762 3.49784875 0.46704608 10 3 6689 8.92400000 3219717713 3219717713 3.00000000
2.95594573 1.26142752 -0.62470865 6 4 6689 3.27400000 3219717716 3219717716 -11.00000000
8.18641472 3.49180174 0.77864939 78 5 6690 8.93400000 3219717718 3219717718 5.00000000
3.74146891 1.59510005 -0.64419711 4 6 6691 4.11800000 3219717720 3219717720 -9.00000000
8.21060562 3.49873304 1.09584916 92 7 6692 8.99200000 3219717723 3219717723 7.00000000
5.03338766 2.14380765 -0.67174381 6 8 6693 5.51200000 3219717725 3219717725 -7.00000000
7.71405458 3.28395987 -0.73350275 13 10 6694 8.41600000 3219717729 3219717729 -5.00000000
8.18986702 3.48314214 -0.46641803 17 12 6696 8.91200000 3219717734 3219717734 -3.00000000
8.25693226 3.50996327 2.07134938 64 13 6697 9.20800000 3219717736 3219717736 13.00000000
8.18082905 3.47592664 -0.15515189 18 14 6698 8.89000000 3219717739 3219717739 -1.00000000
7.16059828 3.04096866 2.08452868 40 15 6699 8.05400000 3219717741 3219717741 15.00000000
2.08344293 0.88136655 -0.60615420 4 0 6707 2.34200000 3219717762 3219717762 -15.00000000
8.19240856 3.46397924 0.15525661 12 1 6708 8.89600000 3219717764 3219717764 1.00000000
2.48969078 1.05219865 -0.62401420 4 2 6709 2.77400000 3219717766 3219717766 -13.00000000
8.20939255 3.46778321 0.46704608 13 3 6710 8.92400000 3219717769 3219717769 3.00000000
2.96054935 1.25058496 -0.62470865 6 4 6710 3.27400000 3219717771 3219717771 -11.00000000
8.17713165 3.45247388 0.77655768 75 5 6711 8.91000000 3219717773 3219717773 5.00000000
3.74365020 1.57984006 -0.64357138 6 6 6712 4.11400000 3219717776 3219717776 -9.00000000
8.21605778 3.46553040 1.09487414 90 7 6713 8.98400000 3219717778 3219717778 7.00000000
5.05401564 2.13074303 -0.67344999 6 8 6714 5.52600000 3219717780 3219717780 -7.00000000
7.72053099 3.25334334 -0.73297977 13 10 6715 8.41000000 3219717785 3219717785 -5.00000000
8.19337463 3.44922662 -0.46589467 17 12 6717 8.90200000 3219717789 3219717789 -3.00000000
8.26614952 3.47816491 2.07044959 64 13 6718 9.20400000 3219717792 3219717792 13.00000000
8.18245411 3.44126749 -0.15494247 16 14 6719 8.87800000 3219717794 3219717794 -1.00000000
7.16404629 3.01295924 2.08245802 40 15 6719 8.04600000 3219717796 3219717796 15.00000000
2.08828855 0.87483507 -0.60667187 4 0 6727 2.34400000 3219717817 3219717817 -15.00000000
8.18600464 3.42763805 0.15490755 15 1 6728 8.87600000 3219717819 3219717819 1.00000000
2.47896719 1.03748286 -0.62041503 4 2 6729 2.75800000 3219717822 3219717822 -13.00000000
8.21223450 3.43525219 0.46652272 13 3 6730 8.91400000 3219717824 3219717824 3.00000000
2.97214127 1.24327362 -0.62623513 6 4 6730 3.28200000 3219717826 3219717826 -11.00000000
8.20016193 3.42852068 0.77760351 78 5 6731 8.92200000 3219717829 3219717829 5.00000000
3.74185157 1.56371593 -0.64231992 6 6 6732 4.10600000 3219717831 3219717831 -9.00000000
8.21161938 3.42994380 1.09268057 90 7 6733 8.96600000 3219717833 3219717833 7.00000000
5.06508636 2.11461782 -0.67393744 6 8 6734 5.53000000 3219717835 3219717835 -7.00000000
7.73551750 3.22790837 -0.73332840 13 10 6735 8.41400000 3219717840 3219717840 -5.00000000
8.19430351 3.41599441 -0.46526664 17 12 6737 8.89000000 3219717845 3219717845 -3.00000000
8.27104473 3.44629145 2.06865001 68 13 6738 9.19600000 3219717847 3219717847 13.00000000
8.19257069 3.41191578 -0.15490755 18 14 6739 8.87600000 3219717849 3219717849 -1.00000000
7.18217516 2.98965096 2.08452868 40 15 6740 8.05400000 3219717852 3219717852 15.00000000
2.09117818 0.86790520 -0.60667187 4 0 6746 2.34400000 3219717872 3219717872 -15.00000000
8.18254948 3.39434361 0.15462832 12 1 6747 8.86000000 3219717875 3219717875 1.00000000
2.47519350 1.02627110 -0.61861539 4 2 6748 2.75000000 3219717877 3219717877 -13.00000000
8.19959450 3.39806008 0.46516198 10 3 6749 8.88800000 3219717879 3219717879 3.00000000
2.97806144 1.23416245 -0.62661672 5 4 6749 3.28400000 3219717882 3219717882 -11.00000000
8.19307899 3.39368463 0.77586043 78 5 6750 8.90200000 3219717884 3219717884 5.00000000
3.74884176 1.55205452 -0.64263278 6 6 6751 4.10800000 3219717886 3219717886 -9.00000000
8.20460606 3.39510417 1.09024310 90 7 6752 8.94600000 3219717888 3219717888 7.00000000
5.06473351 2.09477496 -0.67296249 6 8 6753 5.52200000 3219717891 3219717891 -7.00000000
7.74065542 3.19995522 -0.73280549 13 10 6754 8.40800000 3219717895 3219717895 -5.00000000
8.18712616 3.38117838 -0.46421993 17 12 6756 8.87000000 3219717900 3219717900 -3.00000000
8.26801682 3.41289639 2.06505060 68 13 6757 9.18000000 3219717902 3219717902 13.00000000
8.19089985 3.37939072 -0.15466322 16 14 6758 8.86200000 3219717905 3219717905 -1.00000000
7.19510365 2.96854639 2.08556390 45 15 6758 8.05800000 3219717907 3219717907 15.00000000
2.09419489 0.86060035 -0.60667187 4 0 6766 2.34400000 3219717928 3219717928 -15.00000000
8.18879890 3.36348128 0.15452361 12 1 6767 8.85400000 3219717930 3219717930 1.00000000
2.49318266 1.02354550 -0.62221462 4 2 6768 2.76600000 3219717932 3219717932 -13.00000000
8.18923378 3.36031914 0.46390593 10 3 6769 8.86400000 3219717935 3219717935 3.00000000
2.98053503 1.22301424 -0.62623513 6 4 6769 3.28200000 3219717937 3219717937 -11.00000000
8.20303249 3.36430860 0.77568609 82 5 6770 8.90000000 3219717939 3219717939 5.00000000
3.75423646 1.53895915 -0.64263278 6 6 6771 4.10800000 3219717941 3219717941 -9.00000000
8.20722198 3.36268091 1.08902442 90 7 6772 8.93600000 3219717944 3219717944 7.00000000
5.06099224 2.07256937 -0.67150009 6 8 6773 5.51000000 3219717946 3219717946 -7.00000000
7.76652956 3.17895365 -0.73420000 13 10 6774 8.42400000 3219717951 3219717951 -5.00000000
8.18039227 3.34502006 -0.46317321 17 12 6776 8.85000000 3219717955 3219717955 -3.00000000
8.26184082 3.37664223 2.06055164 66 13 6777 9.16000000 3219717958 3219717958 13.00000000
8.18783665 3.34472895 -0.15438399 16 14 6778 8.84600000 3219717960 3219717960 -1.00000000
7.20184517 2.94195175 2.08452868 42 15 6778 8.05400000 3219717962 3219717962 15.00000000
2.10061574 0.85510778 -0.60770714 4 0 6785 2.34800000 3219717983 3219717983 -15.00000000
8.19435120 3.33404684 0.15441889 12 1 6786 8.84800000 3219717985 3219717985 1.00000000
2.48212171 1.00939929 -0.61861539 4 2 6787 2.75000000 3219717988 3219717988 -13.00000000
8.19478035 3.33088803 0.46359190 13 3 6788 8.85800000 3219717990 3219717990 3.00000000
2.97366190 1.20868814 -0.62394542 6 4 6788 3.27000000 3219717992 3219717992 -11.00000000
8.19014740 3.32733917 0.77342004 75 5 6789 8.87400000 3219717994 3219717994 5.00000000
3.76114941 1.52724445 -0.64294565 6 6 6790 4.11000000 3219717997 3219717997 -9.00000000
8.21832848 3.33544636 1.08902442 92 7 6791 8.93600000 3219717999 3219717999 7.00000000
5.06783772 2.05577493 -0.67150009 6 8 6792 5.51000000 3219718001 3219718001 -7.00000000
7.76964283 3.15018702 -0.73350275 13 10 6793 8.41600000 3219718006 3219718006 -5.00000000
8.18588543 3.31562519 -0.46285918 17 12 6795 8.84400000 3219718011 3219718011 -3.00000000
8.26938057 3.34776378 2.05965185 66 13 6796 9.15600000 3219718013 3219718013 13.00000000
8.17293167 3.30705762 -0.15389532 16 14 6797 8.81800000 3219718015 3219718015 -1.00000000
7.21156168 2.91805339 2.08452868 42 15 6797 8.05400000 3219718017 3219718017 15.00000000
2.09642053 0.84488153 -0.60563654 4 0 6805 2.34000000 3219718038 3219718038 -15.00000000
8.18368053 3.29645705 0.15400003 12 1 6806 8.82400000 3219718041 3219718041 1.00000000
2.50009179 1.00655138 -0.62221462 4 2 6807 2.76600000 3219718043 3219718043 -13.00000000
8.19338799 3.29704332 0.46285918 13 3 6808 8.84400000 3219718045 3219718045 3.00000000
2.98514819 1.20123243 -0.62547189 6 4 6808 3.27800000 3219718047 3219718047 -11.00000000
8.18322754 3.29129529 0.77167696 78 5 6809 8.85400000 3219718050 3219718050 5.00000000
3.76645756 1.51410627 -0.64294565 6 6 6810 4.11000000 3219718052 3219718052 -9.00000000
8.21150112 3.29933763 1.08658707 92 7 6811 8.91600000 3219718054 3219718054 7.00000000
5.07498264 2.03807235 -0.67150009 6 8 6812 5.51000000 3219718057 3219718057 -7.00000000
7.78428984 3.12453103 -0.73385137 13 10 6813 8.42000000 3219718061 3219718061 -5.00000000
8.18814087 3.28331423 -0.46233582 17 12 6815 8.83400000 3219718066 3219718066 -3.00000000
8.27377987 3.31597805 2.05785227 64 13 6816 9.14800000 3219718068 3219718068 13.00000000
8.18256950 3.27776504 -0.15386042 18 14 6817 8.81600000 3219718070 3219718070 -1.00000000
7.21862173 2.89016581 2.08349323 40 15 6818 8.05000000 3219718073 3219718073 15.00000000
2.09576845 0.83612680 -0.60460126 4 0 6825 2.33600000 3219718094 3219718094 -15.00000000
8.18399334 3.26342654 0.15379061 12 1 6826 8.81200000 3219718096 3219718096 1.00000000
2.50359011 0.99781829 -0.62221462 4 2 6827 2.76600000 3219718098 3219718098 -13.00000000
8.21041298 3.27064037 0.46317321 10 3 6828 8.85000000 3219718100 3219718100 3.00000000
2.99114704 1.19153154 -0.62585348 6 4 6828 3.28000000 3219718103 3219718103 -11.00000000
8.19466591 3.26271057 0.77167696 78 5 6829 8.85400000 3219718105 3219718105 5.00000000
3.75703692 1.49510658 -0.64044273 6 6 6830 4.09400000 3219718107 3219718107 -9.00000000
8.20452309 3.26331758 1.08414972 92 7 6831 8.89600000 3219718110 3219718110 7.00000000
5.09682322 2.02621174 -0.67344999 6 8 6832 5.52600000 3219718112 3219718112 -7.00000000
7.80070400 3.09954691 -0.73437428 13 10 6833 8.42600000 3219718117 3219718117 -5.00000000
8.19398308 3.25250173 -0.46202183 12 12 6835 8.82800000 3219718121 3219718121 -3.00000000
8.28530502 3.28707695 2.05785227 66 13 6836 9.14800000 3219718123 3219718123 13.00000000
8.18280792 3.24475980 -0.15365098 18 14 6837 8.80400000 3219718126 3219718126 -1.00000000
7.22816610 2.86621213 2.08349323 42 15 6837 8.05000000 3219718128 3219718128 15.00000000
2.11304879 0.83448285 -0.60874242 4 0 6845 2.35200000 3219718149 3219718149 -15.00000000
8.18603420 3.23116827 0.15361609 15 1 6846 8.80200000 3219718151 3219718151 1.00000000
2.48530459 0.98049110 -0.61681581 4 2 6847 2.74200000 3219718153 3219718153 -13.00000000
8.19576740 3.23170376 0.46170780 10 3 6848 8.82200000 3219718156 3219718156 3.00000000
3.00259352 1.18396389 -0.62737995 6 4 6848 3.28800000 3219718158 3219718158 -11.00000000
8.19302940 3.22897220 0.77045679 78 5 6849 8.84000000 3219718160 3219718160 5.00000000
3.77509832 1.48705077 -0.64263278 6 6 6850 4.10800000 3219718163 3219718163 -9.00000000
8.19369888 3.22593188 1.08122480 95 7 6851 8.87200000 3219718165 3219718165 7.00000000
5.08908701 2.00259304 -0.67150009 6 8 6852 5.51000000 3219718167 3219718167 -7.00000000
7.80035114 3.06792283 -0.73332840 13 10 6853 8.41400000 3219718172 3219718172 -5.00000000
8.18297863 3.21511507 -0.46076575 17 12 6855 8.80400000 3219718176 3219718176 -3.00000000
8.28221703 3.25243735 2.05425310 62 13 6856 9.13200000 3219718179 3219718179 13.00000000
8.19222260 3.21544623 -0.15361609 16 14 6857 8.80200000 3219718181 3219718181 -1.00000000
7.23812675 2.84096384 2.08349323 40 15 6857 8.05000000 3219718183 3219718183 15.00000000
2.11969185 0.82813859 -0.60977769 4 0 6866 2.35600000 3219718204 3219718204 -15.00000000
8.18850899 3.19750643 0.15344156 15 1 6867 8.79200000 3219718206 3219718206 1.00000000
2.49795866 0.97491801 -0.61906528 4 2 6868 2.75200000 3219718209 3219718209 -13.00000000
8.18839264 3.19581389 0.46066108 10 3 6868 8.80200000 3219718211 3219718211 3.00000000
3.00325465 1.17152393 -0.62661672 5 4 6869 3.28400000 3219718213 3219718213 -11.00000000
8.20109653 3.19747400 0.77010816 78 5 6870 8.83600000 3219718216 3219718216 5.00000000
3.77684212 1.47176993 -0.64200705 6 6 6871 4.10400000 3219718218 3219718218 -9.00000000
8.19436932 3.19155622 1.07976234 97 7 6872 8.86000000 3219718220 3219718220 7.00000000
5.10009289 1.98536730 -0.67198753 9 8 6873 5.51400000 3219718222 3219718222 -7.00000000
7.82454062 3.04436970 -0.73454863 13 10 6874 8.42800000 3219718227 3219718227 -5.00000000
8.18540001 3.18148351 -0.46024239 17 12 6876 8.79400000 3219718232 3219718232 -3.00000000
8.28318310 3.21782565 2.05155373 59 13 6877 9.12000000 3219718234 3219718234 13.00000000
8.18717575 3.17888451 -0.15330194 14 14 6878 8.78400000 3219718236 3219718236 -1.00000000
7.25569439 2.81721258 2.08556390 42 15 6878 8.05800000 3219718239 3219718239 15.00000000
2.10635304 0.81446397 -0.60511893 4 0 6886 2.33800000 3219718259 3219718259 -15.00000000
8.19402409 3.16674113 0.15333684 15 1 6887 8.78600000 3219718262 3219718262 1.00000000
2.50316429 0.96689475 -0.61951518 4 2 6888 2.75400000 3219718264 3219718264 -13.00000000
8.19632435 3.16434193 0.46045175 13 3 6889 8.79800000 3219718266 3219718266 3.00000000
2.99267387 1.15537679 -0.62356383 5 4 6889 3.26800000 3219718269 3219718269 -11.00000000
8.19361973 3.16165495 0.76836503 78 5 6890 8.81600000 3219718271 3219718271 5.00000000
3.77642727 1.45644486 -0.64106846 6 6 6891 4.09800000 3219718273 3219718273 -9.00000000
8.19990253 3.16079116 1.07903111 99 7 6892 8.85400000 3219718275 3219718275 7.00000000
5.11069679 1.96897995 -0.67247504 9 8 6893 5.51800000 3219718278 3219718278 -7.00000000
7.81838608 3.01059484 -0.73297977 13 10 6894 8.41000000 3219718282 3219718282 -5.00000000
8.19459152 3.15217471 -0.46013772 17 12 6896 8.79200000 3219718287 3219718287 -3.00000000
8.29800320 3.19029093 2.05245352 55 13 6897 9.12400000 3219718289 3219718289 13.00000000
8.17395592 3.14096189 -0.15284817 16 14 6898 8.75800000 3219718292 3219718292 -1.00000000
7.25154400 2.78505921 2.08142281 42 15 6899 8.04200000 3219718294 3219718294 15.00000000
2.10723829 0.80678380 -0.60460126 4 0 6905 2.33600000 3219718315 3219718315 -15.00000000
8.18767166 3.13311911 0.15302271 15 1 6906 8.76800000 3219718317 3219718317 1.00000000
2.51727772 0.96276546 -0.62221462 4 2 6907 2.76600000 3219718319 3219718319 -13.00000000
8.20249367 3.13714981 0.46024239 13 3 6907 8.79400000 3219718322 3219718322 3.00000000
3.00199032 1.14754951 -0.62470865 5 4 6908 3.27400000 3219718324 3219718324 -11.00000000
8.18730927 3.12806678 0.76679623 86 5 6909 8.79800000 3219718326 3219718326 5.00000000
3.78861809 1.44673252 -0.64231992 4 6 6910 4.10600000 3219718328 3219718328 -9.00000000
8.21219349 3.13428974 1.07927489 92 7 6911 8.85600000 3219718331 3219718331 7.00000000
5.11348820 1.95060635 -0.67198753 6 8 6912 5.51400000 3219718333 3219718333 -7.00000000
7.84135818 2.98961997 -0.73420000 13 10 6913 8.42400000 3219718338 3219718338 -5.00000000
8.19380093 3.12071776 -0.45950970 17 12 6915 8.78000000 3219718342 3219718342 -3.00000000
8.32310677 3.16830254 2.05605268 55 13 6916 9.14000000 3219718345 3219718345 13.00000000
8.17685127 3.11099458 -0.15270856 16 14 6917 8.75000000 3219718347 3219718347 -1.00000000
7.26025772 2.76226401 2.08142281 40 15 6917 8.04200000 3219718349 3219718349 15.00000000
2.11004162 0.79942328 -0.60460126 4 0 6925 2.33600000 3219718370 3219718370 -15.00000000
8.17237759 3.09460568 0.15253404 18 1 6926 8.74000000 3219718372 3219718372 1.00000000
2.51333284 0.95121354 -0.62041503 4 2 6927 2.75800000 3219718374 3219718374 -13.00000000
8.19471455 3.10142899 0.45919567 10 3 6927 8.77400000 3219718377 3219718377 3.00000000
3.01699519 1.14123118 -0.62699836 5 4 6928 3.28600000 3219718379 3219718379 -11.00000000
8.19631386 3.09876394 0.76662189 93 5 6929 8.79600000 3219718381 3219718381 5.00000000
3.78255773 1.42930949 -0.64044273 4 6 6930 4.09400000 3219718384 3219718384 -9.00000000
8.19894314 3.09648705 1.07610631 99 7 6931 8.83000000 3219718386 3219718386 7.00000000
5.12398052 1.93414712 -0.67247504 9 8 6932 5.51800000 3219718388 3219718388 -7.00000000
7.84242535 2.95871401 -0.73332840 13 10 6933 8.41400000 3219718393 3219718393 -5.00000000
8.19343090 3.08787107 -0.45888168 17 12 6935 8.76800000 3219718398 3219718398 -3.00000000
8.33958626 3.14129090 2.05740237 52 13 6936 9.14600000 3219718400 3219718400 13.00000000
8.18578911 3.08172846 -0.15267365 14 14 6937 8.74800000 3219718402 3219718402 -1.00000000
7.26262379 2.73418164 2.07935214 42 15 6937 8.03400000 3219718404 3219718404 15.00000000
2.11629868 0.79377860 -0.60563654 4 0 6944 2.34000000 3219718425 3219718425 -15.00000000
8.17510414 3.06468034 0.15239441 18 1 6945 8.73200000 3219718427 3219718427 1.00000000
2.51647329 0.94287378 -0.62041503 4 2 6946 2.75800000 3219718430 3219718430 -13.00000000
8.19052792 3.06720185 0.45835832 10 3 6947 8.75800000 3219718432 3219718432 3.00000000
3.01708603 1.12984312 -0.62623513 5 4 6947 3.28200000 3219718434 3219718434 -11.00000000
8.17295742 3.05899572 0.76348430 75 5 6948 8.76000000 3219718437 3219718437 5.00000000
3.78357649 1.41537404 -0.63981694 4 6 6949 4.09000000 3219718439 3219718439 -9.00000000
8.18871307 3.06163430 1.07342517 92 7 6950 8.80800000 3219718441 3219718441 7.00000000
5.12664700 1.91575503 -0.67198753 6 8 6951 5.51400000 3219718444 3219718444 -7.00000000
7.85592651 2.93408537 -0.73367703 13 10 6952 8.41800000 3219718448 3219718448 -5.00000000
8.17929840 3.05160785 -0.45752093 17 12 6954 8.74200000 3219718453 3219718453 -3.00000000
8.35908699 3.11702299 2.05965185 55 13 6955 9.15600000 3219718455 3219718455 13.00000000
8.18284702 3.04967809 -0.15242931 14 14 6956 8.73400000 3219718457 3219718457 -1.00000000
7.27936459 2.71151090 2.08142281 45 15 6957 8.04200000 3219718460 3219718460 15.00000000
2.12630129 0.78907502 -0.60770714 4 0 6964 2.34800000 3219718480 3219718480 -15.00000000
8.18950176 3.03751612 0.15246423 12 1 6965 8.73600000 3219718483 3219718483 1.00000000
2.51244044 0.93137443 -0.61861539 9 2 6966 2.75000000 3219718485 3219718485 -13.00000000
8.18192673 3.03308201 0.45731160 10 3 6966 8.73800000 3219718487 3219718487 3.00000000
3.01180673 1.11589420 -0.62432700 5 4 6967 3.27200000 3219718490 3219718490 -11.00000000
8.20226955 3.03736711 0.76522744 93 5 6968 8.78000000 3219718492 3219718492 5.00000000
3.78849387 1.40215826 -0.63981694 4 6 6969 4.09000000 3219718494 3219718494 -9.00000000
8.19190311 3.03027678 1.07245028 90 7 6970 8.80000000 3219718497 3219718497 7.00000000
5.12213182 1.89371777 -0.67052513 6 8 6971 5.50200000 3219718499 3219718499 -7.00000000
8.21956635 3.03724861 1.38788652 26 9 6972 8.87200000 3219718501 3219718501 9.00000000
7.87359619 2.90940762 -0.73437428 13 10 6972 8.42600000 3219718504 3219718504 -5.00000000
8.20832729 3.03146744 1.70087135 25 11 6973 8.91400000 3219718506 3219718506 11.00000000
8.17678547 3.01819682 -0.45678821 12 12 6974 8.72800000 3219718508 3219718508 -3.00000000
8.20537090 3.02712107 2.01916075 78 13 6975 8.97600000 3219718510 3219718510 13.00000000
8.17468071 3.01417804 -0.15208027 12 14 6976 8.71400000 3219718513 3219718513 -1.00000000
7.29241085 2.68742085 2.08245802 40 15 6977 8.04600000 3219718515 3219718515 15.00000000
2.12904263 0.78164804 -0.60770714 4 0 6984 2.34800000 3219718536 3219718536 -15.00000000
8.18128204 3.00202227 0.15211518 12 1 6985 8.71600000 3219718538 3219718538 1.00000000
2.52482414 0.92595363 -0.62086493 10 2 6986 2.76000000 3219718540 3219718540 -13.00000000
8.17746353 2.99900174 0.45647421 13 3 6986 8.72200000 3219718543 3219718543 3.00000000
3.00462365 1.10132039 -0.62203735 5 4 6987 3.26000000 3219718545 3219718545 -11.00000000
8.18101883 2.99706626 0.76226413 78 5 6988 8.74600000 3219718547 3219718547 5.00000000
3.80820489 1.39435875 -0.64231992 6 6 6989 4.10600000 3219718550 3219718550 -9.00000000
8.19870186 3.00029898 1.07196271 92 7 6990 8.79600000 3219718552 3219718552 7.00000000
5.12498236 1.87446296 -0.67003763 6 8 6991 5.49800000 3219718554 3219718554 -7.00000000
8.20176601 2.99979687 1.38319349 78 9 6991 8.84200000 3219718557 3219718557 9.00000000
7.89118910 2.88464212 -0.73507154 13 10 6992 8.43400000 3219718559 3219718559 -5.00000000
8.21517086 3.00144911 1.70010817 59 11 6993 8.91000000 3219718561 3219718561 11.00000000
8.17413807 2.98484063 -0.45605552 12 12 6994 8.71400000 3219718563 3219718563 -3.00000000
8.21222591 2.99712420 2.01826096 103 13 6995 8.97200000 3219718566 3219718566 13.00000000
8.16636562 2.97877216 -0.15173122 12 14 6996 8.69400000 3219718568 3219718568 -1.00000000
7.29448700 2.65930247 2.08038759 42 15 6997 8.03800000 3219718570 3219718570 15.00000000
2.11723161 0.76893580 -0.60356599 4 0 7004 2.33200000 3219718591 3219718591 -15.00000000
8.17667389 2.96798778 0.15183593 12 1 7005 8.70000000 3219718593 3219718593 1.00000000
2.52437711 0.91580552 -0.61996508 11 2 7006 2.75600000 3219718596 3219718596 -13.00000000
8.18037128 2.96771431 0.45605552 10 3 7006 8.71400000 3219718598 3219718598 3.00000000
3.01767802 1.09417164 -0.62394542 5 4 7007 3.27000000 3219718600 3219718600 -11.00000000
8.17082500 2.96102381 0.76034671 75 5 7008 8.72400000 3219718603 3219718603 5.00000000
3.80561972 1.37836635 -0.64106846 4 6 7009 4.09800000 3219718605 3219718605 -9.00000000
8.20165920 2.96895909 1.07098782 90 7 7010 8.78800000 3219718607 3219718607 7.00000000
5.14269400 1.86061418 -0.67150009 6 8 7011 5.51000000 3219718610 3219718610 -7.00000000
8.21404457 2.97182107 1.38350642 100 9 7011 8.84400000 3219718612 3219718612 9.00000000
7.90121031 2.85707903 -0.73507154 13 10 7012 8.43400000 3219718614 3219718614 -5.00000000
8.21267319 2.96808362 1.69743681 84 11 7013 8.89600000 3219718616 3219718616 11.00000000
8.17135811 2.95153975 -0.45532283 12 12 7014 8.70000000 3219718619 3219718619 -3.00000000
8.21164036 2.96446967 2.01556134 104 13 7015 8.96000000 3219718621 3219718621 13.00000000
8.17107105 2.94821191 -0.15162651 14 14 7016 8.68800000 3219718623 3219718623 -1.00000000
7.29645634 2.63120222 2.07831693 45 15 7017 8.03000000 3219718626 3219718626 15.00000000
2.13081145 0.76545936 -0.60667187 4 0 7024 2.34400000 3219718646 3219718646 -15.00000000
8.16816330 2.93267035 0.15148689 12 1 7025 8.68000000 3219718649 3219718649 1.00000000
2.51655316 0.90303910 -0.61726570 6 2 7026 2.74400000 3219718651 3219718651 -13.00000000
8.18504143 2.93711758 0.45574149 10 3 7026 8.70800000 3219718653 3219718653 3.00000000
3.01223898 1.08031750 -0.62203735 5 4 7027 3.26000000 3219718656 3219718656 -11.00000000
8.18111134 2.93248415 0.76034671 82 5 7028 8.72400000 3219718658 3219718658 5.00000000
3.79553080 1.35974419 -0.63856548 6 6 7029 4.08200000 3219718660 3219718660 -9.00000000
8.19141483 2.93295097 1.06830668 90 7 7030 8.76600000 3219718662 3219718662 7.00000000
5.14541960 1.84131384 -0.67101258 6 8 7031 5.50600000 3219718665 3219718665 -7.00000000
8.20576954 2.93647504 1.38037777 86 9 7031 8.82400000 3219718667 3219718667 9.00000000
7.91113520 2.82948136 -0.73507154 13 10 7032 8.43400000 3219718669 3219718669 -5.00000000
8.20079994 2.93146777 1.69285738 81 11 7033 8.87200000 3219718672 3219718672 11.00000000
8.16280270 2.91627884 -0.45427611 12 12 7034 8.68000000 3219718674 3219718674 -3.00000000
8.21459675 2.93316650 2.01376176 104 13 7035 8.95200000 3219718676 3219718676 13.00000000
8.17001247 2.91563892 -0.15141708 14 14 7036 8.67600000 3219718679 3219718679 -1.00000000
7.30150270 2.60569334 2.07728171 45 15 7036 8.02600000 3219718681 3219718681 15.00000000
2.13893151 0.75995708 -0.60822475 4 0 7044 2.35000000 3219718702 3219718702 -15.00000000
8.17081356 2.90146375 0.15134726 12 1 7045 8.67200000 3219718704 3219718704 1.00000000
2.50867081 0.89033848 -0.61456627 4 2 7046 2.73200000 3219718706 3219718706 -13.00000000
8.18771553 2.90585661 0.45532283 13 3 7046 8.70000000 3219718709 3219718709 3.00000000
3.02894378 1.07439041 -0.62470865 5 4 7047 3.27400000 3219718711 3219718711 -11.00000000
8.18941975 2.90324330 0.76017237 86 5 7048 8.72200000 3219718713 3219718713 5.00000000
3.79653025 1.34516764 -0.63793975 6 6 7049 4.07800000 3219718715 3219718715 -9.00000000
8.19037533 2.90036392 1.06684422 90 7 7050 8.75400000 3219718718 3219718718 7.00000000
5.15181541 1.82334173 -0.67101258 6 8 7051 5.50600000 3219718720 3219718720 -7.00000000
8.20479584 2.90385938 1.37850046 89 9 7051 8.81200000 3219718722 3219718722 9.00000000
7.95101738 2.81247973 -0.73786050 13 10 7052 8.46600000 3219718725 3219718725 -5.00000000
8.20357800 2.90020633 1.69133091 78 11 7053 8.86400000 3219718727 3219718727 11.00000000
8.15410137 2.88111377 -0.45322937 12 12 7054 8.66000000 3219718729 3219718729 -3.00000000
8.21008492 2.89928317 2.01016259 103 13 7055 8.93600000 3219718732 3219718732 13.00000000
8.17636871 2.88577151 -0.15134726 14 14 7056 8.67200000 3219718734 3219718734 -1.00000000
7.30918217 2.57827187 2.07676411 45 15 7057 8.02400000 3219718736 3219718736 15.00000000
2.14157128 0.75248617 -0.60822475 4 0 7064 2.35000000 3219718757 3219718757 -15.00000000
8.17711830 2.87159944 0.15127745 12 1 7065 8.66800000 3219718759 3219718759 1.00000000
2.51911855 0.88415760 -0.61636591 3 2 7066 2.74000000 3219718762 3219718762 -13.00000000
8.17757893 2.86855531 0.45417142 13 3 7067 8.67800000 3219718764 3219718764 3.00000000
3.02711797 1.06186128 -0.62356383 5 4 7067 3.26800000 3219718766 3219718766 -11.00000000
8.18634319 2.87002492 0.75895220 82 5 7068 8.70800000 3219718768 3219718768 5.00000000
3.82357359 1.33974564 -0.64169419 4 6 7069 4.10200000 3219718771 3219718771 -9.00000000
8.19670296 2.87044430 1.06635678 87 7 7070 8.75000000 3219718773 3219718773 7.00000000
5.14690685 1.80141270 -0.66955018 6 8 7071 5.49400000 3219718775 3219718775 -7.00000000
8.19996643 2.86998105 1.37599754 86 9 7071 8.79600000 3219718778 3219718778 9.00000000
8.00404072 2.79983926 -0.74186969 13 10 7072 8.51200000 3219718780 3219718780 -5.00000000
8.20623875 2.86896110 1.68980443 84 11 7073 8.85600000 3219718782 3219718782 11.00000000
8.15468121 2.84933901 -0.45270601 12 12 7074 8.65000000 3219718785 3219718785 -3.00000000
8.19807816 2.86289716 2.00476384 104 13 7075 8.91200000 3219718787 3219718787 13.00000000
8.16940022 2.85128260 -0.15103312 14 14 7076 8.65400000 3219718789 3219718789 -1.00000000
7.32316351 2.55592918 2.07831693 45 15 7076 8.03000000 3219718792 3219718792 15.00000000
2.14053512 0.74373800 -0.60718948 4 0 7084 2.34600000 3219718812 3219718812 -15.00000000
8.18331337 2.84172654 0.15120766 12 1 7085 8.66400000 3219718815 3219718815 1.00000000
2.52955365 0.87791467 -0.61816549 3 2 7086 2.74800000 3219718817 3219718817 -13.00000000
8.17810822 2.83671999 0.45364806 13 3 7087 8.66800000 3219718819 3219718819 3.00000000
3.02895117 1.05064487 -0.62318218 5 4 7087 3.26600000 3219718821 3219718821 -11.00000000
8.18689919 2.83816886 0.75808066 86 5 7088 8.69800000 3219718824 3219718824 5.00000000
3.81702757 1.32251048 -0.63981694 4 6 7089 4.09000000 3219718826 3219718826 -9.00000000
8.19541740 2.83791780 1.06489432 90 7 7090 8.73800000 3219718828 3219718828 7.00000000
5.16441917 1.78733110 -0.67101258 6 8 7091 5.50600000 3219718831 3219718831 -7.00000000
8.19362926 2.83409572 1.37318170 81 9 7092 8.77800000 3219718833 3219718833 9.00000000
8.01376534 2.77188277 -0.74186969 13 10 7092 8.51200000 3219718835 3219718835 -5.00000000
8.20507050 2.83644986 1.68751478 75 11 7093 8.84400000 3219718838 3219718838 11.00000000
8.16646481 2.82150888 -0.45281070 12 12 7094 8.65200000 3219718840 3219718840 -3.00000000
8.20065403 2.83171868 2.00296426 106 13 7095 8.90400000 3219718842 3219718842 13.00000000
8.17174149 2.82013917 -0.15089351 12 14 7096 8.64600000 3219718845 3219718845 -1.00000000
7.32335091 2.52592182 2.07572865 45 15 7097 8.02000000 3219718847 3219718847 15.00000000
2.13215590 0.73249561 -0.60408366 4 0 7104 2.33400000 3219718868 3219718868 -15.00000000
8.17426968 2.80665016 0.15085860 12 1 7105 8.64400000 3219718870 3219718870 1.00000000
2.53997564 0.87160957 -0.61996508 3 2 7106 2.75600000 3219718872 3219718872 -13.00000000
8.18229198 2.80621219 0.45333406 13 3 7107 8.66200000 3219718874 3219718874 3.00000000
3.03260016 1.04006541 -0.62318218 5 4 7107 3.26600000 3219718877 3219718877 -11.00000000
8.17225456 2.80117559 0.75581461 82 5 7108 8.67200000 3219718879 3219718879 5.00000000
3.82909584 1.31173921 -0.64106846 4 6 7109 4.09800000 3219718881 3219718881 -9.00000000
8.20339584 2.80865002 1.06465054 92 7 7110 8.73600000 3219718884 3219718884 7.00000000
5.16687012 1.76800764 -0.67052513 6 8 7111 5.50200000 3219718886 3219718886 -7.00000000
8.19550610 2.80435109 1.37193024 81 9 7111 8.77000000 3219718888 3219718888 9.00000000
8.01962185 2.74260330 -0.74152106 13 10 7112 8.50800000 3219718891 3219718891 -5.00000000
8.20377541 2.80398178 1.68522501 81 11 7113 8.83200000 3219718893 3219718893 11.00000000
8.16492462 2.78911161 -0.45218265 12 12 7114 8.64000000 3219718895 3219718895 -3.00000000
8.19573402 2.79803896 1.99936497 104 13 7115 8.88800000 3219718898 3219718898 13.00000000
8.16828823 2.78707695 -0.15064918 14 14 7116 8.63200000 3219718900 3219718900 -1.00000000
7.32071686 2.49787974 2.07262301 45 15 7116 8.00800000 3219718902 3219718902 15.00000000
2.14933372 0.73001885 -0.60822475 4 0 7124 2.35000000 3219718923 3219718923 -15.00000000
8.16129494 2.77038622 0.15043974 12 1 7125 8.62000000 3219718925 3219718925 1.00000000
2.52823925 0.85772949 -0.61636591 3 2 7126 2.74000000 3219718927 3219718927 -13.00000000
8.18257999 2.77442670 0.45281070 13 3 7127 8.65200000 3219718930 3219718930 3.00000000
3.03807139 1.03010380 -0.62356383 5 4 7127 3.26800000 3219718932 3219718932 -11.00000000
8.17066097 2.76879525 0.75476873 72 5 7128 8.66000000 3219718934 3219718934 5.00000000
3.81119967 1.29076135 -0.63731402 4 6 7129 4.07400000 3219718937 3219718937 -9.00000000
8.19810772 2.77490616 1.06270063 90 7 7130 8.72000000 3219718939 3219718939 7.00000000
5.17677116 1.75123334 -0.67101258 6 8 7131 5.50600000 3219718941 3219718941 -7.00000000
8.20385838 2.77366138 1.37161744 84 9 7132 8.76800000 3219718944 3219718944 9.00000000
8.05557060 2.72352648 -0.74396139 13 10 7132 8.53600000 3219718946 3219718946 -5.00000000
8.19491386 2.76904345 1.68140888 71 11 7133 8.81200000 3219718948 3219718948 11.00000000
8.16893387 2.75867653 -0.45186865 12 12 7134 8.63400000 3219718950 3219718950 -3.00000000
8.20545101 2.76941347 1.99936497 106 13 7135 8.88800000 3219718953 3219718953 13.00000000
8.16849327 2.75535178 -0.15047465 14 14 7136 8.62200000 3219718955 3219718955 -1.00000000
7.33897591 2.47411704 2.07521105 45 15 7137 8.01800000 3219718957 3219718957 15.00000000
2.15174270 0.72288740 -0.60822475 4 0 7143 2.35000000 3219718978 3219718978 -15.00000000
8.16664505 2.74203420 0.15036993 12 1 7144 8.61600000 3219718980 3219718980 1.00000000
2.52922201 0.84872085 -0.61591601 4 2 7145 2.73800000 3219718983 3219718983 -13.00000000
8.18416119 2.74473691 0.45239201 13 3 7146 8.64400000 3219718985 3219718985 3.00000000
3.04519343 1.02127194 -0.62432700 4 4 7146 3.27200000 3219718987 3219718987 -11.00000000
8.17979717 2.74168515 0.75476873 72 5 7147 8.66000000 3219718990 3219718990 5.00000000
3.82669735 1.28188050 -0.63919121 4 6 7148 4.08600000 3219718992 3219718992 -9.00000000
8.18467522 2.74014258 1.05977583 92 7 7149 8.69600000 3219718994 3219718994 7.00000000
5.17125511 1.73027766 -0.66955018 6 8 7150 5.49400000 3219718997 3219718997 -7.00000000
8.20878506 2.74662113 1.37099171 84 9 7150 8.76400000 3219718999 3219718999 9.00000000
8.06077862 2.69553471 -0.74361283 13 10 7151 8.53200000 3219719001 3219719001 -5.00000000
8.19660282 2.73936391 1.67988241 71 11 7152 8.80400000 3219719003 3219719003 11.00000000
8.16288185 2.72651029 -0.45103127 12 12 7153 8.61800000 3219719006 3219719006 -3.00000000
8.19610500 2.73601747 1.99486589 103 13 7154 8.86800000 3219719008 3219719008 13.00000000
8.17379093 2.72698307 -0.15040484 12 14 7155 8.61800000 3219719010 3219719010 -1.00000000
7.34304714 2.44982600 2.07417583 45 15 7155 8.01400000 3219719013 3219719013 15.00000000
2.15425301 0.71537197 -0.60822475 4 0 7163 2.35000000 3219719033 3219719033 -15.00000000
8.16857529 2.71099091 0.15023032 12 1 7164 8.60800000 3219719036 3219719036 1.00000000
2.53771830 0.84172755 -0.61726570 4 2 7165 2.74400000 3219719038 3219719038 -13.00000000
8.17852592 2.71112442 0.45155463 13 3 7166 8.62800000 3219719040 3219719040 3.00000000
3.04501271 1.00940061 -0.62356383 5 4 7166 3.26800000 3219719043 3219719043 -11.00000000
8.18742657 2.71248913 0.75459445 76 5 7167 8.65800000 3219719045 3219719045 5.00000000
3.83489919 1.26975691 -0.63981694 4 6 7168 4.09000000 3219719047 3219719047 -9.00000000
8.18665218 2.70906138 1.05880082 95 7 7169 8.68800000 3219719050 3219719050 7.00000000
5.16218567 1.70722973 -0.66760027 6 8 7170 5.47800000 3219719052 3219719052 -7.00000000
8.19629002 2.70907688 1.36723721 89 9 7171 8.74000000 3219719054 3219719054 9.00000000
8.08527279 2.67238283 -0.74500728 13 10 7171 8.54800000 3219719056 3219719056 -5.00000000
8.20238686 2.70950413 1.67911911 75 11 7172 8.80000000 3219719059 3219719059 11.00000000
8.17045307 2.69737363 -0.45092660 12 12 7173 8.61600000 3219719061 3219719061 -3.00000000
8.18709946 2.70128512 1.99036694 103 13 7174 8.84800000 3219719063 3219719063 13.00000000
8.16996670 2.69405103 -0.15016051 14 14 7175 8.60400000 3219719066 3219719066 -1.00000000
7.36115074 2.42591906 2.07676411 45 15 7176 8.02400000 3219719068 3219719068 15.00000000
2.15306592 0.70664304 -0.60718948 4 0 7183 2.34600000 3219719089 3219719089 -15.00000000
8.16278839 2.67747474 0.14995107 12 1 7184 8.59200000 3219719091 3219719091 1.00000000
2.54434443 0.83407825 -0.61816549 4 2 7185 2.74800000 3219719093 3219719093 -13.00000000
8.18414402 2.68131590 0.45134529 13 3 7186 8.62400000 3219719096 3219719096 3.00000000
3.04478621 0.99754286 -0.62280059 5 4 7186 3.26400000 3219719098 3219719098 -11.00000000
8.18359089 2.67955327 0.75337422 76 5 7187 8.64400000 3219719100 3219719100 5.00000000
3.83930802 1.25636280 -0.63981694 4 6 7188 4.09000000 3219719103 3219719103 -9.00000000
