# .PCD v0.7 - Point Cloud Data file format
VERSION 0.7
FIELDS x y z intensity laser_id azimuth distance_m adjustedtime timestamp vertical_angle
SIZE 4 4 4 1 1 2 8 8 4 8
TYPE F F F U U U F U U F
COUNT 1 1 1 1 1 1 1 1 1 1
WIDTH 528
HEIGHT 1
VIEWPOINT 0 0 0 1 0 0 0
POINTS 528
DATA ascii
1.64755058 -1.32371807 -0.56629604 4 0 12878 2.18800000 3219334947 3219334947 -15.00000000
3.99639702 -3.21203756 0.08949594 49 1 12879 5.12800000 3219334950 3219334950 1.00000000
1.91967118 -1.54345524 -0.56867629 3 2 12880 2.52800000 3219334952 3219334952 -13.00000000
3.50999737 -2.82211018 0.23603517 28 3 12880 4.51000000 3219334954 3219334954 3.00000000
2.28861666 -1.84075272 -0.57090050 3 4 12881 2.99200000 3219334957 3219334957 -11.00000000
3.89474273 -3.13369274 0.43734753 28 5 12882 5.01800000 3219334959 3219334959 5.00000000
2.79606819 -2.25050807 -0.56848282 5 6 12883 3.63400000 3219334961 3219334961 -9.00000000
3.90876579 -3.14722395 0.61617142 22 7 12884 5.05600000 3219334964 3219334964 7.00000000
3.67477489 -2.95987844 -0.57936686 6 8 12885 4.75400000 3219334966 3219334966 -7.00000000
6.61113644 -5.32689810 1.34471071 45 9 12886 8.59600000 3219334968 3219334968 9.00000000
5.25471544 -4.23396730 -0.59039301 12 10 12886 6.77400000 3219334971 3219334971 -5.00000000
4.82864094 -3.89204931 1.20553124 31 11 12887 6.31800000 3219334973 3219334973 11.00000000
4.05023050 -3.26579022 -0.27267033 2 12 12888 5.21000000 3219334975 3219334975 -3.00000000
4.47609806 -3.61046624 1.32766116 21 13 12889 5.90200000 3219334977 3219334977 13.00000000
3.71476698 -2.99743915 -0.08331779 7 14 12890 4.77400000 3219334980 3219334980 -1.00000000
6.44288063 -5.20060587 2.21859694 45 15 12891 8.57200000 3219334982 3219334982 15.00000000
1.65042877 -1.33553720 -0.56888425 4 0 12898 2.19800000 3219335003 3219335003 -15.00000000
4.00381184 -3.24106598 0.08991480 57 1 12899 5.15200000 3219335005 3219335005 1.00000000
1.91730070 -1.55259943 -0.56957608 3 2 12900 2.53200000 3219335007 3219335007 -13.00000000
3.49236417 -2.82806063 0.23551181 31 3 12900 4.50000000 3219335010 3219335010 3.00000000
2.27149868 -1.84007978 -0.56822920 3 4 12901 2.97800000 3219335012 3219335012 -11.00000000
3.90080786 -3.16106701 0.43926495 26 5 12902 5.04000000 3219335014 3219335014 5.00000000
2.78052282 -2.25403452 -0.56691849 5 6 12903 3.62400000 3219335017 3219335017 -9.00000000
3.90700722 -3.16835093 0.61763382 22 7 12904 5.06800000 3219335019 3219335019 7.00000000
3.65671253 -2.96643472 -0.57814819 4 8 12905 4.74400000 3219335021 3219335021 -7.00000000
6.56275415 -5.32390261 1.33845329 50 9 12905 8.55600000 3219335024 3219335024 9.00000000
5.24145126 -4.25353909 -0.59056729 12 10 12906 6.77600000 3219335026 3219335026 -5.00000000
4.80892849 -3.90393114 1.20400476 18 11 12907 6.31000000 3219335028 3219335028 11.00000000
3.90857172 -3.17414546 -0.26387790 2 12 12908 5.04200000 3219335030 3219335030 -3.00000000
4.45590544 -3.61992478 1.32541156 21 13 12909 5.89200000 3219335033 3219335033 13.00000000
3.71359253 -3.01795459 -0.08352721 5 14 12910 4.78600000 3219335035 3219335035 -1.00000000
6.41869164 -5.21818972 2.21652627 45 15 12911 8.56400000 3219335037 3219335037 15.00000000
1.63377678 -1.33152640 -0.56474316 4 0 12918 2.18200000 3219335058 3219335058 -15.00000000
4.00022364 -3.26134014 0.09008932 61 1 12919 5.16200000 3219335060 3219335060 1.00000000
1.91186941 -1.55928266 -0.56957608 3 2 12920 2.53200000 3219335063 3219335063 -13.00000000
3.48401880 -2.84149647 0.23561648 31 3 12920 4.50200000 3219335065 3219335065 3.00000000
2.26201940 -1.84551537 -0.56746596 3 4 12921 2.97400000 3219335067 3219335067 -11.00000000
3.89901114 -3.18222284 0.44031081 23 5 12922 5.05200000 3219335070 3219335070 5.00000000
2.78793931 -2.27621961 -0.57004720 5 6 12923 3.64400000 3219335072 3219335072 -9.00000000
3.92052317 -3.20206094 0.62153363 22 7 12924 5.10000000 3219335074 3219335074 7.00000000
3.64326096 -2.97666907 -0.57766068 4 8 12925 4.74000000 3219335077 3219335077 -7.00000000
6.51200581 -5.32053185 1.33188307 52 9 12925 8.51400000 3219335079 3219335079 9.00000000
5.21731567 -4.26424408 -0.58952147 12 10 12926 6.76400000 3219335081 3219335081 -5.00000000
4.71319771 -3.85358834 1.18339741 6 11 12927 6.20200000 3219335083 3219335083 11.00000000
3.80161619 -3.10937142 -0.25738823 2 12 12928 4.91800000 3219335086 3219335086 -3.00000000
4.43871737 -3.63175464 1.32406187 16 13 12929 5.88600000 3219335088 3219335088 13.00000000
3.70458269 -3.03216577 -0.08356212 5 14 12930 4.78800000 3219335090 3219335090 -1.00000000
6.39744806 -5.23811579 2.21549106 45 15 12931 8.56000000 3219335093 3219335093 15.00000000
1.62337852 -1.33203518 -0.56267262 4 0 12937 2.17400000 3219335113 3219335113 -15.00000000
3.99866056 -3.28219986 0.09029875 59 1 12938 5.17400000 3219335116 3219335116 1.00000000
1.91572464 -1.57303405 -0.57227546 3 2 12939 2.54400000 3219335118 3219335118 -13.00000000
3.47148967 -2.85049939 0.23540713 30 3 12939 4.49800000 3219335120 3219335120 3.00000000
2.25892115 -1.85549867 -0.56822920 3 4 12940 2.97800000 3219335123 3219335123 -11.00000000
3.89151573 -3.19766474 0.44065943 26 5 12941 5.05600000 3219335125 3219335125 5.00000000
2.77121973 -2.27792621 -0.56816995 5 6 12942 3.63200000 3219335127 3219335127 -9.00000000
3.92214942 -3.22513056 0.62348354 22 7 12943 5.11600000 3219335129 3219335129 7.00000000
3.63950205 -2.99377847 -0.57863563 4 8 12944 4.74800000 3219335132 3219335132 -7.00000000
6.46076441 -5.31448984 1.32499993 50 9 12944 8.47000000 3219335134 3219335134 9.00000000
5.17545366 -4.25873470 -0.58638382 12 10 12945 6.72800000 3219335136 3219335136 -5.00000000
4.63673067 -3.81679201 1.16736948 12 11 12946 6.11800000 3219335139 3219335139 11.00000000
3.79128408 -3.12196088 -0.25738823 2 12 12947 4.91800000 3219335141 3219335141 -3.00000000
4.42063332 -3.64149785 1.32226229 9 13 12948 5.87800000 3219335143 3219335143 13.00000000
3.71611261 -3.06223750 -0.08405079 8 14 12949 4.81600000 3219335146 3219335146 -1.00000000
6.36307001 -5.24344540 2.20927930 38 15 12949 8.53600000 3219335148 3219335148 15.00000000
1.62020802 -1.33892441 -0.56319022 4 0 12957 2.17600000 3219335169 3219335169 -15.00000000
3.99026155 -3.29868603 0.09036856 59 1 12958 5.17800000 3219335171 3219335171 1.00000000
1.89970982 -1.57101822 -0.56912619 4 2 12959 2.53000000 3219335173 3219335173 -13.00000000
3.47690988 -2.87532806 0.23645385 31 3 12959 4.51800000 3219335176 3219335176 3.00000000
2.24637961 -1.85836673 -0.56670272 3 4 12960 2.97000000 3219335178 3219335178 -11.00000000
3.89721441 -3.22520208 0.44257686 25 5 12961 5.07800000 3219335180 3219335180 5.00000000
2.75412178 -2.28002739 -0.56629276 5 6 12962 3.62000000 3219335182 3219335182 -9.00000000
3.91698337 -3.24386644 0.62445849 20 7 12963 5.12400000 3219335185 3219335185 7.00000000
3.61221457 -2.99253392 -0.57595450 6 8 12964 4.72600000 3219335187 3219335187 -7.00000000
6.41631413 -5.31558609 1.31968117 47 9 12964 8.43600000 3219335189 3219335189 9.00000000
5.16669226 -4.28185940 -0.58708107 12 10 12965 6.73600000 3219335192 3219335192 -5.00000000
4.61279964 -3.82418299 1.16469812 25 11 12966 6.10400000 3219335194 3219335194 11.00000000
3.73578000 -3.09820151 -0.25435275 2 12 12967 4.86000000 3219335196 3219335196 -3.00000000
4.39739656 -3.64819670 1.31911302 10 13 12968 5.86400000 3219335199 3219335199 13.00000000
3.71001697 -3.07902193 -0.08415551 24 14 12969 4.82200000 3219335201 3219335201 -1.00000000
6.31408215 -5.24205160 2.19892669 36 15 12970 8.49600000 3219335203 3219335203 15.00000000
1.62169945 -1.34923208 -0.56526077 4 0 12976 2.18400000 3219335224 3219335224 -15.00000000
3.99159694 -3.32213378 0.09064780 66 1 12977 5.19400000 3219335226 3219335226 1.00000000
1.88700151 -1.57107484 -0.56687665 4 2 12978 2.52000000 3219335229 3219335229 -13.00000000
3.46224785 -2.88361263 0.23613983 30 3 12979 4.51200000 3219335231 3219335231 3.00000000
3.64617825 -3.03680325 -0.92237067 4 4 12979 4.83400000 3219335233 3219335233 -11.00000000
3.90333581 -3.25213695 0.44449428 25 5 12980 5.10000000 3219335235 3219335235 5.00000000
2.74502850 -2.28788328 -0.56597990 5 6 12981 3.61800000 3219335238 3219335238 -9.00000000
3.90925407 -3.25938010 0.62494600 20 7 12982 5.12800000 3219335240 3219335240 7.00000000
3.60836887 -3.00958180 -0.57692945 6 8 12983 4.73400000 3219335242 3219335242 -7.00000000
6.37741375 -5.31912041 1.31530094 47 9 12983 8.40800000 3219335245 3219335245 9.00000000
5.14634562 -4.29386377 -0.58638382 12 10 12984 6.72800000 3219335247 3219335247 -5.00000000
4.63626623 -3.86965084 1.17385697 12 11 12985 6.15200000 3219335249 3219335249 11.00000000
3.73621726 -3.11953330 -0.25508544 9 12 12986 4.87400000 3219335252 3219335252 -3.00000000
4.37779617 -3.65651274 1.31686342 10 13 12987 5.85400000 3219335254 3219335254 13.00000000
3.70285535 -3.09387207 -0.08422531 32 14 12988 4.82600000 3219335256 3219335256 -1.00000000
6.27682781 -5.24452066 2.19167972 36 15 12988 8.46800000 3219335259 3219335259 15.00000000
1.61994135 -1.35736609 -0.56629604 4 0 12996 2.18800000 3219335279 3219335279 -15.00000000
3.99836659 -3.35146189 0.09106666 59 1 12997 5.21800000 3219335282 3219335282 1.00000000
1.89494526 -1.58892107 -0.57092577 4 2 12998 2.53800000 3219335284 3219335284 -13.00000000
3.44144964 -2.88669562 0.23540713 30 3 12999 4.49800000 3219335286 3219335286 3.00000000
3.64608455 -3.05834413 -0.92504203 4 4 12999 4.84800000 3219335288 3219335288 -11.00000000
3.90111756 -3.27342629 0.44554016 25 5 13000 5.11200000 3219335291 3219335291 5.00000000
2.74005151 -2.29999137 -0.56660563 5 6 13001 3.62200000 3219335293 3219335293 -9.00000000
3.91153479 -3.28449488 0.62713963 20 7 13002 5.14600000 3219335295 3219335295 7.00000000
3.58872151 -3.01449823 -0.57546705 6 8 13003 4.72200000 3219335298 3219335298 -7.00000000
6.32914066 -5.31831360 1.30935645 50 9 13004 8.37000000 3219335300 3219335300 9.00000000
5.13437653 -4.31436539 -0.58673245 12 10 13004 6.73200000 3219335302 3219335302 -5.00000000
4.69636965 -3.94771099 1.19255626 25 11 13005 6.25000000 3219335305 3219335305 11.00000000
3.76199269 -3.16340613 -0.25759757 2 12 13006 4.92200000 3219335307 3219335307 -3.00000000
4.33965397 -3.65044641 1.30921519 9 13 13007 5.82000000 3219335309 3219335309 13.00000000
3.69050312 -3.10549116 -0.08419041 30 14 13008 4.82400000 3219335312 3219335312 -1.00000000
6.23391628 -5.24758577 2.18339753 29 15 13009 8.43600000 3219335314 3219335314 15.00000000
1.61200309 -1.36080205 -0.56526077 4 0 13017 2.18400000 3219335335 3219335335 -15.00000000
4.00133419 -3.37899590 0.09141570 54 1 13018 5.23800000 3219335337 3219335337 1.00000000
1.88762021 -1.59459817 -0.57047588 3 2 13019 2.53600000 3219335339 3219335339 -13.00000000
3.43999910 -2.90702462 0.23603517 30 3 13020 4.51000000 3219335341 3219335341 3.00000000
3.63485074 -3.07168698 -0.92504203 4 4 13020 4.84800000 3219335344 3219335344 -11.00000000
3.89670134 -3.29413390 0.44641173 27 5 13021 5.12200000 3219335346 3219335346 5.00000000
2.73914480 -2.31639624 -0.56816995 5 6 13022 3.63200000 3219335348 3219335348 -9.00000000
3.91159463 -3.30906606 0.62908953 20 7 13023 5.16200000 3219335351 3219335351 7.00000000
3.55794954 -3.01096082 -0.57229841 4 8 13024 4.69600000 3219335353 3219335353 -7.00000000
6.27736425 -5.31230068 1.30247331 52 9 13024 8.32600000 3219335355 3219335355 9.00000000
5.09876060 -4.31641960 -0.58446640 12 10 13025 6.70600000 3219335358 3219335358 -5.00000000
4.67138147 -3.95601630 1.18988490 31 11 13026 6.23600000 3219335360 3219335360 11.00000000
3.97896147 -3.37082458 -0.27329835 7 12 13027 5.22200000 3219335362 3219335362 -3.00000000
4.31881189 -3.66002798 1.30696559 10 13 13028 5.81000000 3219335365 3219335365 13.00000000
3.68977332 -3.12804842 -0.08443474 28 14 13029 4.83800000 3219335367 3219335367 -1.00000000
6.18461561 -5.24308014 2.17252707 33 15 13029 8.39400000 3219335369 3219335369 15.00000000
1.59399664 -1.35515904 -0.56060207 4 0 13037 2.16600000 3219335390 3219335390 -15.00000000
4.00170088 -3.40330672 0.09169494 52 1 13038 5.25400000 3219335392 3219335392 1.00000000
1.87907398 -1.59865189 -0.56957608 3 2 13039 2.53200000 3219335394 3219335394 -13.00000000
3.43287277 -2.92160368 0.23624450 28 3 13040 4.51400000 3219335397 3219335397 3.00000000
3.64354253 -3.10089779 -0.93000305 4 4 13040 4.87400000 3219335399 3219335399 -11.00000000
3.88669610 -3.30900741 0.44658601 27 5 13041 5.12400000 3219335401 3219335401 5.00000000
2.71901155 -2.31569719 -0.56566703 5 6 13042 3.61600000 3219335404 3219335404 -9.00000000
3.92419672 -3.34329772 0.63298935 18 7 13043 5.19400000 3219335406 3219335406 7.00000000
3.53835273 -3.01563621 -0.57083601 4 8 13044 4.68400000 3219335408 3219335408 -7.00000000
6.23079395 -5.31220388 1.29684174 52 9 13045 8.29000000 3219335411 3219335411 9.00000000
5.07608175 -4.32772779 -0.58359486 12 10 13045 6.69600000 3219335413 3219335413 -5.00000000
4.64559412 -3.96210647 1.18683195 34 11 13046 6.22000000 3219335415 3219335415 11.00000000
3.98084545 -3.39635992 -0.27424040 34 12 13047 5.24000000 3219335417 3219335417 -3.00000000
4.30156279 -3.67128587 1.30561590 12 13 13048 5.80400000 3219335420 3219335420 13.00000000
3.69099855 -3.15129662 -0.08471398 28 14 13049 4.85400000 3219335422 3219335422 -1.00000000
6.13597775 -5.24062014 2.16217422 33 15 13050 8.35400000 3219335424 3219335424 15.00000000
1.59806132 -1.36825347 -0.56370789 4 0 13057 2.17800000 3219335445 3219335445 -15.00000000
3.99587202 -3.42245770 0.09183456 14 1 13058 5.26200000 3219335447 3219335447 1.00000000
1.88236129 -1.61280894 -0.57227546 3 2 13059 2.54400000 3219335450 3219335450 -13.00000000
3.45146632 -2.95826459 0.23823327 33 3 13060 4.55200000 3219335452 3219335452 3.00000000
3.64611197 -3.12509608 -0.93343759 4 4 13060 4.89200000 3219335454 3219335454 -11.00000000
3.89780974 -3.34200740 0.44920069 30 5 13061 5.15400000 3219335457 3219335457 5.00000000
2.70791292 -2.32260203 -0.56504130 5 6 13062 3.61200000 3219335459 3219335459 -9.00000000
3.91551566 -3.35956073 0.63347685 18 7 13063 5.19800000 3219335461 3219335461 7.00000000
3.54136157 -3.03960514 -0.57302964 4 8 13064 4.70200000 3219335464 3219335464 -7.00000000
6.18916035 -5.31225157 1.29183578 50 9 13064 8.25800000 3219335466 3219335466 9.00000000
5.05640936 -4.34152651 -0.58307195 12 10 13065 6.69000000 3219335468 3219335468 -5.00000000
4.61684227 -3.96550632 1.18301582 34 11 13066 6.20000000 3219335470 3219335470 11.00000000
3.96442103 -3.40633035 -0.27392641 13 12 13067 5.23400000 3219335473 3219335473 -3.00000000
4.27098751 -3.67103553 1.30021715 12 13 13068 5.78000000 3219335475 3219335475 13.00000000
3.69362235 -3.17589498 -0.08502813 26 14 13069 4.87200000 3219335477 3219335477 -1.00000000
6.09659290 -5.24204636 2.15440965 29 15 13069 8.32400000 3219335480 3219335480 15.00000000
1.59327555 -1.37382340 -0.56370789 4 0 13077 2.17800000 3219335500 3219335500 -15.00000000
3.99752903 -3.44814014 0.09214871 26 1 13078 5.28000000 3219335503 3219335503 1.00000000
1.85606432 -1.60154653 -0.56597686 3 2 13079 2.51600000 3219335505 3219335505 -13.00000000
3.42751193 -2.95854878 0.23729123 30 3 13080 4.53400000 3219335507 3219335507 3.00000000
3.65004301 -3.15063262 -0.93725377 4 4 13080 4.91200000 3219335510 3219335510 -11.00000000
3.89969230 -3.36731195 0.45076951 30 5 13081 5.17200000 3219335512 3219335512 5.00000000
2.70277882 -2.33462286 -0.56566703 5 6 13082 3.61600000 3219335514 3219335514 -9.00000000
3.91277695 -3.38099527 0.63493925 18 7 13083 5.21000000 3219335517 3219335517 7.00000000
3.53223157 -3.05324650 -0.57327342 4 8 13084 4.70400000 3219335519 3219335519 -7.00000000
6.15171766 -5.31939554 1.28808141 50 9 13085 8.23400000 3219335521 3219335521 9.00000000
5.03368807 -4.35263443 -0.58220035 12 10 13085 6.68000000 3219335523 3219335523 -5.00000000
4.59257793 -3.97260737 1.18034446 34 11 13086 6.18600000 3219335526 3219335526 11.00000000
3.95401692 -3.42145491 -0.27403107 7 12 13087 5.23600000 3219335528 3219335528 -3.00000000
4.21983862 -3.65276122 1.28851962 28 13 13088 5.72800000 3219335530 3219335530 13.00000000
3.69914269 -3.20316792 -0.08541208 22 14 13089 4.89400000 3219335533 3219335533 -1.00000000
6.08025932 -5.26688576 2.15544510 24 15 13090 8.32800000 3219335535 3219335535 15.00000000
1.59722209 -1.38697648 -0.56681371 4 0 13097 2.19000000 3219335556 3219335556 -15.00000000
3.99754548 -3.47256422 0.09242795 45 1 13098 5.29600000 3219335558 3219335558 1.00000000
1.85928833 -1.61568511 -0.56867629 3 2 13099 2.52800000 3219335560 3219335560 -13.00000000
3.41716361 -2.97049499 0.23729123 26 3 13100 4.53400000 3219335563 3219335563 3.00000000
2.20326829 -1.91527200 -0.56746596 3 4 13100 2.97400000 3219335565 3219335565 -11.00000000
3.90445232 -3.39528537 0.45268694 30 5 13101 5.19400000 3219335567 3219335567 5.00000000
2.69610333 -2.34533954 -0.56597990 5 6 13102 3.61800000 3219335570 3219335570 -9.00000000
3.92341352 -3.41417956 0.63859534 20 7 13103 5.24000000 3219335572 3219335572 7.00000000
3.49759603 -3.04470348 -0.56937355 4 8 13104 4.67200000 3219335574 3219335574 -7.00000000
6.10573578 -5.31512308 1.28213692 50 9 13104 8.19600000 3219335576 3219335576 9.00000000
5.01846409 -4.37017870 -0.58220035 12 10 13105 6.68000000 3219335579 3219335579 -5.00000000
4.57572269 -3.98603511 1.17958117 34 11 13106 6.18200000 3219335581 3219335581 11.00000000
3.93602681 -3.42998743 -0.27361238 5 12 13107 5.22800000 3219335583 3219335583 -3.00000000
4.19971752 -3.66106629 1.28627014 51 13 13108 5.71800000 3219335586 3219335586 13.00000000
3.69246030 -3.22000360 -0.08551679 8 14 13109 4.90000000 3219335588 3219335588 -1.00000000
6.06421614 -5.28828955 2.15596271 45 15 13109 8.33000000 3219335590 3219335590 15.00000000
1.58946252 -1.38999987 -0.56577843 4 0 13117 2.18600000 3219335611 3219335611 -15.00000000
1.85657024 -1.62473202 -0.56957608 3 2 13119 2.53200000 3219335616 3219335616 -13.00000000
3.42781258 -3.00082326 0.23875663 28 3 13120 4.56200000 3219335618 3219335618 3.00000000
2.18327475 -1.91131258 -0.56403136 3 4 13120 2.95600000 3219335620 3219335620 -11.00000000
3.89857244 -3.41414428 0.45338416 30 5 13121 5.20200000 3219335623 3219335623 5.00000000
2.68790007 -2.35473657 -0.56597990 5 6 13122 3.61800000 3219335625 3219335625 -9.00000000
3.92490816 -3.43962908 0.64078903 19 7 13123 5.25800000 3219335627 3219335627 7.00000000
3.49291754 -3.06212831 -0.57034850 4 8 13124 4.68000000 3219335629 3219335629 -7.00000000
6.06096601 -5.31532431 1.27681816 50 9 13125 8.16200000 3219335632 3219335632 9.00000000
4.99119473 -4.37716055 -0.58080590 12 10 13125 6.66400000 3219335634 3219335634 -5.00000000
4.54997396 -3.99162531 1.17652822 40 11 13126 6.16600000 3219335636 3219335636 11.00000000
3.89250565 -3.41604018 -0.27141428 5 12 13127 5.18600000 3219335639 3219335639 -3.00000000
4.18984127 -3.67827511 1.28716993 35 13 13128 5.72200000 3219335641 3219335641 13.00000000
3.67669034 -3.22891450 -0.08541208 8 14 13129 4.89400000 3219335643 3219335643 -1.00000000
6.01286364 -5.28242970 2.14457464 49 15 13130 8.28600000 3219335646 3219335646 15.00000000
1.58025157 -1.39170933 -0.56422549 4 0 13137 2.18000000 3219335666 3219335666 -15.00000000
3.41353559 -3.00731945 0.07940845 6 1 13138 4.55000000 3219335669 3219335669 1.00000000
1.85088754 -1.63120282 -0.56957608 3 2 13139 2.53200000 3219335671 3219335671 -13.00000000
3.42181134 -3.01673269 0.23907065 22 3 13140 4.56800000 3219335673 3219335673 3.00000000
2.17511702 -1.91762364 -0.56364977 3 4 13140 2.95400000 3219335676 3219335676 -11.00000000
3.88961959 -3.43036771 0.45373279 27 5 13141 5.20600000 3219335678 3219335678 5.00000000
2.67670155 -2.36149096 -0.56535417 5 6 13142 3.61400000 3219335680 3219335680 -9.00000000
3.94115639 -3.47826600 0.64542001 16 7 13143 5.29600000 3219335682 3219335682 7.00000000
3.47625494 -3.06904697 -0.56937355 4 8 13144 4.67200000 3219335685 3219335685 -7.00000000
6.01961279 -5.31447601 1.27181220 52 9 13144 8.13000000 3219335687 3219335687 9.00000000
4.95199156 -4.37345409 -0.57801688 12 10 13145 6.63200000 3219335689 3219335689 -5.00000000
4.51688623 -3.99058509 1.17156720 43 11 13146 6.14000000 3219335692 3219335692 11.00000000
3.97633696 -3.51425576 -0.27811328 2 12 13147 5.31400000 3219335694 3219335694 -3.00000000
4.17259645 -3.68900561 1.28582025 12 13 13148 5.71600000 3219335696 3219335696 13.00000000
3.67288637 -3.24835277 -0.08558660 8 14 13149 4.90400000 3219335699 3219335699 -1.00000000
5.96926594 -5.27930307 2.13525701 47 15 13149 8.25000000 3219335701 3219335701 15.00000000
1.57538390 -1.39721692 -0.56422549 4 0 13157 2.18000000 3219335722 3219335722 -15.00000000
3.37010884 -2.99001956 0.07864054 8 1 13158 4.50600000 3219335724 3219335724 1.00000000
1.83643734 -1.62989223 -0.56687665 3 2 13159 2.52000000 3219335726 3219335726 -13.00000000
3.42918277 -3.04457092 0.24032672 22 3 13160 4.59200000 3219335729 3219335729 3.00000000
2.17575073 -1.93172181 -0.56555784 3 4 13160 2.96400000 3219335731 3219335731 -11.00000000
3.89251828 -3.45715475 0.45547593 27 5 13161 5.22600000 3219335733 3219335733 5.00000000
2.66548872 -2.36819601 -0.56472844 5 6 13162 3.61000000 3219335735 3219335735 -9.00000000
3.93195868 -3.49463940 0.64590752 9 7 13163 5.30000000 3219335738 3219335738 7.00000000
3.47442198 -3.08907652 -0.57083601 4 8 13164 4.68400000 3219335740 3219335740 -7.00000000
5.97592878 -5.31314278 1.26649344 52 9 13164 8.09600000 3219335742 3219335742 9.00000000
4.73273659 -4.20931149 -0.55413622 15 10 13165 6.35800000 3219335745 3219335745 -5.00000000
4.47506046 -3.98153281 1.16431653 31 11 13166 6.10200000 3219335747 3219335747 11.00000000
3.89094138 -3.46304941 -0.27298436 7 12 13167 5.21600000 3219335749 3219335749 -3.00000000
4.14077282 -3.68670201 1.27997148 8 13 13168 5.69000000 3219335752 3219335752 13.00000000
3.69437742 -3.29041362 -0.08635451 8 14 13169 4.94800000 3219335754 3219335754 -1.00000000
5.92916203 -5.28083467 2.12749267 45 15 13169 8.22000000 3219335756 3219335756 15.00000000
1.56761551 -1.40013373 -0.56319022 4 0 13177 2.17600000 3219335777 3219335777 -15.00000000
3.36263371 -3.00443006 0.07871035 6 1 13178 4.51000000 3219335779 3219335779 1.00000000
1.82201898 -1.62850082 -0.56417722 3 2 13179 2.50800000 3219335782 3219335782 -13.00000000
3.41704535 -3.05519128 0.24022204 24 3 13180 4.59000000 3219335784 3219335784 3.00000000
2.17045808 -1.94061339 -0.56593949 3 4 13180 2.96600000 3219335786 3219335786 -11.00000000
3.90121770 -3.48931646 0.45791626 31 5 13181 5.25400000 3219335788 3219335788 5.00000000
2.65426159 -2.37485147 -0.56410271 5 6 13182 3.60600000 3219335791 3219335791 -9.00000000
3.91973615 -3.50834322 0.64590752 9 7 13183 5.30000000 3219335793 3219335793 7.00000000
3.44882894 -3.08794403 -0.56839859 4 8 13184 4.66400000 3219335795 3219335795 -7.00000000
5.93728590 -5.31787682 1.26242614 52 9 13185 8.07000000 3219335798 3219335798 9.00000000
4.83971214 -4.33480787 -0.56842977 12 10 13185 6.52200000 3219335800 3219335800 -5.00000000
5.91893673 -5.30330372 1.54478967 40 11 13186 8.09600000 3219335802 3219335802 11.00000000
3.91898584 -3.51260281 -0.27581048 2 12 13187 5.27000000 3219335805 3219335805 -3.00000000
4.11917305 -3.69332814 1.27727211 8 13 13188 5.67800000 3219335807 3219335807 13.00000000
3.69477820 -3.31397104 -0.08663374 18 14 13189 4.96400000 3219335809 3219335809 -1.00000000
5.89055872 -5.28344059 2.12024570 47 15 13189 8.19200000 3219335811 3219335811 15.00000000
1.56990016 -1.41205668 -0.56577843 4 0 13197 2.18600000 3219335832 3219335832 -15.00000000
3.43388486 -3.08971405 0.08063012 26 1 13198 4.62000000 3219335835 3219335835 1.00000000
1.83080757 -1.64788806 -0.56867629 3 2 13199 2.52800000 3219335837 3219335837 -13.00000000
3.41526556 -3.07511902 0.24085008 28 3 13200 4.60200000 3219335839 3219335839 3.00000000
2.16367078 -1.94817793 -0.56593949 3 4 13200 2.96600000 3219335841 3219335841 -11.00000000
3.89641595 -3.50958014 0.45878783 28 5 13201 5.26400000 3219335844 3219335844 5.00000000
2.64742327 -2.38542438 -0.56441557 5 6 13202 3.60800000 3219335846 3219335846 -9.00000000
3.93990517 -3.55124354 0.65126979 9 7 13203 5.34400000 3219335848 3219335848 7.00000000
3.43950319 -3.10129333 -0.56864238 4 8 13204 4.66600000 3219335851 3219335851 -7.00000000
5.88935041 -5.31210804 1.25616872 52 9 13205 8.03000000 3219335853 3219335853 9.00000000
4.91183996 -4.43040848 -0.57871413 12 10 13205 6.64000000 3219335855 3219335855 -5.00000000
5.88143969 -5.30683470 1.53982854 50 11 13206 8.07000000 3219335858 3219335858 11.00000000
3.90521812 -3.52492285 -0.27570581 5 12 13207 5.26800000 3219335860 3219335860 -3.00000000
4.09468508 -3.69723630 1.27367282 10 13 13208 5.66200000 3219335862 3219335862 13.00000000
3.30477810 -2.98504853 -0.07773302 5 14 13209 4.45400000 3219335864 3219335864 -1.00000000
5.84821987 -5.28427219 2.11196351 47 15 13210 8.16000000 3219335867 3219335867 15.00000000
1.55518472 -1.40817833 -0.56215495 4 0 13216 2.17200000 3219335888 3219335888 -15.00000000
4.01793671 -3.63941097 0.09462695 62 1 13217 5.42200000 3219335890 3219335890 1.00000000
1.83110929 -1.65918422 -0.57047588 3 2 13218 2.53600000 3219335892 3219335892 -13.00000000
3.41540790 -3.09581685 0.24158278 26 3 13219 4.61600000 3219335894 3219335894 3.00000000
2.14265227 -1.94215715 -0.56212330 3 4 13219 2.94600000 3219335897 3219335897 -11.00000000
3.90246797 -3.53854179 0.46087956 26 5 13220 5.28800000 3219335899 3219335899 5.00000000
2.63803506 -2.39286327 -0.56410271 5 6 13221 3.60600000 3219335901 3219335901 -9.00000000
3.94427824 -3.57896256 0.65395087 7 7 13222 5.36600000 3219335904 3219335904 7.00000000
3.42773008 -3.11134791 -0.56839859 4 8 13223 4.66400000 3219335906 3219335906 -7.00000000
5.84537840 -5.30770636 1.25053716 50 9 13224 7.99400000 3219335908 3219335908 9.00000000
4.88827085 -4.43863583 -0.57766825 12 10 13224 6.62800000 3219335911 3219335911 -5.00000000
4.27978134 -3.88747978 1.12386501 24 11 13225 5.89000000 3219335913 3219335913 11.00000000
3.99697971 -3.63187408 -0.28303286 5 12 13226 5.40800000 3219335915 3219335915 -3.00000000
4.08384418 -3.71210527 1.27412271 10 13 13227 5.66400000 3219335917 3219335917 13.00000000
3.30669713 -3.00675368 -0.07801226 20 14 13228 4.47000000 3219335920 3219335920 -1.00000000
5.80014515 -5.27402639 2.10057545 47 15 13228 8.11600000 3219335922 3219335922 15.00000000
1.55168736 -1.41489995 -0.56267262 4 0 13236 2.17400000 3219335943 3219335943 -15.00000000
4.00373125 -3.65206647 0.09459204 70 1 13237 5.42000000 3219335945 3219335945 1.00000000
1.81954837 -1.66031170 -0.56867629 3 2 13238 2.52800000 3219335947 3219335947 -13.00000000
3.41343141 -3.11579895 0.24221081 26 3 13239 4.62800000 3219335950 3219335950 3.00000000
2.13295984 -1.94697738 -0.56136006 3 4 13239 2.94200000 3219335952 3219335952 -11.00000000
3.89303493 -3.55482936 0.46122819 26 5 13240 5.29200000 3219335954 3219335954 5.00000000
2.62529087 -2.39806032 -0.56316406 5 6 13241 3.60000000 3219335957 3219335957 -9.00000000
3.96693158 -3.62484646 0.65980065 7 7 13242 5.41400000 3219335959 3219335959 7.00000000
3.41391826 -3.12061524 -0.56791115 4 8 13243 4.66000000 3219335961 3219335961 -7.00000000
5.80932188 -5.31208181 1.24678266 50 9 13244 7.97000000 3219335964 3219335964 9.00000000
4.86098480 -4.44491625 -0.57627380 12 10 13244 6.61200000 3219335966 3219335966 -5.00000000
4.25749397 -3.89444470 1.12157524 48 11 13245 5.87800000 3219335968 3219335968 11.00000000
4.22003365 -3.86153221 -0.29978037 9 12 13246 5.72800000 3219335970 3219335970 -3.00000000
4.05504942 -3.71186423 1.26917386 11 13 13247 5.64200000 3219335973 3219335973 13.00000000
3.28438306 -3.00747418 -0.07773302 5 14 13248 4.45400000 3219335975 3219335975 -1.00000000
5.75605440 -5.27075672 2.09125781 47 15 13248 8.08000000 3219335977 3219335977 15.00000000
1.54389310 -1.41769445 -0.56163734 4 0 13256 2.17000000 3219335998 3219335998 -15.00000000
3.99095869 -3.66601992 0.09459204 90 1 13257 5.42000000 3219336000 3219336000 1.00000000
1.80513227 -1.65874159 -0.56597686 3 2 13258 2.51600000 3219336003 3219336003 -13.00000000
3.41778684 -3.14061499 0.24325752 24 3 13258 4.64800000 3219336005 3219336005 3.00000000
2.13193226 -1.95972550 -0.56288654 3 4 13259 2.95000000 3219336007 3219336007 -11.00000000
3.89380193 -3.58053446 0.46279699 26 5 13260 5.31000000 3219336010 3219336010 5.00000000
2.61545038 -2.40587234 -0.56285119 5 6 13261 3.59800000 3219336012 3219336012 -9.00000000
5.77873325 -5.31754160 0.96423024 12 7 13262 7.91200000 3219336014 3219336014 7.00000000
3.40300441 -3.13251305 -0.56791115 4 8 13263 4.66000000 3219336016 3219336016 -7.00000000
5.76551390 -5.30723572 1.24115109 52 9 13263 7.93400000 3219336019 3219336019 9.00000000
4.23572922 -3.90041351 -0.50376022 3 10 13264 5.78000000 3219336021 3219336021 -5.00000000
4.22798967 -3.89465094 1.11737752 57 11 13265 5.85600000 3219336023 3219336023 11.00000000
4.21387243 -3.88300633 -0.30030373 33 12 13266 5.73800000 3219336026 3219336026 -3.00000000
4.02630663 -3.71146750 1.26422489 8 13 13267 5.62000000 3219336028 3219336028 13.00000000
3.69577765 -3.40797758 -0.08775070 26 14 13268 5.02800000 3219336030 3219336030 -1.00000000
5.72199869 -5.27641153 2.08556390 47 15 13268 8.05800000 3219336033 3219336033 15.00000000
1.54177177 -1.42569828 -0.56267262 4 0 13276 2.17400000 3219336053 3219336053 -15.00000000
3.97373366 -3.67585492 0.09448733 62 1 13277 5.41400000 3219336056 3219336056 1.00000000
1.78788865 -1.65444422 -0.56237763 4 2 13278 2.50000000 3219336058 3219336058 -13.00000000
3.41211581 -3.15854788 0.24367622 24 3 13279 4.65600000 3219336060 3219336060 3.00000000
2.13372278 -1.97515738 -0.56517625 3 4 13279 2.96200000 3219336063 3219336063 -11.00000000
3.89151287 -3.60358047 0.46401718 26 5 13280 5.32400000 3219336065 3219336065 5.00000000
2.60993457 -2.41767216 -0.56347692 5 6 13281 3.60200000 3219336067 3219336067 -9.00000000
5.73829556 -5.31744194 0.96057415 25 7 13282 7.88200000 3219336069 3219336069 7.00000000
3.37749100 -3.13087749 -0.56547374 4 8 13283 4.64000000 3219336072 3219336072 -7.00000000
5.73009014 -5.31355715 1.23770952 52 9 13284 7.91200000 3219336074 3219336074 9.00000000
4.20163536 -3.89620900 -0.50131983 10 10 13284 5.75200000 3219336076 3219336076 -5.00000000
4.20141506 -3.89736915 1.11394286 63 11 13285 5.83800000 3219336079 3219336079 11.00000000
4.18858051 -3.88682342 -0.29946634 12 12 13286 5.72200000 3219336081 3219336081 -3.00000000
3.70290852 -3.43854690 -0.08820447 32 14 13288 5.05400000 3219336086 3219336086 -1.00000000
5.68705177 -5.28288555 2.07986975 45 15 13289 8.03600000 3219336088 3219336088 15.00000000
1.53254437 -1.42712176 -0.56111968 4 0 13296 2.16800000 3219336109 3219336109 -15.00000000
3.98136306 -3.70878577 0.09497599 55 1 13297 5.44200000 3219336111 3219336111 1.00000000
1.78495407 -1.66333210 -0.56327742 3 2 13298 2.50400000 3219336113 3219336113 -13.00000000
3.40308404 -3.17120695 0.24378088 22 3 13298 4.65800000 3219336116 3219336116 3.00000000
2.12537909 -1.98125470 -0.56479460 3 4 13299 2.96000000 3219336118 3219336118 -11.00000000
3.90951037 -3.64567733 0.46767771 31 5 13300 5.36600000 3219336120 3219336120 5.00000000
2.61014628 -2.43485260 -0.56535417 5 6 13301 3.61400000 3219336122 3219336122 -9.00000000
5.70518589 -5.32389641 0.95813680 47 7 13302 7.86200000 3219336125 3219336125 7.00000000
3.36073732 -3.13722968 -0.56449878 4 8 13303 4.63200000 3219336127 3219336127 -7.00000000
5.69418240 -5.31734800 1.23395503 12 9 13304 7.88800000 3219336129 3219336129 9.00000000
4.17053509 -3.89453387 -0.49922809 10 10 13304 5.72800000 3219336132 3219336132 -5.00000000
4.19639349 -3.92005205 1.11623263 30 11 13305 5.85000000 3219336134 3219336134 11.00000000
4.13704634 -3.86596560 -0.29674488 24 12 13306 5.67000000 3219336136 3219336136 -3.00000000
4.09994936 -3.83264017 1.29571807 19 13 13307 5.76000000 3219336139 3219336139 13.00000000
3.69088316 -3.45145154 -0.08820447 28 14 13308 5.05400000 3219336141 3219336141 -1.00000000
5.64692545 -5.28060341 2.07158756 45 15 13308 8.00400000 3219336143 3219336143 15.00000000
1.52755344 -1.43246257 -0.56111968 4 0 13316 2.16800000 3219336164 3219336164 -15.00000000
3.99172759 -3.74455070 0.09553447 85 1 13317 5.47400000 3219336166 3219336166 1.00000000
1.79618943 -1.68555474 -0.56867629 3 2 13318 2.52800000 3219336168 3219336168 -13.00000000
3.40801430 -3.19810057 0.24493228 22 3 13318 4.68000000 3219336171 3219336171 3.00000000
2.11129355 -1.98194313 -0.56288654 3 4 13319 2.95000000 3219336173 3219336173 -11.00000000
3.88949871 -3.65248251 0.46680614 26 5 13320 5.35600000 3219336175 3219336175 5.00000000
2.59587216 -2.43853903 -0.56410271 5 6 13321 3.60600000 3219336178 3219336178 -9.00000000
5.66197491 -5.32066917 0.95399320 55 7 13322 7.82800000 3219336180 3219336180 7.00000000
3.35555124 -3.15438032 -0.56547374 4 8 13323 4.64000000 3219336182 3219336182 -7.00000000
4.20200634 -3.95147061 0.91357726 61 9 13324 5.84000000 3219336185 3219336185 9.00000000
4.14240074 -3.89541888 -0.49748498 10 10 13324 5.70800000 3219336187 3219336187 -5.00000000
5.64126110 -5.30676842 1.50548303 56 11 13325 7.89000000 3219336189 3219336189 11.00000000
4.13516235 -3.89133310 -0.29758224 12 12 13326 5.68600000 3219336192 3219336192 -3.00000000
3.96593618 -3.73339033 1.25747645 9 13 13327 5.59000000 3219336194 3219336194 13.00000000
3.68463612 -3.46979785 -0.08834408 28 14 13328 5.06200000 3219336196 3219336196 -1.00000000
5.60173655 -5.27511883 2.06175256 47 15 13328 7.96600000 3219336198 3219336198 15.00000000
1.51411653 -1.42982781 -0.55801386 4 0 13336 2.15600000 3219336219 3219336219 -15.00000000
3.98008609 -3.75983477 0.09556938 100 1 13337 5.47600000 3219336221 3219336221 1.00000000
1.78462934 -1.68646049 -0.56687665 3 2 13338 2.52000000 3219336224 3219336224 -13.00000000
3.40642953 -3.22017431 0.24566498 20 3 13339 4.69400000 3219336226 3219336226 3.00000000
2.10150886 -1.98660350 -0.56212330 3 4 13339 2.94600000 3219336228 3219336228 -11.00000000
3.90133500 -3.68930912 0.46976945 33 5 13340 5.39000000 3219336231 3219336231 5.00000000
2.58303905 -2.44351292 -0.56316406 5 6 13341 3.60000000 3219336233 3219336233 -9.00000000
5.61741495 -5.31584072 0.94960594 50 7 13342 7.79200000 3219336235 3219336235 7.00000000
3.34451985 -3.16607428 -0.56547374 4 8 13343 4.64000000 3219336238 3219336238 -7.00000000
4.17453432 -3.95180321 0.91044861 64 9 13343 5.82000000 3219336240 3219336240 9.00000000
4.10129118 -3.88382578 -0.49417305 14 10 13344 5.67000000 3219336242 3219336242 -5.00000000
5.59134674 -5.29672432 1.49708736 53 11 13345 7.84600000 3219336245 3219336245 11.00000000
4.07661247 -3.86315560 -0.29433742 2 12 13346 5.62400000 3219336247 3219336247 -3.00000000
3.90903759 -3.70565009 1.24352944 7 13 13347 5.52800000 3219336249 3219336249 13.00000000
3.68991375 -3.49915028 -0.08876294 28 14 13348 5.08600000 3219336251 3219336251 -1.00000000
5.55433369 -5.26902390 2.05139971 47 15 13349 7.92600000 3219336254 3219336254 15.00000000
1.51611590 -1.44176066 -0.56060207 4 0 13356 2.16600000 3219336274 3219336274 -15.00000000
3.96548867 -3.77232671 0.09553447 87 1 13357 5.47400000 3219336277 3219336277 1.00000000
1.77590823 -1.68999290 -0.56597686 3 2 13358 2.51600000 3219336279 3219336279 -13.00000000
3.40730715 -3.24246740 0.24650235 22 3 13358 4.71000000 3219336281 3219336281 3.00000000
2.10024953 -1.99934173 -0.56364977 3 4 13359 2.95400000 3219336284 3219336284 -11.00000000
3.89131880 -3.70565271 0.47011808 27 5 13360 5.39400000 3219336286 3219336286 5.00000000
2.56591225 -2.44433928 -0.56128687 5 6 13361 3.58800000 3219336288 3219336288 -9.00000000
5.58732843 -5.32446098 0.94765604 27 7 13362 7.77600000 3219336291 3219336291 7.00000000
3.33632159 -3.18046880 -0.56596124 4 8 13363 4.64400000 3219336293 3219336293 -7.00000000
4.13857841 -3.94662809 0.90575558 57 9 13364 5.79000000 3219336295 3219336295 9.00000000
4.08194160 -3.89261818 -0.49347582 17 10 13364 5.66200000 3219336298 3219336298 -5.00000000
5.55009460 -5.29452705 1.49098146 53 11 13365 7.81400000 3219336300 3219336300 11.00000000
4.04720879 -3.86219454 -0.29318604 2 12 13366 5.60200000 3219336302 3219336302 -3.00000000
3.85661054 -3.68159556 1.23093212 7 13 13367 5.47200000 3219336304 3219336304 13.00000000
3.69503140 -3.52858186 -0.08918180 28 14 13368 5.11000000 3219336307 3219336307 -1.00000000
5.52193880 -5.27503538 2.04622340 47 15 13369 7.90600000 3219336309 3219336309 15.00000000
1.51272202 -1.44811630 -0.56111968 4 0 13375 2.16800000 3219336330 3219336330 -15.00000000
3.93851471 -3.77162528 0.09518542 70 1 13376 5.45400000 3219336332 3219336332 1.00000000
1.76607263 -1.69182849 -0.56462717 4 2 13377 2.51000000 3219336334 3219336334 -13.00000000
3.40518951 -3.26203847 0.24713038 22 3 13377 4.72200000 3219336337 3219336337 3.00000000
2.09360790 -2.00629544 -0.56364977 3 4 13378 2.95400000 3219336339 3219336339 -11.00000000
3.89339161 -3.73232412 0.47186118 27 5 13379 5.41400000 3219336341 3219336341 5.00000000
2.56634688 -2.46103835 -0.56316406 5 6 13380 3.60000000 3219336344 3219336344 -9.00000000
4.15287781 -3.98385835 0.70659846 65 7 13381 5.79800000 3219336346 3219336346 7.00000000
3.31143355 -3.17777038 -0.56352383 4 8 13382 4.62400000 3219336348 3219336348 -7.00000000
4.14183760 -3.97465563 0.90919709 47 9 13382 5.81200000 3219336351 3219336351 9.00000000
4.05463791 -3.89233541 -0.49173269 17 10 13383 5.64200000 3219336353 3219336353 -5.00000000
5.51268244 -5.29386520 1.48563886 53 11 13384 7.78600000 3219336355 3219336355 11.00000000
4.03581953 -3.87697792 -0.29329070 2 12 13385 5.60400000 3219336357 3219336357 -3.00000000
3.84157038 -3.69166374 1.23003232 8 13 13386 5.46800000 3219336360 3219336360 13.00000000
3.70060921 -3.55744576 -0.08960065 28 14 13387 5.13400000 3219336362 3219336362 -1.00000000
5.48352861 -5.27323198 2.03845882 45 15 13388 7.87600000 3219336364 3219336364 15.00000000
1.50487626 -1.45070636 -0.56008440 4 0 13395 2.16400000 3219336385 3219336385 -15.00000000
3.91381001 -3.77424550 0.09490619 62 1 13396 5.43800000 3219336387 3219336387 1.00000000
1.75735128 -1.69527698 -0.56372732 4 2 13397 2.50600000 3219336390 3219336390 -13.00000000
3.39809442 -3.27806497 0.24744441 22 3 13397 4.72800000 3219336392 3219336392 3.00000000
2.07528996 -2.00268483 -0.56059682 3 4 13398 2.93800000 3219336394 3219336394 -11.00000000
3.90327501 -3.76803231 0.47465017 27 5 13399 5.44600000 3219336397 3219336397 5.00000000
2.55774069 -2.46998143 -0.56316406 5 6 13400 3.60000000 3219336399 3219336399 -9.00000000
4.11753082 -3.97764230 0.70294237 57 7 13401 5.76800000 3219336401 3219336401 7.00000000
3.29175615 -3.18103337 -0.56206143 4 8 13402 4.61200000 3219336404 3219336404 -7.00000000
5.49302721 -5.30826139 1.20986414 52 9 13402 7.73400000 3219336406 3219336406 9.00000000
4.03529644 -3.90092587 -0.49103546 17 10 13403 5.63400000 3219336408 3219336408 -5.00000000
5.47158909 -5.29123926 1.47953296 56 11 13404 7.75400000 3219336410 3219336410 11.00000000
4.00216484 -3.87160063 -0.29182529 2 12 13405 5.57600000 3219336413 3219336413 -3.00000000
3.68673205 -3.56895065 -0.08956575 18 14 13407 5.13200000 3219336417 3219336417 -1.00000000
5.44843483 -5.27621412 2.03224707 45 15 13408 7.85200000 3219336420 3219336420 15.00000000
1.50005734 -1.45568871 -0.56008440 4 0 13414 2.16400000 3219336440 3219336440 -15.00000000
3.85535836 -3.74263167 0.09378923 15 1 13415 5.37400000 3219336443 3219336443 1.00000000
1.75311780 -1.70245290 -0.56417722 3 2 13416 2.50800000 3219336445 3219336445 -13.00000000
3.40153360 -3.30322957 0.24849112 22 3 13416 4.74800000 3219336447 3219336447 3.00000000
2.06863761 -2.00955582 -0.56059682 3 4 13417 2.93800000 3219336450 3219336450 -11.00000000
3.89790249 -3.78789806 0.47552174 27 5 13418 5.45600000 3219336452 3219336452 5.00000000
2.55236864 -2.48120356 -0.56378978 5 6 13419 3.60400000 3219336454 3219336454 -9.00000000
4.10147142 -3.98850656 0.70245492 55 7 13420 5.76400000 3219336456 3219336456 7.00000000
3.28118944 -3.19193172 -0.56206143 4 8 13421 4.61200000 3219336459 3219336459 -7.00000000
5.44282770 -5.29476738 1.20266819 55 9 13421 7.68800000 3219336461 3219336461 9.00000000
3.99520874 -3.88788509 -0.48772353 14 10 13422 5.59600000 3219336463 3219336463 -5.00000000
5.43713140 -5.29292107 1.47495353 56 11 13423 7.73000000 3219336466 3219336466 11.00000000
3.95210099 -3.84862208 -0.28910384 11 12 13424 5.52400000 3219336468 3219336468 -3.00000000
5.41743469 -5.27743149 1.74607003 59 13 13425 7.76200000 3219336470 3219336470 13.00000000
3.68203735 -3.58813477 -0.08974028 8 14 13426 5.14200000 3219336473 3219336473 -1.00000000
5.41246223 -5.27442884 2.02500010 45 15 13426 7.82400000 3219336475 3219336475 15.00000000
1.49220347 -1.45821559 -0.55904913 4 0 13434 2.16000000 3219336496 3219336496 -15.00000000
3.68783617 -3.60509706 0.09001951 11 1 13435 5.15800000 3219336498 3219336498 1.00000000
1.75552416 -1.71673703 -0.56687665 3 2 13436 2.52000000 3219336500 3219336500 -13.00000000
3.40426207 -3.32904720 0.24953784 22 3 13436 4.76800000 3219336503 3219336503 3.00000000
2.05880332 -2.01401854 -0.55983359 3 4 13437 2.93400000 3219336505 3219336505 -11.00000000
3.89320040 -3.80984211 0.47656760 30 5 13438 5.46800000 3219336507 3219336507 5.00000000
2.53804588 -2.48457050 -0.56253833 5 6 13439 3.59600000 3219336509 3219336509 -9.00000000
4.07901430 -3.99446583 0.70099247 57 7 13440 5.75200000 3219336512 3219336512 7.00000000
3.27002740 -3.20336556 -0.56206143 4 8 13441 4.61200000 3219336514 3219336514 -7.00000000
5.41302347 -5.30267525 1.20016527 55 9 13441 7.67200000 3219336516 3219336516 9.00000000
3.97307491 -3.89344025 -0.48667768 10 10 13442 5.58400000 3219336519 3219336519 -5.00000000
5.39619112 -5.28987837 1.46884763 56 11 13443 7.69800000 3219336521 3219336521 11.00000000
3.94149470 -3.86519098 -0.28931317 2 12 13444 5.52800000 3219336523 3219336523 -3.00000000
5.38645983 -5.28402758 1.74202096 66 13 13445 7.74400000 3219336526 3219336526 13.00000000
3.68518996 -3.61637235 -0.09012423 8 14 13446 5.16400000 3219336528 3219336528 -1.00000000
5.37241554 -5.27393103 2.01723576 47 15 13447 7.79400000 3219336530 3219336530 15.00000000
1.49510908 -1.47180653 -0.56215495 4 0 13455 2.17200000 3219336551 3219336551 -15.00000000
3.79570746 -3.73785257 0.09298642 9 1 13456 5.32800000 3219336553 3219336553 1.00000000
1.74783194 -1.72179222 -0.56642675 4 2 13457 2.51800000 3219336556 3219336556 -13.00000000
3.40568018 -3.35611272 0.25058457 24 3 13458 4.78800000 3219336558 3219336558 3.00000000
2.06259489 -2.03257513 -0.56288654 3 4 13458 2.95000000 3219336560 3219336560 -11.00000000
3.89339924 -3.83807302 0.47831070 27 5 13459 5.48800000 3219336562 3219336562 5.00000000
2.51767015 -2.48275995 -0.56003541 5 6 13460 3.58000000 3219336565 3219336565 -9.00000000
5.37437725 -5.30170631 0.92693824 30 7 13461 7.60600000 3219336567 3219336567 7.00000000
3.25119972 -3.20835781 -0.56084269 4 8 13462 4.60200000 3219336569 3219336569 -7.00000000
5.36964941 -5.29889154 1.19484639 52 9 13462 7.63800000 3219336572 3219336572 9.00000000
3.93467379 -3.88418102 -0.48371437 10 10 13463 5.55000000 3219336574 3219336574 -5.00000000
5.35441542 -5.28754902 1.46274173 53 11 13464 7.66600000 3219336576 3219336576 11.00000000
3.82073593 -3.77433968 -0.28146276 2 12 13465 5.37800000 3219336579 3219336579 -3.00000000
5.35042334 -5.28729725 1.73662210 68 13 13466 7.72000000 3219336581 3219336581 13.00000000
3.68044329 -3.63828993 -0.09033366 14 14 13467 5.17600000 3219336583 3219336583 -1.00000000
5.33199120 -5.27092218 2.00895333 47 15 13467 7.76200000 3219336586 3219336586 15.00000000
1.48173058 -1.46885622 -0.55904913 4 0 13475 2.16000000 3219336606 3219336606 -15.00000000
3.89196968 -3.85950017 0.09567409 20 1 13476 5.48200000 3219336609 3219336609 1.00000000
1.72935975 -1.71553099 -0.56237763 3 2 13477 2.50000000 3219336611 3219336611 -13.00000000
3.41095686 -3.38486242 0.25184062 24 3 13478 4.81200000 3219336613 3219336613 3.00000000
2.05548716 -2.03976250 -0.56288654 3 4 13478 2.95000000 3219336615 3219336615 -11.00000000
3.89836001 -3.86988783 0.48057675 27 5 13479 5.51400000 3219336618 3219336618 5.00000000
2.51459503 -2.49710083 -0.56128687 5 6 13480 3.58800000 3219336620 3219336620 -9.00000000
5.34597969 -5.31064129 0.92523205 70 7 13481 7.59200000 3219336622 3219336622 7.00000000
3.23857260 -3.21828771 -0.56059897 4 8 13482 4.60000000 3219336625 3219336625 -7.00000000
5.33478117 -5.30321789 1.19140494 52 9 13483 7.61600000 3219336627 3219336627 9.00000000
3.91120052 -3.88805938 -0.48249421 6 10 13483 5.53600000 3219336629 3219336629 -5.00000000
5.31643629 -5.28682661 1.45739913 53 11 13484 7.63800000 3219336632 3219336632 11.00000000
3.92647910 -3.90597367 -0.29025522 2 12 13485 5.54600000 3219336634 3219336634 -3.00000000
5.30707073 -5.28119898 1.72852385 68 13 13486 7.68400000 3219336636 3219336636 13.00000000
3.69464755 -3.67791986 -0.09099685 8 14 13487 5.21400000 3219336639 3219336639 -1.00000000
5.29894781 -5.27679777 2.00377703 47 15 13488 7.74200000 3219336641 3219336641 15.00000000
1.48779118 -1.48467839 -0.56319022 4 0 13494 2.17600000 3219336662 3219336662 -15.00000000
3.89047170 -3.88368726 0.09595333 22 1 13495 5.49800000 3219336664 3219336664 1.00000000
1.73193491 -1.72951829 -0.56507707 3 2 13496 2.51200000 3219336666 3219336666 -13.00000000
3.39971328 -3.39615512 0.25184062 22 3 13497 4.81200000 3219336668 3219336668 3.00000000
2.04315591 -2.04101753 -0.56136006 3 4 13497 2.94200000 3219336671 3219336671 -11.00000000
3.90664530 -3.90391898 0.48319143 31 5 13498 5.54400000 3219336673 3219336673 5.00000000
2.50909472 -2.50821900 -0.56191260 5 6 13499 3.59200000 3219336675 3219336675 -9.00000000
5.30588102 -5.30588102 0.92133224 50 7 13500 7.56000000 3219336678 3219336678 7.00000000
3.22367239 -3.22479773 -0.55986774 4 8 13501 4.59400000 3219336680 3219336680 -7.00000000
5.29714632 -5.29899549 1.18671191 52 9 13501 7.58600000 3219336682 3219336682 9.00000000
3.90110230 -3.90382671 -0.48284280 7 10 13502 5.54000000 3219336685 3219336685 -5.00000000
5.28916311 -5.29470491 1.45472777 53 11 13503 7.62400000 3219336687 3219336687 11.00000000
3.88104510 -3.88646793 -0.28784776 23 12 13504 5.50000000 3219336689 3219336689 -3.00000000
5.26199341 -5.27118540 1.71952581 64 13 13505 7.64400000 3219336692 3219336692 13.00000000
3.68666840 -3.69439793 -0.09110156 27 14 13506 5.22000000 3219336694 3219336694 -1.00000000
5.26323986 -5.27427435 1.99653006 47 15 13506 7.71400000 3219336696 3219336696 15.00000000
1.47851157 -1.48575473 -0.56163734 4 0 13514 2.17000000 3219336717 3219336717 -15.00000000
3.89804578 -3.91850948 0.09647691 17 1 13515 5.52800000 3219336719 3219336719 1.00000000
1.71764243 -1.72726250 -0.56237763 3 2 13516 2.50000000 3219336721 3219336721 -13.00000000
3.40332675 -3.42358255 0.25299200 24 3 13517 4.83400000 3219336724 3219336724 3.00000000
2.04155540 -2.05370641 -0.56288654 3 4 13517 2.95000000 3219336726 3219336726 -11.00000000
3.89720750 -3.92177176 0.48371437 25 5 13518 5.55000000 3219336728 3219336728 5.00000000
2.50589275 -2.52256775 -0.56316406 5 6 13519 3.60000000 3219336731 3219336731 -9.00000000
5.27054262 -5.30746698 0.91840738 50 7 13520 7.53600000 3219336733 3219336733 7.00000000
3.21379447 -3.23743963 -0.56011152 2 8 13521 4.59600000 3219336735 3219336735 -7.00000000
5.26099157 -5.30154896 1.18295741 52 9 13522 7.56200000 3219336738 3219336738 9.00000000
3.86920738 -3.89903545 -0.48057675 6 10 13522 5.51400000 3219336740 3219336740 -5.00000000
5.25958776 -5.30198479 1.45167482 53 11 13523 7.60800000 3219336742 3219336742 11.00000000
3.84776640 -3.88013697 -0.28638235 5 12 13524 5.47200000 3219336744 3219336744 -3.00000000
5.23258591 -5.27844906 1.71592665 62 13 13525 7.62800000 3219336747 3219336747 13.00000000
3.67797279 -3.71150541 -0.09120627 27 14 13526 5.22600000 3219336749 3219336749 -1.00000000
5.21668148 -5.26608086 1.98617733 47 15 13527 7.67400000 3219336751 3219336751 15.00000000
1.46788478 -1.48541021 -0.55956680 4 0 13534 2.16200000 3219336772 3219336772 -15.00000000
3.89980245 -3.94774103 0.09686086 10 1 13535 5.55000000 3219336774 3219336774 1.00000000
1.71707988 -1.73879409 -0.56417722 3 2 13536 2.50800000 3219336777 3219336777 -13.00000000
