# .PCD v0.7 - Point Cloud Data file format
VERSION 0.7
FIELDS x y z intensity laser_id azimuth distance_m adjustedtime timestamp vertical_angle
SIZE 4 4 4 1 1 2 8 8 4 8
TYPE F F F U U U F U U F
COUNT 1 1 1 1 1 1 1 1 1 1
WIDTH 535
HEIGHT 1
VIEWPOINT 0 0 0 1 0 0 0
POINTS 535
DATA ascii
1.35749352 8.75876236 2.37492347 45 15 881 9.17600000 3219001546 3219001546 15.00000000
0.34989405 2.23693085 -0.60667187 4 0 889 2.34400000 3219001567 3219001567 -15.00000000
0.41531307 2.64910865 -0.61906528 3 2 891 2.75200000 3219001572 3219001572 -13.00000000
0.49771506 3.17109942 -0.62394542 2 4 892 3.27000000 3219001576 3219001576 -11.00000000
0.63205880 4.01788950 -0.64419711 2 6 894 4.11800000 3219001581 3219001581 -9.00000000
0.84124607 5.33552408 -0.66321295 2 8 896 5.44200000 3219001585 3219001585 -7.00000000
1.26371586 8.00591660 -0.70909911 4 10 897 8.13600000 3219001590 3219001590 -5.00000000
1.66429603 10.53174400 2.07256722 53 11 898 10.86200000 3219001592 3219001592 11.00000000
1.60838926 10.15497017 2.37368345 57 13 900 10.55200000 3219001597 3219001597 13.00000000
1.38775647 8.75206280 2.37440586 45 15 901 9.17400000 3219001602 3219001602 15.00000000
0.35617423 2.22615790 -0.60408366 3 0 909 2.33400000 3219001622 3219001622 -15.00000000
0.42517474 2.65149117 -0.61996508 3 2 911 2.75600000 3219001627 3219001627 -13.00000000
0.50753647 3.16158915 -0.62241894 2 4 912 3.26200000 3219001632 3219001632 -11.00000000
0.64294219 3.99615574 -0.64106846 2 6 914 4.09800000 3219001636 3219001636 -9.00000000
0.86492157 5.36391163 -0.66711277 2 8 916 5.47400000 3219001641 3219001641 -7.00000000
1.29101908 7.99752235 -0.70875049 4 10 917 8.13200000 3219001645 3219001645 -5.00000000
1.70355427 10.54137516 2.07562017 59 11 918 10.87800000 3219001648 3219001648 11.00000000
1.64445007 10.15314102 2.37458324 56 13 920 10.55600000 3219001652 3219001652 13.00000000
1.41982508 8.74691772 2.37440586 42 15 922 9.17400000 3219001657 3219001657 15.00000000
0.36277014 2.21530509 -0.60149544 4 0 930 2.32400000 3219001678 3219001678 -15.00000000
0.43425891 2.64606905 -0.61906528 3 2 932 2.75200000 3219001682 3219001682 -13.00000000
0.52230376 3.17908049 -0.62623513 2 4 933 3.28200000 3219001687 3219001687 -11.00000000
0.66400307 4.03275490 -0.64732581 2 6 935 4.13800000 3219001691 3219001691 -9.00000000
0.88457549 5.36070538 -0.66711277 2 8 937 5.47400000 3219001696 3219001696 -7.00000000
1.32616770 8.02812004 -0.71188813 4 10 938 8.16800000 3219001701 3219001701 -5.00000000
1.74153829 10.53118610 2.07485700 56 11 939 10.87400000 3219001703 3219001703 11.00000000
1.68037760 10.13935566 2.37278366 57 13 941 10.54800000 3219001708 3219001708 13.00000000
1.44845176 8.73047352 2.37129998 40 15 942 9.16200000 3219001712 3219001712 15.00000000
0.37050077 2.21402550 -0.60149544 4 0 950 2.32400000 3219001733 3219001733 -15.00000000
0.44284815 2.64069319 -0.61816549 3 2 952 2.74800000 3219001737 3219001737 -13.00000000
0.53144735 3.16562104 -0.62394542 2 4 953 3.27000000 3219001742 3219001742 -11.00000000
0.67086589 3.98755670 -0.64044273 2 6 955 4.09400000 3219001747 3219001747 -9.00000000
0.90856290 5.38890457 -0.67101258 2 8 957 5.50600000 3219001751 3219001751 -7.00000000
1.35550940 8.03130054 -0.71258533 4 10 958 8.17600000 3219001756 3219001756 -5.00000000
1.77763426 10.52117157 2.07409382 56 11 959 10.87000000 3219001758 3219001758 11.00000000
1.71706164 10.14111423 2.37458324 56 13 961 10.55600000 3219001763 3219001763 13.00000000
1.47924078 8.72726917 2.37181783 45 15 962 9.16400000 3219001767 3219001767 15.00000000
0.38017988 2.22414398 -0.60460126 4 0 970 2.33600000 3219001788 3219001788 -15.00000000
0.45272121 2.64297295 -0.61906528 3 2 972 2.75200000 3219001793 3219001793 -13.00000000
0.54581219 3.18309665 -0.62776160 2 4 973 3.29000000 3219001797 3219001797 -11.00000000
0.68678814 3.99687171 -0.64231992 2 6 975 4.10600000 3219001802 3219001802 -9.00000000
0.92197841 5.35439920 -0.66711277 2 8 977 5.47400000 3219001807 3219001807 -7.00000000
1.38691998 8.04615498 -0.71432847 4 10 978 8.19600000 3219001811 3219001811 -5.00000000
1.81434917 10.51490211 2.07409382 59 11 979 10.87000000 3219001814 3219001814 11.00000000
1.74979401 10.11969662 2.37098408 59 13 981 10.54000000 3219001818 3219001818 13.00000000
1.51154768 8.72369194 2.37233543 45 15 983 9.16600000 3219001823 3219001823 15.00000000
0.38993415 2.23422194 -0.60770714 4 0 990 2.34800000 3219001843 3219001843 -15.00000000
0.46127272 2.63753724 -0.61816549 3 2 992 2.74800000 3219001848 3219001848 -13.00000000
0.55488861 3.16956902 -0.62547189 2 4 993 3.27800000 3219001853 3219001853 -11.00000000
0.69937038 3.98666739 -0.64106846 2 6 995 4.09800000 3219001857 3219001857 -9.00000000
1.40740144 7.99809504 -0.71049362 4 10 998 8.15200000 3219001867 3219001867 -5.00000000
1.85376656 10.52397251 2.07714677 56 11 999 10.88600000 3219001869 3219001869 11.00000000
1.78307533 10.10201263 2.36828470 59 13 1001 10.52800000 3219001873 3219001873 13.00000000
1.54468155 8.73358154 2.37647653 45 15 1003 9.18200000 3219001878 3219001878 15.00000000
0.39531025 2.22150469 -0.60460126 4 0 1009 2.33600000 3219001899 3219001899 -15.00000000
0.47001657 2.63599324 -0.61816549 3 2 1011 2.74800000 3219001903 3219001903 -13.00000000
0.56194663 3.14838433 -0.62165570 2 4 1012 3.25800000 3219001908 3219001908 -11.00000000
0.71536899 3.99988246 -0.64357138 2 6 1014 4.11400000 3219001913 3219001913 -9.00000000
1.43673074 8.00907230 -0.71188813 4 10 1017 8.16800000 3219001922 3219001922 -5.00000000
1.88934910 10.52163219 2.07790995 56 11 1018 10.89000000 3219001924 3219001924 11.00000000
1.81725526 10.09988022 2.36918449 57 13 1020 10.53200000 3219001929 3219001929 13.00000000
1.57157803 8.71700382 2.37337065 42 15 1022 9.17000000 3219001933 3219001933 15.00000000
0.40375251 2.22391272 -0.60563654 4 0 1029 2.34000000 3219001954 3219001954 -15.00000000
0.48270279 2.65350914 -0.62266451 3 2 1031 2.76800000 3219001959 3219001959 -13.00000000
0.57645017 3.16571856 -0.62547189 2 4 1032 3.27800000 3219001963 3219001963 -11.00000000
0.72932678 3.99736094 -0.64357138 2 6 1034 4.11400000 3219001968 3219001968 -9.00000000
0.98063505 5.36414909 -0.66955018 2 8 1036 5.49400000 3219001973 3219001973 -7.00000000
1.45894063 7.97265100 -0.70909911 4 10 1037 8.13600000 3219001977 3219001977 -5.00000000
1.92677236 10.51883602 2.07867312 59 11 1038 10.89400000 3219001979 3219001979 11.00000000
1.85179567 10.08964157 2.36828470 56 13 1040 10.52800000 3219001984 3219001984 13.00000000
1.60199654 8.71146488 2.37337065 42 15 1042 9.17000000 3219001989 3219001989 15.00000000
0.41151294 2.22248983 -0.60563654 4 0 1049 2.34000000 3219002009 3219002009 -15.00000000
0.48911861 2.63647962 -0.61906528 3 2 1051 2.75200000 3219002014 3219002014 -13.00000000
0.58964777 3.17526865 -0.62776160 2 4 1052 3.29000000 3219002019 3219002019 -11.00000000
0.74255306 3.99090672 -0.64294565 2 6 1054 4.11000000 3219002023 3219002023 -9.00000000
1.00299144 5.38020802 -0.67198753 2 8 1056 5.51400000 3219002028 3219002028 -7.00000000
1.49114716 7.99101305 -0.71119088 4 10 1057 8.16000000 3219002032 3219002032 -5.00000000
1.96347821 10.51204586 2.07867312 56 11 1058 10.89400000 3219002035 3219002035 11.00000000
1.88915467 10.09460926 2.37098408 55 13 1060 10.54000000 3219002039 3219002039 13.00000000
1.62980890 8.70040798 2.37181783 45 15 1061 9.16400000 3219002044 3219002044 15.00000000
0.42034343 2.22673488 -0.60718948 3 0 1069 2.34600000 3219002065 3219002065 -15.00000000
0.49904296 2.63858581 -0.61996508 3 2 1071 2.75600000 3219002069 3219002069 -13.00000000
0.59853685 3.16161704 -0.62547189 2 4 1072 3.27800000 3219002074 3219002074 -11.00000000
0.75647944 3.98829031 -0.64294565 2 6 1074 4.11000000 3219002078 3219002078 -9.00000000
1.01880085 5.36107254 -0.67003763 2 8 1076 5.49800000 3219002083 3219002083 -7.00000000
1.51754272 7.97793007 -0.71049362 4 10 1077 8.15200000 3219002088 3219002088 -5.00000000
2.00016022 10.50512791 2.07867312 59 11 1078 10.89400000 3219002090 3219002090 11.00000000
1.92291927 10.08029652 2.36918449 55 13 1080 10.53200000 3219002095 3219002095 13.00000000
1.66349971 8.70386314 2.37440586 42 15 1082 9.17400000 3219002099 3219002099 15.00000000
0.42881915 2.23102021 -0.60874242 4 0 1088 2.35200000 3219002120 3219002120 -15.00000000
0.50815856 2.63882995 -0.62041503 3 2 1090 2.75800000 3219002125 3219002125 -13.00000000
0.60827470 3.15575933 -0.62470865 4 4 1091 3.27400000 3219002129 3219002129 -11.00000000
0.77194822 3.99739718 -0.64482284 2 6 1093 4.12200000 3219002134 3219002134 -9.00000000
1.03355658 5.34207296 -0.66808772 2 8 1095 5.48200000 3219002138 3219002138 -7.00000000
1.54399014 7.97285366 -0.71049362 4 10 1096 8.15200000 3219002143 3219002143 -5.00000000
2.03797412 10.51385689 2.08172607 59 11 1097 10.91000000 3219002145 3219002145 11.00000000
1.90581179 9.81369591 2.30799770 50 13 1099 10.26000000 3219002150 3219002150 13.00000000
1.69267857 8.70807648 2.37699413 45 15 1100 9.18400000 3219002155 3219002155 15.00000000
0.43586174 2.22571802 -0.60770714 4 0 1108 2.34800000 3219002175 3219002175 -15.00000000
0.51924258 2.64660168 -0.62266451 3 2 1110 2.76800000 3219002180 3219002180 -13.00000000
0.61626017 3.13820505 -0.62165570 2 4 1111 3.25800000 3219002184 3219002184 -11.00000000
0.78742230 4.00243092 -0.64607435 2 6 1113 4.13000000 3219002189 3219002189 -9.00000000
1.04797506 5.31700897 -0.66540664 2 8 1115 5.46000000 3219002194 3219002194 -7.00000000
1.57798123 7.99869108 -0.71328259 4 10 1116 8.18400000 3219002198 3219002198 -5.00000000
2.07618332 10.51438236 2.08325267 56 11 1117 10.91800000 3219002201 3219002201 11.00000000
1.98884141 10.05359173 2.36603522 59 13 1119 10.51800000 3219002205 3219002205 13.00000000
1.72270608 8.69233894 2.37440586 40 15 1121 9.17400000 3219002210 3219002210 15.00000000
0.44098315 2.21092129 -0.60408366 4 0 1128 2.33400000 3219002231 3219002231 -15.00000000
0.52542299 2.62948537 -0.61906528 3 2 1130 2.75200000 3219002235 3219002235 -13.00000000
0.62875092 3.14373541 -0.62318218 2 4 1131 3.26600000 3219002240 3219002240 -11.00000000
0.79906011 3.98803663 -0.64419711 2 6 1133 4.11800000 3219002244 3219002244 -9.00000000
1.07082582 5.33472729 -0.66808772 2 8 1135 5.48200000 3219002249 3219002249 -7.00000000
1.60196781 7.97360039 -0.71153951 4 10 1136 8.16400000 3219002254 3219002254 -5.00000000
2.11519504 10.51861954 2.08554220 59 11 1137 10.93000000 3219002256 3219002256 11.00000000
2.02815628 10.06760216 2.37098408 57 13 1139 10.54000000 3219002261 3219002261 13.00000000
1.74846673 8.67142868 2.37026477 42 15 1140 9.15800000 3219002265 3219002265 15.00000000
0.44985148 2.21504807 -0.60563654 4 0 1148 2.34000000 3219002286 3219002286 -15.00000000
0.53615248 2.63527369 -0.62086493 3 2 1150 2.76000000 3219002290 3219002290 -13.00000000
0.64285475 3.15691161 -0.62623513 2 4 1151 3.28200000 3219002295 3219002295 -11.00000000
0.81060702 3.97361016 -0.64231992 2 6 1153 4.10600000 3219002300 3219002300 -9.00000000
1.09262073 5.34651613 -0.67003763 2 8 1155 5.49800000 3219002304 3219002304 -7.00000000
1.63218665 7.97967196 -0.71258533 4 10 1156 8.17600000 3219002309 3219002309 -5.00000000
2.15032387 10.50347900 2.08401585 59 11 1157 10.92200000 3219002311 3219002311 11.00000000
2.06250334 10.05664349 2.37008429 56 13 1159 10.53600000 3219002316 3219002316 13.00000000
1.78101492 8.66874695 2.37129998 45 15 1161 9.16200000 3219002320 3219002320 15.00000000
0.45836288 2.21724796 -0.60667187 4 0 1168 2.34400000 3219002341 3219002341 -15.00000000
0.54574323 2.63529444 -0.62131482 3 2 1170 2.76200000 3219002346 3219002346 -13.00000000
0.65387052 3.15464854 -0.62623513 2 4 1171 3.28200000 3219002350 3219002350 -11.00000000
0.82929170 3.99396586 -0.64607435 2 6 1173 4.13000000 3219002355 3219002355 -9.00000000
1.11127687 5.34266949 -0.67003763 2 8 1175 5.49800000 3219002360 3219002360 -7.00000000
1.66409171 7.99343157 -0.71432847 4 10 1176 8.19600000 3219002364 3219002364 -5.00000000
2.18897700 10.50551891 2.08592391 59 11 1177 10.93200000 3219002366 3219002366 11.00000000
2.09440947 10.03412151 2.36648512 56 13 1179 10.52000000 3219002371 3219002371 13.00000000
1.80975175 8.66279316 2.37129998 45 15 1180 9.16200000 3219002376 3219002376 15.00000000
0.46769053 2.22319651 -0.60874242 4 0 1188 2.35200000 3219002396 3219002396 -15.00000000
0.55252779 2.62193203 -0.61861539 3 2 1190 2.75000000 3219002401 3219002401 -13.00000000
0.66487831 3.15234685 -0.62623513 2 4 1191 3.28200000 3219002406 3219002406 -11.00000000
0.84322822 3.99104667 -0.64607435 2 6 1193 4.13000000 3219002410 3219002410 -9.00000000
1.12909746 5.33487368 -0.66955018 2 8 1195 5.49400000 3219002415 3219002415 -7.00000000
2.22807789 10.50933743 2.08821368 59 11 1197 10.94400000 3219002422 3219002422 11.00000000
2.12780309 10.01912498 2.36468554 56 13 1199 10.51200000 3219002426 3219002426 13.00000000
1.84309816 8.66366005 2.37337065 45 15 1201 9.17000000 3219002431 3219002431 15.00000000
0.47383091 2.21399403 -0.60667187 4 0 1208 2.34400000 3219002452 3219002452 -15.00000000
0.56045115 2.61427116 -0.61726570 3 2 1210 2.74400000 3219002456 3219002456 -13.00000000
0.67093557 3.12697196 -0.62165570 2 4 1211 3.25800000 3219002461 3219002461 -11.00000000
0.85632426 3.98421645 -0.64544863 2 6 1213 4.12600000 3219002466 3219002466 -9.00000000
1.14771271 5.33089972 -0.66955018 2 8 1215 5.49400000 3219002470 3219002470 -7.00000000
1.72573090 8.00888729 -0.71676880 4 10 1216 8.22400000 3219002475 3219002475 -5.00000000
2.26971531 10.52452564 2.09279299 59 11 1217 10.96800000 3219002477 3219002477 11.00000000
2.16358638 10.01544571 2.36558533 59 13 1219 10.51600000 3219002482 3219002482 13.00000000
1.86977661 8.64805889 2.37078238 45 15 1220 9.16000000 3219002486 3219002486 15.00000000
0.47909099 2.20100069 -0.60356599 4 0 1228 2.33200000 3219002507 3219002507 -15.00000000
0.57123381 2.61991501 -0.61906528 3 2 1230 2.75200000 3219002512 3219002512 -13.00000000
0.68854374 3.15530086 -0.62776160 2 4 1231 3.29000000 3219002516 3219002516 -11.00000000
0.86769557 3.96962428 -0.64357138 2 6 1233 4.11400000 3219002521 3219002521 -9.00000000
1.16716325 5.33073950 -0.67003763 2 8 1235 5.49800000 3219002525 3219002525 -7.00000000
1.75623548 8.01449108 -0.71781468 4 10 1236 8.23600000 3219002530 3219002530 -5.00000000
2.30517721 10.51078510 2.09164810 59 11 1237 10.96200000 3219002532 3219002532 11.00000000
2.20020604 10.01544571 2.36738491 57 13 1239 10.52400000 3219002537 3219002537 13.00000000
1.89855456 8.62794113 2.36715889 42 15 1241 9.14600000 3219002542 3219002542 15.00000000
0.48844087 2.20685983 -0.60563654 4 0 1248 2.34000000 3219002562 3219002562 -15.00000000
0.58206272 2.62551522 -0.62086493 3 2 1250 2.76000000 3219002567 3219002567 -13.00000000
0.69785255 3.14521146 -0.62623513 2 4 1251 3.28200000 3219002572 3219002572 -11.00000000
0.88240403 3.97042775 -0.64419711 2 6 1253 4.11800000 3219002576 3219002576 -9.00000000
1.18835187 5.33825874 -0.67150009 2 8 1255 5.51000000 3219002581 3219002581 -7.00000000
1.79719865 8.06665325 -0.72304404 4 10 1256 8.29600000 3219002585 3219002585 -5.00000000
2.34099817 10.49884224 2.09088492 56 11 1257 10.95800000 3219002588 3219002588 11.00000000
2.23515320 10.00770473 2.36738491 64 13 1259 10.52400000 3219002592 3219002592 13.00000000
1.92968392 8.63290977 2.37026477 45 15 1260 9.15800000 3219002597 3219002597 15.00000000
0.50038183 2.22398877 -0.61081296 4 0 1268 2.36000000 3219002618 3219002618 -15.00000000
0.59165233 2.62536836 -0.62131482 4 2 1270 2.76200000 3219002622 3219002622 -13.00000000
0.70969105 3.14658666 -0.62699836 2 4 1271 3.28600000 3219002627 3219002627 -11.00000000
0.89799917 3.97503066 -0.64544863 2 6 1273 4.12600000 3219002631 3219002631 -9.00000000
1.20785487 5.33795071 -0.67198753 2 8 1275 5.51400000 3219002636 3219002636 -7.00000000
1.82534564 8.06033134 -0.72304404 4 10 1276 8.29600000 3219002641 3219002641 -5.00000000
2.38110328 10.50592422 2.09393787 53 11 1277 10.97400000 3219002643 3219002643 11.00000000
2.26662159 9.98463821 2.36378574 59 13 1279 10.50800000 3219002648 3219002648 13.00000000
1.95895064 8.62235355 2.36922956 42 15 1280 9.15400000 3219002652 3219002652 15.00000000
0.50814193 2.22222853 -0.61081296 4 0 1288 2.36000000 3219002673 3219002673 -15.00000000
0.59950781 2.61758852 -0.61996508 3 2 1290 2.75600000 3219002678 3219002678 -13.00000000
0.71979308 3.14026308 -0.62623513 2 4 1291 3.28200000 3219002682 3219002682 -11.00000000
0.91010112 3.96417069 -0.64419711 2 6 1293 4.11800000 3219002687 3219002687 -9.00000000
1.22559071 5.32983255 -0.67150009 2 8 1295 5.51000000 3219002691 3219002691 -7.00000000
2.42040515 10.50902748 2.09622765 40 11 1297 10.98600000 3219002698 3219002698 11.00000000
2.29970860 9.96907043 2.36198616 59 13 1299 10.50000000 3219002703 3219002703 13.00000000
1.99077463 8.62299252 2.37129998 42 15 1300 9.16200000 3219002707 3219002707 15.00000000
0.51414704 2.21291423 -0.60874242 4 0 1308 2.35200000 3219002728 3219002728 -15.00000000
0.60775787 2.61168385 -0.61906528 3 2 1310 2.75200000 3219002733 3219002733 -13.00000000
0.72985965 3.13390708 -0.62547189 2 4 1311 3.27800000 3219002737 3219002737 -11.00000000
0.92752290 3.97635961 -0.64670008 2 6 1313 4.13400000 3219002742 3219002742 -9.00000000
1.24509108 5.32938814 -0.67198753 2 8 1315 5.51400000 3219002747 3219002747 -7.00000000
1.85889184 7.95038795 -0.71432847 4 10 1316 8.19600000 3219002751 3219002751 -5.00000000
2.45886302 10.50816154 2.09775400 43 11 1317 10.99400000 3219002754 3219002754 11.00000000
2.33538246 9.96477699 2.36288595 57 13 1319 10.50400000 3219002758 3219002758 13.00000000
2.01883435 8.60059166 2.36715889 45 15 1321 9.14600000 3219002763 3219002763 15.00000000
0.51622236 2.19060421 -0.60304838 3 0 1326 2.33000000 3219002784 3219002784 -15.00000000
0.62043613 2.62872791 -0.62356430 3 2 1328 2.77200000 3219002788 3219002788 -13.00000000
0.74150676 3.13924146 -0.62699836 2 4 1329 3.28600000 3219002793 3219002793 -11.00000000
0.93773657 3.96381450 -0.64513576 2 6 1331 4.12400000 3219002797 3219002797 -9.00000000
1.26091230 5.32158709 -0.67150009 2 8 1333 5.51000000 3219002802 3219002802 -7.00000000
1.88937604 7.96777248 -0.71642023 4 10 1334 8.22000000 3219002807 3219002807 -5.00000000
2.49412966 10.50993538 2.09966230 50 11 1335 11.00400000 3219002809 3219002809 11.00000000
2.36847878 9.96497440 2.36468554 59 13 1337 10.51200000 3219002813 3219002813 13.00000000
2.04255581 8.58704662 2.36508846 42 15 1338 9.13800000 3219002818 3219002818 15.00000000
0.52791291 2.20569801 -0.60770714 4 0 1346 2.34800000 3219002839 3219002839 -15.00000000
0.62415719 2.60380554 -0.61816549 3 2 1348 2.74800000 3219002843 3219002843 -13.00000000
0.74971235 3.12517953 -0.62470865 2 4 1349 3.27400000 3219002848 3219002848 -11.00000000
0.95295161 3.96627927 -0.64607435 2 6 1351 4.13000000 3219002853 3219002853 -9.00000000
1.28784001 5.35189295 -0.67588741 2 8 1353 5.54600000 3219002857 3219002857 -7.00000000
1.91157961 7.93788481 -0.71432847 4 10 1354 8.19600000 3219002862 3219002862 -5.00000000
2.40233397 9.95285797 2.36378574 60 13 1357 10.50800000 3219002869 3219002869 13.00000000
2.07342482 8.58362007 2.36612368 42 15 1358 9.14200000 3219002873 3219002873 15.00000000
0.53469658 2.20008755 -0.60667187 4 0 1366 2.34400000 3219002894 3219002894 -15.00000000
0.63508588 2.60918474 -0.61996508 3 2 1368 2.75600000 3219002899 3219002899 -13.00000000
0.76433378 3.13780332 -0.62776160 2 4 1369 3.29000000 3219002903 3219002903 -11.00000000
0.96398157 3.95141411 -0.64419711 2 6 1371 4.11800000 3219002908 3219002908 -9.00000000
1.29991758 5.32036781 -0.67247504 2 8 1373 5.51800000 3219002912 3219002912 -7.00000000
1.94874084 7.96987104 -0.71781468 4 10 1374 8.23600000 3219002917 3219002917 -5.00000000
2.35278821 9.61505127 1.92411792 9 11 1375 10.08400000 3219002919 3219002919 11.00000000
2.43520594 9.93684006 2.36198616 60 13 1377 10.50000000 3219002924 3219002924 13.00000000
2.10429502 8.58008289 2.36715889 45 15 1378 9.14600000 3219002929 3219002929 15.00000000
0.54514968 2.20946121 -0.60977769 4 0 1386 2.35600000 3219002949 3219002949 -15.00000000
0.64325482 2.60316825 -0.61906528 3 2 1388 2.75200000 3219002954 3219002954 -13.00000000
0.77433956 3.13130450 -0.62699836 2 4 1389 3.28600000 3219002959 3219002959 -11.00000000
0.98441696 3.97486949 -0.64857727 2 6 1391 4.14600000 3219002963 3219002963 -9.00000000
1.32039273 5.32350492 -0.67344999 2 8 1393 5.52600000 3219002968 3219002968 -7.00000000
1.97942889 7.97462273 -0.71886057 4 10 1394 8.24800000 3219002972 3219002972 -5.00000000
2.38775635 9.61249638 1.92526281 9 11 1395 10.09000000 3219002975 3219002975 11.00000000
2.46705437 9.91693306 2.35928655 56 13 1397 10.48800000 3219002979 3219002979 13.00000000
2.13572836 8.57231236 2.36715889 45 15 1399 9.14600000 3219002984 3219002984 15.00000000
0.55004293 2.19630098 -0.60667187 4 0 1406 2.34400000 3219003005 3219003005 -15.00000000
0.65518212 2.61224818 -0.62176472 3 2 1408 2.76400000 3219003009 3219003009 -13.00000000
0.78526509 3.12858248 -0.62699836 2 4 1409 3.28600000 3219003014 3219003014 -11.00000000
0.99732274 3.96757746 -0.64795154 2 6 1411 4.14200000 3219003018 3219003018 -9.00000000
1.34090567 5.32656336 -0.67442495 2 8 1413 5.53400000 3219003023 3219003023 -7.00000000
2.00433302 7.95607233 -0.71781468 4 10 1414 8.23600000 3219003028 3219003028 -5.00000000
2.42561531 9.62123585 1.92869735 12 11 1415 10.10800000 3219003030 3219003030 11.00000000
2.50260997 9.91203976 2.36018658 59 13 1417 10.49200000 3219003035 3219003035 13.00000000
2.16461682 8.56705570 2.36767673 45 15 1418 9.14800000 3219003039 3219003039 15.00000000
0.55770606 2.19436765 -0.60667187 4 0 1426 2.34400000 3219003060 3219003060 -15.00000000
0.66333520 2.60616827 -0.62086493 3 2 1428 2.76000000 3219003064 3219003064 -13.00000000
0.79618114 3.12582231 -0.62699836 4 4 1429 3.28600000 3219003069 3219003069 -11.00000000
1.01214266 3.96790004 -0.64857727 2 6 1431 4.14600000 3219003074 3219003074 -9.00000000
1.34966421 5.28338385 -0.66955018 2 8 1433 5.49400000 3219003078 3219003078 -7.00000000
2.02617121 7.92586374 -0.71572298 4 10 1434 8.21200000 3219003083 3219003083 -5.00000000
2.46161771 9.62222004 1.93060541 12 11 1435 10.11800000 3219003085 3219003085 11.00000000
2.53719425 9.90324306 2.36018658 57 13 1437 10.49200000 3219003090 3219003090 13.00000000
2.19114971 8.54634857 2.36405325 42 15 1438 9.13400000 3219003094 3219003094 15.00000000
0.56536245 2.19240737 -0.60667187 4 0 1446 2.34400000 3219003115 3219003115 -15.00000000
0.67145389 2.60006332 -0.61996508 3 2 1448 2.75600000 3219003120 3219003120 -13.00000000
0.80315763 3.10781765 -0.62394542 2 4 1449 3.27000000 3219003124 3219003124 -11.00000000
1.02004790 3.94139433 -0.64482284 2 6 1451 4.12200000 3219003129 3219003129 -9.00000000
1.37805903 5.31707239 -0.67442495 2 8 1453 5.53400000 3219003134 3219003134 -7.00000000
2.05382514 7.91874266 -0.71572298 4 10 1454 8.21200000 3219003138 3219003138 -5.00000000
2.49272442 9.60406780 1.92869735 18 11 1455 10.10800000 3219003141 3219003141 11.00000000
2.57468891 9.90564251 2.36288595 64 13 1457 10.50400000 3219003145 3219003145 13.00000000
2.22294545 8.54012966 2.36457086 45 15 1459 9.13600000 3219003150 3219003150 15.00000000
0.57203412 2.18668270 -0.60563654 4 0 1466 2.34000000 3219003170 3219003170 -15.00000000
0.68052572 2.59770370 -0.61996508 3 2 1468 2.75600000 3219003175 3219003175 -13.00000000
0.82196677 3.13538027 -0.63005131 2 4 1469 3.30200000 3219003180 3219003180 -11.00000000
1.03680933 3.94927359 -0.64670008 2 6 1471 4.13400000 3219003184 3219003184 -9.00000000
1.39459181 5.30455017 -0.67344999 2 8 1473 5.52600000 3219003189 3219003189 -7.00000000
2.09564829 7.96547651 -0.72060370 4 10 1474 8.26800000 3219003194 3219003194 -5.00000000
2.52823305 9.60290241 1.93022382 18 11 1475 10.11600000 3219003196 3219003196 11.00000000
2.60527587 9.88152027 2.35928655 57 13 1477 10.48800000 3219003200 3219003200 13.00000000
2.25520849 8.54165745 2.36715889 45 15 1479 9.14600000 3219003205 3219003205 15.00000000
0.58263618 2.19587612 -0.60874242 4 0 1486 2.35200000 3219003226 3219003226 -15.00000000
0.69159096 2.60284591 -0.62176472 3 2 1488 2.76400000 3219003230 3219003230 -13.00000000
0.82786143 3.11351871 -0.62623513 2 4 1489 3.28200000 3219003235 3219003235 -11.00000000
1.04347277 3.91890621 -0.64231992 2 6 1491 4.10600000 3219003240 3219003240 -9.00000000
1.40849662 5.28238726 -0.67125636 2 8 1493 5.50800000 3219003244 3219003244 -7.00000000
2.12241292 7.95426226 -0.72025508 4 10 1494 8.26400000 3219003249 3219003249 -5.00000000
2.56781578 9.61678028 1.93480325 18 11 1495 10.14000000 3219003251 3219003251 11.00000000
2.63773942 9.86483574 2.35748696 57 13 1497 10.48000000 3219003256 3219003256 13.00000000
2.28900790 8.54866219 2.37129998 42 15 1499 9.16200000 3219003260 3219003260 15.00000000
0.58828986 2.18636703 -0.60667187 4 0 1506 2.34400000 3219003281 3219003281 -15.00000000
0.70219332 2.60606074 -0.62311441 3 2 1508 2.77000000 3219003286 3219003286 -13.00000000
0.83872461 3.11061001 -0.62623513 2 4 1509 3.28200000 3219003290 3219003290 -11.00000000
1.06229520 3.93431067 -0.64544863 2 6 1511 4.12600000 3219003295 3219003295 -9.00000000
1.42485452 5.26977348 -0.67028141 2 8 1513 5.50000000 3219003300 3219003300 -7.00000000
2.13975811 7.90834093 -0.71676880 4 10 1514 8.22400000 3219003304 3219003304 -5.00000000
2.60598683 9.62481308 1.93823779 18 11 1515 10.15800000 3219003306 3219003306 11.00000000
2.67419791 9.86309147 2.35928655 55 13 1517 10.48800000 3219003311 3219003311 13.00000000
2.31276035 8.51824760 2.36508846 42 15 1519 9.13800000 3219003316 3219003316 15.00000000
0.59452063 2.18067646 -0.60563654 4 0 1525 2.34000000 3219003336 3219003336 -15.00000000
0.71288443 2.61123776 -0.62491405 3 2 1527 2.77800000 3219003341 3219003341 -13.00000000
0.85110468 3.11538696 -0.62776160 2 4 1528 3.29000000 3219003346 3219003346 -11.00000000
1.07533598 3.93076634 -0.64544863 2 6 1530 4.12600000 3219003350 3219003350 -9.00000000
1.44809115 5.28607941 -0.67296249 2 8 1532 5.52200000 3219003355 3219003355 -7.00000000
2.16597152 7.90120173 -0.71676880 4 10 1533 8.22400000 3219003359 3219003359 -5.00000000
2.63685083 9.61233234 1.93747449 25 11 1534 10.15400000 3219003362 3219003362 11.00000000
2.70689034 9.85416985 2.35928655 56 13 1536 10.48800000 3219003366 3219003366 13.00000000
2.33643746 8.49976349 2.36198258 45 15 1537 9.12600000 3219003371 3219003371 15.00000000
0.60315824 2.18231201 -0.60667187 4 0 1545 2.34400000 3219003392 3219003392 -15.00000000
0.71991587 2.60122085 -0.62311441 3 2 1547 2.77000000 3219003396 3219003396 -13.00000000
0.86302221 3.11618114 -0.62852484 2 4 1548 3.29400000 3219003401 3219003401 -11.00000000
1.08799458 3.92318177 -0.64482284 2 6 1550 4.12200000 3219003405 3219003405 -9.00000000
1.46972120 5.29246902 -0.67442495 2 8 1552 5.53400000 3219003410 3219003410 -7.00000000
2.19567251 7.90127134 -0.71746606 4 10 1553 8.23200000 3219003415 3219003415 -5.00000000
2.66933608 9.59928608 1.93671131 25 11 1554 10.15000000 3219003417 3219003417 11.00000000
2.74231696 9.84841537 2.36018658 60 13 1556 10.49200000 3219003422 3219003422 13.00000000
2.37068820 8.50230789 2.36508846 42 15 1558 9.13800000 3219003426 3219003426 15.00000000
0.61077225 2.18019319 -0.60667187 4 0 1565 2.34400000 3219003447 3219003447 -15.00000000
0.72635967 2.58931041 -0.62086493 3 2 1567 2.76000000 3219003452 3219003452 -13.00000000
0.87495565 3.11693001 -0.62928808 2 4 1568 3.29800000 3219003456 3219003456 -11.00000000
1.10488963 3.93077016 -0.64670008 2 6 1570 4.13400000 3219003461 3219003461 -9.00000000
1.48173237 5.26437616 -0.67150009 2 8 1572 5.51000000 3219003465 3219003465 -7.00000000
2.22431993 7.89739466 -0.71781468 4 10 1573 8.23600000 3219003470 3219003470 -5.00000000
2.70655560 9.60313702 1.93938267 25 11 1574 10.16400000 3219003472 3219003472 11.00000000
2.77456045 9.83128071 2.35838675 57 13 1576 10.48400000 3219003477 3219003477 13.00000000
2.39991975 8.49811745 2.36612368 42 15 1577 9.14200000 3219003482 3219003482 15.00000000
0.62154460 2.18919826 -0.60977769 4 0 1585 2.35600000 3219003502 3219003502 -15.00000000
0.73539364 2.58675909 -0.62086493 3 2 1587 2.76000000 3219003507 3219003507 -13.00000000
0.88475609 3.11008024 -0.62852484 2 4 1588 3.29400000 3219003511 3219003511 -11.00000000
1.11589801 3.91739035 -0.64513576 2 6 1590 4.12400000 3219003516 3219003516 -9.00000000
1.49792147 5.25153589 -0.67052513 2 8 1592 5.50200000 3219003521 3219003521 -7.00000000
2.25734186 7.90874100 -0.71955782 4 10 1593 8.25600000 3219003525 3219003525 -5.00000000
2.74383450 9.60684586 1.94205391 21 11 1594 10.17800000 3219003528 3219003528 11.00000000
3.20359993 11.20919037 -0.61096996 4 12 1595 11.67400000 3219003530 3219003530 -3.00000000
2.80457425 9.80654716 2.35478759 56 13 1596 10.46800000 3219003532 3219003532 13.00000000
3.20152187 11.18713760 -0.20311111 2 14 1597 11.63800000 3219003535 3219003535 -1.00000000
2.43317819 8.49669361 2.36819434 45 15 1598 9.15000000 3219003537 3219003537 15.00000000
0.62597787 2.17587614 -0.60667187 4 0 1605 2.34400000 3219003558 3219003558 -15.00000000
3.22406936 11.19938946 0.20342524 3 1 1606 11.65600000 3219003560 3219003560 1.00000000
0.74118203 2.57294083 -0.61816549 3 2 1607 2.74800000 3219003562 3219003562 -13.00000000
0.89778203 3.11451864 -0.63005131 2 4 1608 3.30200000 3219003567 3219003567 -11.00000000
1.13175666 3.92106295 -0.64638722 2 6 1610 4.13200000 3219003571 3219003571 -9.00000000
1.51459014 5.24055433 -0.66979390 2 8 1612 5.49600000 3219003576 3219003576 -7.00000000
2.28272057 7.89315701 -0.71886057 4 10 1613 8.24800000 3219003581 3219003581 -5.00000000
2.78390098 9.61983967 1.94663334 21 11 1614 10.20200000 3219003583 3219003583 11.00000000
3.21770835 11.11160946 -0.60625970 4 12 1615 11.58400000 3219003585 3219003585 -3.00000000
2.83987331 9.80044079 2.35568738 59 13 1616 10.47200000 3219003588 3219003588 13.00000000
3.21549273 11.08946800 -0.20154040 6 14 1617 11.54800000 3219003590 3219003590 -1.00000000
2.45918894 8.48115635 2.36612368 40 15 1617 9.14200000 3219003592 3219003592 15.00000000
0.63248813 2.16996837 -0.60563654 4 0 1625 2.34000000 3219003613 3219003613 -15.00000000
3.23066831 11.07672405 0.20140077 6 1 1626 11.54000000 3219003615 3219003615 1.00000000
0.75452650 2.58530354 -0.62176472 3 2 1627 2.76400000 3219003617 3219003617 -13.00000000
3.24403119 11.10811424 0.60646904 28 3 1628 11.58800000 3219003620 3219003620 3.00000000
0.90754753 3.10759687 -0.62928808 2 4 1628 3.29800000 3219003622 3219003622 -11.00000000
3.24979186 11.12062645 1.01362133 25 5 1629 11.63000000 3219003624 3219003624 5.00000000
1.14266467 3.90760851 -0.64482284 2 6 1630 4.12200000 3219003627 3219003627 -9.00000000
3.26071143 11.14354324 1.42562759 25 7 1631 11.69800000 3219003629 3219003629 7.00000000
1.53900981 5.25619173 -0.67247504 2 8 1632 5.51800000 3219003631 3219003631 -7.00000000
3.27417207 11.17507172 1.84436238 15 9 1633 11.79000000 3219003634 3219003634 9.00000000
2.30241609 7.85837269 -0.71642023 4 10 1633 8.22000000 3219003636 3219003636 -5.00000000
2.81856823 9.61383152 1.94739664 18 11 1634 10.20600000 3219003638 3219003638 11.00000000
3.20362520 10.92015934 -0.59642059 4 12 1635 11.39600000 3219003640 3219003640 -3.00000000
2.87516379 9.79420757 2.35658717 62 13 1636 10.47600000 3219003643 3219003643 13.00000000
3.21529460 10.94579029 -0.19913195 6 14 1637 11.41000000 3219003645 3219003645 -1.00000000
2.48589897 8.45725822 2.36198258 42 15 1638 9.12600000 3219003647 3219003647 15.00000000
0.64186746 2.17527056 -0.60770714 4 0 1644 2.34800000 3219003668 3219003668 -15.00000000
3.22547817 10.92402935 0.19881782 6 1 1645 11.39200000 3219003670 3219003670 1.00000000
0.76309550 2.58278728 -0.62176472 3 2 1646 2.76400000 3219003673 3219003673 -13.00000000
3.24064565 10.96130848 0.59903735 28 3 1647 11.44600000 3219003675 3219003675 3.00000000
0.91562128 3.09703946 -0.62776160 2 4 1647 3.29000000 3219003677 3219003677 -11.00000000
3.24426126 10.96649742 1.00054789 8 5 1648 11.48000000 3219003680 3219003680 5.00000000
1.15785933 3.91137433 -0.64607435 2 6 1649 4.13000000 3219003682 3219003682 -9.00000000
3.25423431 10.98611164 1.40685976 25 7 1650 11.54400000 3219003684 3219003684 7.00000000
1.56150866 5.26818848 -0.67466867 2 8 1651 5.53600000 3219003687 3219003687 -7.00000000
3.26154733 11.00374603 1.81776845 25 9 1651 11.62000000 3219003689 3219003689 9.00000000
2.33866048 7.88507700 -0.71955782 4 10 1652 8.25600000 3219003691 3219003691 -5.00000000
2.85099196 9.60631371 1.94777822 18 11 1653 10.20800000 3219003693 3219003693 11.00000000
3.19262743 10.75056267 -0.58773279 4 12 1654 11.23000000 3219003696 3219003696 -3.00000000
2.90762663 9.78461933 2.35658717 57 13 1655 10.47600000 3219003698 3219003698 13.00000000
3.21053791 10.79706192 -0.19661881 6 14 1656 11.26600000 3219003700 3219003700 -1.00000000
2.51575971 8.46051693 2.36508846 40 15 1656 9.13800000 3219003703 3219003703 15.00000000
0.64835024 2.16931486 -0.60667187 4 0 1664 2.34400000 3219003723 3219003723 -15.00000000
3.22348332 10.77859402 0.19637448 6 1 1665 11.25200000 3219003726 3219003726 1.00000000
0.77210647 2.58010769 -0.62176472 3 2 1666 2.76400000 3219003728 3219003728 -13.00000000
3.23477221 10.80260468 0.59097761 26 3 1667 11.29200000 3219003730 3219003730 3.00000000
0.92755270 3.09758592 -0.62852484 2 4 1667 3.29400000 3219003733 3219003733 -11.00000000
3.23734403 10.80433083 0.98677731 17 5 1668 11.32200000 3219003735 3219003735 5.00000000
1.17264020 3.91109324 -0.64670008 2 6 1669 4.13400000 3219003737 3219003737 -9.00000000
3.24863958 10.82827950 1.38809180 29 7 1670 11.39000000 3219003740 3219003740 7.00000000
1.57589316 5.24939680 -0.67296249 2 8 1671 5.52200000 3219003742 3219003742 -7.00000000
3.26321125 10.86307144 1.79649341 31 9 1672 11.48400000 3219003744 3219003744 9.00000000
2.36158466 7.86160040 -0.71816331 4 10 1672 8.24000000 3219003746 3219003746 -5.00000000
2.88620234 9.60194397 1.94892311 12 11 1673 10.21400000 3219003749 3219003749 11.00000000
3.18986559 10.60546970 -0.58040577 4 12 1674 11.09000000 3219003751 3219003751 -3.00000000
2.94064045 9.77067852 2.35568738 56 13 1675 10.47200000 3219003753 3219003753 13.00000000
3.19803953 10.61920547 -0.19358209 4 14 1676 11.09200000 3219003756 3219003756 -1.00000000
2.54396510 8.44199181 2.36250019 40 15 1677 9.12800000 3219003758 3219003758 15.00000000
0.65815729 2.17443466 -0.60874242 4 0 1684 2.35200000 3219003779 3219003779 -15.00000000
3.21645522 10.61991119 0.19368681 6 1 1685 11.09800000 3219003781 3219003781 1.00000000
0.77884722 2.56993699 -0.61996508 3 2 1686 2.75600000 3219003783 3219003783 -13.00000000
3.23420668 10.66510105 0.58406925 23 3 1687 11.16000000 3219003786 3219003786 3.00000000
0.93949914 3.09808683 -0.62928808 2 4 1687 3.29800000 3219003788 3219003788 -11.00000000
3.24611211 10.69763660 0.97806174 28 5 1688 11.22200000 3219003790 3219003790 5.00000000
1.18054616 3.88807440 -0.64357138 2 6 1689 4.11400000 3219003793 3219003793 -9.00000000
3.25063920 10.69911289 1.37298000 29 7 1690 11.26600000 3219003795 3219003795 7.00000000
3.22248149 10.59978390 -1.36030567 2 8 1691 11.16200000 3219003797 3219003797 -7.00000000
3.26186919 10.72934246 1.77615690 28 9 1691 11.35400000 3219003799 3219003799 9.00000000
3.22864580 10.61340427 -0.97056633 4 10 1692 11.13600000 3219003802 3219003802 -5.00000000
2.92370367 9.60495853 1.95159435 12 11 1693 10.22800000 3219003804 3219003804 11.00000000
3.22512031 10.58853817 -0.58009171 21 12 1694 11.08400000 3219003806 3219003806 -3.00000000
2.97018337 9.74544144 2.35208821 56 13 1695 10.45600000 3219003809 3219003809 13.00000000
3.23392153 10.60415268 -0.19351228 19 14 1696 11.08800000 3219003811 3219003811 -1.00000000
2.57476330 8.44274807 2.36508846 42 15 1696 9.13800000 3219003813 3219003813 15.00000000
0.66347903 2.16473579 -0.60667187 4 0 1704 2.34400000 3219003834 3219003834 -15.00000000
3.25526500 10.61435413 0.19379152 23 1 1705 11.10400000 3219003836 3219003836 1.00000000
0.79124349 2.57838058 -0.62266451 3 2 1706 2.76800000 3219003839 3219003839 -13.00000000
3.26262093 10.62510681 0.58249921 10 3 1707 11.13000000 3219003841 3219003841 3.00000000
0.94339222 3.07226729 -0.62470865 2 4 1707 3.27400000 3219003843 3219003843 -11.00000000
3.26353812 10.62148666 0.97213513 12 5 1708 11.15400000 3219003846 3219003846 5.00000000
3.25260234 10.57931900 -1.75300467 2 6 1709 11.20600000 3219003848 3219003848 -9.00000000
3.27337384 10.64026833 1.36688650 10 7 1710 11.21600000 3219003850 3219003850 7.00000000
3.26413441 10.60364914 -1.36225557 2 8 1711 11.17800000 3219003852 3219003852 -7.00000000
3.27791214 10.64180088 1.76364219 9 9 1712 11.27400000 3219003855 3219003855 9.00000000
2.41523790 7.84111357 -0.71781468 4 10 1712 8.23600000 3219003857 3219003857 -5.00000000
2.96935678 9.63409328 1.95960844 12 11 1713 10.27000000 3219003859 3219003859 11.00000000
3.26912475 10.60011864 -0.58134782 8 12 1714 11.10800000 3219003862 3219003862 -3.00000000
3.00763106 9.74618626 2.35478759 59 13 1715 10.46800000 3219003864 3219003864 13.00000000
3.26855707 10.58515644 -0.19337267 8 14 1716 11.08000000 3219003866 3219003866 -1.00000000
2.60511994 8.43140888 2.36457086 38 15 1717 9.13600000 3219003869 3219003869 15.00000000
0.67274898 2.16794181 -0.60822475 4 0 1724 2.35000000 3219003889 3219003889 -15.00000000
3.29170322 10.60101700 0.19375661 10 1 1725 11.10200000 3219003892 3219003892 1.00000000
0.80023885 2.57560301 -0.62266451 3 2 1726 2.76800000 3219003894 3219003894 -13.00000000
3.30443311 10.62891102 0.58333659 10 3 1727 11.14600000 3219003896 3219003896 3.00000000
0.95993912 3.08770299 -0.62852484 2 4 1727 3.29400000 3219003899 3219003899 -11.00000000
3.30118585 10.61193275 0.97230947 12 5 1728 11.15600000 3219003901 3219003901 5.00000000
1.21118367 3.89105463 -0.64544863 2 6 1729 4.12600000 3219003903 3219003903 -9.00000000
3.31462765 10.64204407 1.36859274 10 7 1730 11.23000000 3219003905 3219003905 7.00000000
1.62723351 5.22123528 -0.67150009 2 8 1731 5.51000000 3219003908 3219003908 -7.00000000
3.31435919 10.63464451 1.76426792 12 9 1731 11.27800000 3219003910 3219003910 9.00000000
2.43073082 7.79459429 -0.71432847 4 10 1732 8.19600000 3219003912 3219003912 -5.00000000
3.02168179 9.68364239 1.97182012 12 11 1733 10.33400000 3219003915 3219003915 11.00000000
3.31801152 10.62677288 -0.58344126 12 12 1734 11.14800000 3219003917 3219003917 -3.00000000
3.04047108 9.73190880 2.35388780 60 13 1735 10.46400000 3219003919 3219003919 13.00000000
3.31443620 10.60231209 -0.19389623 12 14 1736 11.11000000 3219003922 3219003922 -1.00000000
2.62787747 8.40612888 2.35991216 42 15 1736 9.11800000 3219003924 3219003924 15.00000000
0.68204939 2.17110944 -0.60977769 4 0 1744 2.35600000 3219003945 3219003945 -15.00000000
3.33828211 10.61998463 0.19431509 13 1 1745 11.13400000 3219003947 3219003947 1.00000000
0.80688572 2.56535816 -0.62086493 3 2 1746 2.76000000 3219003949 3219003949 -13.00000000
3.34751058 10.63636303 0.58438331 13 3 1747 11.16600000 3219003952 3219003952 3.00000000
0.97189009 3.08807874 -0.62928808 2 4 1747 3.29800000 3219003954 3219003954 -11.00000000
3.34239745 10.61364746 0.97352964 12 5 1748 11.17000000 3219003956 3219003956 5.00000000
1.22653961 3.89245534 -0.64638722 2 6 1749 4.13200000 3219003958 3219003958 -9.00000000
3.35533667 10.64176846 1.37005520 12 7 1750 11.24200000 3219003961 3219003961 7.00000000
1.65261614 5.23824072 -0.67442495 2 8 1751 5.53400000 3219003963 3219003963 -7.00000000
3.35740423 10.64184856 1.76739657 12 9 1751 11.29800000 3219003965 3219003965 9.00000000
2.47111964 7.82786131 -0.71816331 4 10 1752 8.24000000 3219003968 3219003968 -5.00000000
3.11223435 9.85275459 2.00845551 15 11 1753 10.52600000 3219003970 3219003970 11.00000000
3.35267806 10.60750866 -0.58302253 12 12 1754 11.14000000 3219003972 3219003972 -3.00000000
3.07912421 9.73610020 2.35748696 59 13 1755 10.48000000 3219003975 3219003975 13.00000000
3.35806155 10.61164951 -0.19428019 10 14 1756 11.13200000 3219003977 3219003977 -1.00000000
2.65837002 8.40058804 2.36094737 42 15 1756 9.12200000 3219003979 3219003979 15.00000000
0.68962377 2.16871524 -0.60977769 4 0 1764 2.35600000 3219004000 3219004000 -15.00000000
3.37411976 10.60445595 0.19424528 13 1 1765 11.13000000 3219004002 3219004002 1.00000000
0.81524438 2.56066895 -0.62041503 3 2 1766 2.75800000 3219004005 3219004005 -13.00000000
3.38643670 10.63032246 0.58469731 13 3 1767 11.17200000 3219004007 3219004007 3.00000000
0.98147178 3.08092618 -0.62852484 2 4 1767 3.29400000 3219004009 3219004009 -11.00000000
3.38124108 10.60761070 0.97405261 12 5 1768 11.17600000 3219004011 3219004011 5.00000000
1.23831856 3.88250422 -0.64544863 2 6 1769 4.12600000 3219004014 3219004014 -9.00000000
3.39125586 10.62620831 1.36956763 12 7 1770 11.23800000 3219004016 3219004016 7.00000000
1.66666389 5.21920300 -0.67271876 2 8 1771 5.52000000 3219004018 3219004018 -7.00000000
3.40299964 10.65017033 1.77083814 12 9 1772 11.32000000 3219004021 3219004021 9.00000000
2.50813150 7.84955359 -0.72095233 4 10 1772 8.27200000 3219004023 3219004023 -5.00000000
3.18546963 9.96338177 2.03326058 37 11 1773 10.65600000 3219004025 3219004025 11.00000000
3.38846755 10.59193611 -0.58281320 12 12 1774 11.13600000 3219004028 3219004028 -3.00000000
3.10596156 9.70302105 2.35208821 57 13 1775 10.45600000 3219004030 3219004030 13.00000000
3.40118217 10.61890697 -0.19462924 10 14 1776 11.15200000 3219004032 3219004032 -1.00000000
2.68708801 8.38941765 2.36042976 40 15 1776 9.12000000 3219004034 3219004034 15.00000000
0.69541430 2.16077805 -0.60822475 4 0 1784 2.35000000 3219004055 3219004055 -15.00000000
3.41601920 10.60784054 0.19452453 13 1 1785 11.14600000 3219004058 3219004058 1.00000000
0.82477552 2.55966258 -0.62086493 3 2 1786 2.76000000 3219004060 3219004060 -13.00000000
3.42045856 10.60893250 0.58417392 13 3 1787 11.16200000 3219004062 3219004062 3.00000000
0.99101537 3.07374430 -0.62776160 2 4 1787 3.29000000 3219004064 3219004064 -11.00000000
3.42252994 10.60901642 0.97527277 12 5 1788 11.19000000 3219004067 3219004067 5.00000000
1.25671804 3.89319706 -0.64795154 2 6 1789 4.14200000 3219004069 3219004069 -9.00000000
3.43198824 10.62563992 1.37103009 12 7 1790 11.25000000 3219004071 3219004071 7.00000000
1.67815709 5.19257545 -0.67003763 2 8 1791 5.49800000 3219004074 3219004074 -7.00000000
3.44137049 10.64198589 1.77146387 12 9 1792 11.32400000 3219004076 3219004076 9.00000000
2.54042053 7.85591650 -0.72234678 4 10 1792 8.28800000 3219004078 3219004078 -5.00000000
3.22687745 9.97274876 2.03745842 43 11 1793 10.67800000 3219004081 3219004081 11.00000000
3.43034124 10.59524536 -0.58365059 12 12 1794 11.15200000 3219004083 3219004083 -3.00000000
3.12299633 9.64021111 2.33949089 62 13 1795 10.40000000 3219004085 3219004085 13.00000000
3.44069481 10.61457920 -0.19476886 10 14 1796 11.16000000 3219004087 3219004087 -1.00000000
2.72079897 8.38870049 2.36301780 45 15 1797 9.13000000 3219004090 3219004090 15.00000000
0.70078206 2.15294909 -0.60667187 4 0 1803 2.34400000 3219004111 3219004111 -15.00000000
3.45798945 10.61736965 0.19490847 13 1 1804 11.16800000 3219004113 3219004113 1.00000000
0.83325911 2.55691338 -0.62086493 3 2 1805 2.76000000 3219004115 3219004115 -13.00000000
3.46428871 10.62411594 0.58563936 10 3 1806 11.19000000 3219004117 3219004117 3.00000000
0.99755102 3.05924177 -0.62547189 2 4 1806 3.27800000 3219004120 3219004120 -11.00000000
3.46387172 10.61654949 0.97701585 12 5 1807 11.21000000 3219004122 3219004122 5.00000000
1.26349092 3.87022972 -0.64482284 2 6 1808 4.12200000 3219004124 3219004124 -9.00000000
3.47336936 10.63307095 1.37346745 17 7 1809 11.27000000 3219004127 3219004127 7.00000000
3.46535754 10.60227489 -1.36956763 2 8 1810 11.23800000 3219004129 3219004129 -7.00000000
3.47786975 10.63427067 1.77208960 12 9 1811 11.32800000 3219004131 3219004131 9.00000000
2.55159402 7.80200052 -0.71816331 4 10 1811 8.24000000 3219004134 3219004134 -5.00000000
3.25809860 9.95639515 2.03631353 46 11 1812 10.67200000 3219004136 3219004136 11.00000000
3.47291541 10.60658836 -0.58490664 12 12 1813 11.17600000 3219004138 3219004138 -3.00000000
3.11854410 9.51868916 2.31249690 64 13 1814 10.28000000 3219004140 3219004140 13.00000000
3.47649813 10.60501099 -0.19480376 10 14 1815 11.16200000 3219004143 3219004143 -1.00000000
2.74292684 8.36726189 2.35939431 40 15 1815 9.11600000 3219004145 3219004145 15.00000000
0.70950168 2.15415955 -0.60770714 4 0 1823 2.34800000 3219004166 3219004166 -15.00000000
3.49565578 10.60713387 0.19494338 13 1 1824 11.17000000 3219004168 3219004168 1.00000000
0.84339988 2.55769062 -0.62176472 3 2 1825 2.76400000 3219004170 3219004170 -13.00000000
3.50510740 10.62333870 0.58626735 10 3 1826 11.20200000 3219004173 3219004173 3.00000000
1.00576305 3.04828358 -0.62394542 2 4 1826 3.27000000 3219004175 3219004175 -11.00000000
3.50465703 10.61574554 0.97806174 12 5 1827 11.22200000 3219004177 3219004177 5.00000000
1.28071046 3.87704992 -0.64670008 2 6 1828 4.13400000 3219004180 3219004180 -9.00000000
3.51794004 10.64349937 1.37639236 14 7 1829 11.29400000 3219004182 3219004182 7.00000000
3.50982475 10.61273003 -1.37249255 2 8 1830 11.26200000 3219004184 3219004184 -7.00000000
3.51807189 10.63144207 1.77365398 12 9 1831 11.33800000 3219004187 3219004187 9.00000000
2.57255340 7.77413082 -0.71642023 4 10 1831 8.22000000 3219004189 3219004189 -5.00000000
3.29406738 9.94868946 2.03707695 50 11 1832 10.67600000 3219004191 3219004191 11.00000000
3.51431489 10.60767269 -0.58563936 12 12 1833 11.19000000 3219004193 3219004193 -3.00000000
3.12231874 9.41895676 2.29090142 62 13 1834 10.18400000 3219004196 3219004196 13.00000000
3.51853156 10.60799503 -0.19508299 8 14 1835 11.17800000 3219004198 3219004198 -1.00000000
2.77029276 8.35213470 2.35784149 42 15 1835 9.11000000 3219004200 3219004200 15.00000000
0.71701676 2.15166974 -0.60770714 4 0 1843 2.34800000 3219004221 3219004221 -15.00000000
3.53392529 10.59866142 0.19501320 13 1 1844 11.17400000 3219004223 3219004223 1.00000000
0.85355622 2.55842829 -0.62266451 3 2 1845 2.76800000 3219004226 3219004226 -13.00000000
3.54663730 10.63060284 0.58731413 13 3 1845 11.22200000 3219004228 3219004228 3.00000000
1.02137065 3.05965209 -0.62699836 2 4 1846 3.28600000 3219004230 3219004230 -11.00000000
3.54926586 10.62612438 0.98015350 12 5 1847 11.24600000 3219004233 3219004233 5.00000000
1.29110539 3.86318827 -0.64513576 2 6 1848 4.12400000 3219004235 3219004235 -9.00000000
3.55633044 10.63492012 1.37687981 12 7 1849 11.29800000 3219004237 3219004237 7.00000000
3.55314755 10.61923885 -1.37492990 2 8 1850 11.28200000 3219004239 3219004239 -7.00000000
3.55832219 10.63470364 1.77615690 12 9 1850 11.35400000 3219004242 3219004242 9.00000000
2.59271669 7.74432135 -0.71450275 4 10 1851 8.19800000 3219004244 3219004244 -5.00000000
3.32503319 9.92596054 2.03478718 40 11 1852 10.66400000 3219004246 3219004246 11.00000000
3.55132127 10.59534073 -0.58563936 12 12 1853 11.19000000 3219004249 3219004249 -3.00000000
3.11800003 9.29714489 2.26390743 60 13 1854 10.06400000 3219004251 3219004251 13.00000000
3.56253695 10.61650276 -0.19546695 10 14 1855 11.20000000 3219004253 3219004253 -1.00000000
2.80188870 8.34974003 2.35991216 42 15 1855 9.11800000 3219004256 3219004256 15.00000000
0.72822601 2.16013765 -0.61081296 4 0 1863 2.36000000 3219004276 3219004276 -15.00000000
3.57601309 10.60141945 0.19529243 13 1 1864 11.19000000 3219004279 3219004279 1.00000000
0.85874254 2.54435468 -0.61996508 3 2 1865 2.75600000 3219004281 3219004281 -13.00000000
3.58685470 10.62131691 0.58752346 13 3 1866 11.22600000 3219004283 3219004283 3.00000000
1.03706980 3.07094860 -0.63005131 2 4 1866 3.30200000 3219004286 3219004286 -11.00000000
3.58761191 10.61744595 0.98050213 12 5 1867 11.25000000 3219004288 3219004288 5.00000000
1.30901134 3.87175703 -0.64732581 2 6 1868 4.13800000 3219004290 3219004290 -9.00000000
3.59215951 10.61868000 1.37639236 14 7 1869 11.29400000 3219004292 3219004292 7.00000000
3.58764815 10.59924984 -1.37395501 2 8 1870 11.27400000 3219004295 3219004295 -7.00000000
