# .PCD v0.7 - Point Cloud Data file format
VERSION 0.7
FIELDS x y z intensity laser_id azimuth distance_m adjustedtime timestamp vertical_angle
SIZE 4 4 4 1 1 2 8 8 4 8
TYPE F F F U U U F U U F
COUNT 1 1 1 1 1 1 1 1 1 1
WIDTH 529
HEIGHT 1
VIEWPOINT 0 0 0 1 0 0 0
POINTS 529
DATA ascii
-2.94338059 1.66935599 -0.53594446 1 6 29956 3.42600000 3218982282 3218982282 -9.00000000
-4.67029285 2.64986205 0.65931314 9 7 29957 5.41000000 3218982284 3218982284 7.00000000
-3.69097877 2.09506392 -0.52111334 6 8 29958 4.27600000 3218982287 3218982287 -7.00000000
-4.64995003 2.64046597 0.84693617 9 9 29959 5.41400000 3218982289 3218982289 9.00000000
-4.63628817 2.63270807 -0.46645755 13 10 29959 5.35200000 3218982291 3218982291 -5.00000000
-4.65168333 2.64252377 1.03990901 8 11 29960 5.45000000 3218982294 3218982294 11.00000000
-4.62933397 2.63089657 -0.27905533 8 12 29961 5.33200000 3218982296 3218982296 -3.00000000
-4.63331842 2.63423085 1.23048222 8 13 29962 5.47000000 3218982298 3218982298 13.00000000
-4.60277367 2.61792803 -0.09242795 6 14 29963 5.29600000 3218982301 3218982301 -1.00000000
-4.63087130 2.63497901 1.42764580 8 15 29964 5.51600000 3218982303 3218982303 15.00000000
-1.76029253 1.00405312 -0.54300237 4 0 29970 2.09800000 3218982324 3218982324 -15.00000000
-4.60258770 2.62633443 0.09249775 9 1 29971 5.30000000 3218982326 3218982326 1.00000000
-2.06134319 1.17672324 -0.54798079 3 2 29972 2.43600000 3218982328 3218982328 -13.00000000
-4.60647011 2.63068175 0.27800861 8 3 29973 5.31200000 3218982330 3218982330 3.00000000
-2.39870286 1.36986113 -0.53693652 3 4 29973 2.81400000 3218982333 3218982333 -11.00000000
-4.60170078 2.62902308 0.46366856 7 5 29974 5.32000000 3218982335 3218982335 5.00000000
-2.92239356 1.67028558 -0.53312868 1 6 29975 3.40800000 3218982337 3218982337 -9.00000000
-4.63218403 2.64858413 0.65516961 9 7 29976 5.37600000 3218982340 3218982340 7.00000000
-3.70985770 2.12207675 -0.52476937 6 8 29977 4.30600000 3218982342 3218982342 -7.00000000
-4.61076784 2.63740635 0.84130454 9 9 29977 5.37800000 3218982344 3218982344 9.00000000
-4.59294701 2.62827682 -0.46297130 13 10 29978 5.31200000 3218982347 3218982347 -5.00000000
-4.61392975 2.64135337 1.03342152 11 11 29979 5.41600000 3218982349 3218982349 11.00000000
-4.59112072 2.62935972 -0.27727589 8 12 29980 5.29800000 3218982351 3218982351 -3.00000000
-4.59750366 2.63408089 1.22328389 8 13 29981 5.43800000 3218982354 3218982354 13.00000000
-4.56804323 2.61826110 -0.09190437 6 14 29982 5.26600000 3218982356 3218982356 -1.00000000
-4.59072542 2.63126159 1.41781068 8 15 29982 5.47800000 3218982358 3218982358 15.00000000
-1.76012647 1.01211762 -0.54403764 4 0 29990 2.10200000 3218982379 3218982379 -15.00000000
-4.55352449 2.61945057 0.09169494 9 1 29991 5.25400000 3218982381 3218982381 1.00000000
-2.05384493 1.18196750 -0.54708099 3 2 29992 2.43200000 3218982383 3218982383 -13.00000000
-4.57648849 2.63478732 0.27675253 8 3 29993 5.28800000 3218982386 3218982386 3.00000000
-2.41092086 1.38802123 -0.54075271 3 4 29993 2.83400000 3218982388 3218982388 -11.00000000
-4.56141853 2.62717104 0.46053094 7 5 29994 5.28400000 3218982390 3218982390 5.00000000
-2.92339182 1.68442118 -0.53438014 3 6 29995 3.41600000 3218982393 3218982393 -9.00000000
-4.58163500 2.64094496 0.64931989 9 7 29996 5.32800000 3218982395 3218982395 7.00000000
-3.69898820 2.13303018 -0.52428192 6 8 29997 4.30200000 3218982397 3218982397 -7.00000000
-4.57711506 2.64046884 0.83692437 9 9 29998 5.35000000 3218982400 3218982400 9.00000000
-4.55613184 2.62836385 -0.46018231 9 10 29998 5.28000000 3218982402 3218982402 -5.00000000
-4.55707073 2.62996554 1.02273619 11 11 29999 5.36000000 3218982404 3218982404 11.00000000
-4.55078030 2.62739420 -0.27539179 10 12 30000 5.26200000 3218982406 3218982406 -3.00000000
-4.56128120 2.63451838 1.21608543 8 13 30001 5.40600000 3218982409 3218982409 13.00000000
-4.54502439 2.62618685 -0.09162513 6 14 30002 5.25000000 3218982411 3218982411 -1.00000000
-4.56098032 2.63646817 1.41159904 8 15 30003 5.45400000 3218982413 3218982413 15.00000000
-1.76661086 1.02406847 -0.54714346 4 0 30010 2.11400000 3218982434 3218982434 -15.00000000
-4.52359486 2.62329125 0.09127609 7 1 30011 5.23000000 3218982436 3218982436 1.00000000
-2.04633546 1.18717372 -0.54618114 3 2 30012 2.42800000 3218982439 3218982439 -13.00000000
-4.53098822 2.62969255 0.27455443 8 3 30013 5.24600000 3218982441 3218982441 3.00000000
-2.41624904 1.40234137 -0.54304242 3 4 30013 2.84600000 3218982443 3218982443 -11.00000000
-4.53498983 2.63307333 0.45878783 10 5 30014 5.26400000 3218982446 3218982446 5.00000000
-2.91236973 1.69163895 -0.53344154 3 6 30015 3.41000000 3218982448 3218982448 -9.00000000
-4.53119564 2.63298559 0.64347011 9 7 30016 5.28000000 3218982450 3218982450 7.00000000
-3.70181727 2.15191507 -0.52574432 6 8 30017 4.31400000 3218982453 3218982453 -7.00000000
-4.54613256 2.64272666 0.83285707 9 9 30017 5.32400000 3218982455 3218982455 9.00000000
-4.51592731 2.62622261 -0.45704472 9 10 30018 5.24400000 3218982457 3218982457 -5.00000000
-4.52749872 2.63400960 1.01815677 11 11 30019 5.33600000 3218982459 3218982459 11.00000000
-4.50705767 2.62317038 -0.27329835 10 12 30020 5.22200000 3218982462 3218982462 -3.00000000
-4.51669168 2.62983274 1.20663750 8 13 30021 5.36400000 3218982464 3218982464 13.00000000
-4.50818253 2.62593222 -0.09106666 6 14 30022 5.21800000 3218982466 3218982466 -1.00000000
-4.52049541 2.63310385 1.40176392 8 15 30022 5.41600000 3218982469 3218982469 15.00000000
-1.76636136 1.03217816 -0.54817873 4 0 30030 2.11800000 3218982489 3218982489 -15.00000000
-4.49369431 2.62695503 0.09085723 7 1 30031 5.20600000 3218982492 3218982492 1.00000000
-2.03208590 1.18840683 -0.54348177 3 2 30032 2.41600000 3218982494 3218982494 -13.00000000
-4.48902702 2.62632966 0.27256566 8 3 30033 5.20800000 3218982496 3218982496 3.00000000
-2.39778280 1.40283585 -0.53998947 3 4 30033 2.83000000 3218982499 3218982499 -11.00000000
-4.49653959 2.63177824 0.45582452 10 5 30034 5.23000000 3218982501 3218982501 5.00000000
-2.91326571 1.70578718 -0.53469300 3 6 30035 3.41800000 3218982503 3218982503 -9.00000000
-4.49114561 2.63072634 0.63908285 9 7 30036 5.24400000 3218982506 3218982506 7.00000000
-3.68400693 2.15880179 -0.52428192 6 8 30037 4.30200000 3218982508 3218982508 -7.00000000
-4.49040413 2.63239789 0.82440960 9 9 30038 5.27000000 3218982510 3218982510 9.00000000
-4.49126339 2.63290167 -0.45547593 9 10 30038 5.22600000 3218982512 3218982512 -5.00000000
-4.48779392 2.63192010 1.01128769 10 11 30039 5.30000000 3218982515 3218982515 11.00000000
-4.47547913 2.62574792 -0.27193764 7 12 30040 5.19600000 3218982517 3218982517 -3.00000000
-4.46378756 2.61993599 1.19493997 8 13 30041 5.31200000 3218982519 3218982519 13.00000000
-4.47312307 2.62646484 -0.09054308 6 14 30042 5.18800000 3218982522 3218982522 -1.00000000
-4.49082518 2.63791323 1.39555228 8 15 30043 5.39200000 3218982524 3218982524 15.00000000
-1.75941849 1.03637671 -0.54714346 4 0 30050 2.11400000 3218982545 3218982545 -15.00000000
-4.45693207 2.62638140 0.09029875 7 1 30051 5.17400000 3218982547 3218982547 1.00000000
-2.03464007 1.19945145 -0.54528135 4 2 30052 2.42400000 3218982549 3218982549 -13.00000000
-4.45574713 2.62777901 0.27110025 6 3 30053 5.18000000 3218982552 3218982552 3.00000000
-2.38948941 1.40920258 -0.53922623 3 4 30053 2.82600000 3218982554 3218982554 -11.00000000
-4.44957352 2.62518501 0.45198968 10 5 30054 5.18600000 3218982556 3218982556 5.00000000
-2.92090297 1.72397852 -0.53719598 3 6 30055 3.43400000 3218982559 3218982559 -9.00000000
-4.46142292 2.63427591 0.63615799 6 7 30056 5.22000000 3218982561 3218982561 7.00000000
-3.69354057 2.18174434 -0.52671933 6 8 30057 4.32200000 3218982563 3218982563 -7.00000000
-4.44593287 2.62617636 0.81783938 9 9 30057 5.22800000 3218982565 3218982565 9.00000000
-4.44602442 2.62727714 -0.45181537 9 10 30058 5.18400000 3218982568 3218982568 -5.00000000
-4.45322895 2.63258338 1.00556338 10 11 30059 5.27000000 3218982570 3218982570 11.00000000
-4.44221830 2.62712073 -0.27047223 7 12 30060 5.16800000 3218982572 3218982572 -3.00000000
-4.43616581 2.62458634 1.18999112 7 13 30061 5.29000000 3218982575 3218982575 13.00000000
-4.41918516 2.61558127 -0.08963556 8 14 30062 5.13600000 3218982577 3218982577 -1.00000000
-4.44381571 2.63015962 1.38364661 8 15 30062 5.34600000 3218982579 3218982579 15.00000000
-1.74914575 1.03856671 -0.54507291 4 0 30070 2.10600000 3218982600 3218982600 -15.00000000
-4.40991306 2.61945605 0.08953085 9 1 30071 5.13000000 3218982602 3218982602 1.00000000
-2.04384303 1.21451044 -0.54888058 4 2 30072 2.44000000 3218982605 3218982605 -13.00000000
-4.41564465 2.62494588 0.26921615 6 3 30073 5.14400000 3218982607 3218982607 3.00000000
-2.38455582 1.41753483 -0.53922623 3 4 30073 2.82600000 3218982609 3218982609 -11.00000000
-4.40613365 2.62033296 0.44850346 7 5 30074 5.14600000 3218982612 3218982612 5.00000000
-2.89958858 1.72507393 -0.53438014 1 6 30075 3.41600000 3218982614 3218982614 -9.00000000
-4.42831898 2.63561940 0.63274562 9 7 30076 5.19200000 3218982616 3218982616 7.00000000
-3.68931365 2.19665504 -0.52720678 6 8 30077 4.32600000 3218982618 3218982618 -7.00000000
-4.42609501 2.63638854 0.81596220 9 9 30078 5.21600000 3218982621 3218982621 9.00000000
-4.40259171 2.62238884 -0.44832915 9 10 30078 5.14400000 3218982623 3218982623 -5.00000000
-4.42377377 2.63605213 1.00098395 7 11 30079 5.24600000 3218982625 3218982625 11.00000000
-4.41586542 2.63238406 -0.26942551 7 12 30080 5.14800000 3218982628 3218982628 -3.00000000
-4.40187168 2.62508345 1.18324256 7 13 30081 5.26000000 3218982630 3218982630 13.00000000
-4.37739944 2.61152506 -0.08897237 8 14 30082 5.09800000 3218982632 3218982632 -1.00000000
-4.39599228 2.62365794 1.37174094 8 15 30083 5.30000000 3218982635 3218982635 15.00000000
-1.75840342 1.05321658 -0.54921401 4 0 30092 2.12200000 3218982655 3218982655 -15.00000000
-4.37580824 2.62197995 0.08904218 9 1 30093 5.10200000 3218982658 3218982658 1.00000000
-2.03582168 1.22034538 -0.54798079 3 2 30094 2.43600000 3218982660 3218982660 -13.00000000
-4.39525557 2.63571835 0.26858813 6 3 30095 5.13200000 3218982662 3218982662 3.00000000
-2.38246274 1.42869973 -0.53998947 3 4 30095 2.83000000 3218982665 3218982665 -11.00000000
-4.36870337 2.62083268 0.44571447 7 5 30096 5.11400000 3218982667 3218982667 5.00000000
-2.88447452 1.73111224 -0.53281581 1 6 30097 3.40600000 3218982669 3218982669 -9.00000000
-4.38412809 2.63216734 0.62787086 6 7 30098 5.15200000 3218982671 3218982671 7.00000000
-3.68765903 2.21489310 -0.52818173 6 8 30099 4.33400000 3218982674 3218982674 -7.00000000
-4.38761473 2.63530254 0.81064337 9 9 30099 5.18200000 3218982676 3218982676 9.00000000
-4.37882757 2.63106489 -0.44693464 9 10 30100 5.12800000 3218982678 3218982678 -5.00000000
-4.36987066 2.62672114 0.99106193 7 11 30101 5.19400000 3218982681 3218982681 11.00000000
-4.34924173 2.61535478 -0.26597133 7 12 30102 5.08200000 3218982683 3218982683 -3.00000000
-4.37506104 2.63192058 1.17874348 7 13 30103 5.24000000 3218982685 3218982685 13.00000000
-4.34335232 2.61387825 -0.08848370 8 14 30104 5.07000000 3218982688 3218982688 -1.00000000
-4.36482859 2.62680268 1.36501169 8 15 30104 5.27400000 3218982690 3218982690 15.00000000
-1.74810100 1.05535436 -0.54714346 4 0 30112 2.11400000 3218982711 3218982711 -15.00000000
-4.33752966 2.61966372 0.08844879 9 1 30113 5.06800000 3218982713 3218982713 1.00000000
-2.02154183 1.22139776 -0.54528135 3 2 30114 2.42400000 3218982715 3218982715 -13.00000000
-4.34500551 2.62624931 0.26607600 6 3 30115 5.08400000 3218982718 3218982718 3.00000000
-2.39090252 1.44513178 -0.54304242 3 4 30115 2.84600000 3218982720 3218982720 -11.00000000
-4.34759378 2.62884974 0.44449428 7 5 30116 5.10000000 3218982722 3218982722 5.00000000
-2.89193583 1.74934971 -0.53531873 1 6 30117 3.42200000 3218982724 3218982724 -9.00000000
-4.34094667 2.62689996 0.62299609 6 7 30118 5.11200000 3218982727 3218982727 7.00000000
-3.67990494 2.22775197 -0.52818173 6 8 30119 4.33400000 3218982729 3218982729 -7.00000000
-4.34290218 2.62911916 0.80407315 9 9 30119 5.14000000 3218982731 3218982731 9.00000000
-4.33553219 2.62569165 -0.44344842 9 10 30120 5.08800000 3218982734 3218982734 -5.00000000
-4.33716726 2.62771654 0.98571926 7 11 30121 5.16600000 3218982736 3218982736 11.00000000
-4.31275749 2.61395669 -0.26429659 7 12 30122 5.05000000 3218982738 3218982738 -3.00000000
-4.33751917 2.63000011 1.17109513 8 13 30123 5.20600000 3218982741 3218982741 13.00000000
-4.31197548 2.61554122 -0.08802994 6 14 30124 5.04400000 3218982743 3218982743 -1.00000000
-4.33911514 2.63200378 1.35983527 8 15 30124 5.25400000 3218982745 3218982745 15.00000000
-1.74807823 1.06284821 -0.54817873 4 0 30130 2.11800000 3218982766 3218982766 -15.00000000
-4.30535984 2.61872911 0.08796013 9 1 30131 5.04000000 3218982768 3218982768 1.00000000
-2.02102447 1.22976851 -0.54618114 3 2 30132 2.42800000 3218982771 3218982771 -13.00000000
-4.29920101 2.61703944 0.26377323 6 3 30133 5.04000000 3218982773 3218982773 3.00000000
-2.36958098 1.44242764 -0.53922623 2 4 30133 2.82600000 3218982775 3218982775 -11.00000000
-4.31208658 2.62591481 0.44170532 7 5 30134 5.06800000 3218982777 3218982777 5.00000000
-2.90160871 1.76767588 -0.53813457 1 6 30135 3.44000000 3218982780 3218982780 -9.00000000
-4.30555105 2.62399530 0.61909628 6 7 30136 5.08000000 3218982782 3218982782 7.00000000
-3.66949844 2.23723507 -0.52769428 6 8 30137 4.33000000 3218982784 3218982784 -7.00000000
-4.30043077 2.62293434 0.79781580 9 9 30138 5.10000000 3218982787 3218982787 9.00000000
-4.30004644 2.62269974 -0.44065943 12 10 30138 5.05600000 3218982789 3218982789 -5.00000000
-4.29872417 2.62292266 0.97885013 7 11 30139 5.13000000 3218982791 3218982791 11.00000000
-4.28747654 2.61708689 -0.26324987 7 12 30140 5.03000000 3218982794 3218982794 -3.00000000
-4.28266668 2.61517692 1.15849793 8 13 30141 5.15000000 3218982796 3218982796 13.00000000
-4.28325939 2.61656523 -0.08761108 8 14 30142 5.02000000 3218982798 3218982798 -1.00000000
-4.30444765 2.62950897 1.35155308 8 15 30142 5.22200000 3218982800 3218982800 15.00000000
-1.73776889 1.06490612 -0.54610819 4 0 30150 2.11000000 3218982821 3218982821 -15.00000000
-4.27573442 2.62119985 0.08754127 9 1 30151 5.01600000 3218982824 3218982824 1.00000000
-2.02336431 1.24089086 -0.54798079 3 2 30152 2.43600000 3218982826 3218982826 -13.00000000
-4.26280117 2.61531901 0.26209846 6 3 30153 5.00800000 3218982828 3218982828 3.00000000
-2.37122512 1.45479691 -0.54075271 3 4 30153 2.83400000 3218982830 3218982830 -11.00000000
-4.26553679 2.61802220 0.43787044 7 5 30154 5.02400000 3218982833 3218982833 5.00000000
-2.89710402 1.77882719 -0.53844744 1 6 30155 3.44200000 3218982835 3218982835 -9.00000000
-4.27268457 2.62446284 0.61568391 6 7 30156 5.05200000 3218982837 3218982837 7.00000000
-3.66843176 2.25418735 -0.52866924 6 8 30157 4.33800000 3218982840 3218982840 -7.00000000
-4.25927496 2.61827445 0.79187125 9 9 30158 5.06200000 3218982842 3218982842 9.00000000
-4.26370811 2.62099957 -0.43787044 9 10 30158 5.02400000 3218982844 3218982844 -5.00000000
-4.26612949 2.62351418 0.97350752 7 11 30159 5.10200000 3218982847 3218982847 11.00000000
-4.26130390 2.62157178 -0.26220313 7 12 30160 5.01000000 3218982849 3218982849 -3.00000000
-4.25193691 2.61683202 1.15264916 7 13 30161 5.12400000 3218982851 3218982851 13.00000000
-4.24174595 2.61158109 -0.08694789 6 14 30162 4.98200000 3218982853 3218982853 -1.00000000
-4.26846313 2.62905788 1.34327090 8 15 30163 5.19000000 3218982856 3218982856 15.00000000
-1.73404109 1.07096565 -0.54610819 4 0 30170 2.11000000 3218982877 3218982877 -15.00000000
-4.23423624 2.61613846 0.08687808 9 1 30171 4.97800000 3218982879 3218982879 1.00000000
-2.01902032 1.24794626 -0.54798079 3 2 30172 2.43600000 3218982881 3218982881 -13.00000000
-4.24175501 2.62283039 0.26136577 8 3 30173 4.99400000 3218982883 3218982883 3.00000000
-2.36947203 1.46513021 -0.54151595 2 4 30173 2.83800000 3218982886 3218982886 -11.00000000
-4.21909523 2.60983706 0.43403560 7 5 30174 4.98000000 3218982888 3218982888 5.00000000
-2.87743902 1.78061330 -0.53594446 1 6 30175 3.42600000 3218982890 3218982890 -9.00000000
-4.24830675 2.62995744 0.61349028 9 7 30176 5.03400000 3218982893 3218982893 7.00000000
-3.67066693 2.27324986 -0.53013164 6 8 30177 4.35000000 3218982895 3218982895 -7.00000000
-4.23331738 2.62272263 0.78874260 9 9 30178 5.04200000 3218982897 3218982897 9.00000000
-4.22743416 2.61907768 -0.43508148 9 10 30178 4.99200000 3218982900 3218982900 -5.00000000
-4.24359608 2.63011575 0.97045457 7 11 30179 5.08600000 3218982902 3218982902 11.00000000
-4.20290089 2.60590887 -0.25916764 15 12 30180 4.95200000 3218982904 3218982904 -3.00000000
-4.22124767 2.61830473 1.14680052 7 13 30181 5.09800000 3218982906 3218982906 13.00000000
-4.19012499 2.60001302 -0.08607527 14 14 30182 4.93200000 3218982909 3218982909 -1.00000000
-4.21540070 2.61569667 1.32929456 8 15 30182 5.13600000 3218982911 3218982911 15.00000000
-1.73685253 1.08109546 -0.54817873 4 0 30190 2.11800000 3218982932 3218982932 -15.00000000
-4.18264055 2.60447764 0.08600546 13 1 30191 4.92800000 3218982934 3218982934 1.00000000
-2.00803566 1.25086486 -0.54618114 4 2 30192 2.42800000 3218982936 3218982936 -13.00000000
-4.20206261 2.61860728 0.25948167 14 3 30193 4.95800000 3218982939 3218982939 3.00000000
-2.37100816 1.47754562 -0.54304242 3 4 30193 2.84600000 3218982941 3218982941 -11.00000000
-4.19305182 2.61400819 0.43229249 11 5 30194 4.96000000 3218982943 3218982943 5.00000000
-2.87288213 1.79169190 -0.53625733 1 6 30195 3.42800000 3218982946 3218982946 -9.00000000
-4.21215343 2.62795854 0.60959047 9 7 30196 5.00200000 3218982948 3218982948 7.00000000
-3.66944528 2.29025340 -0.53110659 6 8 30197 4.35800000 3218982950 3218982950 -7.00000000
-4.20570517 2.62597537 0.78530103 9 9 30198 5.02000000 3218982953 3218982953 9.00000000
-4.18784618 2.61482430 -0.43194386 9 10 30198 4.95600000 3218982955 3218982955 -5.00000000
-4.19775677 2.62203097 0.96205896 7 11 30199 5.04200000 3218982957 3218982957 11.00000000
-4.16498470 2.60257125 -0.25738823 2 12 30200 4.91800000 3218982959 3218982959 -3.00000000
-4.19555807 2.62269402 1.14230144 7 13 30201 5.07800000 3218982962 3218982962 13.00000000
-4.17932844 2.61356306 -0.08604036 2 14 30202 4.93000000 3218982964 3218982964 -1.00000000
-4.18495131 2.61707950 1.32256532 8 15 30202 5.11000000 3218982966 3218982966 15.00000000
-1.72960579 1.08540034 -0.54714346 4 0 30211 2.11400000 3218982987 3218982987 -15.00000000
-2.00013709 1.25614345 -0.54528135 3 2 30213 2.42400000 3218982992 3218982992 -13.00000000
-4.13877249 2.59926796 0.25613216 2 3 30213 4.89400000 3218982994 3218982994 3.00000000
-2.36557674 1.48622584 -0.54304242 2 4 30214 2.84600000 3218982996 3218982996 -11.00000000
-2.88134646 1.81167269 -0.53907317 1 6 30216 3.44600000 3218983001 3218983001 -9.00000000
-4.17056704 2.62329769 0.60495943 8 7 30217 4.96400000 3218983003 3218983003 7.00000000
-3.68118834 2.31637383 -0.53403145 6 8 30218 4.38200000 3218983005 3218983005 -7.00000000
-4.17979383 2.63011956 0.78217232 8 9 30218 5.00000000 3218983008 3218983008 9.00000000
-4.17317581 2.62697196 -0.43142092 12 10 30219 4.95000000 3218983010 3218983010 -5.00000000
-4.16153765 2.62066007 0.95595306 10 11 30220 5.01000000 3218983012 3218983012 11.00000000
-4.14020872 2.60823798 -0.25644618 7 12 30221 4.90000000 3218983015 3218983015 -3.00000000
-4.15953875 2.62142968 1.13510299 7 13 30222 5.04600000 3218983017 3218983017 13.00000000
-4.13588953 2.60753393 -0.08534227 8 14 30223 4.89000000 3218983019 3218983019 -1.00000000
-4.16062355 2.62312770 1.31790662 8 15 30223 5.09200000 3218983022 3218983022 15.00000000
-1.73886836 1.09969175 -0.55128455 4 0 30231 2.13000000 3218983042 3218983042 -15.00000000
-4.13516855 2.61616564 0.08541208 9 1 30232 4.89400000 3218983045 3218983045 1.00000000
-2.00232673 1.26728630 -0.54708099 3 2 30233 2.43200000 3218983047 3218983047 -13.00000000
-4.13090563 2.61548829 0.25623685 8 3 30234 4.89600000 3218983049 3218983049 3.00000000
-2.35373950 1.49027336 -0.54151595 3 4 30234 2.83800000 3218983052 3218983052 -11.00000000
-4.13047695 2.61622715 0.42776039 6 5 30235 4.90800000 3218983054 3218983054 5.00000000
-2.86499357 1.81537569 -0.53719598 1 6 30236 3.43400000 3218983056 3218983056 -9.00000000
-4.15132475 2.63146281 0.60349697 19 7 30237 4.95200000 3218983058 3218983058 7.00000000
-3.74013782 2.37173271 -0.54378098 8 8 30238 4.46200000 3218983061 3218983061 -7.00000000
-4.14010096 2.62637448 0.77654070 8 9 30239 4.96400000 3218983063 3218983063 9.00000000
-4.01424551 2.54653478 -0.41590720 11 10 30239 4.77200000 3218983065 3218983065 -5.00000000
-4.14573383 2.63096261 0.95442659 10 11 30240 5.00200000 3218983068 3218983068 11.00000000
-4.15637159 2.63873124 -0.25801626 2 12 30241 4.93000000 3218983070 3218983070 -3.00000000
-4.12404299 2.61921692 1.12790453 10 13 30242 5.01400000 3218983072 3218983072 13.00000000
-4.14364100 2.63267875 -0.08569132 2 14 30243 4.91000000 3218983075 3218983075 -1.00000000
-4.13467741 2.62799692 1.31273019 8 15 30244 5.07200000 3218983077 3218983077 15.00000000
-1.73195350 1.10337603 -0.55024928 4 0 30250 2.12600000 3218983098 3218983098 -15.00000000
-4.16356945 2.65350819 0.08617999 2 1 30251 4.93800000 3218983100 3218983100 1.00000000
-2.00468588 1.27810979 -0.54888058 3 2 30252 2.44000000 3218983102 3218983102 -13.00000000
-4.10582733 2.61771584 0.25519013 2 3 30252 4.87600000 3218983105 3218983105 3.00000000
-2.34878469 1.49807036 -0.54151595 3 4 30253 2.83800000 3218983107 3218983107 -11.00000000
-4.12849712 2.63419652 0.42845762 2 5 30254 4.91600000 3218983109 3218983109 5.00000000
-2.87893867 1.83762026 -0.54095036 1 6 30255 3.45800000 3218983111 3218983111 -9.00000000
-4.14759493 2.64841962 0.60422820 17 7 30256 4.95800000 3218983114 3218983114 7.00000000
-3.74898124 2.39480877 -0.54621840 8 8 30257 4.48200000 3218983116 3218983116 -7.00000000
-4.12304640 2.63477063 0.77497631 12 9 30258 4.95400000 3218983118 3218983118 9.00000000
-3.92687178 2.50940847 -0.40771458 22 10 30258 4.67800000 3218983121 3218983121 -5.00000000
-4.13202429 2.64152360 0.95328176 12 11 30259 4.99600000 3218983123 3218983123 11.00000000
-4.13918543 2.64711952 -0.25749290 22 12 30260 4.92000000 3218983125 3218983125 -3.00000000
-4.12518358 2.63917971 1.13060403 14 13 30261 5.02600000 3218983128 3218983128 13.00000000
-4.13320351 2.64532709 -0.08565641 20 14 30262 4.90800000 3218983130 3218983130 -1.00000000
-4.12477350 2.63993192 1.31221259 14 15 30262 5.07000000 3218983132 3218983132 15.00000000
-1.71183467 1.09897840 -0.54507291 4 0 30270 2.10600000 3218983153 3218983153 -15.00000000
-4.13409090 2.65505815 0.08576112 27 1 30271 4.91400000 3218983155 3218983155 1.00000000
-2.01004934 1.29141974 -0.55158001 3 2 30272 2.45200000 3218983157 3218983157 -13.00000000
-4.14203405 2.66118073 0.25801626 22 3 30272 4.93000000 3218983160 3218983160 3.00000000
-2.34684420 1.50838304 -0.54227918 2 4 30273 2.84200000 3218983162 3218983162 -11.00000000
-4.13771152 2.66044450 0.43037507 26 5 30274 4.93800000 3218983164 3218983164 5.00000000
-2.85921574 1.83910942 -0.53844744 1 6 30275 3.44200000 3218983167 3218983167 -9.00000000
-4.15167999 2.67147470 0.60617810 14 7 30276 4.97400000 3218983169 3218983169 7.00000000
-3.75228310 2.41540170 -0.54792458 8 8 30277 4.49600000 3218983171 3218983171 -7.00000000
-4.13375378 2.66198087 0.77873075 8 9 30278 4.97800000 3218983174 3218983174 9.00000000
-3.90468764 2.51447082 -0.40632007 35 10 30278 4.66200000 3218983176 3218983176 -5.00000000
-4.15174484 2.67561698 -0.25885364 17 12 30280 4.94600000 3218983181 3218983181 -3.00000000
-4.12898588 2.66299009 -0.08576112 16 14 30282 4.91400000 3218983185 3218983185 -1.00000000
-4.12040377 2.65745521 1.31376553 72 15 30282 5.07600000 3218983187 3218983187 15.00000000
-1.71123219 1.10704577 -0.54610819 4 0 30290 2.11000000 3218983208 3218983208 -15.00000000
-4.14326429 2.68142390 0.08614508 6 1 30291 4.93600000 3218983210 3218983210 1.00000000
-1.99898589 1.29419196 -0.54978037 3 2 30292 2.44400000 3218983213 3218983213 -13.00000000
-4.13895798 2.68068719 0.25843495 10 3 30293 4.93800000 3218983215 3218983215 3.00000000
-2.34156466 1.51656592 -0.54227918 3 4 30293 2.84200000 3218983217 3218983217 -11.00000000
-4.11669493 2.66728806 0.42915487 14 5 30294 4.92400000 3218983220 3218983220 5.00000000
-2.84946346 1.84692991 -0.53782171 1 6 30295 3.43800000 3218983222 3218983222 -9.00000000
-4.14566088 2.68811059 0.60666561 14 7 30296 4.97800000 3218983224 3218983224 7.00000000
-3.76381373 2.44144845 -0.55084944 8 8 30297 4.52000000 3218983227 3218983227 -7.00000000
-4.13650465 2.68319917 0.78092086 8 9 30297 4.99200000 3218983229 3218983229 9.00000000
-3.89588666 2.52808523 -0.40632007 41 10 30298 4.66200000 3218983231 3218983231 -5.00000000
-4.12006903 2.67458200 0.95480824 65 11 30299 5.00400000 3218983234 3218983234 11.00000000
-4.16415548 2.70423412 -0.26021439 10 12 30300 4.97200000 3218983236 3218983236 -3.00000000
-4.12136602 2.67746902 1.13465309 62 13 30301 5.04400000 3218983238 3218983238 13.00000000
-4.15822935 2.70244980 -0.08656394 8 14 30302 4.96000000 3218983240 3218983240 -1.00000000
-4.11063623 2.67253947 1.31376553 65 15 30303 5.07600000 3218983243 3218983243 15.00000000
-1.72354090 1.12356222 -0.55128455 4 0 30310 2.13000000 3218983263 3218983263 -15.00000000
-4.14727926 2.70460892 0.08642431 9 1 30311 4.95200000 3218983266 3218983266 1.00000000
-1.98792768 1.29690278 -0.54798079 3 2 30312 2.43600000 3218983268 3218983268 -13.00000000
-4.13840961 2.69985414 0.25895831 8 3 30312 4.94800000 3218983270 3218983270 3.00000000
-2.34940934 1.53331423 -0.54533213 3 4 30313 2.85800000 3218983273 3218983273 -11.00000000
-4.14739847 2.70778275 0.43333834 16 5 30314 4.97200000 3218983275 3218983275 5.00000000
-2.85292220 1.86334634 -0.53969890 1 6 30315 3.45000000 3218983277 3218983277 -9.00000000
-4.13957596 2.70473695 0.60715306 14 7 30316 4.98200000 3218983280 3218983280 7.00000000
-3.76025343 2.45782995 -0.55158067 10 8 30317 4.52600000 3218983282 3218983282 -7.00000000
-4.14152193 2.70807171 0.78373665 9 9 30318 5.01000000 3218983284 3218983284 9.00000000
-3.88370323 2.53948832 -0.40597144 55 10 30318 4.65800000 3218983287 3218983287 -5.00000000
-4.12056589 2.69539571 0.95709795 70 11 30319 5.01600000 3218983289 3218983289 11.00000000
-4.14466286 2.71219158 -0.25958633 15 12 30320 4.96000000 3218983291 3218983291 -3.00000000
-4.11199474 2.69183898 1.13465309 63 13 30321 5.04400000 3218983293 3218983293 13.00000000
-4.15546227 2.72133040 -0.08670355 14 14 30322 4.96800000 3218983296 3218983296 -1.00000000
-4.10774612 2.69110656 1.31583607 72 15 30323 5.08400000 3218983298 3218983298 15.00000000
-1.71657586 1.12715077 -0.55024928 4 0 30329 2.12600000 3218983319 3218983319 -15.00000000
-4.14998722 2.72603202 0.08666865 9 1 30330 4.96600000 3218983321 3218983321 1.00000000
-1.99013042 1.30776858 -0.54978037 3 2 30331 2.44400000 3218983323 3218983323 -13.00000000
-4.13777924 2.71904683 0.25948167 8 3 30331 4.95800000 3218983326 3218983326 3.00000000
-2.34103084 1.53893983 -0.54456890 2 4 30332 2.85400000 3218983328 3218983328 -11.00000000
-4.15171385 2.73027921 0.43473285 21 5 30333 4.98800000 3218983330 3218983330 5.00000000
-2.83517551 1.86519694 -0.53750885 1 6 30334 3.43600000 3218983333 3218983333 -9.00000000
-4.13721657 2.72281456 0.60812801 12 7 30335 4.99000000 3218983335 3218983335 7.00000000
-3.74379230 2.46482801 -0.55036193 10 8 30336 4.51600000 3218983337 3218983337 -7.00000000
-4.13464355 2.72215557 0.78404951 9 9 30336 5.01200000 3218983340 3218983340 9.00000000
-3.86527705 2.54577780 -0.40492558 57 10 30337 4.64600000 3218983342 3218983342 -5.00000000
-4.11816263 2.71336579 0.95862442 67 11 30338 5.02400000 3218983344 3218983344 11.00000000
-4.14898729 2.73471403 -0.26042372 15 12 30339 4.97600000 3218983346 3218983346 -3.00000000
-4.10304546 2.70546007 1.13465309 62 13 30340 5.04400000 3218983349 3218983349 13.00000000
-4.14975357 2.73729777 -0.08677337 14 14 30341 4.97200000 3218983351 3218983351 -1.00000000
-4.11169863 2.71322560 1.31997716 72 15 30342 5.10000000 3218983353 3218983353 15.00000000
-1.70940864 1.13100398 -0.54921401 4 0 30349 2.12200000 3218983374 3218983374 -15.00000000
-4.14878368 2.74602008 0.08684318 9 1 30350 4.97600000 3218983376 3218983376 1.00000000
-1.98230362 1.31255579 -0.54888058 3 2 30351 2.44000000 3218983379 3218983379 -13.00000000
-4.13825464 2.74008965 0.26010969 8 3 30351 4.97000000 3218983381 3218983381 3.00000000
-2.33564448 1.54710221 -0.54456890 3 4 30352 2.85400000 3218983383 3218983383 -11.00000000
-4.13385391 2.73925185 0.43386129 21 5 30353 4.97800000 3218983386 3218983386 5.00000000
-2.86157703 1.89691091 -0.54376620 3 6 30354 3.47600000 3218983388 3218983388 -9.00000000
-4.13926744 2.74491930 0.60983419 11 7 30355 5.00400000 3218983390 3218983390 7.00000000
-3.74012828 2.48117328 -0.55109316 12 8 30356 4.52200000 3218983393 3218983393 -7.00000000
-4.11688614 2.73111153 0.78248519 18 9 30356 5.00200000 3218983395 3218983395 9.00000000
-3.85636711 2.55925465 -0.40492558 57 10 30357 4.64600000 3218983397 3218983397 -5.00000000
-4.12175083 2.73641133 0.96167731 70 11 30358 5.04000000 3218983399 3218983399 11.00000000
-4.15106201 2.75691485 -0.26115641 17 12 30359 4.99000000 3218983402 3218983402 -3.00000000
-4.10656214 2.72839332 1.13825238 67 13 30360 5.06000000 3218983404 3218983404 13.00000000
-4.13517714 2.74844575 -0.08666865 16 14 30361 4.96600000 3218983406 3218983406 -1.00000000
-4.10542011 2.72970080 1.32101238 76 15 30362 5.10400000 3218983409 3218983409 15.00000000
-1.70545030 1.13696396 -0.54921401 4 0 30369 2.12200000 3218983429 3218983429 -15.00000000
-4.14083672 2.76159477 0.08687808 9 1 30370 4.97800000 3218983432 3218983432 1.00000000
-1.98419416 1.32379341 -0.55068016 3 2 30371 2.44800000 3218983434 3218983434 -13.00000000
-4.14029455 2.76227736 0.26084241 8 3 30371 4.98400000 3218983436 3218983436 3.00000000
-2.32696414 1.55306590 -0.54380566 3 4 30372 2.85000000 3218983439 3218983439 -11.00000000
-4.12923765 2.75698400 0.43438423 19 5 30373 4.98400000 3218983441 3218983441 5.00000000
-2.83686900 1.89481914 -0.54032463 3 6 30374 3.45400000 3218983443 3218983443 -9.00000000
-4.14616632 2.77037978 0.61227161 11 7 30375 5.02400000 3218983445 3218983445 7.00000000
-3.72484326 2.48980117 -0.55011821 12 8 30376 4.51400000 3218983448 3218983448 -7.00000000
-4.13196182 2.76193190 0.78717822 33 9 30376 5.03200000 3218983450 3218983450 9.00000000
-3.82753539 2.55941033 -0.40283385 52 10 30377 4.62200000 3218983452 3218983452 -5.00000000
-4.11870098 2.75514865 0.96320379 70 11 30378 5.04800000 3218983455 3218983455 11.00000000
-4.15801239 2.78249574 -0.26220313 20 12 30379 5.01000000 3218983457 3218983457 -3.00000000
-4.10349083 2.74704766 1.14005196 65 13 30380 5.06800000 3218983459 3218983459 13.00000000
-4.14715815 2.77732873 -0.08712241 14 14 30381 4.99200000 3218983462 3218983462 -1.00000000
-4.09153032 2.74007511 1.31945944 70 15 30381 5.09800000 3218983464 3218983464 15.00000000
-1.70147121 1.14291024 -0.54921401 4 0 30389 2.12200000 3218983485 3218983485 -15.00000000
-4.13615131 2.77937818 0.08698279 9 1 30390 4.98400000 3218983487 3218983487 1.00000000
-1.98603034 1.33506024 -0.55247980 3 2 30391 2.45600000 3218983489 3218983489 -13.00000000
-4.14720297 2.78785539 0.26188913 8 3 30391 5.00400000 3218983492 3218983492 3.00000000
-2.32804513 1.56556129 -0.54533213 3 4 30392 2.85800000 3218983494 3218983494 -11.00000000
-4.12785482 2.77694154 0.43525577 16 5 30393 4.99400000 3218983496 3218983496 5.00000000
-2.82368231 1.90029848 -0.53907317 3 6 30394 3.44600000 3218983498 3218983498 -9.00000000
-4.13647079 2.78483582 0.61227161 9 7 30395 5.02400000 3218983501 3218983501 7.00000000
-3.73753381 2.51720381 -0.55328679 12 8 30396 4.54000000 3218983503 3218983503 -7.00000000
-4.13048792 2.78185558 0.78874260 47 9 30396 5.04200000 3218983505 3218983505 9.00000000
-3.82353520 2.57609510 -0.40335679 52 10 30397 4.62800000 3218983508 3218983508 -5.00000000
-4.11394262 2.77280045 0.96434867 77 11 30398 5.05400000 3218983510 3218983510 11.00000000
-4.15489817 2.80145931 -0.26262182 10 12 30399 5.01800000 3218983512 3218983512 -3.00000000
-4.11003256 2.77225184 1.14455092 65 13 30400 5.08800000 3218983515 3218983515 13.00000000
-4.14738369 2.79849911 -0.08733184 16 14 30401 5.00400000 3218983517 3218983517 -1.00000000
-4.10227537 2.76910377 1.32618880 72 15 30402 5.12400000 3218983519 3218983519 15.00000000
-1.70366955 1.15347099 -0.55128455 4 0 30410 2.13000000 3218983540 3218983540 -15.00000000
-4.14745998 2.80909753 0.08743656 20 1 30411 5.01000000 3218983542 3218983542 1.00000000
-1.96176422 1.32921314 -0.54708099 3 2 30412 2.43200000 3218983545 3218983545 -13.00000000
-4.13316107 2.80151772 0.26167977 8 3 30413 5.00000000 3218983547 3218983547 3.00000000
-2.32879210 1.57848966 -0.54685861 3 4 30413 2.86600000 3218983549 3218983549 -11.00000000
-4.12919235 2.79987931 0.43647596 9 5 30414 5.00800000 3218983551 3218983551 5.00000000
-2.81669831 1.91063511 -0.53907317 3 6 30415 3.44600000 3218983554 3218983554 -9.00000000
-4.12623596 2.79997802 0.61227161 9 7 30416 5.02400000 3218983556 3218983556 7.00000000
-3.72992516 2.53200054 -0.55353057 18 8 30417 4.54200000 3218983558 3218983558 -7.00000000
-4.13333893 2.80585170 0.79124552 63 9 30417 5.05800000 3218983561 3218983561 9.00000000
-3.81406760 2.59009194 -0.40335679 46 10 30418 4.62800000 3218983563 3218983563 -5.00000000
-4.11187220 2.79337645 0.96625674 72 11 30419 5.06400000 3218983565 3218983565 11.00000000
-4.14460230 2.81666899 -0.26262182 10 12 30420 5.01800000 3218983568 3218983568 -3.00000000
-4.10629034 2.79167986 1.14635062 65 13 30421 5.09600000 3218983570 3218983570 13.00000000
-4.15032721 2.82267761 -0.08761108 14 14 30422 5.02000000 3218983572 3218983572 -1.00000000
-4.10216904 2.78992486 1.32929456 74 15 30422 5.13600000 3218983575 3218983575 15.00000000
-1.70601642 1.16376555 -0.55335510 4 0 30430 2.13800000 3218983595 3218983595 -15.00000000
-4.14753962 2.83032084 0.08764599 22 1 30431 5.02200000 3218983598 3218983598 1.00000000
-1.96355033 1.34044778 -0.54888058 3 2 30432 2.44000000 3218983600 3218983600 -13.00000000
-4.13325310 2.82268643 0.26230782 8 3 30433 5.01200000 3218983602 3218983602 3.00000000
-2.31354022 1.57996583 -0.54456890 3 4 30433 2.85400000 3218983604 3218983604 -11.00000000
-4.13255453 2.82326722 0.43787044 9 5 30434 5.02400000 3218983607 3218983607 5.00000000
-2.81816626 1.92602849 -0.54063749 1 6 30435 3.45600000 3218983609 3218983609 -9.00000000
-4.13774014 2.82892895 0.61544019 9 7 30436 5.05000000 3218983611 3218983611 7.00000000
-3.73744917 2.55621147 -0.55596793 24 8 30437 4.56200000 3218983614 3218983614 -7.00000000
-4.11813641 2.81763577 0.79030693 74 9 30438 5.05200000 3218983616 3218983616 9.00000000
-3.80500317 2.60338974 -0.40335679 46 10 30438 4.62800000 3218983618 3218983618 -5.00000000
-4.11343718 2.81547475 0.96892810 77 11 30439 5.07800000 3218983621 3218983621 11.00000000
-4.13968897 2.83450437 -0.26293585 10 12 30440 5.02400000 3218983623 3218983623 -3.00000000
-4.09008932 2.80159140 1.14455092 65 13 30441 5.08800000 3218983625 3218983625 13.00000000
-4.14044857 2.83714795 -0.08761108 14 14 30442 5.02000000 3218983628 3218983628 -1.00000000
-4.10466337 2.81367946 1.33343577 74 15 30443 5.15200000 3218983630 3218983630 15.00000000
-1.69239116 1.16314828 -0.55024928 4 0 30450 2.12600000 3218983651 3218983651 -15.00000000
-4.14422607 2.84931278 0.08778560 18 1 30451 5.03000000 3218983653 3218983653 1.00000000
-1.96528184 1.35171103 -0.55068016 4 2 30452 2.44800000 3218983655 3218983655 -13.00000000
-4.13653803 2.84615397 0.26314518 8 3 30453 5.02800000 3218983657 3218983657 3.00000000
-2.30154157 1.58358061 -0.54304242 2 4 30453 2.84600000 3218983660 3218983660 -11.00000000
-4.12759781 2.84106421 0.43839338 9 5 30454 5.03000000 3218983662 3218983662 5.00000000
-2.82769585 1.94705689 -0.54376620 1 6 30455 3.47600000 3218983664 3218983664 -9.00000000
-4.12947512 2.84448123 0.61568391 9 7 30456 5.05200000 3218983667 3218983667 7.00000000
-3.72523427 2.56698942 -0.55548048 16 8 30457 4.55800000 3218983669 3218983669 -7.00000000
-4.11039686 2.83239746 0.79061979 83 9 30457 5.05400000 3218983671 3218983671 9.00000000
-3.77948856 2.60534787 -0.40161365 49 10 30458 4.60800000 3218983674 3218983674 -5.00000000
-4.11813021 2.83984709 0.97236264 72 11 30459 5.09600000 3218983676 3218983676 11.00000000
-4.15442991 2.86594915 -0.26450592 10 12 30460 5.05400000 3218983678 3218983678 -3.00000000
-4.09632397 2.82692003 1.14905000 63 13 30461 5.10800000 3218983681 3218983681 13.00000000
-4.13710260 2.85612774 -0.08775070 14 14 30462 5.02800000 3218983683 3218983683 -1.00000000
-4.09848976 2.82947063 1.33447099 74 15 30462 5.15600000 3218983685 3218983685 15.00000000
-1.68196774 1.16464961 -0.54817873 4 0 30470 2.11800000 3218983706 3218983706 -15.00000000
-4.14576197 2.87173223 0.08802994 15 1 30471 5.04400000 3218983708 3218983708 1.00000000
-1.96695852 1.36300266 -0.55247980 3 2 30472 2.45600000 3218983710 3218983710 -13.00000000
-4.13970947 2.86967874 0.26398256 8 3 30473 5.04400000 3218983713 3218983713 3.00000000
-2.29277277 1.58936787 -0.54227918 3 4 30473 2.84200000 3218983715 3218983715 -11.00000000
-4.12584162 2.86113191 0.43926495 9 5 30474 5.04000000 3218983717 3218983717 5.00000000
-2.80789757 1.94790792 -0.54126322 1 6 30475 3.46000000 3218983720 3218983720 -9.00000000
-4.13909101 2.87245989 0.61860877 9 7 30476 5.07600000 3218983722 3218983722 7.00000000
-3.69831419 2.56752443 -0.55279934 8 8 30477 4.53600000 3218983724 3218983724 -7.00000000
-4.11621237 2.85871196 0.79374850 85 9 30478 5.07400000 3218983727 3218983727 9.00000000
-3.75400662 2.60715961 -0.39987054 49 10 30478 4.58800000 3218983729 3218983729 -5.00000000
-4.11464119 2.85868526 0.97388911 75 11 30479 5.10400000 3218983731 3218983731 11.00000000
-4.15424061 2.88727260 -0.26513395 10 12 30480 5.06600000 3218983733 3218983733 -3.00000000
-4.10723162 2.85566354 1.15489876 69 13 30481 5.13400000 3218983736 3218983736 13.00000000
-4.14024067 2.87968612 -0.08802994 10 14 30482 5.04400000 3218983738 3218983738 -1.00000000
-4.08967733 2.84557676 1.33498859 70 15 30483 5.15800000 3218983740 3218983740 15.00000000
-1.68443477 1.17464089 -0.55024928 4 0 30489 2.12600000 3218983761 3218983761 -15.00000000
-4.12965584 2.88088775 0.08789032 15 1 30490 5.03600000 3218983763 3218983763 1.00000000
-1.94964325 1.36059594 -0.54888058 4 2 30491 2.44000000 3218983766 3218983766 -13.00000000
-4.14327145 2.89253688 0.26481995 8 3 30492 5.06000000 3218983768 3218983768 3.00000000
-2.29392886 1.60145760 -0.54380566 3 4 30492 2.85000000 3218983770 3218983770 -11.00000000
-4.12776566 2.88278341 0.44048512 9 5 30493 5.05400000 3218983773 3218983773 5.00000000
-2.79656482 1.95381451 -0.54032463 1 6 30494 3.45400000 3218983775 3218983775 -9.00000000
-4.12954283 2.88616967 0.61860877 11 7 30495 5.07600000 3218983777 3218983777 7.00000000
-3.71092916 2.59456158 -0.55596793 20 8 30496 4.56200000 3218983780 3218983780 -7.00000000
-4.11692476 2.87842059 0.79562569 81 9 30496 5.08600000 3218983782 3218983782 9.00000000
-3.74860573 2.62187791 -0.40021917 42 10 30497 4.59200000 3218983784 3218983784 -5.00000000
-4.11157322 2.87681627 0.97541559 81 11 30498 5.11200000 3218983786 3218983786 11.00000000
-4.15118837 2.90561390 -0.26555264 10 12 30499 5.07400000 3218983789 3218983789 -3.00000000
-4.11050987 2.87820983 1.15849793 69 13 30500 5.15000000 3218983791 3218983791 13.00000000
-4.14540958 2.90372539 -0.08834408 8 14 30501 5.06200000 3218983793 3218983793 -1.00000000
-4.09970522 2.87171102 1.34120023 70 15 30501 5.18200000 3218983796 3218983796 15.00000000
-1.68348575 1.18273461 -0.55128455 4 0 30509 2.13000000 3218983816 3218983816 -15.00000000
-4.13920689 2.90908337 0.08830918 11 1 30510 5.06000000 3218983819 3218983819 1.00000000
-1.94807041 1.36963475 -0.54978037 3 2 30511 2.44400000 3218983821 3218983821 -13.00000000
-4.13968420 2.91157818 0.26523861 10 3 30512 5.06800000 3218983823 3218983823 3.00000000
-2.29153633 1.61171401 -0.54456890 2 4 30512 2.85400000 3218983826 3218983826 -11.00000000
-4.13886070 2.91207886 0.44275117 10 5 30513 5.08000000 3218983828 3218983828 5.00000000
-2.81234264 1.97948217 -0.54470479 3 6 30514 3.48200000 3218983830 3218983830 -9.00000000
-4.12268925 2.90285254 0.61909628 11 7 30515 5.08000000 3218983833 3218983833 7.00000000
-3.69048929 2.59949732 -0.55426174 8 8 30516 4.54800000 3218983835 3218983835 -7.00000000
-4.12895393 2.90942001 0.80000585 81 9 30517 5.11400000 3218983837 3218983837 9.00000000
-3.74105954 2.63609457 -0.40039349 28 10 30517 4.59400000 3218983839 3218983839 -5.00000000
-4.10471582 2.89341307 0.97617882 76 11 30518 5.11600000 3218983842 3218983842 11.00000000
-4.13449192 2.91548252 -0.26513395 10 12 30519 5.06600000 3218983844 3218983844 -3.00000000
-4.10521507 2.89591074 1.15984762 65 13 30520 5.15600000 3218983846 3218983846 13.00000000
-4.14178371 2.92278957 -0.08848370 8 14 30521 5.07000000 3218983849 3218983849 -1.00000000
-4.10809088 2.90008736 1.34741199 44 15 30522 5.20600000 3218983851 3218983851 15.00000000
-1.68565428 1.19306815 -0.55335510 4 0 30529 2.13800000 3218983872 3218983872 -15.00000000
-4.13881922 2.93044758 0.08851860 15 1 30530 5.07200000 3218983874 3218983874 1.00000000
-1.94009709 1.37417376 -0.54888058 3 2 30531 2.44000000 3218983876 3218983876 -13.00000000
-4.12786627 2.92485595 0.26513395 12 3 30532 5.06600000 3218983879 3218983879 3.00000000
-2.29550767 1.62651336 -0.54685861 2 4 30532 2.86600000 3218983881 3218983881 -11.00000000
-4.13517237 2.93111706 0.44344842 10 5 30533 5.08800000 3218983883 3218983883 5.00000000
-2.78769064 1.97671831 -0.54126322 3 6 30534 3.46000000 3218983886 3218983886 -9.00000000
-4.13034153 2.92985940 0.62177742 9 7 30535 5.10200000 3218983888 3218983888 7.00000000
-3.64092040 2.58364367 -0.54816830 8 8 30536 4.49800000 3218983890 3218983890 -7.00000000
-4.12089443 2.92423940 0.80031872 78 9 30536 5.11600000 3218983892 3218983892 9.00000000
-3.75458026 2.66528368 -0.40283385 22 10 30537 4.62200000 3218983895 3218983895 -5.00000000
-4.11379910 2.92136431 0.98075825 78 11 30538 5.14000000 3218983897 3218983897 11.00000000
-4.14708471 2.94609046 -0.26659936 10 12 30539 5.09400000 3218983899 3218983899 -3.00000000
-4.09825850 2.91248059 1.16074741 65 13 30540 5.16000000 3218983902 3218983902 13.00000000
-4.13644552 2.94070530 -0.08858842 8 14 30541 5.07600000 3218983904 3218983904 -1.00000000
-4.10632372 2.91929126 1.35000014 29 15 30541 5.21600000 3218983906 3218983906 15.00000000
-1.67518771 1.19445872 -0.55128455 4 0 30549 2.13000000 3218983927 3218983927 -15.00000000
-4.14810085 2.95881152 0.08893746 15 1 30550 5.09600000 3218983929 3218983929 1.00000000
-1.95115149 1.39225674 -0.55337960 3 2 30551 2.46000000 3218983932 3218983932 -13.00000000
-4.13226175 2.94969034 0.26607600 10 3 30552 5.08400000 3218983934 3218983934 3.00000000
-2.28022861 1.62767255 -0.54456890 3 4 30552 2.85400000 3218983936 3218983936 -11.00000000
-4.13140154 2.95016503 0.44414568 10 5 30553 5.09600000 3218983939 3218983939 5.00000000
-2.79363275 1.99562287 -0.54376620 1 6 30554 3.47600000 3218983941 3218983941 -9.00000000
-4.13462496 2.95464659 0.62397105 9 7 30555 5.12000000 3218983943 3218983943 7.00000000
-3.61734557 2.58594728 -0.54597467 16 8 30556 4.48000000 3218983945 3218983945 -7.00000000
-4.11657572 2.94391990 0.80157018 76 9 30557 5.12400000 3218983948 3218983948 9.00000000
-3.75335693 2.68416810 -0.40370539 38 10 30557 4.63200000 3218983950 3218983950 -5.00000000
-4.12593079 2.95169854 0.98610091 78 11 30558 5.16800000 3218983952 3218983952 11.00000000
-4.14489651 2.96636033 -0.26712272 10 12 30559 5.10400000 3218983955 3218983955 -3.00000000
-4.10391235 2.93811250 1.16524649 65 13 30560 5.18000000 3218983957 3218983957 13.00000000
-4.12615538 2.95512629 -0.08858842 8 14 30561 5.07600000 3218983959 3218983959 -1.00000000
-4.10187817 2.93882251 1.35207069 21 15 30562 5.22400000 3218983962 3218983962 15.00000000
-1.66452324 1.19608128 -0.54921401 4 0 30570 2.12200000 3218983982 3218983982 -15.00000000
-4.13073349 2.96932650 0.08879784 11 1 30571 5.08800000 3218983985 3218983985 1.00000000
-1.94603550 1.39939868 -0.55337960 3 2 30572 2.46000000 3218983987 3218983987 -13.00000000
-4.13601446 2.97531319 0.26701805 10 3 30573 5.10200000 3218983989 3218983989 3.00000000
-2.27743506 1.63831198 -0.54533213 3 4 30573 2.85800000 3218983992 3218983992 -11.00000000
-4.11732626 2.96296000 0.44379705 10 5 30574 5.09200000 3218983994 3218983994 5.00000000
-2.79591846 2.01277328 -0.54564339 1 6 30575 3.48800000 3218983996 3218983996 -9.00000000
-4.13987637 2.98138165 0.62640840 9 7 30576 5.14000000 3218983998 3218983998 7.00000000
-3.59817934 2.59222603 -0.54451221 22 8 30577 4.46800000 3218984001 3218984001 -7.00000000
-4.11909676 2.96750879 0.80407315 76 9 30577 5.14000000 3218984003 3218984003 9.00000000
-3.78066993 2.72469950 -0.40771458 11 10 30578 4.67800000 3218984005 3218984005 -5.00000000
-4.11508465 2.96680093 0.98610091 36 11 30579 5.16800000 3218984008 3218984008 11.00000000
-4.15343523 2.99555206 -0.26837879 10 12 30580 5.12800000 3218984010 3218984010 -3.00000000
-4.10259819 2.95997572 1.16794586 63 13 30581 5.19200000 3218984012 3218984012 13.00000000
-4.14124012 2.98895454 -0.08914689 8 14 30582 5.10800000 3218984015 3218984015 -1.00000000
-4.08532858 2.94860053 1.35000014 23 15 30582 5.21600000 3218984017 3218984017 15.00000000
-1.66033792 1.20188427 -0.54921401 4 0 30590 2.12200000 3218984038 3218984038 -15.00000000
-4.12844181 2.98959160 0.08897237 9 1 30591 5.09800000 3218984040 3218984040 1.00000000
-1.94113886 1.40618312 -0.55337960 3 2 30592 2.46000000 3218984042 3218984042 -13.00000000
-4.13854170 2.99910831 0.26785544 10 3 30593 5.11800000 3218984045 3218984045 3.00000000
-2.27806139 1.65085983 -0.54685861 3 4 30593 2.86600000 3218984047 3218984047 -11.00000000
-4.11986351 2.98666930 0.44519153 10 5 30594 5.10800000 3218984049 3218984049 5.00000000
-2.78567743 2.02020121 -0.54501766 1 6 30595 3.48400000 3218984051 3218984051 -9.00000000
-4.12944412 2.99581432 0.62640840 9 7 30596 5.14000000 3218984054 3218984054 7.00000000
-3.56340361 2.58611465 -0.54061240 10 8 30597 4.43600000 3218984056 3218984056 -7.00000000
-4.11830521 2.98883057 0.80595034 74 9 30597 5.15200000 3218984058 3218984058 9.00000000
-4.15002298 3.01295543 -0.44867778 12 10 30598 5.14800000 3218984061 3218984061 -5.00000000
-4.10311508 2.97999358 0.98571926 15 11 30599 5.16600000 3218984063 3218984063 11.00000000
-4.15264845 3.01707578 -0.26900682 10 12 30600 5.14000000 3218984065 3218984065 -3.00000000
-4.10800457 2.98573542 1.17244494 60 13 30601 5.21200000 3218984068 3218984068 13.00000000
-4.14210272 3.01162362 -0.08939122 8 14 30602 5.12200000 3218984070 3218984070 -1.00000000
-4.08438635 2.96965933 1.35310602 63 15 30602 5.22800000 3218984072 3218984072 15.00000000
-1.66258776 1.21193540 -0.55128455 4 0 30609 2.13000000 3218984093 3218984093 -15.00000000
-4.12496805 3.00797844 0.08911198 9 1 30610 5.10600000 3218984095 3218984095 1.00000000
-1.92072153 1.40112782 -0.54888058 3 2 30611 2.44000000 3218984098 3218984098 -13.00000000
-4.13825369 3.01987958 0.26848346 12 3 30612 5.13000000 3218984100 3218984100 3.00000000
-2.26623082 1.65377593 -0.54533213 2 4 30612 2.85800000 3218984102 3218984102 -11.00000000
-4.12441969 3.01088762 0.44676033 10 5 30613 5.12600000 3218984104 3218984104 5.00000000
-2.77258182 2.02476788 -0.54376620 1 6 30614 3.47600000 3218984107 3218984107 -9.00000000
-4.12269258 3.01183367 0.62689590 9 7 30615 5.14400000 3218984109 3218984109 7.00000000
-3.57724595 2.61431503 -0.54402477 6 8 30616 4.46400000 3218984111 3218984111 -7.00000000
-4.12219906 3.01368046 0.80876619 69 9 30617 5.17000000 3218984114 3218984114 9.00000000
-4.16091824 3.04198718 -0.45094383 12 10 30617 5.17400000 3218984116 3218984116 -5.00000000
