# .PCD v0.7 - Point Cloud Data file format
VERSION 0.7
FIELDS x y z intensity laser_id azimuth distance_m adjustedtime timestamp vertical_angle
SIZE 4 4 4 1 1 2 8 8 4 8
TYPE F F F U U U F U U F
COUNT 1 1 1 1 1 1 1 1 1 1
WIDTH 523
HEIGHT 1
VIEWPOINT 0 0 0 1 0 0 0
POINTS 523
DATA ascii
-3.12907553 -0.19138245 -0.49652299 3 6 26650 3.17400000 3219173110 3219173110 -9.00000000
-3.92521667 -0.23870127 -0.48284635 5 8 26652 3.96200000 3219173114 3219173114 -7.00000000
-5.14088392 -0.31172821 -0.45059520 3 10 26653 5.17000000 3219173119 3219173119 -5.00000000
-7.60174704 -0.45828453 -0.39911401 12 12 26655 7.62600000 3219173123 3219173123 -3.00000000
-10.23407841 -0.61160129 2.74710536 45 15 26658 10.61400000 3219173130 3219173130 15.00000000
-1.92855048 -0.11288818 -0.51763809 4 0 26665 2.00000000 3219173151 3219173151 -15.00000000
-2.23921275 -0.13028857 -0.51783735 4 2 26667 2.30200000 3219173156 3219173156 -13.00000000
-2.59890604 -0.15076220 -0.50602543 3 4 26668 2.65200000 3219173160 3219173160 -11.00000000
-3.13366866 -0.18068621 -0.49714872 3 6 26670 3.17800000 3219173165 3219173165 -9.00000000
-3.92206216 -0.22477110 -0.48235887 5 8 26672 3.95800000 3219173170 3219173170 -7.00000000
-5.13995171 -0.29366761 -0.45042089 6 10 26673 5.16800000 3219173174 3219173174 -5.00000000
-7.61327076 -0.43231285 -0.39963737 12 12 26675 7.63600000 3219173179 3219173179 -3.00000000
-10.24000835 -0.57609099 2.74814057 45 15 26678 10.61800000 3219173186 3219173186 15.00000000
-1.93857753 -0.10668638 -0.52022630 4 0 26685 2.01000000 3219173206 3219173206 -15.00000000
-2.22797871 -0.12183304 -0.51513791 4 2 26687 2.29000000 3219173211 3219173211 -13.00000000
-2.61117864 -0.14233054 -0.50831515 3 4 26688 2.66400000 3219173216 3219173216 -11.00000000
-3.13033533 -0.16953291 -0.49652299 3 6 26690 3.17400000 3219173220 3219173220 -9.00000000
-3.91885853 -0.21086586 -0.48187140 5 8 26692 3.95400000 3219173225 3219173225 -7.00000000
-5.16283035 -0.27689779 -0.45233831 3 10 26693 5.19000000 3219173229 3219173229 -5.00000000
-7.62271118 -0.40616000 -0.40005606 16 12 26695 7.64400000 3219173234 3219173234 -3.00000000
-10.25343704 -0.54274344 2.75124645 45 15 26697 10.63000000 3219173241 3219173241 15.00000000
-1.93893802 -0.09991883 -0.52022630 4 0 26705 2.01000000 3219173262 3219173262 -15.00000000
-2.23617530 -0.11445365 -0.51693749 4 2 26707 2.29800000 3219173266 3219173266 -13.00000000
-2.59597397 -0.13241488 -0.50526220 3 4 26708 2.64800000 3219173271 3219173271 -11.00000000
-3.13090801 -0.15860496 -0.49652299 3 6 26710 3.17400000 3219173275 3219173275 -9.00000000
-3.91560555 -0.19698572 -0.48138392 3 8 26712 3.95000000 3219173280 3219173280 -7.00000000
-5.14784622 -0.25807640 -0.45094383 3 10 26713 5.17400000 3219173285 3219173285 -5.00000000
-7.62208748 -0.37944999 -0.39995137 16 12 26715 7.64200000 3219173289 3219173289 -3.00000000
-10.24763966 -0.50477892 2.74917579 45 15 26718 10.62200000 3219173296 3219173296 15.00000000
-1.93927503 -0.09315006 -0.52022630 4 0 26725 2.01000000 3219173317 3219173317 -15.00000000
-2.23850775 -0.10674006 -0.51738745 4 2 26727 2.30000000 3219173322 3219173322 -13.00000000
-2.60034227 -0.12353875 -0.50602543 3 4 26728 2.65200000 3219173326 3219173326 -11.00000000
-3.12749624 -0.14748898 -0.49589726 3 6 26730 3.17000000 3219173331 3219173331 -9.00000000
-3.91626930 -0.18331651 -0.48138392 3 8 26732 3.95000000 3219173335 3219173335 -7.00000000
-5.13478422 -0.23945580 -0.44972363 3 10 26733 5.16000000 3219173340 3219173340 -5.00000000
-7.61538506 -0.35247228 -0.39953268 16 12 26735 7.63400000 3219173345 3219173345 -3.00000000
-10.24539757 -0.47061643 2.74814057 45 15 26737 10.61800000 3219173352 3219173352 15.00000000
-1.93186867 -0.08603635 -0.51815575 4 0 26745 2.00200000 3219173372 3219173372 -15.00000000
-2.25249457 -0.09952772 -0.52053672 4 2 26747 2.31400000 3219173377 3219173377 -13.00000000
-2.61252594 -0.11497904 -0.50831515 3 4 26748 2.66400000 3219173381 3219173381 -11.00000000
-3.13983297 -0.13708808 -0.49777448 3 6 26750 3.18200000 3219173386 3219173386 -9.00000000
-3.91886854 -0.16973096 -0.48162764 3 8 26752 3.95200000 3219173391 3219173391 -7.00000000
-5.14554167 -0.22195992 -0.45059520 3 10 26753 5.17000000 3219173395 3219173395 -5.00000000
-7.62854195 -0.32639974 -0.40016073 16 12 26755 7.64600000 3219173400 3219173400 -3.00000000
-10.23740292 -0.43265417 2.74555254 47 15 26758 10.60800000 3219173407 3219173407 15.00000000
-1.93794787 -0.07952999 -0.51970863 5 0 26765 2.00800000 3219173428 3219173428 -15.00000000
-2.23335695 -0.09087218 -0.51603770 4 2 26767 2.29400000 3219173432 3219173432 -13.00000000
-2.59721828 -0.10522313 -0.50526220 3 4 26768 2.64800000 3219173437 3219173437 -11.00000000
-3.13239717 -0.12581007 -0.49652299 3 6 26770 3.17400000 3219173441 3219173441 -9.00000000
-3.94125581 -0.15691923 -0.48430878 3 8 26772 3.97400000 3219173446 3219173446 -7.00000000
-5.13035822 -0.20336595 -0.44920069 3 10 26773 5.15400000 3219173451 3219173451 -5.00000000
-7.62963486 -0.29976916 -0.40016073 16 12 26775 7.64600000 3219173455 3219173455 -3.00000000
-10.23685074 -0.39862818 2.74503469 45 15 26777 10.60600000 3219173462 3219173462 15.00000000
-1.94400513 -0.07298223 -0.52126157 4 0 26785 2.01400000 3219173483 3219173483 -15.00000000
-2.22976565 -0.08293089 -0.51513791 4 2 26787 2.29000000 3219173487 3219173487 -13.00000000
-2.61718869 -0.09688277 -0.50907838 3 4 26788 2.66800000 3219173492 3219173492 -11.00000000
-3.14071345 -0.11516474 -0.49777448 3 6 26790 3.18200000 3219173497 3219173497 -9.00000000
-3.92987680 -0.14272843 -0.48284635 3 8 26792 3.96200000 3219173501 3219173501 -7.00000000
-5.15891218 -0.18646394 -0.45164105 3 10 26793 5.18200000 3219173506 3219173506 -5.00000000
-7.63462639 -0.27327782 -0.40037006 16 12 26795 7.65000000 3219173510 3219173510 -3.00000000
-10.24982738 -0.36151412 2.74814057 45 15 26798 10.61800000 3219173517 3219173517 15.00000000
-1.95390177 -0.06652462 -0.52384973 4 0 26805 2.02400000 3219173538 3219173538 -15.00000000
-2.23783231 -0.07540958 -0.51693749 4 2 26807 2.29800000 3219173543 3219173543 -13.00000000
-2.61358666 -0.08761493 -0.50831515 3 4 26808 2.66400000 3219173547 3219173547 -11.00000000
-3.14109635 -0.10420090 -0.49777448 3 6 26810 3.18200000 3219173552 3219173552 -9.00000000
-3.92043090 -0.12868412 -0.48162764 3 8 26812 3.95200000 3219173557 3219173557 -7.00000000
-5.14957523 -0.16812977 -0.45076951 3 10 26813 5.17200000 3219173561 3219173561 -5.00000000
-7.64950752 -0.24707769 -0.40110278 16 12 26815 7.66400000 3219173566 3219173566 -3.00000000
-10.24324608 -0.32727572 2.74607015 45 15 26817 10.61000000 3219173573 3219173573 15.00000000
-1.94446731 -0.05940885 -0.52126157 5 0 26825 2.01400000 3219173593 3219173593 -15.00000000
-2.24392533 -0.06777412 -0.51828724 4 2 26827 2.30400000 3219173598 3219173598 -13.00000000
-2.60210228 -0.07813771 -0.50602543 3 4 26828 2.65200000 3219173603 3219173603 -11.00000000
-3.13749194 -0.09311859 -0.49714872 3 6 26830 3.17800000 3219173607 3219173607 -9.00000000
-3.92879319 -0.11523126 -0.48260260 3 8 26832 3.96000000 3219173612 3219173612 -7.00000000
-5.16008806 -0.15044369 -0.45164105 3 10 26833 5.18200000 3219173616 3219173616 -5.00000000
-7.65830898 -0.22060445 -0.40152144 24 12 26835 7.67200000 3219173621 3219173621 -3.00000000
-10.23665237 -0.28951168 2.74399948 45 15 26838 10.60200000 3219173628 3219173628 15.00000000
-1.94080055 -0.05251652 -0.52022630 5 0 26845 2.01000000 3219173649 3219173649 -15.00000000
-2.24804425 -0.06004501 -0.51918703 4 2 26847 2.30800000 3219173653 3219173653 -13.00000000
-2.61020947 -0.06926251 -0.50755191 3 4 26848 2.66000000 3219173658 3219173658 -11.00000000
-3.13779783 -0.08216613 -0.49714872 3 6 26850 3.17800000 3219173663 3219173663 -9.00000000
-3.90734291 -0.10095253 -0.47992146 3 8 26852 3.93800000 3219173667 3219173667 -7.00000000
-5.15460682 -0.13227737 -0.45111811 3 10 26853 5.17600000 3219173672 3219173672 -5.00000000
-7.65903234 -0.19387062 -0.40152144 20 12 26855 7.67200000 3219173676 3219173676 -3.00000000
-10.22210598 -0.25517845 2.73985839 47 15 26857 10.58600000 3219173683 3219173683 15.00000000
-1.94483459 -0.04583257 -0.52126157 5 0 26865 2.01400000 3219173704 3219173704 -15.00000000
-2.24629211 -0.05215227 -0.51873714 4 2 26867 2.30600000 3219173709 3219173709 -13.00000000
-2.61043549 -0.06015076 -0.50755191 3 4 26868 2.66000000 3219173713 3219173713 -11.00000000
-3.13806558 -0.07121267 -0.49714872 3 6 26870 3.17800000 3219173718 3219173718 -9.00000000
-3.93545580 -0.08793356 -0.48333383 3 8 26872 3.96600000 3219173722 3219173722 -7.00000000
-5.16101265 -0.11441611 -0.45164105 6 10 26873 5.18200000 3219173727 3219173727 -5.00000000
-7.64768171 -0.16687301 -0.40089342 24 12 26875 7.66000000 3219173732 3219173732 -3.00000000
-10.21138477 -0.21746404 2.73675251 47 15 26878 10.57400000 3219173739 3219173739 15.00000000
-1.94111979 -0.03896600 -0.52022630 4 0 26885 2.01000000 3219173759 3219173759 -15.00000000
-2.23087358 -0.04400349 -0.51513791 4 2 26887 2.29000000 3219173764 3219173764 -13.00000000
-2.61062956 -0.05103827 -0.50755191 3 4 26888 2.66000000 3219173769 3219173769 -11.00000000
-3.14619517 -0.06041003 -0.49840021 3 6 26890 3.18600000 3219173773 3219173773 -9.00000000
-3.92779970 -0.07404605 -0.48235887 3 8 26892 3.95800000 3219173778 3219173778 -7.00000000
-5.16337299 -0.09643732 -0.45181537 6 10 26893 5.18400000 3219173782 3219173782 -5.00000000
-7.64023018 -0.14003021 -0.40047473 20 12 26895 7.65200000 3219173787 3219173787 -3.00000000
-10.22170734 -0.18377431 2.73934078 47 15 26897 10.58400000 3219173794 3219173794 15.00000000
-1.95862830 -0.03247826 -0.52488500 5 0 26905 2.02800000 3219173815 3219173815 -15.00000000
-2.23491049 -0.03627928 -0.51603770 4 2 26907 2.29400000 3219173819 3219173819 -13.00000000
-2.60293961 -0.04179907 -0.50602543 3 4 26908 2.65200000 3219173824 3219173824 -11.00000000
-3.14243650 -0.04936534 -0.49777448 3 6 26910 3.18200000 3219173828 3219173828 -9.00000000
-3.93200397 -0.06039600 -0.48284635 3 8 26912 3.96200000 3219173833 3219173833 -7.00000000
-5.18359947 -0.07871571 -0.45355847 6 10 26913 5.20400000 3219173838 3219173838 -5.00000000
-7.63867521 -0.11333034 -0.40037006 16 12 26915 7.65000000 3219173842 3219173842 -3.00000000
-10.20103836 -0.14778495 2.73364687 45 15 26917 10.56200000 3219173849 3219173849 15.00000000
-1.94907129 -0.02551474 -0.52229685 4 0 26925 2.01800000 3219173870 3219173870 -15.00000000
-2.23502350 -0.02847776 -0.51603770 4 2 26927 2.29400000 3219173875 3219173875 -13.00000000
-2.60699606 -0.03276220 -0.50678867 3 4 26928 2.65600000 3219173879 3219173879 -11.00000000
-3.15839148 -0.03858895 -0.50027740 3 6 26930 3.19800000 3219173884 3219173884 -9.00000000
-3.93417597 -0.04669393 -0.48309007 3 8 26932 3.96400000 3219173888 3219173888 -7.00000000
-5.16790485 -0.06043471 -0.45216399 6 10 26933 5.18800000 3219173893 3219173893 -5.00000000
-7.63902426 -0.08666570 -0.40037006 16 12 26935 7.65000000 3219173898 3219173898 -3.00000000
-10.18990135 -0.11204834 2.73054099 45 15 26937 10.55000000 3219173904 3219173904 15.00000000
-1.93948972 -0.01861834 -0.51970863 5 0 26945 2.00800000 3219173925 3219173925 -15.00000000
-2.25069857 -0.02082011 -0.51963693 4 2 26947 2.31000000 3219173930 3219173930 -13.00000000
-2.61494708 -0.02373316 -0.50831515 3 4 26948 2.66400000 3219173934 3219173934 -11.00000000
-3.14270473 -0.02742597 -0.49777448 3 6 26950 3.18200000 3219173939 3219173939 -9.00000000
-3.95019507 -0.03309385 -0.48503998 3 8 26952 3.98000000 3219173944 3219173944 -7.00000000
-5.17206907 -0.04242768 -0.45251262 6 10 26953 5.19200000 3219173948 3219173948 -5.00000000
-7.65126371 -0.06009412 -0.40099809 16 12 26955 7.66200000 3219173953 3219173953 -3.00000000
-10.18638039 -0.07467140 2.72950554 47 15 26958 10.54600000 3219173960 3219173960 15.00000000
-1.94727015 -0.01189534 -0.52177918 5 0 26965 2.01600000 3219173981 3219173981 -15.00000000
-2.23516774 -0.01287378 -0.51603770 4 2 26967 2.29400000 3219173985 3219173985 -13.00000000
-2.62679338 -0.01467093 -0.51060486 3 4 26968 2.67600000 3219173990 3219173990 -11.00000000
-3.15463328 -0.01651777 -0.49965167 3 6 26970 3.19400000 3219173994 3219173994 -9.00000000
-3.94631648 -0.01928549 -0.48455250 3 8 26972 3.97600000 3219173999 3219173999 -7.00000000
-5.15624666 -0.02429842 -0.45111811 6 10 26973 5.17600000 3219174004 3219174004 -5.00000000
-7.65342379 -0.03339458 -0.40110278 20 12 26975 7.66400000 3219174008 3219174008 -3.00000000
-10.18270779 -0.04087623 2.72847033 47 15 26977 10.54200000 3219174015 3219174015 15.00000000
-1.95502722 -0.00511826 -0.52384973 4 0 26985 2.02400000 3219174036 3219174036 -15.00000000
-2.22350669 -0.00504499 -0.51333833 4 2 26987 2.28200000 3219174040 3219174040 -13.00000000
-2.61504912 -0.00547695 -0.50831515 3 4 26988 2.66400000 3219174045 3219174045 -11.00000000
-3.14281940 -0.00548526 -0.49777448 3 6 26990 3.18200000 3219174050 3219174050 -9.00000000
-3.94635963 -0.00551016 -0.48455250 3 8 26992 3.97600000 3219174054 3219174054 -7.00000000
-5.18419313 -0.00633369 -0.45355847 6 10 26993 5.20400000 3219174059 3219174059 -5.00000000
-7.63751554 -0.00666499 -0.40026540 20 12 26995 7.64800000 3219174063 3219174063 -3.00000000
-10.18278885 -0.00533170 2.72847033 47 15 26997 10.54200000 3219174070 3219174070 15.00000000
-1.95696521 0.00136622 -0.52436739 4 0 27004 2.02600000 3219174091 3219174091 -15.00000000
-2.23715234 0.00234274 -0.51648760 4 2 27006 2.29600000 3219174096 3219174096 -13.00000000
-2.60719991 0.00318530 -0.50678867 3 4 27007 2.65600000 3219174100 3219174100 -11.00000000
-3.14677119 0.00494294 -0.49840021 3 6 27009 3.18600000 3219174105 3219174105 -9.00000000
-3.95032644 0.00758409 -0.48503998 3 8 27011 3.98000000 3219174109 3219174109 -7.00000000
-5.18418598 0.01085775 -0.45355847 6 10 27012 5.20400000 3219174114 3219174114 -5.00000000
-7.64348745 0.01867660 -0.40057942 16 12 27014 7.65400000 3219174119 3219174119 -3.00000000
-10.18275070 0.02843568 2.72847033 45 15 27016 10.54200000 3219174126 3219174126 15.00000000
-1.94535756 0.00814874 -0.52126157 5 0 27024 2.01400000 3219174146 3219174146 -15.00000000
-2.24882293 0.01020490 -0.51918703 4 2 27026 2.30800000 3219174151 3219174151 -13.00000000
-2.61109924 0.01230461 -0.50755191 3 4 27027 2.66000000 3219174156 3219174156 -11.00000000
-3.15858674 0.01598718 -0.50027740 3 6 27029 3.19800000 3219174160 3219174160 -9.00000000
-3.93836546 0.02130882 -0.48357755 3 8 27031 3.96800000 3219174165 3219174165 -7.00000000
-5.18411636 0.02895387 -0.45355847 6 10 27032 5.20400000 3219174169 3219174169 -5.00000000
-7.64337587 0.04535724 -0.40057942 16 12 27034 7.65400000 3219174174 3219174174 -3.00000000
-10.16712284 0.06565733 2.72432923 42 15 27037 10.52600000 3219174181 3219174181 15.00000000
-1.93952191 0.01489475 -0.51970863 4 0 27044 2.00800000 3219174202 3219174202 -15.00000000
-2.24682498 0.01803906 -0.51873714 4 2 27046 2.30600000 3219174206 3219174206 -13.00000000
-2.61889315 0.02148339 -0.50907838 3 4 27047 2.66800000 3219174211 3219174211 -11.00000000
-3.14666009 0.02691125 -0.49840021 3 6 27049 3.18600000 3219174215 3219174215 -9.00000000
-3.94422221 0.03510915 -0.48430878 5 8 27051 3.97400000 3219174220 3219174220 -7.00000000
-5.17601442 0.04697731 -0.45286125 6 10 27052 5.19600000 3219174225 3219174225 -5.00000000
-7.65115976 0.07211262 -0.40099809 16 12 27054 7.66200000 3219174229 3219174229 -3.00000000
-10.15139580 0.09922131 2.72018814 42 15 27056 10.51000000 3219174236 3219174236 15.00000000
-1.94525325 0.02172959 -0.52126157 5 0 27064 2.01400000 3219174257 3219174257 -15.00000000
-2.24674821 0.02588183 -0.51873714 4 2 27066 2.30600000 3219174261 3219174261 -13.00000000
-2.61487603 0.03057899 -0.50831515 3 4 27067 2.66400000 3219174266 3219174266 -11.00000000
-3.15049744 0.03794255 -0.49902594 3 6 27069 3.19000000 3219174271 3219174271 -9.00000000
-3.94407558 0.04887684 -0.48430878 5 8 27071 3.97400000 3219174275 3219174275 -7.00000000
-5.17581892 0.06504469 -0.45286125 6 10 27072 5.19600000 3219174280 3219174280 -5.00000000
-7.65285826 0.09884550 -0.40110278 16 12 27074 7.66400000 3219174285 3219174285 -3.00000000
-10.14905548 0.13463007 2.71967053 42 15 27076 10.50800000 3219174291 3219174291 15.00000000
-1.95096052 0.02860462 -0.52281445 5 0 27084 2.02000000 3219174312 3219174312 -15.00000000
-2.23300457 0.03351954 -0.51558781 4 2 27086 2.29200000 3219174317 3219174317 -13.00000000
-2.62653160 0.03988528 -0.51060486 3 4 27087 2.67600000 3219174321 3219174321 -11.00000000
-3.14442039 0.04884756 -0.49808735 3 6 27089 3.18400000 3219174326 3219174326 -9.00000000
-3.94785070 0.06270699 -0.48479626 5 8 27091 3.97800000 3219174331 3219174331 -7.00000000
-5.17556047 0.08311126 -0.45286125 6 10 27092 5.19600000 3219174335 3219174335 -5.00000000
-7.64048481 0.12536177 -0.40047473 12 12 27094 7.65200000 3219174340 3219174340 -3.00000000
-10.15042591 0.17186001 2.72018814 45 15 27097 10.51000000 3219174347 3219174347 15.00000000
-1.95278025 0.03544964 -0.52333212 4 0 27104 2.02200000 3219174367 3219174367 -15.00000000
-2.24066758 0.04145818 -0.51738745 4 2 27106 2.30000000 3219174372 3219174372 -13.00000000
-2.60871005 0.04872338 -0.50717032 3 4 27107 2.65800000 3219174377 3219174377 -11.00000000
-3.15015578 0.05993607 -0.49902594 3 6 27109 3.19000000 3219174381 3219174381 -9.00000000
-3.93569946 0.07625645 -0.48333383 7 8 27111 3.96600000 3219174386 3219174386 -7.00000000
-5.17523861 0.10117684 -0.45286125 9 10 27112 5.19600000 3219174391 3219174391 -5.00000000
-7.63800383 0.15199153 -0.40037006 12 12 27114 7.65000000 3219174395 3219174395 -3.00000000
-10.16135216 0.20752725 2.72329402 45 15 27117 10.52200000 3219174402 3219174402 15.00000000
-1.95264459 0.04226590 -0.52333212 5 0 27124 2.02200000 3219174423 3219174423 -15.00000000
-2.23466444 0.04915076 -0.51603770 4 2 27126 2.29400000 3219174427 3219174427 -13.00000000
-2.60656142 0.05778567 -0.50678867 3 4 27127 2.65600000 3219174432 3219174432 -11.00000000
-3.16967607 0.07137652 -0.50215465 3 6 27129 3.21000000 3219174437 3219174437 -9.00000000
-3.93937826 0.09008491 -0.48382130 5 8 27131 3.97000000 3219174441 3219174441 -7.00000000
-5.17485380 0.11924118 -0.45286125 9 10 27132 5.19600000 3219174446 3219174446 -5.00000000
-7.64541340 0.17883904 -0.40078875 12 12 27134 7.65800000 3219174450 3219174450 -3.00000000
-10.14511585 0.24262622 2.71915293 42 15 27137 10.50600000 3219174457 3219174457 15.00000000
-1.93896651 0.04874181 -0.51970863 4 0 27144 2.00800000 3219174478 3219174478 -15.00000000
-2.24227166 0.05714950 -0.51783735 4 2 27146 2.30200000 3219174483 3219174483 -13.00000000
-2.61811948 0.06718610 -0.50907838 3 4 27147 2.66800000 3219174487 3219174487 -11.00000000
-3.15360999 0.08202939 -0.49965167 3 6 27149 3.19400000 3219174492 3219174492 -9.00000000
-3.95094633 0.10414921 -0.48528373 7 8 27151 3.98200000 3219174497 3219174497 -7.00000000
-5.17042303 0.13719836 -0.45251262 9 10 27152 5.19200000 3219174501 3219174501 -5.00000000
-7.64474297 0.20552543 -0.40078875 12 12 27154 7.65800000 3219174506 3219174506 -3.00000000
-10.13648224 0.27782607 2.71708226 45 15 27157 10.49800000 3219174513 3219174513 15.00000000
-1.94843006 0.05612627 -0.52229685 4 0 27165 2.01800000 3219174533 3219174533 -15.00000000
-2.23620343 0.06519708 -0.51648760 4 2 27167 2.29600000 3219174538 3219174538 -13.00000000
-2.61785555 0.07678154 -0.50907838 3 4 27168 2.66800000 3219174543 3219174543 -11.00000000
-3.15723705 0.09370461 -0.50027740 3 6 27170 3.19800000 3219174547 3219174547 -9.00000000
-3.95053792 0.11862946 -0.48528373 7 8 27172 3.98200000 3219174552 3219174552 -7.00000000
-5.17785120 0.15638858 -0.45320988 9 10 27173 5.20000000 3219174556 3219174556 -5.00000000
-7.65192366 0.23378740 -0.40120745 12 12 27175 7.66600000 3219174561 3219174561 -3.00000000
-10.13931274 0.31332666 2.71811771 47 15 27177 10.50200000 3219174568 3219174568 15.00000000
-1.95015311 0.06298959 -0.52281445 4 0 27185 2.02000000 3219174589 3219174589 -15.00000000
-2.24375296 0.07325686 -0.51828724 4 2 27187 2.30400000 3219174593 3219174593 -13.00000000
-2.62149596 0.08604791 -0.50984162 3 4 27188 2.67200000 3219174598 3219174598 -11.00000000
-3.15294218 0.10459387 -0.49965167 3 6 27190 3.19400000 3219174602 3219174602 -9.00000000
-3.94613194 0.13228567 -0.48479626 7 8 27192 3.97800000 3219174607 3219174607 -7.00000000
-5.18523884 0.17473011 -0.45390710 9 10 27193 5.20800000 3219174612 3219174612 -5.00000000
-7.64507246 0.26029229 -0.40089342 12 12 27195 7.66000000 3219174616 3219174616 -3.00000000
-10.14968109 0.35088748 2.72122335 45 15 27198 10.51400000 3219174623 3219174623 15.00000000
-1.95572543 0.06966249 -0.52436739 5 0 27204 2.02600000 3219174644 3219174644 -15.00000000
-2.23181295 0.08027671 -0.51558781 4 2 27206 2.29200000 3219174649 3219174649 -13.00000000
-2.61727238 0.09459880 -0.50907838 3 4 27207 2.66800000 3219174653 3219174653 -11.00000000
-3.16047430 0.11533698 -0.50090313 3 6 27209 3.20200000 3219174658 3219174658 -9.00000000
-3.93773651 0.14507844 -0.48382130 7 8 27211 3.97000000 3219174662 3219174662 -7.00000000
-5.18463087 0.19192402 -0.45390710 6 10 27212 5.20800000 3219174667 3219174667 -5.00000000
-7.64815903 0.28579199 -0.40110278 12 12 27214 7.66400000 3219174672 3219174672 -3.00000000
-10.15238953 0.38291746 2.72225881 47 15 27216 10.51800000 3219174679 3219174679 15.00000000
-1.95160961 0.07633781 -0.52333212 4 0 27224 2.02200000 3219174699 3219174699 -15.00000000
-2.23346639 0.08814355 -0.51603770 4 2 27226 2.29400000 3219174704 3219174704 -13.00000000
-2.60907936 0.10342316 -0.50755191 3 4 27227 2.66000000 3219174708 3219174708 -11.00000000
-3.16794753 0.12668411 -0.50215465 3 6 27229 3.21000000 3219174713 3219174713 -9.00000000
-3.94117308 0.15898284 -0.48430878 7 8 27231 3.97400000 3219174718 3219174718 -7.00000000
-5.18791103 0.21018189 -0.45425573 6 10 27232 5.21200000 3219174722 3219174722 -5.00000000
-7.65110588 0.31265041 -0.40131211 16 12 27234 7.66800000 3219174727 3219174727 -3.00000000
-10.13740635 0.41956607 2.71863532 47 15 27237 10.50400000 3219174734 3219174734 15.00000000
-1.94169521 0.08239961 -0.52074391 5 0 27243 2.01200000 3219174755 3219174755 -15.00000000
-2.25068426 0.09629924 -0.52008682 4 2 27245 2.31200000 3219174759 3219174759 -13.00000000
-2.61264491 0.11224315 -0.50831515 3 4 27246 2.66400000 3219174764 3219174764 -11.00000000
-3.16356301 0.13701776 -0.50152892 3 6 27248 3.20600000 3219174768 3219174768 -9.00000000
-3.95648980 0.17274408 -0.48625869 7 8 27250 3.99000000 3219174773 3219174773 -7.00000000
-5.18718529 0.22738448 -0.45425573 6 10 27251 5.21200000 3219174778 3219174778 -5.00000000
-7.65800858 0.33837333 -0.40173081 20 12 27253 7.67600000 3219174782 3219174782 -3.00000000
-10.13024807 0.45115370 2.71708226 47 15 27255 10.49800000 3219174789 3219174789 15.00000000
-1.94911492 0.08953147 -0.52281445 4 0 27263 2.02000000 3219174810 3219174810 -15.00000000
-2.24644113 0.10397481 -0.51918703 4 2 27265 2.30800000 3219174814 3219174814 -13.00000000
-2.63184857 0.12227342 -0.51213133 3 4 27266 2.68400000 3219174819 3219174819 -11.00000000
-3.15122604 0.14750564 -0.49965167 3 6 27268 3.19400000 3219174824 3219174824 -9.00000000
-3.95982862 0.18674077 -0.48674616 5 8 27270 3.99400000 3219174828 3219174828 -7.00000000
-5.18237972 0.24530134 -0.45390710 6 10 27271 5.20800000 3219174833 3219174833 -5.00000000
-7.66276550 0.36538810 -0.40204480 28 12 27273 7.68200000 3219174837 3219174837 -3.00000000
-10.12852669 0.48827988 2.71708226 45 15 27276 10.49800000 3219174844 3219174844 15.00000000
-1.94493163 0.09614385 -0.52177918 4 0 27283 2.01600000 3219174865 3219174865 -15.00000000
-2.23049402 0.11104056 -0.51558781 4 2 27285 2.29200000 3219174870 3219174870 -13.00000000
-2.63532734 0.13165545 -0.51289457 3 4 27286 2.68800000 3219174874 3219174874 -11.00000000
-3.14674640 0.15830608 -0.49902594 3 6 27288 3.19000000 3219174879 3219174879 -9.00000000
-3.95518756 0.20036115 -0.48625869 5 8 27290 3.99000000 3219174884 3219174884 -7.00000000
-5.17751217 0.26318744 -0.45355847 6 10 27291 5.20400000 3219174888 3219174888 -5.00000000
-7.64349174 0.39121509 -0.40110278 24 12 27293 7.66400000 3219174893 3219174893 -3.00000000
-10.13263988 0.52216285 2.71863532 47 15 27295 10.50400000 3219174900 3219174900 15.00000000
-1.94844246 0.10313657 -0.52281445 4 0 27303 2.02000000 3219174920 3219174920 -15.00000000
-2.24566054 0.11965527 -0.51918703 4 2 27305 2.30800000 3219174925 3219174925 -13.00000000
-2.61916804 0.14001526 -0.50984162 3 4 27306 2.67200000 3219174930 3219174930 -11.00000000
-3.15406466 0.16971385 -0.50027740 3 6 27308 3.19800000 3219174934 3219174934 -9.00000000
-3.95049953 0.21395141 -0.48577121 5 8 27310 3.98600000 3219174939 3219174939 -7.00000000
-5.19247770 0.28212348 -0.45495299 6 10 27311 5.22000000 3219174943 3219174943 -5.00000000
-7.65603924 0.41865683 -0.40183547 28 12 27313 7.67800000 3219174948 3219174948 -3.00000000
-10.13644409 0.55961680 2.72018814 45 15 27316 10.51000000 3219174955 3219174955 15.00000000
-1.94614172 0.10982843 -0.52229685 4 0 27323 2.01800000 3219174976 3219174976 -15.00000000
-2.24133801 0.12727240 -0.51828724 4 2 27325 2.30400000 3219174980 3219174980 -13.00000000
-2.62258339 0.14938030 -0.51060486 3 4 27326 2.67600000 3219174985 3219174985 -11.00000000
-3.14950871 0.18049651 -0.49965167 3 6 27328 3.19400000 3219174990 3219174990 -9.00000000
-3.95765591 0.22819701 -0.48674616 5 8 27330 3.99400000 3219174994 3219174994 -7.00000000
-5.20339584 0.30093709 -0.45599884 6 10 27331 5.23200000 3219174999 3219174999 -5.00000000
-7.65453148 0.44537884 -0.40183547 28 12 27333 7.67800000 3219175003 3219175003 -3.00000000
-10.12489033 0.59266293 2.71759987 42 15 27335 10.50000000 3219175010 3219175010 15.00000000
-1.94188976 0.11638990 -0.52126157 4 0 27343 2.01400000 3219175031 3219175031 -15.00000000
-2.25255132 0.13579898 -0.52098662 4 2 27345 2.31600000 3219175036 3219175036 -13.00000000
-2.62204599 0.15853390 -0.51060486 3 4 27346 2.67600000 3219175040 3219175040 -11.00000000
-3.15280294 0.19172905 -0.50027740 3 6 27348 3.19800000 3219175045 3219175045 -9.00000000
-3.95287251 0.24176803 -0.48625869 5 8 27350 3.99000000 3219175049 3219175049 -7.00000000
-5.19833612 0.31885454 -0.45565021 6 10 27351 5.22800000 3219175054 3219175054 -5.00000000
-7.66887760 0.47307923 -0.40267286 32 12 27353 7.69400000 3219175059 3219175059 -3.00000000
-10.11686516 0.62940866 2.71604705 45 15 27356 10.49400000 3219175066 3219175066 15.00000000
-1.94339967 0.12328997 -0.52177918 4 0 27363 2.01600000 3219175086 3219175086 -15.00000000
-2.23845005 0.14279260 -0.51783735 4 2 27365 2.30200000 3219175091 3219175091 -13.00000000
-2.62147665 0.16768558 -0.51060486 3 4 27366 2.67600000 3219175096 3219175096 -11.00000000
-3.15999961 0.20324038 -0.50152892 3 6 27368 3.20600000 3219175100 3219175100 -9.00000000
-3.95002341 0.25543657 -0.48601493 3 8 27370 3.98800000 3219175105 3219175105 -7.00000000
-5.19719124 0.33699819 -0.45565021 6 10 27371 5.22800000 3219175109 3219175109 -5.00000000
-7.65522146 0.49906614 -0.40204480 28 12 27373 7.68200000 3219175114 3219175114 -3.00000000
-10.11857796 0.66320664 2.71708226 45 15 27375 10.49800000 3219175121 3219175121 15.00000000
-1.95066750 0.13058910 -0.52384973 4 0 27383 2.02400000 3219175142 3219175142 -15.00000000
-2.23599362 0.15047453 -0.51738745 4 2 27385 2.30000000 3219175146 3219175146 -13.00000000
-2.62087536 0.17683522 -0.51060486 3 4 27386 2.67600000 3219175151 3219175151 -11.00000000
-3.15532923 0.21400227 -0.50090313 3 6 27388 3.20200000 3219175155 3219175155 -9.00000000
-3.96099067 0.27003327 -0.48747736 4 8 27390 4.00000000 3219175160 3219175160 -7.00000000
-5.19598341 0.35513771 -0.45565021 6 10 27391 5.22800000 3219175165 3219175165 -5.00000000
-7.64147758 0.52496350 -0.40141678 36 12 27393 7.67000000 3219175169 3219175169 -3.00000000
-10.12005615 0.69878918 2.71811771 45 15 27395 10.50200000 3219175176 3219175176 15.00000000
-1.95405400 0.13766895 -0.52488500 4 0 27403 2.02800000 3219175197 3219175197 -15.00000000
-2.23545480 0.15827869 -0.51738745 4 2 27405 2.30000000 3219175202 3219175202 -13.00000000
-2.62415886 0.18626072 -0.51136810 3 4 27406 2.68000000 3219175206 3219175206 -11.00000000
-3.15062237 0.22473402 -0.50027740 3 6 27408 3.19800000 3219175211 3219175211 -9.00000000
-3.95210409 0.28329033 -0.48650241 3 8 27410 3.99200000 3219175215 3219175215 -7.00000000
-5.21259737 0.37455809 -0.45721903 6 10 27411 5.24600000 3219175220 3219175220 -5.00000000
-7.64358282 0.55192173 -0.40162614 32 12 27413 7.67400000 3219175225 3219175225 -3.00000000
-10.11755562 0.73411053 2.71811771 45 15 27415 10.50200000 3219175231 3219175231 15.00000000
-1.94778180 0.14406155 -0.52333212 4 0 27423 2.02200000 3219175252 3219175252 -15.00000000
-2.24460554 0.16680300 -0.51963693 4 2 27425 2.31000000 3219175257 3219175257 -13.00000000
-2.61566138 0.19483626 -0.50984162 3 4 27426 2.67200000 3219175261 3219175261 -11.00000000
-3.16163778 0.23661491 -0.50215465 3 6 27428 3.21000000 3219175266 3219175266 -9.00000000
-3.95900917 0.29767939 -0.48747736 4 8 27430 4.00000000 3219175271 3219175271 -7.00000000
-5.18940401 0.39110410 -0.45530161 6 10 27431 5.22400000 3219175275 3219175275 -5.00000000
-7.65156746 0.57935339 -0.40214950 48 12 27433 7.68400000 3219175280 3219175280 -3.00000000
-10.10901737 0.77074772 2.71656466 47 15 27436 10.49600000 3219175287 3219175287 15.00000000
-1.93763661 0.15011360 -0.52074391 4 0 27443 2.01200000 3219175308 3219175308 -15.00000000
-2.24789548 0.17493953 -0.52053672 4 2 27445 2.31400000 3219175312 3219175312 -13.00000000
-2.61105061 0.20366010 -0.50907838 3 4 27446 2.66800000 3219175317 3219175317 -11.00000000
-3.16079259 0.24764965 -0.50215465 3 6 27448 3.21000000 3219175321 3219175321 -9.00000000
-3.97179866 0.31258732 -0.48918355 6 8 27450 4.01400000 3219175326 3219175326 -7.00000000
-5.18800735 0.40921611 -0.45530161 3 10 27451 5.22400000 3219175331 3219175331 -5.00000000
-7.65746260 0.60668981 -0.40256816 20 12 27453 7.69200000 3219175335 3219175335 -3.00000000
-10.11218357 0.80472594 2.71811771 45 15 27455 10.50200000 3219175342 3219175342 15.00000000
-1.93710077 0.15687631 -0.52074391 4 0 27463 2.01200000 3219175363 3219175363 -15.00000000
-2.23950171 0.18215315 -0.51873714 4 2 27465 2.30600000 3219175367 3219175367 -13.00000000
-2.61423731 0.21309213 -0.50984162 3 4 27466 2.67200000 3219175372 3219175372 -11.00000000
-3.14415860 0.25739199 -0.49965167 3 6 27468 3.19400000 3219175377 3219175377 -9.00000000
-3.94892073 0.32466039 -0.48650241 3 8 27470 3.99200000 3219175381 3219175381 -7.00000000
-5.19448996 0.42797756 -0.45599884 6 10 27471 5.23200000 3219175386 3219175386 -5.00000000
-7.65131712 0.63308626 -0.40235883 24 12 27473 7.68800000 3219175390 3219175390 -3.00000000
-10.10546207 0.83969921 2.71708226 45 15 27475 10.49800000 3219175397 3219175397 15.00000000
-1.94231641 0.16412507 -0.52229685 4 0 27483 2.01800000 3219175418 3219175418 -15.00000000
-2.22331810 0.18865128 -0.51513791 4 2 27485 2.29000000 3219175423 3219175423 -13.00000000
-2.61739016 0.22254887 -0.51060486 3 4 27486 2.67600000 3219175427 3219175427 -11.00000000
-3.15898681 0.26970994 -0.50215465 3 6 27488 3.21000000 3219175432 3219175432 -9.00000000
-3.95963049 0.33946007 -0.48796484 4 8 27490 4.00400000 3219175436 3219175436 -7.00000000
-5.20487452 0.44713029 -0.45704472 6 10 27491 5.24400000 3219175441 3219175441 -5.00000000
-7.64707088 0.65961885 -0.40225416 32 12 27493 7.68600000 3219175446 3219175446 -3.00000000
-10.12171650 0.87663561 2.72225881 47 15 27495 10.51800000 3219175453 3219175453 15.00000000
-1.95520258 0.17208968 -0.52592027 4 0 27503 2.03200000 3219175473 3219175473 -15.00000000
-2.23429322 0.19744019 -0.51783735 4 2 27505 2.30200000 3219175478 3219175478 -13.00000000
-2.62637520 0.23254970 -0.51251298 3 4 27506 2.68600000 3219175483 3219175483 -11.00000000
-5.60647821 0.49740607 0.49242994 2 5 27507 5.65000000 3219175485 3219175485 5.00000000
-3.15802598 0.28073522 -0.50215465 3 6 27508 3.21000000 3219175487 3219175487 -9.00000000
-3.95248961 0.35275030 -0.48723364 5 8 27510 3.99800000 3219175492 3219175492 -7.00000000
-5.20923567 0.46582833 -0.45756766 6 10 27511 5.25000000 3219175496 3219175496 -5.00000000
-7.64671087 0.68648666 -0.40235883 36 12 27513 7.68800000 3219175501 3219175501 -3.00000000
-10.11266327 0.91320646 2.72070575 47 15 27516 10.51200000 3219175508 3219175508 15.00000000
-1.93919945 0.17750479 -0.52177918 4 0 27523 2.01600000 3219175529 3219175529 -15.00000000
-2.24135256 0.20595138 -0.51963693 4 2 27525 2.31000000 3219175533 3219175533 -13.00000000
-2.61577249 0.24081613 -0.51060486 3 4 27526 2.67600000 3219175538 3219175538 -11.00000000
-5.56701279 0.51349634 0.48911804 8 5 27527 5.61200000 3219175540 3219175540 5.00000000
-3.16489482 0.29248419 -0.50340611 3 6 27528 3.21800000 3219175542 3219175542 -9.00000000
-3.95914078 0.36727837 -0.48820859 6 8 27530 4.00600000 3219175547 3219175547 -7.00000000
-5.20757771 0.48400912 -0.45756766 3 10 27531 5.25000000 3219175552 3219175552 -5.00000000
-7.15360594 0.66991693 -0.12541299 2 14 27535 7.18600000 3219175561 3219175561 -1.00000000
-10.11150265 0.94691634 2.72122335 42 15 27535 10.51400000 3219175563 3219175563 15.00000000
-1.92895210 0.18335873 -0.51919103 4 0 27543 2.00600000 3219175584 3219175584 -15.00000000
-7.07291746 0.67356980 0.12401680 3 1 27544 7.10600000 3219175586 3219175586 1.00000000
-2.24837971 0.21451424 -0.52143657 4 2 27545 2.31800000 3219175588 3219175588 -13.00000000
-2.62664223 0.25106624 -0.51289457 3 4 27546 2.68800000 3219175593 3219175593 -11.00000000
-5.53940296 0.53045666 0.48685199 11 5 27547 5.58600000 3219175595 3219175595 5.00000000
-3.15205646 0.30239809 -0.50152892 3 6 27548 3.20600000 3219175598 3219175598 -9.00000000
-3.94597888 0.37995455 -0.48674616 5 8 27550 3.99400000 3219175602 3219175602 -7.00000000
-5.20387363 0.50199270 -0.45739335 6 10 27551 5.24800000 3219175607 3219175607 -5.00000000
-7.32365799 0.70905846 -0.38561133 3 12 27553 7.36800000 3219175612 3219175612 -3.00000000
-7.06563997 0.68656737 -0.12391209 4 14 27555 7.10000000 3219175616 3219175616 -1.00000000
-10.10429001 0.98183262 2.72018814 47 15 27555 10.51000000 3219175618 3219175618 15.00000000
-1.93983555 0.19122805 -0.52229685 4 0 27563 2.01800000 3219175639 3219175639 -15.00000000
-5.97203493 0.58977276 0.10474934 2 1 27564 6.00200000 3219175641 3219175641 1.00000000
-2.23598170 0.22121011 -0.51873714 4 2 27565 2.30600000 3219175644 3219175644 -13.00000000
-6.47932100 0.64215404 0.34123042 2 3 27566 6.52000000 3219175646 3219175646 3.00000000
-2.61402774 0.25907165 -0.51060486 3 4 27566 2.67600000 3219175648 3219175648 -11.00000000
-5.53553486 0.54959273 0.48667768 11 5 27567 5.58400000 3219175651 3219175651 5.00000000
-3.15491319 0.31378999 -0.50215465 3 6 27568 3.21000000 3219175653 3219175653 -9.00000000
-3.96240592 0.39550069 -0.48893979 6 8 27570 4.01200000 3219175658 3219175658 -7.00000000
-5.20803690 0.52074927 -0.45791626 6 10 27571 5.25400000 3219175662 3219175662 -5.00000000
-7.27940512 0.73043090 -0.38341323 3 12 27573 7.32600000 3219175667 3219175667 -3.00000000
-6.36483908 0.64090562 -0.11166050 6 14 27575 6.39800000 3219175671 3219175671 -1.00000000
-10.09677982 1.01847231 2.71915293 45 15 27576 10.50600000 3219175674 3219175674 15.00000000
-1.94876552 0.19897933 -0.52488500 4 0 27583 2.02800000 3219175694 3219175694 -15.00000000
-5.67949963 0.58090878 0.09965324 5 1 27584 5.71000000 3219175697 3219175697 1.00000000
-2.23519588 0.22901379 -0.51873714 4 2 27585 2.30600000 3219175699 3219175699 -13.00000000
-5.94467783 0.60908008 0.31317836 2 3 27585 5.98400000 3219175701 3219175701 3.00000000
-2.60920143 0.26779386 -0.50984162 3 4 27586 2.67200000 3219175704 3219175704 -11.00000000
-5.52565527 0.56809694 0.48598042 11 5 27587 5.57600000 3219175706 3219175706 5.00000000
-3.14986849 0.32439604 -0.50152892 3 6 27588 3.20600000 3219175708 3219175708 -9.00000000
-3.96297574 0.40953371 -0.48918355 6 8 27590 4.01400000 3219175713 3219175713 -7.00000000
-5.19231510 0.53748947 -0.45669609 3 10 27591 5.24000000 3219175718 3219175718 -5.00000000
-5.13528728 0.53339797 -0.27057689 2 12 27593 5.17000000 3219175722 3219175722 -3.00000000
-5.16523170 0.53833085 -0.09064780 2 14 27595 5.19400000 3219175727 3219175727 -1.00000000
-10.02975655 1.04709101 2.70207071 42 15 27596 10.44000000 3219175729 3219175729 15.00000000
-1.95190132 0.20618646 -0.52592027 4 0 27603 2.03200000 3219175750 3219175750 -15.00000000
-5.17233419 0.54728538 0.09078742 7 1 27604 5.20200000 3219175752 3219175752 1.00000000
-2.23438287 0.23681469 -0.51873714 4 2 27605 2.30600000 3219175754 3219175754 -13.00000000
-5.54528856 0.58772641 0.29224399 2 3 27605 5.58400000 3219175757 3219175757 3.00000000
-2.61996436 0.27814358 -0.51213133 3 4 27606 2.68400000 3219175759 3219175759 -11.00000000
-5.52958202 0.58801365 0.48650336 17 5 27607 5.58200000 3219175761 3219175761 5.00000000
-3.14871693 0.33538917 -0.50152892 3 6 27608 3.20600000 3219175764 3219175764 -9.00000000
-3.95560050 0.42273176 -0.48845232 4 8 27610 4.00800000 3219175768 3219175768 -7.00000000
-4.81202221 0.51510632 -0.42340261 5 10 27611 4.85800000 3219175773 3219175773 -5.00000000
-5.03013039 0.54022986 -0.26513395 2 12 27613 5.06600000 3219175777 3219175777 -3.00000000
-5.01221895 0.54007602 -0.08799503 2 14 27615 5.04200000 3219175782 3219175782 -1.00000000
-10.09710598 1.08976495 2.72122335 47 15 27616 10.51400000 3219175784 3219175784 15.00000000
-1.94540846 0.21236968 -0.52436739 4 0 27623 2.02600000 3219175805 3219175805 -15.00000000
-5.03323078 0.55033946 0.08837899 4 1 27624 5.06400000 3219175807 3219175807 1.00000000
-2.23741698 0.24503700 -0.51963693 4 2 27625 2.31000000 3219175810 3219175810 -13.00000000
-5.13619900 0.56250525 0.27078623 2 3 27625 5.17400000 3219175812 3219175812 3.00000000
-2.61897755 0.28728729 -0.51213133 3 4 27626 2.68400000 3219175814 3219175814 -11.00000000
-5.52155447 0.60665911 0.48598042 31 5 27627 5.57600000 3219175817 3219175817 5.00000000
-3.13967299 0.34551385 -0.50027740 3 6 27628 3.19800000 3219175819 3219175819 -9.00000000
-3.95410085 0.43653679 -0.48845232 4 8 27630 4.00800000 3219175824 3219175824 -7.00000000
-4.75672626 0.52598780 -0.41869619 5 10 27631 4.80400000 3219175828 3219175828 -5.00000000
-4.67486954 0.51858813 -0.24650235 2 12 27633 4.71000000 3219175833 3219175833 -3.00000000
-4.67641544 0.52041215 -0.08213103 1 14 27635 4.70600000 3219175837 3219175837 -1.00000000
-10.08172035 1.12371981 2.71811771 47 15 27636 10.50200000 3219175840 3219175840 15.00000000
-1.93505681 0.21807739 -0.52177918 4 0 27643 2.01600000 3219175860 3219175860 -15.00000000
-4.60604477 0.51990700 0.08090936 6 1 27644 4.63600000 3219175863 3219175863 1.00000000
-2.24429345 0.25372121 -0.52143657 4 2 27645 2.31800000 3219175865 3219175865 -13.00000000
-4.82857323 0.54587841 0.25466678 6 3 27645 4.86600000 3219175867 3219175867 3.00000000
-2.60235238 0.29466039 -0.50907838 3 4 27646 2.66800000 3219175870 3219175870 -11.00000000
-3.14629889 0.35736299 -0.50152892 3 6 27648 3.20600000 3219175874 3219175874 -9.00000000
-3.95847011 0.45101067 -0.48918355 4 8 27650 4.01400000 3219175879 3219175879 -7.00000000
-4.73704529 0.54055566 -0.41712737 5 10 27651 4.78600000 3219175883 3219175883 -5.00000000
-4.63334465 0.53036058 -0.24440892 4 12 27653 4.67000000 3219175888 3219175888 -3.00000000
-4.59907818 0.52806473 -0.08080464 1 14 27655 4.63000000 3219175893 3219175893 -1.00000000
-10.07601929 1.15692544 2.71759987 47 15 27655 10.50000000 3219175895 3219175895 15.00000000
-1.94195950 0.22572286 -0.52384973 4 0 27663 2.02400000 3219175916 3219175916 -15.00000000
-4.57043505 0.53205109 0.08031598 8 1 27664 4.60200000 3219175918 3219175918 1.00000000
-2.23565173 0.26065102 -0.51963693 4 2 27665 2.31000000 3219175920 3219175920 -13.00000000
-4.76315594 0.55532867 0.25131726 4 3 27665 4.80200000 3219175923 3219175923 3.00000000
-2.61300802 0.30510867 -0.51136810 3 4 27666 2.68000000 3219175925 3219175925 -11.00000000
-3.14110827 0.36788389 -0.50090313 3 6 27668 3.20200000 3219175929 3219175929 -9.00000000
-3.94701385 0.46366757 -0.48796484 4 8 27670 4.00400000 3219175934 3219175934 -7.00000000
-4.72127867 0.55545819 -0.41590720 8 10 27671 4.77200000 3219175939 3219175939 -5.00000000
-4.61758041 0.54489231 -0.24367622 4 12 27673 4.65600000 3219175943 3219175943 -3.00000000
-4.50784397 0.53353852 -0.07923392 5 14 27675 4.54000000 3219175948 3219175948 -1.00000000
-10.06979370 1.19362080 2.71708226 45 15 27676 10.49800000 3219175950 3219175950 15.00000000
-1.94115973 0.23250020 -0.52384973 4 0 27683 2.02400000 3219175971 3219175971 -15.00000000
-4.53678226 0.54419112 0.07975750 6 1 27684 4.57000000 3219175973 3219175973 1.00000000
-2.21924949 0.26659390 -0.51603770 4 2 27685 2.29400000 3219175976 3219175976 -13.00000000
-4.70953131 0.56658018 0.24859579 4 3 27686 4.75000000 3219175978 3219175978 3.00000000
-2.62362242 0.31563488 -0.51365781 3 4 27686 2.69200000 3219175980 3219175980 -11.00000000
-5.37445498 0.64752543 0.47360429 2 5 27687 5.43400000 3219175982 3219175982 5.00000000
-3.14961076 0.38002932 -0.50246751 3 6 27688 3.21200000 3219175985 3219175985 -9.00000000
-3.95128345 0.47815785 -0.48869607 4 8 27690 4.01000000 3219175989 3219175989 -7.00000000
-4.73117828 0.57337338 -0.41695309 5 10 27691 4.78400000 3219175994 3219175994 -5.00000000
-4.59185839 0.55811560 -0.24242015 4 12 27693 4.63200000 3219175999 3219175999 -3.00000000
-4.50595427 0.54927057 -0.07923392 5 14 27695 4.54000000 3219176003 3219176003 -1.00000000
-10.07345009 1.22794187 2.71915293 47 15 27695 10.50600000 3219176006 3219176006 15.00000000
-1.94992292 0.24045688 -0.52643794 4 0 27703 2.03400000 3219176026 3219176026 -15.00000000
-4.52096272 0.55830854 0.07951316 4 1 27704 4.55600000 3219176029 3219176029 1.00000000
-2.23764563 0.27673069 -0.52053672 4 2 27705 2.31400000 3219176031 3219176031 -13.00000000
-4.64607954 0.57540619 0.24535096 2 3 27706 4.68800000 3219176033 3219176033 3.00000000
-2.61471105 0.32382593 -0.51213133 3 4 27706 2.68400000 3219176035 3219176035 -11.00000000
-5.25550461 0.65181345 0.46331993 2 5 27707 5.31600000 3219176038 3219176038 5.00000000
-3.15218568 0.39150813 -0.50309324 3 6 27708 3.21600000 3219176040 3219176040 -9.00000000
-3.94762039 0.49170211 -0.48845232 4 8 27710 4.00800000 3219176045 3219176045 -7.00000000
-4.71728563 0.58840513 -0.41590720 8 10 27711 4.77200000 3219176049 3219176049 -5.00000000
-4.67510033 0.58480054 -0.24692105 2 12 27713 4.71800000 3219176054 3219176054 -3.00000000
-4.47027922 0.56076467 -0.07864054 1 14 27715 4.50600000 3219176059 3219176059 -1.00000000
-10.07271576 1.26533628 2.72018814 45 15 27716 10.51000000 3219176061 3219176061 15.00000000
-1.94336522 0.24619335 -0.52488500 4 0 27722 2.02800000 3219176082 3219176082 -15.00000000
-4.48536205 0.56901920 0.07891978 4 1 27723 4.52200000 3219176084 3219176084 1.00000000
-2.23284912 0.28365830 -0.51963693 4 2 27724 2.31000000 3219176086 3219176086 -13.00000000
-4.58470726 0.58324844 0.24221081 1 3 27725 4.62800000 3219176088 3219176088 3.00000000
-2.60972786 0.33199930 -0.51136810 3 4 27725 2.68000000 3219176091 3219176091 -11.00000000
-5.21971512 0.66495740 0.46035662 7 5 27726 5.28200000 3219176093 3219176093 5.00000000
-3.14499164 0.40120909 -0.50215465 3 6 27727 3.21000000 3219176095 3219176095 -9.00000000
-3.94596815 0.50479019 -0.48845232 4 8 27729 4.00800000 3219176100 3219176100 -7.00000000
-4.71530867 0.60404497 -0.41590720 5 10 27730 4.77200000 3219176105 3219176105 -5.00000000
-4.40096235 0.56689942 -0.07745378 1 14 27734 4.43800000 3219176114 3219176114 -1.00000000
-10.05719471 1.29549348 2.71708226 45 15 27734 10.49800000 3219176116 3219176116 15.00000000
-1.93483138 0.25197753 -0.52281445 4 0 27742 2.02000000 3219176137 3219176137 -15.00000000
-4.40799809 0.57484609 0.07759340 4 1 27743 4.44600000 3219176139 3219176139 1.00000000
-2.24343944 0.29296470 -0.52233636 4 2 27744 2.32200000 3219176141 3219176141 -13.00000000
-4.49946642 0.58837187 0.23781459 3 3 27745 4.54400000 3219176144 3219176144 3.00000000
-2.60855293 0.34110692 -0.51136810 3 4 27745 2.68000000 3219176146 3219176146 -11.00000000
-5.15809679 0.67541319 0.45512730 7 5 27746 5.22200000 3219176148 3219176148 5.00000000
-3.14748907 0.41269833 -0.50278038 3 6 27747 3.21400000 3219176151 3219176151 -9.00000000
-6.23722553 0.81893146 0.77240789 2 7 27748 6.33800000 3219176153 3219176153 7.00000000
-3.95205474 0.51959616 -0.48942727 4 8 27749 4.01600000 3219176155 3219176155 -7.00000000
-4.70922041 0.61998063 -0.41555858 8 10 27750 4.76800000 3219176160 3219176160 -5.00000000
-4.34543180 0.57517350 -0.07651135 1 14 27754 4.38400000 3219176169 3219176169 -1.00000000
-10.04471874 1.33133090 2.71501184 42 15 27755 10.49000000 3219176171 3219176171 15.00000000
-1.93207026 0.25813645 -0.52229685 4 0 27761 2.01800000 3219176192 3219176192 -15.00000000
-4.35255241 0.58230096 0.07665097 3 1 27762 4.39200000 3219176194 3219176194 1.00000000
-2.23472953 0.29936761 -0.52053672 4 2 27763 2.31400000 3219176197 3219176197 -13.00000000
-4.46383858 0.59877539 0.23603517 3 3 27764 4.51000000 3219176199 3219176199 3.00000000
-2.61908245 0.35132140 -0.51365781 3 4 27764 2.69200000 3219176201 3219176201 -11.00000000
-5.10448742 0.68561834 0.45059520 7 5 27765 5.17000000 3219176204 3219176204 5.00000000
-3.15589213 0.42445004 -0.50434470 3 6 27766 3.22400000 3219176206 3219176206 -9.00000000
-5.61476564 0.75615269 0.69563019 2 7 27767 5.70800000 3219176208 3219176208 7.00000000
-3.95424461 0.53322941 -0.48991477 4 8 27768 4.02000000 3219176211 3219176211 -7.00000000
-4.71108770 0.63612682 -0.41590720 5 10 27769 4.77200000 3219176215 3219176215 -5.00000000
-4.31575918 0.58581471 -0.07602268 3 14 27773 4.35600000 3219176224 3219176224 -1.00000000
-10.04431534 1.36340034 2.71604705 45 15 27773 10.49400000 3219176227 3219176227 15.00000000
-1.94646895 0.26697919 -0.52643794 5 0 27781 2.03400000 3219176247 3219176247 -15.00000000
-4.32672024 0.59422570 0.07623211 3 1 27782 4.36800000 3219176250 3219176250 1.00000000
-2.22208762 0.30557355 -0.51783735 4 2 27783 2.30200000 3219176252 3219176252 -13.00000000
-4.42808533 0.60972196 0.23425575 3 3 27784 4.47600000 3219176254 3219176254 3.00000000
-2.61006045 0.35939035 -0.51213133 3 4 27784 2.68400000 3219176257 3219176257 -11.00000000
-5.08627319 0.70125520 0.44920069 10 5 27785 5.15400000 3219176259 3219176259 5.00000000
-3.15634799 0.43573374 -0.50465757 3 6 27786 3.22600000 3219176261 3219176261 -9.00000000
-5.58062983 0.77139831 0.69173038 2 7 27787 5.67600000 3219176264 3219176264 7.00000000
-3.95039272 0.54675686 -0.48967102 6 8 27788 4.01800000 3219176266 3219176266 -7.00000000
-4.72067976 0.65420866 -0.41695309 5 10 27789 4.78400000 3219176270 3219176270 -5.00000000
-4.27605724 0.59563416 -0.07535949 5 14 27793 4.31800000 3219176280 3219176280 -1.00000000
-10.04116344 1.40047228 2.71656466 47 15 27794 10.49600000 3219176282 3219176282 15.00000000
-1.94361210 0.27350280 -0.52592027 4 0 27801 2.03200000 3219176303 3219176303 -15.00000000
-4.28699732 0.60402423 0.07556892 5 1 27802 4.33000000 3219176305 3219176305 1.00000000
-2.22100735 0.31332821 -0.51783735 4 2 27803 2.30200000 3219176307 3219176307 -13.00000000
-4.35275793 0.61483932 0.23038287 5 3 27804 4.40200000 3219176310 3219176310 3.00000000
-2.60879016 0.36849898 -0.51213133 3 4 27804 2.68400000 3219176312 3219176312 -11.00000000
-5.05223036 0.71454120 0.44641173 10 5 27805 5.12200000 3219176314 3219176314 5.00000000
-3.15089607 0.44619486 -0.50403184 3 6 27806 3.22200000 3219176317 3219176317 -9.00000000
-5.60148859 0.79421777 0.69465524 2 7 27807 5.70000000 3219176319 3219176319 7.00000000
-3.94846010 0.56054300 -0.48967102 6 8 27808 4.01800000 3219176321 3219176321 -7.00000000
-4.71442223 0.67012215 -0.41660446 5 10 27809 4.78000000 3219176326 3219176326 -5.00000000
-4.33223057 0.61733913 -0.22933616 2 12 27811 4.38200000 3219176330 3219176330 -3.00000000
-4.20862532 0.60122448 -0.07420763 5 14 27813 4.25200000 3219176335 3219176335 -1.00000000
