# .PCD v0.7 - Point Cloud Data file format
VERSION 0.7
FIELDS x y z intensity laser_id azimuth distance_m adjustedtime timestamp vertical_angle
SIZE 4 4 4 1 1 2 8 8 4 8
TYPE F F F U U U F U U F
COUNT 1 1 1 1 1 1 1 1 1 1
WIDTH 539
HEIGHT 1
VIEWPOINT 0 0 0 1 0 0 0
POINTS 539
DATA ascii
2.15107036 0.73689544 -0.60926002 4 0 7109 2.35400000 3218618918 3218618918 -15.00000000
8.18239212 2.80145884 0.15096332 12 1 7110 8.65000000 3218618920 3218618920 1.00000000
2.52967262 0.86560726 -0.61726570 3 2 7111 2.74400000 3218618922 3218618922 -13.00000000
8.17528915 2.79583907 0.45281070 13 3 7112 8.65200000 3218618925 3218618925 3.00000000
3.03907943 1.03932440 -0.62432700 5 4 7112 3.27200000 3218618927 3218618927 -11.00000000
8.18412209 2.79726481 0.75668615 75 5 7113 8.68200000 3218618929 3218618929 5.00000000
3.81154585 1.30201173 -0.63793975 4 6 7114 4.07800000 3218618932 3218618932 -9.00000000
8.19457150 2.79764199 1.06318820 90 7 7115 8.72400000 3218618934 3218618934 7.00000000
5.15526009 1.75901079 -0.66881895 6 8 7116 5.48800000 3218618936 3218618936 -7.00000000
8.20168972 2.79847383 1.37255597 76 9 7116 8.77400000 3218618938 3218618938 9.00000000
8.05218410 2.74589276 -0.74431002 13 10 7117 8.54000000 3218618941 3218618941 -5.00000000
8.20621872 2.79682159 1.68522501 75 11 7118 8.83200000 3218618943 3218618943 11.00000000
8.15412140 2.77747750 -0.45144996 12 12 7119 8.62600000 3218618945 3218618945 -3.00000000
8.19079399 2.78837371 1.99756539 104 13 7120 8.88000000 3218618948 3218618948 13.00000000
8.16503811 2.77801538 -0.15054446 12 14 7121 8.62600000 3218618950 3218618950 -1.00000000
7.34118271 2.49771285 2.07779932 45 15 7121 8.02800000 3218618952 3218618952 15.00000000
2.13350201 0.72256565 -0.60356599 4 0 7129 2.33200000 3218618973 3218618973 -15.00000000
8.16939163 2.76518655 0.15054446 12 1 7130 8.62600000 3218618975 3218618975 1.00000000
2.53267860 0.85677177 -0.61726570 3 2 7131 2.74400000 3218618978 3218618978 -13.00000000
8.17553806 2.76408672 0.45228735 13 3 7132 8.64200000 3218618980 3218618980 3.00000000
3.03152990 1.02493691 -0.62203735 5 4 7132 3.26000000 3218618982 3218618982 -11.00000000
8.18251133 2.76485300 0.75564027 75 5 7133 8.67000000 3218618985 3218618985 5.00000000
3.83103991 1.29375517 -0.64044273 4 6 7134 4.09400000 3218618987 3218618987 -9.00000000
8.19676399 2.76648140 1.06221318 97 7 7135 8.71600000 3218618989 3218618989 7.00000000
5.16701174 1.74290824 -0.66955018 6 8 7136 5.49400000 3218618991 3218618991 -7.00000000
8.19130039 2.76145291 1.36911440 86 9 7137 8.75200000 3218618994 3218618994 9.00000000
8.05416870 2.71522284 -0.74361283 13 10 7137 8.53200000 3218618996 3218618996 -5.00000000
8.20848942 2.76565218 1.68369853 81 11 7138 8.82400000 3218618998 3218618998 11.00000000
8.16944504 2.75090933 -0.45176399 12 12 7139 8.63200000 3218619001 3218619001 -3.00000000
8.19678307 2.75852227 1.99666560 106 13 7140 8.87600000 3218619003 3218619003 13.00000000
8.15952206 2.74439740 -0.15026522 12 14 7141 8.61000000 3218619005 3218619005 -1.00000000
7.33930111 2.46709609 2.07469344 45 15 7142 8.01600000 3218619008 3218619008 15.00000000
2.14150691 0.71695387 -0.60511893 4 0 7149 2.33800000 3218619028 3218619028 -15.00000000
8.16382313 2.73157692 0.15026522 12 1 7150 8.61000000 3218619031 3218619031 1.00000000
2.54489470 0.85101599 -0.61951518 4 2 7151 2.75400000 3218619033 3218619033 -13.00000000
8.18134880 2.73426557 0.45207798 13 3 7152 8.63800000 3218619035 3218619035 3.00000000
3.03322721 1.01372635 -0.62165570 5 4 7152 3.25800000 3218619038 3218619038 -11.00000000
8.16943550 2.72869945 0.75354856 76 5 7153 8.64600000 3218619040 3218619040 5.00000000
3.83178520 1.27912354 -0.63981694 4 6 7154 4.09000000 3218619042 3218619042 -9.00000000
8.19883823 2.73533940 1.06123829 97 7 7155 8.70800000 3218619044 3218619044 7.00000000
5.17306423 1.72486138 -0.66955018 6 8 7156 5.49400000 3218619047 3218619047 -7.00000000
8.20041275 2.73427439 1.36911440 86 9 7156 8.75200000 3218619049 3218619049 9.00000000
8.06359768 2.68709183 -0.74361283 13 10 7157 8.53200000 3218619051 3218619051 -5.00000000
8.20319271 2.73201966 1.68064559 75 11 7158 8.80800000 3218619054 3218619054 11.00000000
8.17141724 2.71985292 -0.45134529 12 12 7159 8.62400000 3218619056 3218619056 -3.00000000
8.19896603 2.72743297 1.99486589 104 13 7160 8.86800000 3218619058 3218619058 13.00000000
8.16525745 2.71463680 -0.15019540 14 14 7161 8.60600000 3218619061 3218619061 -1.00000000
7.34744215 2.44274449 2.07469344 45 15 7161 8.01600000 3218619063 3218619063 15.00000000
2.14216256 0.70886731 -0.60460126 4 0 7169 2.33600000 3218619084 3218619084 -15.00000000
8.16191673 2.69929600 0.15005580 12 1 7170 8.59800000 3218619086 3218619086 1.00000000
2.54599953 0.84151590 -0.61906528 4 2 7171 2.75200000 3218619088 3218619088 -13.00000000
8.18704987 2.70443797 0.45186865 13 3 7172 8.63400000 3218619091 3218619091 3.00000000
3.04606819 1.00621128 -0.62356383 5 4 7172 3.26800000 3218619093 3218619093 -11.00000000
8.17512703 2.69891691 0.75319993 76 5 7173 8.64200000 3218619095 3218619095 5.00000000
3.82121944 1.26078868 -0.63731402 4 6 7174 4.07400000 3218619097 3218619097 -9.00000000
8.17817307 2.69675708 1.05733848 97 7 7175 8.67600000 3218619100 3218619100 7.00000000
5.18282413 1.70803618 -0.67003763 9 8 7176 5.49800000 3218619102 3218619102 -7.00000000
8.20240307 2.70315981 1.36786294 89 9 7176 8.74400000 3218619104 3218619104 9.00000000
8.07292747 2.65892839 -0.74361283 13 10 7177 8.53200000 3218619107 3218619107 -5.00000000
8.19776058 2.69845772 1.67759264 78 11 7178 8.79200000 3218619109 3218619109 11.00000000
8.16188908 2.68507123 -0.45029858 12 12 7179 8.60400000 3218619111 3218619111 -3.00000000
8.19732952 2.69514465 1.99216652 104 13 7180 8.85600000 3218619114 3218619114 13.00000000
8.17088413 2.68486977 -0.15012559 14 14 7181 8.60200000 3218619116 3218619116 -1.00000000
7.35225344 2.41587615 2.07365823 45 15 7181 8.01200000 3218619118 3218619118 15.00000000
2.14817357 0.70296139 -0.60563654 4 0 7188 2.34000000 3218619139 3218619139 -15.00000000
8.16322041 2.66972876 0.14991617 12 1 7189 8.59000000 3218619141 3218619141 1.00000000
2.54507136 0.83185756 -0.61816549 4 2 7190 2.74800000 3218619144 3218619144 -13.00000000
8.18458176 2.67355275 0.45124063 13 3 7191 8.62200000 3218619146 3218619146 3.00000000
3.06431770 1.00098157 -0.62661672 5 4 7191 3.28400000 3218619148 3218619148 -11.00000000
8.18024349 2.67055583 0.75285131 72 5 7192 8.63800000 3218619150 3218619150 5.00000000
3.84040308 1.25301194 -0.63981694 6 6 7193 4.09000000 3218619153 3218619153 -9.00000000
8.17008495 2.66408372 1.05514479 99 7 7194 8.65800000 3218619155 3218619155 7.00000000
5.18845987 1.69084001 -0.67003763 9 8 7195 5.49800000 3218619157 3218619157 -7.00000000
8.20803261 2.67328811 1.36723721 89 9 7196 8.74000000 3218619160 3218619160 9.00000000
8.10064507 2.63831306 -0.74535590 13 10 7196 8.55200000 3218619162 3218619162 -5.00000000
8.19919586 2.66882753 1.67606616 81 11 7197 8.78400000 3218619164 3218619164 11.00000000
8.16695023 2.65675497 -0.45008922 12 12 7198 8.60000000 3218619167 3218619167 -3.00000000
8.19139576 2.66312647 1.98856735 101 13 7199 8.84000000 3218619169 3218619169 13.00000000
8.16833115 2.65405178 -0.14991617 12 14 7200 8.59000000 3218619171 3218619171 -1.00000000
7.34920025 2.38789988 2.07055235 45 15 7200 8.00000000 3218619173 3218619173 15.00000000
2.15796685 0.69783622 -0.60770714 4 0 7208 2.34800000 3218619194 3218619194 -15.00000000
8.17249012 2.64121771 0.14991617 12 1 7209 8.59000000 3218619197 3218619197 1.00000000
2.55166841 0.82416648 -0.61906528 4 2 7210 2.75200000 3218619199 3218619199 -13.00000000
8.17295742 2.63821793 0.45008922 13 3 7211 8.60000000 3218619201 3218619201 3.00000000
3.04724169 0.98364490 -0.62241894 5 4 7211 3.26200000 3218619203 3218619203 -11.00000000
8.18193150 2.63953829 0.75215405 76 5 7212 8.63000000 3218619206 3218619206 5.00000000
3.82971287 1.23474956 -0.63731402 6 6 7213 4.07400000 3218619208 3218619208 -9.00000000
8.17744541 2.63493967 1.05490100 97 7 7214 8.65600000 3218619210 3218619210 7.00000000
5.17543507 1.66663373 -0.66760027 6 8 7215 5.47800000 3218619213 3218619213 -7.00000000
8.19662952 2.63796353 1.36379564 94 9 7216 8.71800000 3218619215 3218619215 9.00000000
8.11739159 2.61246181 -0.74605316 17 10 7216 8.56000000 3218619217 3218619217 -5.00000000
8.20098591 2.63778615 1.67453969 84 11 7217 8.77600000 3218619220 3218619220 11.00000000
8.16856861 2.62578607 -0.44967052 12 12 7218 8.59200000 3218619222 3218619222 -3.00000000
8.18950939 2.63094068 1.98586786 103 13 7219 8.82800000 3218619224 3218619224 13.00000000
8.16612244 2.62185502 -0.14970674 12 14 7220 8.57800000 3218619226 3218619226 -1.00000000
7.37629795 2.36685014 2.07572865 45 15 7221 8.02000000 3218619229 3218619229 15.00000000
2.15486884 0.68853527 -0.60615420 4 0 7228 2.34200000 3218619250 3218619250 -15.00000000
8.17403984 2.61024094 0.14977655 12 1 7229 8.58200000 3218619252 3218619252 1.00000000
2.54896021 0.81347698 -0.61771560 4 2 7230 2.74600000 3218619254 3218619254 -13.00000000
8.17831039 2.60845923 0.44987988 13 3 7231 8.59600000 3218619256 3218619256 3.00000000
3.05439734 0.97419518 -0.62318218 5 4 7231 3.26600000 3218619259 3218619259 -11.00000000
8.17590904 2.60612106 0.75075954 79 5 7232 8.61400000 3218619261 3218619261 5.00000000
3.84529257 1.22497129 -0.63919121 6 6 7233 4.08600000 3218619263 3218619263 -9.00000000
8.18659306 2.60637903 1.05490100 97 7 7234 8.65600000 3218619266 3218619266 7.00000000
5.18500423 1.64976168 -0.66808772 6 8 7235 5.48200000 3218619268 3218619268 -7.00000000
8.18696308 2.60334969 1.36066699 97 9 7236 8.69800000 3218619270 3218619270 9.00000000
8.11886692 2.58169603 -0.74535590 13 10 7236 8.55200000 3218619273 3218619273 -5.00000000
8.20265961 2.60676479 1.67301333 84 11 7237 8.76800000 3218619275 3218619275 11.00000000
8.16245556 2.59241986 -0.44883317 12 12 7238 8.57600000 3218619277 3218619277 -3.00000000
8.19492817 2.60115862 1.98496807 92 13 7239 8.82400000 3218619279 3218619279 13.00000000
8.16378784 2.58970594 -0.14949732 12 14 7240 8.56600000 3218619282 3218619282 -1.00000000
7.37674046 2.34003997 2.07365823 45 15 7240 8.01200000 3218619284 3218619284 15.00000000
2.14804816 0.67810142 -0.60356599 4 0 7248 2.33200000 3218619305 3218619305 -15.00000000
8.16403103 2.57567596 0.14942750 12 1 7249 8.56200000 3218619307 3218619307 1.00000000
2.55921841 0.80691850 -0.61951518 4 2 7250 2.75400000 3218619309 3218619309 -13.00000000
8.18165112 2.57809496 0.44956586 13 3 7251 8.59000000 3218619312 3218619312 3.00000000
3.05216193 0.96175730 -0.62203735 5 4 7251 3.26000000 3218619314 3218619314 -11.00000000
8.15455055 2.56799078 0.74797058 76 5 7252 8.58200000 3218619316 3218619316 5.00000000
3.83823967 1.20798314 -0.63731402 6 6 7253 4.07400000 3218619319 3218619319 -9.00000000
8.18806648 2.57540417 1.05392611 97 7 7254 8.64800000 3218619321 3218619321 7.00000000
5.19451904 1.63284314 -0.66857523 6 8 7255 5.48600000 3218619323 3218619323 -7.00000000
8.19223118 2.57357192 1.36004126 94 9 7256 8.69400000 3218619326 3218619326 9.00000000
6.64710426 2.08817363 -0.60956728 4 10 7256 6.99400000 3218619328 3218619328 -5.00000000
8.20234394 2.57517600 1.67110515 90 11 7257 8.75800000 3218619330 3218619330 11.00000000
8.17907810 2.56630349 -0.44925186 17 12 7258 8.58400000 3218619332 3218619332 -3.00000000
8.19651985 2.57020497 1.98316848 90 13 7259 8.81600000 3218619335 3218619335 13.00000000
8.15751266 2.55640936 -0.14921808 12 14 7260 8.55000000 3218619337 3218619337 -1.00000000
7.38486385 2.31427598 2.07365823 45 15 7260 8.01200000 3218619339 3218619339 15.00000000
2.15777898 0.67289972 -0.60563654 4 0 7268 2.34000000 3218619360 3218619360 -15.00000000
8.16151810 2.54359245 0.14921808 12 1 7269 8.55000000 3218619362 3218619362 1.00000000
2.55457735 0.79566222 -0.61771560 4 2 7270 2.74600000 3218619365 3218619365 -13.00000000
8.18634129 2.54976153 0.44935653 13 3 7270 8.58600000 3218619367 3218619367 3.00000000
3.06487322 0.95401490 -0.62394542 5 4 7271 3.27000000 3218619369 3218619369 -11.00000000
8.16346455 2.53951025 0.74797058 76 5 7272 8.58200000 3218619372 3218619372 5.00000000
3.84243298 1.19457781 -0.63731402 6 6 7273 4.07400000 3218619374 3218619374 -9.00000000
8.18373680 2.54268384 1.05221987 99 7 7274 8.63400000 3218619376 3218619376 7.00000000
5.20777035 1.61705565 -0.66955018 9 8 7275 5.49400000 3218619378 3218619378 -7.00000000
8.18940163 2.54287672 1.35816407 100 9 7275 8.68200000 3218619381 3218619381 9.00000000
6.66386700 2.06791067 -0.61043882 12 10 7276 7.00400000 3218619383 3218619383 -5.00000000
8.19440651 2.54129505 1.66767061 87 11 7277 8.74000000 3218619385 3218619385 11.00000000
8.16127777 2.52945971 -0.44778645 12 12 7278 8.55600000 3218619388 3218619388 -3.00000000
8.20544243 2.54157805 1.98316848 90 13 7279 8.81600000 3218619390 3218619390 13.00000000
8.17784786 2.53146672 -0.14942750 12 14 7280 8.56200000 3218619392 3218619392 -1.00000000
7.42611551 2.29876661 2.08297563 45 15 7280 8.04800000 3218619395 3218619395 15.00000000
2.14903712 0.66195142 -0.60253072 4 0 7288 2.32800000 3218619415 3218619415 -15.00000000
8.17034721 2.51508784 0.14921808 12 1 7289 8.55000000 3218619418 3218619418 1.00000000
2.54057574 0.78158313 -0.61366647 4 2 7290 2.72800000 3218619420 3218619420 -13.00000000
8.18035984 2.51504445 0.44851914 13 3 7291 8.57000000 3218619422 3218619422 3.00000000
3.07193780 0.94446462 -0.62470865 5 4 7291 3.27400000 3218619425 3218619425 -11.00000000
8.17037487 2.51041389 0.74779630 76 5 7292 8.58000000 3218619427 3218619427 5.00000000
3.85035610 1.18231773 -0.63793975 4 6 7293 4.07800000 3218619429 3218619429 -9.00000000
8.16409683 2.50536633 1.04856384 92 7 7294 8.60400000 3218619431 3218619431 7.00000000
5.19440460 1.59304678 -0.66711277 6 8 7295 5.47400000 3218619434 3218619434 -7.00000000
8.19866657 2.51284385 1.35816407 97 9 7296 8.68200000 3218619436 3218619436 9.00000000
6.65199566 2.03879833 -0.60869569 12 10 7296 6.98400000 3218619438 3218619438 -5.00000000
8.19008732 2.50865078 1.66499925 90 11 7297 8.72600000 3218619441 3218619441 11.00000000
8.16814804 2.50037146 -0.44768175 17 12 7298 8.55400000 3218619443 3218619443 -3.00000000
8.19935608 2.50835967 1.97956932 92 13 7299 8.80000000 3218619445 3218619445 13.00000000
8.17516041 2.49939728 -0.14921808 12 14 7300 8.55000000 3218619448 3218619448 -1.00000000
7.47698402 2.28451657 2.09488130 45 15 7301 8.09400000 3218619450 3218619450 15.00000000
2.16773844 0.66026270 -0.60718948 4 0 7306 2.34600000 3218619471 3218619471 -15.00000000
8.16290379 2.48474908 0.14893883 12 1 7307 8.53400000 3218619473 3218619473 1.00000000
2.54301858 0.77359784 -0.61366647 6 2 7308 2.72800000 3218619475 3218619475 -13.00000000
8.16867733 2.48494911 0.44747242 13 3 7308 8.55000000 3218619478 3218619478 3.00000000
3.06174111 0.93081182 -0.62203735 5 4 7309 3.26000000 3218619480 3218619480 -11.00000000
8.16297054 2.48009992 0.74640179 76 5 7310 8.56400000 3218619482 3218619482 5.00000000
3.85405135 1.17021561 -0.63793975 6 6 7311 4.07800000 3218619484 3218619484 -9.00000000
8.17952538 2.48201132 1.04953873 95 7 7312 8.61200000 3218619487 3218619487 7.00000000
5.19558430 1.57556820 -0.66662532 9 8 7313 5.47000000 3218619489 3218619489 -7.00000000
8.18950558 2.48191833 1.35534823 91 9 7314 8.66400000 3218619491 3218619491 9.00000000
6.66599512 2.02020192 -0.60939294 8 10 7314 6.99200000 3218619494 3218619494 -5.00000000
8.19980621 2.48347759 1.66538095 87 11 7315 8.72800000 3218619496 3218619496 11.00000000
8.17022800 2.47296238 -0.44736776 17 12 7316 8.54800000 3218619498 3218619498 -3.00000000
8.18854332 2.47694588 1.97507024 103 13 7317 8.78000000 3218619501 3218619501 13.00000000
8.16191673 2.46733689 -0.14883412 14 14 7318 8.52800000 3218619503 3218619503 -1.00000000
7.57434034 2.28971338 2.12024570 45 15 7318 8.19200000 3218619505 3218619505 15.00000000
2.15893006 0.64935333 -0.60408366 4 0 7326 2.33400000 3218619526 3218619526 -15.00000000
8.16769695 2.45508885 0.14886902 12 1 7327 8.53000000 3218619528 3218619528 1.00000000
2.54943609 0.76583767 -0.61456627 6 2 7328 2.73200000 3218619530 3218619530 -13.00000000
8.16965103 2.45412135 0.44705373 13 3 7328 8.54200000 3218619533 3218619533 3.00000000
3.05933070 0.91842520 -0.62089247 5 4 7329 3.25400000 3218619535 3218619535 -11.00000000
8.16012764 2.44815564 0.74535590 76 5 7330 8.55200000 3218619537 3218619537 5.00000000
3.84675980 1.15335143 -0.63606256 6 6 7331 4.06600000 3218619540 3218619540 -9.00000000
8.18053246 2.45116520 1.04856384 95 7 7332 8.60400000 3218619542 3218619542 7.00000000
5.20485592 1.55856144 -0.66711277 9 8 7333 5.47400000 3218619544 3218619544 -7.00000000
8.17919540 2.44765329 1.35221946 87 9 7334 8.64400000 3218619547 3218619547 9.00000000
6.66537094 1.99463606 -0.60869569 12 10 7334 6.98400000 3218619549 3218619549 -5.00000000
8.20090199 2.45258975 1.66385448 87 11 7335 8.72000000 3218619551 3218619551 11.00000000
8.17498302 2.44328403 -0.44715840 17 12 7336 8.54400000 3218619554 3218619554 -3.00000000
8.18967056 2.44611669 1.97327065 103 13 7337 8.77200000 3218619556 3218619556 13.00000000
8.16281509 2.43654370 -0.14869450 14 14 7338 8.52000000 3218619558 3218619558 -1.00000000
7.64707708 2.28259945 2.13836288 40 15 7338 8.26200000 3218619560 3218619560 15.00000000
2.15747976 0.64071333 -0.60304838 4 0 7346 2.33000000 3218619581 3218619581 -15.00000000
8.16854858 2.42428756 0.14872941 12 1 7347 8.52200000 3218619583 3218619583 1.00000000
2.55583048 0.75804204 -0.61546606 5 2 7348 2.73600000 3218619586 3218619586 -13.00000000
8.17093086 2.42189145 0.44663504 13 3 7349 8.53400000 3218619588 3218619588 3.00000000
3.07757640 0.91220397 -0.62394542 5 4 7349 3.27000000 3218619590 3218619590 -11.00000000
8.15907192 2.41682720 0.74448436 72 5 7350 8.54200000 3218619593 3218619593 5.00000000
3.85455060 1.14103818 -0.63668829 6 6 7351 4.07000000 3218619595 3218619595 -9.00000000
8.18523216 2.42146873 1.04807639 92 7 7352 8.60000000 3218619597 3218619597 7.00000000
5.21216822 1.54094636 -0.66735655 9 8 7353 5.47600000 3218619600 3218619600 -7.00000000
8.18726635 2.42051673 1.35221946 82 9 7353 8.64400000 3218619602 3218619602 9.00000000
6.62452459 1.95724404 -0.60433793 24 10 7354 6.93400000 3218619604 3218619604 -5.00000000
8.19623280 2.42005658 1.66118312 34 11 7355 8.70600000 3218619607 3218619607 11.00000000
8.17196846 2.41134167 -0.44653037 12 12 7356 8.53200000 3218619609 3218619609 -3.00000000
8.20189762 2.41861677 1.97417045 42 13 7357 8.77600000 3218619611 3218619611 13.00000000
8.15208912 2.40238261 -0.14834546 14 14 7358 8.50000000 3218619613 3218619613 -1.00000000
7.72766495 2.27584100 2.15855074 45 15 7359 8.34000000 3218619616 3218619616 15.00000000
2.16711855 0.63535243 -0.60511893 4 0 7366 2.33800000 3218619636 3218619636 -15.00000000
8.15969086 2.39069891 0.14841527 12 1 7367 8.50400000 3218619639 3218619639 1.00000000
2.54910994 0.74637789 -0.61321658 6 2 7368 2.72600000 3218619641 3218619641 -13.00000000
8.20191860 2.40151715 0.44789112 23 3 7368 8.55800000 3218619643 3218619643 3.00000000
3.08074188 0.90145564 -0.62394542 5 4 7369 3.27000000 3218619646 3218619646 -11.00000000
8.16554642 2.38777280 0.74431002 76 5 7370 8.54000000 3218619648 3218619648 5.00000000
3.84334135 1.12314355 -0.63418531 6 6 7371 4.05400000 3218619650 3218619650 -9.00000000
8.17457962 2.38731718 1.04563892 90 7 7372 8.58000000 3218619653 3218619653 7.00000000
5.21751499 1.52274323 -0.66735655 9 8 7373 5.47600000 3218619655 3218619655 -7.00000000
6.63131618 1.93410826 -0.60433793 56 10 7374 6.93400000 3218619660 3218619660 -5.00000000
8.28379345 2.41450548 1.67721105 12 11 7375 8.79000000 3218619662 3218619662 11.00000000
8.17650032 2.38168430 -0.44632104 17 12 7376 8.52800000 3218619664 3218619664 -3.00000000
8.28139114 2.41066933 1.99126673 21 13 7377 8.85200000 3218619666 3218619666 13.00000000
8.16234493 2.37447047 -0.14838035 14 14 7378 8.50200000 3218619669 3218619669 -1.00000000
7.81718445 2.27258158 2.18132687 45 15 7379 8.42800000 3218619671 3218619671 15.00000000
2.16932297 0.62778389 -0.60511893 4 0 7386 2.33800000 3218619692 3218619692 -15.00000000
8.16606522 2.36164618 0.14838035 12 1 7387 8.50200000 3218619694 3218619694 1.00000000
2.54795551 0.73639315 -0.61231679 6 2 7388 2.72200000 3218619696 3218619696 -13.00000000
8.17187691 2.36178160 0.44579768 13 3 7388 8.51800000 3218619699 3218619699 3.00000000
3.06689429 0.88579345 -0.62051088 5 4 7389 3.25200000 3218619701 3218619701 -11.00000000
8.16043186 2.35538745 0.74308985 72 5 7390 8.52600000 3218619703 3218619703 5.00000000
3.86621857 1.11519563 -0.63731402 4 6 7391 4.07400000 3218619706 3218619706 -9.00000000
8.17523384 2.35656881 1.04466403 95 7 7392 8.57200000 3218619708 3218619708 7.00000000
5.21707630 1.50287282 -0.66662532 9 8 7393 5.47000000 3218619710 3218619710 -7.00000000
8.31785679 2.39610863 1.37099171 13 9 7393 8.76400000 3218619713 3218619713 9.00000000
6.65717363 1.91646063 -0.60608101 28 10 7394 6.95400000 3218619715 3218619715 -5.00000000
8.28839684 2.38448930 1.67644787 12 11 7395 8.78600000 3218619717 3218619717 11.00000000
8.15981102 2.34595442 -0.44496030 17 12 7396 8.50200000 3218619719 3218619719 -3.00000000
8.27477169 2.37744212 1.98766756 3 13 7397 8.83600000 3218619722 3218619722 13.00000000
8.17827225 2.34817147 -0.14851998 12 14 7398 8.51000000 3218619724 3218619724 -1.00000000
7.92348623 2.27351975 2.20876169 47 15 7399 8.53400000 3218619726 3218619726 15.00000000
2.18264651 0.62339097 -0.60822475 4 0 7406 2.35000000 3218619747 3218619747 -15.00000000
8.16656685 2.33093143 0.14824075 12 1 7407 8.49400000 3218619749 3218619749 1.00000000
2.54676247 0.72642559 -0.61141694 6 2 7408 2.71800000 3218619752 3218619752 -13.00000000
8.16854763 2.32995510 0.44516966 13 3 7408 8.50600000 3218619754 3218619754 3.00000000
3.08129573 0.87831169 -0.62280059 5 4 7409 3.26400000 3218619756 3218619756 -11.00000000
8.16477108 2.32579637 0.74274123 76 5 7410 8.52200000 3218619759 3218619759 5.00000000
3.86248803 1.09952986 -0.63606256 4 6 7411 4.06600000 3218619761 3218619761 -9.00000000
8.17959118 2.32693124 1.04417658 90 7 7412 8.56800000 3218619763 3218619763 7.00000000
5.20510530 1.47976720 -0.66443163 9 8 7413 5.45200000 3218619766 3218619766 -7.00000000
8.39267349 2.38596559 1.38194203 2 9 7413 8.83400000 3218619768 3218619768 9.00000000
6.65998983 1.89212215 -0.60573244 12 10 7414 6.95000000 3218619770 3218619770 -5.00000000
8.49308586 2.41130805 1.71613610 9 11 7415 8.99400000 3218619772 3218619772 11.00000000
8.16410732 2.31636667 -0.44475096 17 12 7416 8.49800000 3218619775 3218619775 -3.00000000
8.16525555 2.31361318 -0.14813602 14 14 7418 8.48800000 3218619779 3218619779 -1.00000000
8.02431297 2.27216434 2.23464370 45 15 7419 8.63400000 3218619782 3218619782 15.00000000
2.17561936 0.61276835 -0.60563654 4 0 7427 2.34000000 3218619802 3218619802 -15.00000000
8.17890549 2.30206752 0.14831056 12 1 7428 8.49800000 3218619805 3218619805 1.00000000
2.55503559 0.71866935 -0.61276668 7 2 7429 2.72400000 3218619807 3218619807 -13.00000000
8.16357422 2.29621458 0.44443694 23 3 7429 8.49200000 3218619809 3218619809 3.00000000
3.08071423 0.86594975 -0.62203735 5 4 7430 3.26000000 3218619812 3218619812 -11.00000000
8.16173172 2.29262257 0.74169534 72 5 7431 8.51000000 3218619814 3218619814 5.00000000
3.88931465 1.09177232 -0.63981694 4 6 7432 4.09000000 3218619816 3218619816 -9.00000000
8.18615341 2.29639983 1.04393280 87 7 7433 8.56600000 3218619818 3218619818 7.00000000
5.22578526 1.46496630 -0.66638160 9 8 7434 5.46800000 3218619821 3218619821 -7.00000000
8.57254601 2.40317774 1.41010022 10 9 7434 9.01400000 3218619823 3218619823 9.00000000
6.66496134 1.86716187 -0.60555810 12 10 7435 6.94800000 3218619825 3218619825 -5.00000000
8.62475300 2.41456628 1.74094129 12 11 7436 9.12400000 3218619828 3218619828 11.00000000
8.16677189 2.28481388 -0.44443694 12 12 7437 8.49200000 3218619830 3218619830 -3.00000000
8.59373188 2.40264702 2.06010175 43 13 7438 9.15800000 3218619832 3218619832 13.00000000
8.16212463 2.28044176 -0.14792660 16 14 7439 8.47600000 3218619835 3218619835 -1.00000000
8.12894630 2.27117205 2.26156092 47 15 7439 8.73800000 3218619837 3218619837 15.00000000
2.16657710 0.60206681 -0.60253072 4 0 7447 2.32800000 3218619858 3218619858 -15.00000000
8.16376972 2.26708293 0.14789169 12 1 7448 8.47400000 3218619860 3218619860 1.00000000
2.56879544 0.71287286 -0.61546606 7 2 7449 2.73600000 3218619862 3218619862 -13.00000000
8.18885994 2.27251124 0.44537899 28 3 7449 8.51000000 3218619865 3218619865 3.00000000
3.08182645 0.85466611 -0.62165570 5 4 7450 3.25800000 3218619867 3218619867 -11.00000000
8.15240479 2.25932980 0.74012655 72 5 7451 8.49200000 3218619869 3218619869 5.00000000
3.87787199 1.07397151 -0.63731402 4 6 7452 4.07400000 3218619871 3218619871 -9.00000000
8.18646717 2.26569271 1.04295778 90 7 7453 8.55800000 3218619874 3218619874 7.00000000
5.23660707 1.44830346 -0.66711277 9 8 7454 5.47400000 3218619876 3218619876 -7.00000000
8.68750095 2.40272713 1.42762089 10 9 7454 9.12600000 3218619878 3218619878 9.00000000
6.64071226 1.83539319 -0.60276914 16 10 7455 6.91600000 3218619881 3218619881 -5.00000000
8.69936275 2.40273929 1.75429785 9 11 7456 9.19400000 3218619883 3218619883 11.00000000
8.16699696 2.25416708 -0.44401824 12 12 7457 8.48400000 3218619885 3218619885 -3.00000000
8.59267330 2.37004399 2.05785227 9 13 7458 9.14800000 3218619888 3218619888 13.00000000
8.15268517 2.24715447 -0.14761245 12 14 7459 8.45800000 3218619890 3218619890 -1.00000000
8.21171570 2.26188326 2.28226638 47 15 7460 8.81800000 3218619892 3218619892 15.00000000
2.17415071 0.59641212 -0.60408366 4 0 7466 2.33400000 3218619913 3218619913 -15.00000000
8.16352844 2.23788381 0.14775208 12 1 7467 8.46600000 3218619915 3218619915 1.00000000
2.55986834 0.70126122 -0.61276668 7 2 7468 2.72400000 3218619918 3218619918 -13.00000000
8.18903732 2.24180341 0.44496030 34 3 7469 8.50200000 3218619920 3218619920 3.00000000
3.09032440 0.84599686 -0.62280059 5 4 7469 3.26400000 3218619922 3218619922 -11.00000000
8.15408707 2.23070574 0.73960364 76 5 7470 8.48600000 3218619924 3218619924 5.00000000
3.85854673 1.05485511 -0.63355958 4 6 7471 4.05000000 3218619927 3218619927 -9.00000000
8.18244553 2.23539424 1.04149544 87 7 7472 8.54600000 3218619929 3218619929 7.00000000
5.23946619 1.43040740 -0.66686904 9 8 7473 5.47200000 3218619931 3218619931 -7.00000000
8.23235130 2.24748421 1.35159373 2 9 7473 8.64000000 3218619934 3218619934 9.00000000
6.63330698 1.80969095 -0.60154891 36 10 7474 6.90200000 3218619936 3218619936 -5.00000000
8.06707001 2.19933558 1.62531102 9 11 7475 8.51800000 3218619938 3218619938 11.00000000
8.15130234 2.22077179 -0.44276220 12 12 7476 8.46000000 3218619941 3218619941 -3.00000000
8.07024193 2.19717431 1.93097985 15 13 7477 8.58400000 3218619943 3218619943 13.00000000
8.16202164 2.22063184 -0.14764735 14 14 7478 8.46000000 3218619945 3218619945 -1.00000000
8.08829403 2.20057297 2.24603176 18 15 7478 8.67800000 3218619948 3218619948 15.00000000
2.18367863 0.59083748 -0.60615420 4 0 7486 2.34200000 3218619968 3218619968 -15.00000000
8.12882233 2.19789147 0.14698416 12 1 7487 8.42200000 3218619971 3218619971 1.00000000
2.56230044 0.69232136 -0.61276668 7 2 7488 2.72400000 3218619973 3218619973 -13.00000000
8.14282322 2.19862700 0.44202948 28 3 7489 8.44600000 3218619975 3218619975 3.00000000
3.08946776 0.83418089 -0.62203735 5 4 7489 3.26000000 3218619977 3218619977 -11.00000000
8.12912273 2.19340563 0.73664033 29 5 7490 8.45200000 3218619980 3218619980 5.00000000
3.86983442 1.04343688 -0.63481104 4 6 7491 4.05800000 3218619982 3218619982 -9.00000000
8.07519436 2.17583108 1.02687109 23 7 7492 8.42600000 3218619984 3218619984 7.00000000
5.23292637 1.40901279 -0.66540664 9 8 7493 5.46000000 3218619987 3218619987 -7.00000000
8.07839298 2.17366862 1.32499993 20 9 7494 8.47000000 3218619989 3218619989 9.00000000
6.63958359 1.78652537 -0.60154891 36 10 7494 6.90200000 3218619991 3218619991 -5.00000000
8.06521797 2.16861391 1.62340295 21 11 7495 8.50800000 3218619994 3218619994 11.00000000
8.08570862 2.17261052 -0.43878466 12 12 7496 8.38400000 3218619996 3218619996 -3.00000000
8.05339527 2.16242075 1.92513108 23 13 7497 8.55800000 3218619998 3218619998 13.00000000
8.05190945 2.16051531 -0.14551817 16 14 7498 8.33800000 3218620001 3218620001 -1.00000000
8.06645012 2.16290784 2.23774958 22 15 7499 8.64600000 3218620003 3218620003 15.00000000
2.18189287 0.58259618 -0.60511893 4 0 7505 2.33800000 3218620024 3218620024 -15.00000000
8.03946114 2.14514637 0.14523892 25 1 7506 8.32200000 3218620026 3218620026 1.00000000
2.56081629 0.68281651 -0.61186689 7 2 7507 2.72000000 3218620028 3218620028 -13.00000000
8.04006386 2.14230084 0.43606320 26 3 7508 8.33200000 3218620030 3218620030 3.00000000
3.09221721 0.82393128 -0.62203735 5 4 7508 3.26000000 3218620033 3218620033 -11.00000000
8.05163765 2.14388013 0.72897065 32 5 7509 8.36400000 3218620035 3218620035 5.00000000
3.88472700 1.03364599 -0.63668829 6 6 7510 4.07000000 3218620037 3218620037 -9.00000000
8.04975224 2.14036918 1.02272749 28 7 7511 8.39200000 3218620040 3218620040 7.00000000
5.21646595 1.38604474 -0.66272551 9 8 7512 5.43800000 3218620042 3218620042 -7.00000000
8.06609058 2.14320612 1.32187128 27 9 7512 8.45000000 3218620044 3218620044 9.00000000
6.64354563 1.76398659 -0.60137463 44 10 7513 6.90000000 3218620047 3218620047 -5.00000000
8.07046700 2.14135337 1.62302136 28 11 7514 8.50600000 3218620049 3218620049 11.00000000
8.02143860 2.12684584 -0.43491179 29 12 7515 8.31000000 3218620051 3218620051 -3.00000000
8.07935905 2.14069414 1.92963016 30 13 7516 8.57800000 3218620054 3218620054 13.00000000
8.02230072 2.12407756 -0.14485498 34 14 7517 8.30000000 3218620056 3218620056 -1.00000000
8.09374809 2.14299488 2.24344349 18 15 7517 8.66800000 3218620058 3218620058 15.00000000
2.18204498 0.57448453 -0.60460126 4 0 7525 2.33600000 3218620079 3218620079 -15.00000000
8.04496670 2.11656141 0.14520402 37 1 7526 8.32000000 3218620081 3218620081 1.00000000
2.55941486 0.67288244 -0.61096704 7 2 7527 2.71600000 3218620083 3218620083 -13.00000000
8.04556084 2.11371541 0.43595850 28 3 7528 8.33000000 3218620086 3218620086 3.00000000
3.09317565 0.81263357 -0.62165570 5 4 7528 3.25800000 3218620088 3218620088 -11.00000000
8.04558277 2.11222005 0.72775048 25 5 7529 8.35000000 3218620090 3218620090 5.00000000
3.90550804 1.02459085 -0.63950408 6 6 7530 4.08800000 3218620093 3218620093 -9.00000000
8.07637691 2.11729121 1.02516496 23 7 7531 8.41200000 3218620095 3218620095 7.00000000
5.24047565 1.37285805 -0.66516286 9 8 7532 5.45800000 3218620097 3218620097 -7.00000000
8.07007027 2.11262751 1.32124555 15 9 7533 8.44600000 3218620100 3218620100 9.00000000
6.63809824 1.73775804 -0.60032874 48 10 7533 6.88800000 3218620102 3218620102 -5.00000000
8.04040813 2.10186362 -0.43553984 34 12 7535 8.32200000 3218620106 3218620106 -3.00000000
8.02386189 2.09454632 -0.14475025 22 14 7537 8.29400000 3218620111 3218620111 -1.00000000
8.20622921 2.14062166 2.27243114 33 15 7538 8.78000000 3218620113 3218620113 15.00000000
2.18029737 0.56589359 -0.60356599 4 0 7545 2.33200000 3218620134 3218620134 -15.00000000
8.07553291 2.09449077 0.14562288 18 1 7546 8.34400000 3218620136 3218620136 1.00000000
2.56174803 0.66394430 -0.61096704 7 2 7547 2.71600000 3218620139 3218620139 -13.00000000
8.14956379 2.11065555 0.44119212 42 3 7548 8.43000000 3218620141 3218620141 3.00000000
3.08458996 0.79887807 -0.61936599 5 4 7548 3.24600000 3218620143 3218620143 -11.00000000
8.15127754 2.10958171 0.73664033 54 5 7549 8.45200000 3218620146 3218620146 5.00000000
3.89184856 1.00650048 -0.63668829 6 6 7550 4.07000000 3218620148 3218620148 -9.00000000
5.23370361 1.35157883 -0.66370046 9 8 7552 5.44600000 3218620153 3218620153 -7.00000000
6.63833618 1.71308267 -0.59980583 44 10 7553 6.88200000 3218620157 3218620157 -5.00000000
8.10958576 2.08973312 -0.43888932 17 12 7555 8.38600000 3218620162 3218620162 -3.00000000
8.13957405 2.09443092 -0.14670493 16 14 7557 8.40600000 3218620166 3218620166 -1.00000000
8.20018578 2.11002731 2.26880765 47 15 7557 8.76600000 3218620169 3218620169 15.00000000
2.18600249 0.55923712 -0.60460126 4 0 7565 2.33600000 3218620189 3218620189 -15.00000000
8.15835381 2.08560491 0.14698416 12 1 7566 8.42200000 3218620192 3218620192 1.00000000
2.57537866 0.65789205 -0.61366647 7 2 7567 2.72800000 3218620194 3218620194 -13.00000000
8.18203926 2.08861756 0.44255283 89 3 7568 8.45600000 3218620196 3218620196 3.00000000
3.09877348 0.79101950 -0.62165570 5 4 7568 3.25800000 3218620199 3218620199 -11.00000000
8.16245270 2.08210039 0.73698896 79 5 7569 8.45600000 3218620201 3218620201 5.00000000
3.88002467 0.98900592 -0.63418531 6 6 7570 4.05400000 3218620203 3218620203 -9.00000000
8.18714428 2.08535528 1.03735185 92 7 7571 8.51200000 3218620206 3218620206 7.00000000
5.25762701 1.33819807 -0.66613781 9 8 7572 5.46600000 3218620208 3218620208 -7.00000000
6.64234447 1.68940902 -0.59963149 40 10 7573 6.88000000 3218620212 3218620212 -5.00000000
8.15941906 2.07222843 -0.44119212 17 12 7575 8.43000000 3218620217 3218620217 -3.00000000
8.16428089 2.07042980 -0.14701907 10 14 7577 8.42400000 3218620222 3218620222 -1.00000000
8.21348286 2.08138156 2.27036071 51 15 7578 8.77200000 3218620224 3218620224 15.00000000
2.18419480 0.55065858 -0.60356599 4 0 7585 2.33200000 3218620245 3218620245 -15.00000000
8.15976620 2.05564880 0.14687945 12 1 7586 8.41600000 3218620247 3218620247 1.00000000
2.56632090 0.64604390 -0.61096704 7 2 7587 2.71600000 3218620249 3218620249 -13.00000000
8.17572117 2.05663347 0.44182014 99 3 7588 8.44200000 3218620252 3218620252 3.00000000
3.09961176 0.77971900 -0.62127411 5 4 7588 3.25600000 3218620254 3218620254 -11.00000000
8.16580677 2.05262399 0.73664033 76 5 7589 8.45200000 3218620256 3218620256 5.00000000
3.88920093 0.97689974 -0.63512391 6 6 7590 4.06000000 3218620259 3218620259 -9.00000000
8.16356850 2.04903197 1.03345203 97 7 7591 8.48000000 3218620261 3218620261 7.00000000
5.24301147 1.31500804 -0.66370046 6 8 7592 5.44600000 3218620263 3218620263 -7.00000000
6.64626837 1.66572821 -0.59945720 40 10 7593 6.87800000 3218620268 3218620268 -5.00000000
8.15691566 2.04130983 -0.44066876 12 12 7595 8.42000000 3218620272 3218620272 -3.00000000
8.17145824 2.04191852 -0.14701907 10 14 7597 8.42400000 3218620277 3218620277 -1.00000000
8.22783661 2.05600643 2.27243114 51 15 7597 8.78000000 3218620279 3218620279 15.00000000
2.19360328 0.54489386 -0.60563654 4 0 7605 2.34000000 3218620300 3218620300 -15.00000000
8.16106987 2.02570820 0.14677474 12 1 7606 8.41000000 3218620302 3218620302 1.00000000
2.56477737 0.63614357 -0.61006725 7 2 7607 2.71200000 3218620305 3218620305 -13.00000000
8.17121887 2.02519941 0.44119212 99 3 7608 8.43000000 3218620307 3218620307 3.00000000
3.09850335 0.76795000 -0.62051088 5 4 7608 3.25200000 3218620309 3218620309 -11.00000000
8.16905403 2.02314973 0.73629171 76 5 7609 8.44800000 3218620312 3218620312 5.00000000
3.89642239 0.96426708 -0.63574964 6 6 7610 4.06400000 3218620314 3218620314 -9.00000000
8.17645168 2.02195287 1.03418326 99 7 7611 8.48600000 3218620316 3218620316 7.00000000
5.23986149 1.29479373 -0.66272551 9 8 7612 5.43800000 3218620318 3218620318 -7.00000000
6.63656807 1.63869727 -0.59806269 16 10 7613 6.86200000 3218620323 3218620323 -5.00000000
8.15235615 2.00995564 -0.44004071 12 12 7615 8.40800000 3218620328 3218620328 -3.00000000
8.15911865 2.00860214 -0.14667003 10 14 7617 8.40400000 3218620332 3218620332 -1.00000000
8.22593689 2.02352881 2.26984310 47 15 7618 8.77000000 3218620335 3218620335 15.00000000
2.19164515 0.53669763 -0.60460126 4 0 7624 2.33600000 3218620355 3218620355 -15.00000000
8.17356968 2.00005984 0.14687945 12 1 7625 8.41600000 3218620358 3218620358 1.00000000
2.57823062 0.63041210 -0.61276668 7 2 7626 2.72400000 3218620360 3218620360 -13.00000000
8.17788982 1.99809158 0.44119212 99 3 7627 8.43000000 3218620362 3218620362 3.00000000
3.09531140 0.75627285 -0.61936599 5 4 7627 3.24600000 3218620365 3218620365 -11.00000000
8.16410446 1.99321365 0.73524582 79 5 7628 8.43600000 3218620367 3218620367 5.00000000
3.89192224 0.94946802 -0.63449818 6 6 7629 4.05600000 3218620369 3218620369 -9.00000000
8.17346859 1.99247694 1.03296459 92 7 7630 8.47600000 3218620371 3218620371 7.00000000
5.25955582 1.28116906 -0.66467541 9 8 7631 5.45400000 3218620374 3218620374 -7.00000000
6.63615799 1.61526704 -0.59753978 8 10 7632 6.85600000 3218620378 3218620378 -5.00000000
8.16285801 1.98385382 -0.44025007 12 12 7634 8.41200000 3218620383 3218620383 -3.00000000
8.14824486 1.97729051 -0.14635588 12 14 7636 8.38600000 3218620388 3218620388 -1.00000000
8.21723461 1.99403179 2.26570201 49 15 7636 8.75400000 3218620390 3218620390 15.00000000
2.18411541 0.52677935 -0.60201311 4 0 7644 2.32600000 3218620411 3218620411 -15.00000000
8.15911674 1.96636283 0.14649551 12 1 7645 8.39400000 3218620413 3218620413 1.00000000
2.57852101 0.62095231 -0.61231679 7 2 7646 2.72200000 3218620415 3218620415 -13.00000000
8.17704678 1.96766412 0.44077343 94 3 7647 8.42200000 3218620418 3218620418 3.00000000
3.10556769 0.74730080 -0.62089247 5 4 7647 3.25400000 3218620420 3218620420 -11.00000000
8.15551567 1.96097720 0.73385137 79 5 7648 8.42000000 3218620422 3218620422 5.00000000
3.88945055 0.93449247 -0.63355958 6 6 7649 4.05000000 3218620424 3218620424 -9.00000000
8.18616486 1.96532428 1.03369582 99 7 7650 8.48200000 3218620427 3218620427 7.00000000
5.26013517 1.26187587 -0.66418791 9 8 7651 5.45000000 3218620429 3218620429 -7.00000000
6.61269331 1.58512616 -0.59492511 16 10 7652 6.82600000 3218620434 3218620434 -5.00000000
8.16584778 1.95441830 -0.44004071 12 12 7654 8.40800000 3218620438 3218620438 -3.00000000
8.13953781 1.94511747 -0.14607663 14 14 7656 8.37000000 3218620443 3218620443 -1.00000000
8.20159817 1.95994794 2.25949025 47 15 7656 8.73000000 3218620445 3218620445 15.00000000
2.18969989 0.52004492 -0.60304838 4 0 7664 2.33000000 3218620466 3218620466 -15.00000000
8.14452934 1.93279123 0.14611155 12 1 7665 8.37200000 3218620468 3218620468 1.00000000
2.57308817 0.61014932 -0.61051714 7 2 7666 2.71400000 3218620471 3218620471 -13.00000000
8.17997932 1.93818796 0.44056407 99 3 7667 8.41800000 3218620473 3218620473 3.00000000
3.11006761 0.73690844 -0.62127411 5 4 7667 3.25600000 3218620475 3218620475 -11.00000000
8.16037178 1.93203807 0.73367703 83 5 7668 8.41800000 3218620477 3218620477 5.00000000
3.89076662 0.92045528 -0.63324672 6 6 7669 4.04800000 3218620480 3218620480 -9.00000000
8.17365646 1.93217063 1.03125834 99 7 7670 8.46200000 3218620482 3218620482 7.00000000
5.26064444 1.24259412 -0.66370046 9 8 7671 5.44600000 3218620484 3218620484 -7.00000000
6.62400389 1.56340694 -0.59544802 20 10 7672 6.83200000 3218620489 3218620489 -5.00000000
8.16678905 1.92452788 -0.43972671 17 12 7674 8.40200000 3218620494 3218620494 -3.00000000
8.15211773 1.91806734 -0.14618136 14 14 7676 8.37600000 3218620498 3218620498 -1.00000000
8.20462799 1.93042219 2.25845504 47 15 7676 8.72600000 3218620500 3218620500 15.00000000
2.18773961 0.51151860 -0.60201311 4 0 7684 2.32600000 3218620521 3218620521 -15.00000000
8.15706825 1.90571451 0.14621626 18 1 7685 8.37800000 3218620524 3218620524 1.00000000
2.57140684 0.60027784 -0.60961735 7 2 7686 2.71000000 3218620526 3218620526 -13.00000000
8.17502403 1.90690053 0.43993604 99 3 7687 8.40600000 3218620528 3218620528 3.00000000
3.11262083 0.72604781 -0.62127411 6 4 7687 3.25600000 3218620530 3218620530 -11.00000000
8.15348339 1.90037560 0.73245686 76 5 7688 8.40400000 3218620533 3218620533 5.00000000
3.89395595 0.90686840 -0.63324672 6 6 7689 4.04800000 3218620535 3218620535 -9.00000000
8.15908432 1.89867830 1.02857721 95 7 7690 8.44000000 3218620537 3218620537 7.00000000
5.25914907 1.22287476 -0.66296923 9 8 7691 5.44000000 3218620540 3218620540 -7.00000000
6.64494610 1.54388249 -0.59684253 28 10 7692 6.84800000 3218620544 3218620544 -5.00000000
8.15983772 1.89284956 -0.43899399 17 12 7694 8.38800000 3218620549 3218620549 -3.00000000
8.14902306 1.88734341 -0.14600684 16 14 7696 8.36600000 3218620553 3218620553 -1.00000000
8.21164894 1.90033782 2.25845504 49 15 7697 8.72600000 3218620556 3218620556 15.00000000
2.20080781 0.50647843 -0.60511893 4 0 7704 2.33800000 3218620577 3218620577 -15.00000000
8.15782356 1.87588501 0.14611155 15 1 7705 8.37200000 3218620579 3218620579 1.00000000
2.56968808 0.59042549 -0.60871756 7 2 7706 2.70600000 3218620581 3218620581 -13.00000000
8.16800499 1.87522435 0.43920335 100 3 7707 8.39200000 3218620583 3218620583 3.00000000
3.12853074 0.71825343 -0.62394542 15 4 7707 3.27000000 3218620586 3218620586 -11.00000000
8.15618324 1.87101209 0.73210824 76 5 7708 8.40000000 3218620588 3218620588 5.00000000
3.90865040 0.89591843 -0.63512391 6 6 7709 4.06000000 3218620590 3218620590 -9.00000000
8.16953182 1.87107253 1.02906477 97 7 7710 8.44400000 3218620593 3218620593 7.00000000
5.25564528 1.20273817 -0.66199428 9 8 7711 5.43200000 3218620595 3218620595 -7.00000000
6.63281441 1.51668084 -0.59527373 16 10 7712 6.83000000 3218620600 3218620600 -5.00000000
8.15860653 1.86257672 -0.43857533 17 12 7714 8.38000000 3218620604 3218620604 -3.00000000
8.23811913 1.87921643 1.95077550 3 13 7715 8.67200000 3218620606 3218620606 13.00000000
8.14581299 1.85666454 -0.14583232 18 14 7716 8.35600000 3218620609 3218620609 -1.00000000
8.21978855 1.87352586 2.25897264 51 15 7716 8.72800000 3218620611 3218620611 15.00000000
2.19879389 0.49793971 -0.60408366 4 0 7724 2.33400000 3218620632 3218620632 -15.00000000
8.15652084 1.84563220 0.14597192 15 1 7725 8.36400000 3218620634 3218620634 1.00000000
2.58123708 0.58360076 -0.61096704 6 2 7726 2.71600000 3218620636 3218620636 -13.00000000
8.16086292 1.84362054 0.43847063 100 3 7727 8.37800000 3218620639 3218620639 3.00000000
3.10803890 0.70213699 -0.61936599 16 4 7727 3.24600000 3218620641 3218620641 -11.00000000
8.14711666 1.83902073 0.73071373 76 5 7728 8.38400000 3218620643 3218620643 5.00000000
3.91560793 0.88313848 -0.63574964 6 6 7729 4.06400000 3218620646 3218620646 -9.00000000
8.16826725 1.84079850 1.02808976 92 7 7730 8.43600000 3218620648 3218620648 7.00000000
5.26562166 1.18569338 -0.66272551 9 8 7731 5.43800000 3218620650 3218620650 -7.00000000
6.63612461 1.49308133 -0.59509939 12 10 7732 6.82800000 3218620655 3218620655 -5.00000000
8.16700745 1.83452427 -0.43867999 17 12 7734 8.38200000 3218620659 3218620659 -3.00000000
8.24843121 1.85130215 1.95167530 3 13 7735 8.67600000 3218620662 3218620662 13.00000000
8.14638996 1.82690632 -0.14572759 16 14 7736 8.35000000 3218620664 3218620664 -1.00000000
8.21119785 1.84144008 2.25483155 51 15 7736 8.71200000 3218620666 3218620666 15.00000000
2.18543386 0.48690063 -0.59994256 4 0 7744 2.31800000 3218620688 3218620688 -15.00000000
8.15120220 1.81454229 0.14576250 15 1 7745 8.35200000 3218620690 3218620690 1.00000000
2.58706307 0.57543325 -0.61186689 6 2 7746 2.72000000 3218620693 3218620693 -13.00000000
8.16108322 1.81524706 0.43815663 100 3 7746 8.37200000 3218620695 3218620695 3.00000000
3.12196970 0.69383925 -0.62165570 6 4 7747 3.25800000 3218620697 3218620697 -11.00000000
8.14181709 1.80797923 0.72966790 76 5 7748 8.37200000 3218620700 3218620700 5.00000000
3.90709591 0.86689776 -0.63387245 6 6 7749 4.05200000 3218620702 3218620702 -9.00000000
8.17851925 1.81313407 1.02857721 95 7 7750 8.44000000 3218620704 3218620704 7.00000000
5.27360439 1.16816437 -0.66321295 6 8 7751 5.44200000 3218620706 3218620706 -7.00000000
6.62184286 1.46560228 -0.59335631 12 10 7752 6.80800000 3218620711 3218620711 -5.00000000
8.16360950 1.80385029 -0.43815663 17 12 7754 8.37200000 3218620716 3218620716 -3.00000000
8.25294018 1.82207835 1.95122540 3 13 7755 8.67400000 3218620718 3218620718 13.00000000
8.14685917 1.79716671 -0.14562288 16 14 7756 8.34400000 3218620720 3218620720 -1.00000000
8.20248413 1.80943727 2.25069046 56 15 7756 8.69600000 3218620723 3218620723 15.00000000
2.20221663 0.48257723 -0.60408366 4 0 7764 2.33400000 3218620743 3218620743 -15.00000000
8.14576530 1.78351200 0.14555307 21 1 7765 8.34000000 3218620746 3218620746 1.00000000
2.58905602 0.56639922 -0.61186689 6 2 7766 2.72000000 3218620748 3218620748 -13.00000000
8.16768169 1.78532302 0.43815663 100 3 7767 8.37200000 3218620750 3218620750 3.00000000
3.13588047 0.68545270 -0.62394542 5 4 7767 3.27000000 3218620753 3218620753 -11.00000000
8.15002441 1.77997315 0.72984219 76 5 7768 8.37400000 3218620755 3218620755 5.00000000
3.90237832 0.85156953 -0.63262099 6 6 7769 4.04400000 3218620757 3218620757 -9.00000000
8.16928196 1.78119159 1.02662730 95 7 7770 8.42400000 3218620759 3218620759 7.00000000
5.26213312 1.14636850 -0.66126305 9 8 7771 5.42600000 3218620762 3218620762 -7.00000000
6.62691832 1.44247890 -0.59335631 8 10 7772 6.80800000 3218620766 3218620766 -5.00000000
8.16009808 1.77322245 -0.43763328 17 12 7774 8.36200000 3218620771 3218620771 -3.00000000
8.25925064 1.79325902 1.95122540 3 13 7775 8.67400000 3218620773 3218620773 13.00000000
8.15699196 1.76956582 -0.14569269 14 14 7776 8.34800000 3218620776 3218620776 -1.00000000
8.20528507 1.77854300 2.24965525 49 15 7777 8.69200000 3218620778 3218620778 15.00000000
2.20388770 0.47488710 -0.60408366 4 0 7784 2.33400000 3218620799 3218620799 -15.00000000
8.15585136 1.75590885 0.14562288 15 1 7785 8.34400000 3218620801 3218620801 1.00000000
2.58149147 0.55530918 -0.60961735 7 2 7786 2.71000000 3218620803 3218620803 -13.00000000
8.16379452 1.75612807 0.43763328 100 3 7786 8.36200000 3218620806 3218620806 3.00000000
3.13825417 0.67450225 -0.62394542 5 4 7787 3.27000000 3218620808 3218620808 -11.00000000
8.14839649 1.74984014 0.72914493 76 5 7788 8.36600000 3218620810 3218620810 5.00000000
3.91305256 0.83960021 -0.63387245 6 6 7789 4.05200000 3218620812 3218620812 -9.00000000
8.15992165 1.74933565 1.02467740 92 7 7790 8.40800000 3218620815 3218620815 7.00000000
5.26222086 1.12716174 -0.66077560 9 8 7791 5.42200000 3218620817 3218620817 -7.00000000
6.62801647 1.41850388 -0.59300768 8 10 7792 6.80400000 3218620822 3218620822 -5.00000000
8.15256596 1.74180651 -0.43690056 17 12 7794 8.34800000 3218620826 3218620826 -3.00000000
8.25211906 1.76157022 1.94807613 3 13 7795 8.66000000 3218620829 3218620829 13.00000000
8.16311932 1.74108183 -0.14569269 14 14 7796 8.34800000 3218620831 3218620831 -1.00000000
8.20924854 1.75092053 2.24913740 49 15 7796 8.69000000 3218620833 3218620833 15.00000000
2.20931172 0.46799189 -0.60511893 4 0 7804 2.33800000 3218620854 3218620854 -15.00000000
8.16584396 1.72825706 0.14569269 15 1 7805 8.34800000 3218620856 3218620856 1.00000000
2.58150768 0.54589152 -0.60916746 6 2 7806 2.70800000 3218620858 3218620858 -13.00000000
8.14447212 1.72224867 0.43627253 100 3 7806 8.33600000 3218620861 3218620861 3.00000000
3.14058948 0.66354364 -0.62394542 5 4 7807 3.27000000 3218620863 3218620863 -11.00000000
8.15250492 1.72097468 0.72897065 76 5 7808 8.36400000 3218620865 3218620865 5.00000000
3.91209388 0.82512063 -0.63324672 6 6 7809 4.04800000 3218620868 3218620868 -9.00000000
8.16792107 1.72125089 1.02492118 99 7 7810 8.41000000 3218620870 3218620870 7.00000000
5.26223803 1.10796833 -0.66028810 6 8 7811 5.41800000 3218620872 3218620872 -7.00000000
6.63682699 1.39617944 -0.59335631 12 10 7812 6.80800000 3218620877 3218620877 -5.00000000
8.15664196 1.71292758 -0.43679589 17 12 7814 8.34600000 3218620882 3218620882 -3.00000000
8.24486732 1.72995293 1.94492686 3 13 7815 8.64600000 3218620884 3218620884 13.00000000
8.14761829 1.70806336 -0.14530873 16 14 7816 8.32600000 3218620886 3218620886 -1.00000000
8.21341896 1.72185791 2.24861979 51 15 7816 8.68800000 3218620888 3218620888 15.00000000
2.19950414 0.45829856 -0.60201311 4 0 7823 2.32600000 3218620909 3218620909 -15.00000000
8.16565704 1.69994593 0.14558798 12 1 7824 8.34200000 3218620911 3218620911 1.00000000
2.58902740 0.53851849 -0.61051714 6 2 7825 2.71400000 3218620914 3218620914 -13.00000000
8.15238953 1.69421506 0.43637720 97 3 7826 8.33800000 3218620916 3218620916 3.00000000
