# .PCD v0.7 - Point Cloud Data file format
VERSION 0.7
FIELDS x y z intensity laser_id azimuth distance_m adjustedtime timestamp vertical_angle
SIZE 4 4 4 1 1 2 8 8 4 8
TYPE F F F U U U F U U F
COUNT 1 1 1 1 1 1 1 1 1 1
WIDTH 522
HEIGHT 1
VIEWPOINT 0 0 0 1 0 0 0
POINTS 522
DATA ascii
-4.71581793 9.79437065 2.11301875 21 11 33429 11.07400000 1202696939 1202696939 11.00000000
-4.15548468 8.63831711 2.21306849 62 13 33431 9.83800000 1202696944 1202696944 13.00000000
-3.91898465 8.15397167 2.42409921 47 15 33433 9.36600000 1202696948 1202696948 15.00000000
-0.93572736 1.95301366 -0.58027232 4 0 33440 2.24200000 1202696969 1202696969 -15.00000000
-1.09214926 2.28153491 -0.58397293 3 2 33442 2.59600000 1202696974 1202696974 -13.00000000
-1.30240321 2.72198176 -0.58654684 2 4 33443 3.07400000 1202696978 1202696978 -11.00000000
-1.60938489 3.36658168 -0.59100944 2 6 33445 3.77800000 1202696983 1202696983 -9.00000000
-2.10720062 4.41189146 -0.60032839 2 8 33447 4.92600000 1202696987 1202696987 -7.00000000
-3.00859880 6.30199623 -0.61096174 4 10 33448 7.01000000 1202696992 1202696992 -5.00000000
-4.67568159 9.79836941 2.11034751 25 11 33449 11.06000000 1202696994 1202696994 11.00000000
-4.11691952 8.63517952 2.20856953 60 13 33451 9.81800000 1202696999 1202696999 13.00000000
-3.92184234 8.22970486 2.44273424 45 15 33452 9.43800000 1202697004 1202697004 15.00000000
-0.92973304 1.95801318 -0.58078992 4 0 33460 2.24400000 1202697024 1202697024 -15.00000000
-1.08417857 2.28533340 -0.58397293 3 2 33462 2.59600000 1202697029 1202697029 -13.00000000
-1.29121137 2.72296357 -0.58578360 2 4 33463 3.07000000 1202697033 1202697033 -11.00000000
-1.59931505 3.37574935 -0.59163517 2 6 33465 3.78200000 1202697038 1202697038 -9.00000000
-2.09178734 4.41921997 -0.60032839 2 8 33467 4.92600000 1202697043 1202697043 -7.00000000
-3.01896191 6.38089752 -0.61758560 4 10 33468 7.08600000 1202697047 1202697047 -5.00000000
-4.63641453 9.80398178 2.10805774 25 11 33469 11.04800000 1202697050 1202697050 11.00000000
-4.08675194 8.64949703 2.20856953 62 13 33471 9.81800000 1202697054 1202697054 13.00000000
-3.91391897 8.29119301 2.45671034 42 15 33473 9.49200000 1202697059 1202697059 15.00000000
-0.91795737 1.95075870 -0.57768410 4 0 33480 2.23200000 1202697080 1202697080 -15.00000000
-1.07785296 2.29263091 -0.58487272 3 2 33482 2.60000000 1202697084 1202697084 -13.00000000
-1.28336859 2.73100781 -0.58654684 2 4 33483 3.07400000 1202697089 1202697089 -11.00000000
-1.59423780 3.39561629 -0.59413809 2 6 33485 3.79800000 1202697093 1202697093 -9.00000000
-2.08983707 4.45525026 -0.60422820 2 8 33487 4.95800000 1202697098 1202697098 -7.00000000
-2.99667001 6.39139700 -0.61758560 4 10 33488 7.08600000 1202697103 1202697103 -5.00000000
-4.59050035 9.79521847 2.10271502 25 11 33489 11.02000000 1202697105 1202697105 11.00000000
-4.05984020 8.67076969 2.21036911 62 13 33491 9.82600000 1202697110 1202697110 13.00000000
-3.90359926 8.34086990 2.46758080 45 15 33492 9.53400000 1202697114 1202697114 15.00000000
-0.91195875 1.95570195 -0.57820177 4 0 33500 2.23400000 1202697135 1202697135 -15.00000000
-1.07313538 2.30344534 -0.58667237 3 2 33502 2.60800000 1202697139 1202697139 -13.00000000
-1.27548528 2.73903060 -0.58731008 2 4 33503 3.07800000 1202697144 1202697144 -11.00000000
-1.57737553 3.39041424 -0.59226090 2 6 33505 3.78600000 1202697149 1202697149 -9.00000000
-2.06088471 4.43371582 -0.60032839 2 8 33507 4.92600000 1202697153 1202697153 -7.00000000
-2.97769976 6.40904570 -0.61828285 4 10 33508 7.09400000 1202697158 1202697158 -5.00000000
-4.54305029 9.78269196 2.09660935 25 11 33509 10.98800000 1202697160 1202697160 11.00000000
-4.02954865 8.68488789 2.21036911 59 13 33511 9.82600000 1202697165 1202697165 13.00000000
-3.90468812 8.42347717 2.48776865 47 15 33513 9.61200000 1202697169 1202697169 15.00000000
-0.90627903 1.96046889 -0.57871938 4 0 33519 2.23600000 1202697190 1202697190 -15.00000000
-1.06222260 2.29991460 -0.58487272 3 2 33521 2.60000000 1202697195 1202697195 -13.00000000
-1.26474965 2.73968005 -0.58654684 2 4 33522 3.07400000 1202697199 1202697199 -11.00000000
-1.56612384 3.39562654 -0.59226090 2 6 33524 3.78600000 1202697204 1202697204 -9.00000000
-2.04617071 4.44052553 -0.60032839 2 8 33526 4.92600000 1202697209 1202697209 -7.00000000
-2.94476104 6.39354944 -0.61584246 4 10 33527 7.06600000 1202697213 1202697213 -5.00000000
-4.50565863 9.78700352 2.09431958 25 11 33528 10.97600000 1202697215 1202697215 11.00000000
-3.99746919 8.69112110 2.20856953 60 13 33530 9.81800000 1202697220 1202697220 13.00000000
-3.90160751 8.48660374 2.50278020 47 15 33531 9.67000000 1202697225 1202697225 15.00000000
-0.90667069 1.97942770 -0.58337814 4 0 33539 2.25400000 1202697245 1202697245 -15.00000000
-1.05418801 2.30360842 -0.58487272 3 2 33541 2.60000000 1202697250 1202697250 -13.00000000
-1.25517869 2.74407816 -0.58654684 2 4 33542 3.07400000 1202697255 1202697255 -11.00000000
-1.55918777 3.41185260 -0.59413809 2 6 33544 3.79800000 1202697259 1202697259 -9.00000000
-2.06363654 4.51987219 -0.61007792 2 8 33546 5.00600000 1202697264 1202697264 -7.00000000
-2.92904282 6.41829014 -0.61723697 4 10 33547 7.08200000 1202697268 1202697268 -5.00000000
-4.46739435 9.79374123 2.09241152 21 11 33548 10.96600000 1202697271 1202697271 11.00000000
-3.96225834 8.69438267 2.20587015 64 13 33550 9.80600000 1202697275 1202697275 13.00000000
-3.87928200 8.52018738 2.50847411 42 15 33552 9.69200000 1202697280 1202697280 15.00000000
-0.89097369 1.96322978 -0.57768410 4 0 33559 2.23200000 1202697301 1202697301 -15.00000000
-1.04935932 2.31437349 -0.58667237 3 2 33561 2.60800000 1202697305 1202697305 -13.00000000
-1.24235082 2.74129009 -0.58502036 2 4 33562 3.06600000 1202697310 1202697310 -11.00000000
-1.55541646 3.43526936 -0.59726679 2 6 33564 3.81800000 1202697315 1202697315 -9.00000000
-2.01512027 4.45470238 -0.60032839 2 8 33566 4.92600000 1202697319 1202697319 -7.00000000
-2.91154623 6.43936825 -0.61828285 4 10 33567 7.09400000 1202697324 1202697324 -5.00000000
-4.42671204 9.79496288 2.08935857 21 11 33568 10.95000000 1202697326 1202697326 11.00000000
-3.93830061 8.72236919 2.20946932 64 13 33570 9.82200000 1202697331 1202697331 13.00000000
-3.84782791 8.52596092 2.50640368 42 15 33571 9.68400000 1202697335 1202697335 15.00000000
-0.88332307 1.96456587 -0.57716650 4 0 33579 2.23000000 1202697356 1202697356 -15.00000000
-1.04446840 2.32513285 -0.58847195 3 2 33581 2.61600000 1202697361 1202697361 -13.00000000
-1.24081588 2.76352000 -0.58883655 2 4 33582 3.08600000 1202697365 1202697365 -11.00000000
-1.53290522 3.41724730 -0.59319949 2 6 33584 3.79200000 1202697370 1202697370 -9.00000000
-4.81339073 10.74034691 -1.44512665 2 8 33586 11.85800000 1202697374 1202697374 -7.00000000
-2.88905072 6.44949198 -0.61828285 4 10 33587 7.09400000 1202697379 1202697379 -5.00000000
-4.38447142 9.79243660 2.08554220 12 11 33588 10.93000000 1202697381 1202697381 11.00000000
-4.80623055 10.73943424 -0.61662221 8 12 33589 11.78200000 1202697384 1202697384 -3.00000000
-3.92533588 8.77519798 2.21936703 62 13 33590 9.86600000 1202697386 1202697386 13.00000000
-4.79446411 10.72317982 -0.20503087 8 14 33591 11.74800000 1202697388 1202697388 -1.00000000
-3.81655288 8.54000664 2.50640368 42 15 33592 9.68400000 1202697391 1202697391 15.00000000
-0.88073534 1.97630715 -0.57975465 4 0 33598 2.24000000 1202697411 1202697411 -15.00000000
-4.77297783 10.71525002 0.20475163 10 1 33599 11.73200000 1202697414 1202697414 1.00000000
-1.03516698 2.32502317 -0.58757216 3 2 33600 2.61200000 1202697416 1202697416 -13.00000000
-4.78697586 10.75677586 0.61704093 10 3 33601 11.79000000 1202697418 1202697418 3.00000000
-1.23004842 2.76403236 -0.58807331 2 4 33601 3.08200000 1202697421 1202697421 -11.00000000
-4.77424097 10.73320293 1.02774048 12 5 33602 11.79200000 1202697423 1202697423 5.00000000
-1.52397239 3.42772698 -0.59413809 2 6 33603 3.79800000 1202697425 1202697425 -9.00000000
-4.77720642 10.74997330 1.44439542 8 7 33604 11.85200000 1202697427 1202697427 7.00000000
-4.76001978 10.71633720 -1.43976438 2 8 33605 11.81400000 1202697430 1202697430 -7.00000000
-2.89028478 6.51002455 -0.62316358 4 10 33606 7.15000000 1202697434 1202697434 -5.00000000
-4.76087332 10.73340416 -0.61536616 8 12 33608 11.75800000 1202697439 1202697439 -3.00000000
-3.91043162 8.82023430 2.22746539 66 13 33609 9.90200000 1202697441 1202697441 13.00000000
-4.75401735 10.72805023 -0.20482144 8 14 33610 11.73600000 1202697444 1202697444 -1.00000000
-3.79283547 8.55902004 2.50847411 40 15 33610 9.69200000 1202697446 1202697446 15.00000000
-0.87695223 1.98643863 -0.58182520 4 0 33618 2.24800000 1202697467 1202697467 -15.00000000
-4.73312378 10.72635746 0.20464692 13 1 33619 11.72600000 1202697469 1202697469 1.00000000
-1.03019047 2.33575439 -0.58937174 3 2 33620 2.62000000 1202697471 1202697471 -13.00000000
-4.73973036 10.75148964 0.61578488 18 3 33621 11.76600000 1202697474 1202697474 3.00000000
-1.22356045 2.77549481 -0.58959979 2 4 33621 3.09000000 1202697476 1202697476 -11.00000000
-4.73353243 10.74250984 1.02704322 17 5 33622 11.78400000 1202697478 1202697478 5.00000000
-1.51677525 3.44387269 -0.59601533 2 6 33623 3.81000000 1202697480 1202697480 -9.00000000
-4.73645401 10.75931549 1.44342053 23 7 33624 11.84400000 1202697483 1202697483 7.00000000
-4.71938562 10.72561932 -1.43878949 2 8 33625 11.80600000 1202697485 1202697485 -7.00000000
-4.73367977 10.75810528 1.86157012 12 9 33625 11.90000000 1202697487 1202697487 9.00000000
-2.88438725 6.55837345 -0.62682408 4 10 33626 7.19200000 1202697490 1202697490 -5.00000000
-4.53103352 10.30731583 2.18857908 28 11 33627 11.47000000 1202697492 1202697492 11.00000000
-4.70971918 10.71887302 -0.61358672 12 12 33628 11.72400000 1202697494 1202697494 -3.00000000
-3.90312743 8.88735771 2.24096251 68 13 33629 9.96200000 1202697497 1202697497 13.00000000
-4.70769930 10.72443771 -0.20443749 8 14 33630 11.71400000 1202697499 1202697499 -1.00000000
-3.76371241 8.57397652 2.50899172 38 15 33630 9.69400000 1202697501 1202697501 15.00000000
-0.87430799 2.00026035 -0.58493102 4 0 33639 2.26000000 1202697522 1202697522 -15.00000000
-4.68897438 10.73263836 0.20443749 20 1 33640 11.71400000 1202697524 1202697524 1.00000000
-1.02474201 2.34665799 -0.59117138 3 2 33641 2.62800000 1202697527 1202697527 -13.00000000
-4.68591118 10.73583984 0.61390078 21 3 33642 11.73000000 1202697529 1202697529 3.00000000
-1.20709670 2.76556611 -0.58654684 2 4 33642 3.07400000 1202697531 1202697531 -11.00000000
-4.69253397 10.75613403 1.02669466 17 5 33643 11.78000000 1202697533 1202697533 5.00000000
-1.49782610 3.43492293 -0.59351236 2 6 33644 3.79400000 1202697536 1202697536 -9.00000000
-4.68826246 10.75658607 1.44073939 19 7 33645 11.82200000 1202697538 1202697538 7.00000000
-4.66418600 10.70644760 -1.43391466 2 8 33646 11.76600000 1202697540 1202697540 -7.00000000
-4.68366194 10.75627995 1.85812855 15 9 33647 11.87800000 1202697543 1202697543 9.00000000
-4.67229700 10.73017979 -1.02390563 4 10 33647 11.74800000 1202697545 1202697545 -5.00000000
-4.49792576 10.33465481 2.19086885 40 11 33648 11.48200000 1202697547 1202697547 11.00000000
-4.66641760 10.72690487 -0.61306340 8 12 33649 11.71400000 1202697550 1202697550 -3.00000000
-3.90316391 8.97666264 2.25985837 64 13 33650 10.04600000 1202697552 1202697552 13.00000000
-4.66517210 10.73428440 -0.20429787 8 14 33651 11.70600000 1202697554 1202697554 -1.00000000
-3.73457193 8.59302807 2.51054478 40 15 33651 9.70000000 1202697556 1202697556 15.00000000
-0.86271524 1.99266303 -0.58182520 4 0 33659 2.24800000 1202697577 1202697577 -15.00000000
-4.64830494 10.74159908 0.20429787 23 1 33660 11.70600000 1202697580 1202697580 1.00000000
-1.01035535 2.33591199 -0.58757216 3 2 33661 2.61200000 1202697582 1202697582 -13.00000000
-4.64365196 10.74113178 0.61327273 23 3 33662 11.71800000 1202697584 1202697584 3.00000000
-1.20366836 2.78417945 -0.58959979 4 4 33662 3.09000000 1202697586 1202697586 -11.00000000
-4.64547586 10.75050163 1.02460289 17 5 33663 11.75600000 1202697589 1202697589 5.00000000
-1.49052632 3.45101118 -0.59538954 2 6 33664 3.80600000 1202697591 1202697591 -9.00000000
-4.64203215 10.75283813 1.43805826 19 7 33665 11.80000000 1202697593 1202697593 7.00000000
-4.63307714 10.73724461 -1.43586457 2 8 33666 11.78200000 1202697596 1202697596 -7.00000000
-4.63513470 10.74716949 1.85374844 15 9 33667 11.85000000 1202697598 1202697598 9.00000000
-4.63639116 10.75008297 -1.02425432 4 10 33667 11.75200000 1202697600 1202697600 -5.00000000
-4.46415520 10.35570049 2.19201374 40 11 33668 11.48800000 1202697603 1202697603 11.00000000
-4.62104177 10.72478676 -0.61201668 8 12 33669 11.69400000 1202697605 1202697605 -3.00000000
-3.89647174 9.04750633 2.27425528 59 13 33670 10.11000000 1202697607 1202697607 13.00000000
-4.61581421 10.72295284 -0.20377430 8 14 33671 11.67600000 1202697609 1202697609 -1.00000000
-3.70152473 8.60310936 2.50950956 40 15 33672 9.69600000 1202697612 1202697612 15.00000000
-0.85305595 1.98841143 -0.57975465 4 0 33678 2.24000000 1202697633 1202697633 -15.00000000
-4.60004997 10.72754860 0.20373939 16 1 33679 11.67400000 1202697635 1202697635 1.00000000
-1.01028061 2.35716128 -0.59207118 3 2 33680 2.63200000 1202697637 1202697637 -13.00000000
-4.60407543 10.74729252 0.61274940 23 3 33681 11.70800000 1202697639 1202697639 3.00000000
-1.19288290 2.78454638 -0.58883655 4 4 33681 3.08600000 1202697642 1202697642 -11.00000000
-4.59725237 10.73654270 1.02181387 17 5 33682 11.72400000 1202697644 1202697644 5.00000000
-1.47130191 3.43777466 -0.59226090 2 6 33683 3.78600000 1202697646 1202697646 -9.00000000
-4.60010290 10.75357151 1.43610835 21 7 33684 11.78400000 1202697649 1202697649 7.00000000
-1.94714415 4.55399942 -0.60812801 2 8 33685 4.99000000 1202697651 1202697651 -7.00000000
-4.59015512 10.74068356 1.84999394 15 9 33686 11.82600000 1202697653 1202697653 9.00000000
-4.59601927 10.75440598 -1.02320838 4 10 33686 11.74000000 1202697656 1202697656 -5.00000000
-4.42824745 10.36683655 2.19125056 50 11 33687 11.48400000 1202697658 1202697658 11.00000000
-4.58074617 10.72903061 -0.61138862 8 12 33688 11.68200000 1202697660 1202697660 -3.00000000
-3.90010238 9.13924122 2.29405093 64 13 33689 10.19800000 1202697662 1202697662 13.00000000
-4.57473850 10.72532463 -0.20352997 17 14 33690 11.66200000 1202697665 1202697665 -1.00000000
-3.67220521 8.60936451 2.50795650 40 15 33690 9.69000000 1202697667 1202697667 15.00000000
-0.84913170 1.99848914 -0.58182520 4 0 33698 2.24800000 1202697688 1202697688 -15.00000000
-4.55319548 10.72145367 0.20332053 13 1 33699 11.65000000 1202697690 1202697690 1.00000000
-0.99747777 2.34991050 -0.58937174 3 2 33700 2.62000000 1202697692 1202697692 -13.00000000
-4.56185150 10.75226593 0.61212134 23 3 33701 11.69600000 1202697695 1202697695 3.00000000
-1.18008852 2.78146410 -0.58731008 4 4 33701 3.07800000 1202697697 1202697697 -11.00000000
-4.55663538 10.74518776 1.02111673 17 5 33702 11.71600000 1202697699 1202697699 5.00000000
-1.47471058 3.47926426 -0.59851825 2 6 33703 3.82600000 1202697702 1202697702 -9.00000000
-4.55479431 10.75128555 1.43367100 21 7 33704 11.76400000 1202697704 1202697704 7.00000000
-1.93123591 4.56076860 -0.60812801 2 8 33705 4.99000000 1202697706 1202697706 -7.00000000
-4.55340481 10.75846004 1.85030687 15 9 33706 11.82800000 1202697709 1202697709 9.00000000
-4.54602671 10.74102688 -1.02041948 4 10 33706 11.70800000 1202697711 1202697711 -5.00000000
-4.38897419 10.37499809 2.18972397 43 11 33707 11.47600000 1202697713 1202697713 11.00000000
-4.53704453 10.73023796 -0.61055124 8 12 33708 11.66600000 1202697715 1202697715 -3.00000000
-3.89852118 9.22460079 2.31204700 57 13 33709 10.27800000 1202697718 1202697718 13.00000000
-4.53182554 10.72833347 -0.20328563 17 14 33710 11.64800000 1202697720 1202697720 -1.00000000
-3.64438581 8.62746906 2.50950956 36 15 33710 9.69600000 1202697722 1202697722 15.00000000
-0.84364903 2.00500226 -0.58286047 4 0 33718 2.25200000 1202697743 1202697743 -15.00000000
-4.51031637 10.72437859 0.20307620 13 1 33719 11.63600000 1202697745 1202697745 1.00000000
-0.98775864 2.34978509 -0.58847195 3 2 33720 2.61600000 1202697748 1202697748 -13.00000000
-4.51223946 10.73419285 0.61023724 21 3 33720 11.66000000 1202697750 1202697750 3.00000000
-1.17569554 2.79823613 -0.58998144 4 4 33721 3.09200000 1202697752 1202697752 -11.00000000
-4.51292849 10.74633121 1.01972222 21 5 33722 11.70000000 1202697755 1202697755 5.00000000
-1.45796955 3.47346234 -0.59664106 2 6 33723 3.81400000 1202697757 1202697757 -9.00000000
-4.50878954 10.74698353 1.43098986 21 7 33724 11.74200000 1202697759 1202697759 7.00000000
-4.49923754 10.72946358 -1.42855239 2 8 33725 11.72200000 1202697761 1202697761 -7.00000000
-4.50930071 10.75346184 1.84686530 15 9 33725 11.80600000 1202697764 1202697764 9.00000000
-4.51004601 10.76050472 -1.02076805 4 10 33726 11.71200000 1202697766 1202697766 -5.00000000
-4.35273170 10.39025593 2.18972397 46 11 33727 11.47600000 1202697768 1202697768 11.00000000
-4.48876190 10.72021770 -0.60908586 12 12 33728 11.63800000 1202697771 1202697771 -3.00000000
-3.88736320 9.28848743 2.32464409 64 13 33729 10.33400000 1202697773 1202697773 13.00000000
-4.48663187 10.72563934 -0.20293657 17 14 33730 11.62800000 1202697775 1202697775 -1.00000000
-3.61350250 8.63835621 2.50899172 38 15 33730 9.69400000 1202697778 1202697778 15.00000000
-0.84110326 2.01863432 -0.58596629 4 0 33738 2.26400000 1202697798 1202697798 -15.00000000
-4.46824121 10.72898102 0.20286678 13 1 33739 11.62400000 1202697801 1202697801 1.00000000
-0.98254591 2.36041498 -0.59027159 3 2 33740 2.62400000 1202697803 1202697803 -13.00000000
-4.46672869 10.73590755 0.60939986 23 3 33741 11.64400000 1202697805 1202697805 3.00000000
-1.16441238 2.79869795 -0.58921820 4 4 33741 3.08800000 1202697808 1202697808 -11.00000000
-4.47003412 10.74914169 1.01850200 63 5 33742 11.68600000 1202697810 1202697810 5.00000000
-1.44431961 3.47488213 -0.59601533 2 6 33743 3.81000000 1202697812 1202697812 -9.00000000
-4.46515560 10.74799061 1.42903996 21 7 33744 11.72600000 1202697814 1202697814 7.00000000
-4.44957685 10.71576977 -1.42465258 2 8 33745 11.69000000 1202697817 1202697817 -7.00000000
-4.46228456 10.75167179 1.84373665 18 9 33746 11.78600000 1202697819 1202697819 9.00000000
-4.47398472 10.77986240 -1.02111673 4 10 33746 11.71600000 1202697821 1202697821 -5.00000000
-4.31794119 10.40901279 2.19048738 46 11 33747 11.48000000 1202697824 1202697824 11.00000000
-4.44595909 10.72290707 -0.60835314 12 12 33748 11.62400000 1202697826 1202697826 -3.00000000
-3.88774347 9.38121223 2.34443998 64 13 33749 10.42200000 1202697828 1202697828 13.00000000
-4.44304323 10.72645473 -0.20265734 19 14 33750 11.61200000 1202697831 1202697831 -1.00000000
-3.57886124 8.64440250 2.50692129 38 15 33751 9.68600000 1202697833 1202697833 15.00000000
-0.82815742 2.00727153 -0.58182520 4 0 33758 2.24800000 1202697854 1202697854 -15.00000000
-4.42771339 10.73711872 0.20272715 10 1 33759 11.61600000 1202697856 1202697856 1.00000000
-0.97281533 2.36022687 -0.58937174 3 2 33760 2.62000000 1202697858 1202697858 -13.00000000
-4.42425251 10.73404121 0.60845780 21 3 33760 11.62600000 1202697861 1202697861 3.00000000
-1.15089691 2.79366922 -0.58731008 4 4 33761 3.07800000 1202697863 1202697863 -11.00000000
-4.42869234 10.75546741 1.01763046 80 5 33762 11.67600000 1202697865 1202697865 5.00000000
-1.43518841 3.48720956 -0.59726679 2 6 33763 3.81800000 1202697867 1202697867 -9.00000000
-4.41779375 10.73964596 1.42587137 21 7 33764 11.70000000 1202697870 1202697870 7.00000000
-4.40912533 10.72389317 -1.42367768 2 8 33765 11.68200000 1202697872 1202697872 -7.00000000
-4.41196299 10.73612118 1.83841789 18 9 33766 11.75200000 1202697874 1202697874 9.00000000
-2.72632027 6.63425922 -0.62752134 4 10 33766 7.20000000 1202697877 1202697877 -5.00000000
-4.28307247 10.42765427 2.19125056 50 11 33767 11.48400000 1202697879 1202697879 11.00000000
-4.40622663 10.73281765 -0.60803914 8 12 33768 11.61800000 1202697881 1202697881 -3.00000000
-3.88012576 9.45602322 2.35973644 62 13 33769 10.49000000 1202697884 1202697884 13.00000000
-4.39343309 10.71229649 -0.20209886 8 14 33770 11.58000000 1202697886 1202697886 -1.00000000
-3.54944277 8.65443516 2.50640368 33 15 33770 9.68400000 1202697888 1202697888 15.00000000
-0.81968457 2.00657320 -0.58078992 4 0 33778 2.24400000 1202697909 1202697909 -15.00000000
-4.37811279 10.72288704 0.20216867 13 1 33779 11.58400000 1202697911 1202697911 1.00000000
-0.96751595 2.37082553 -0.59117138 3 2 33780 2.62800000 1202697913 1202697913 -13.00000000
-4.37921047 10.73092747 0.60741109 21 3 33780 11.60600000 1202697916 1202697916 3.00000000
-1.14113820 2.79766941 -0.58731008 4 4 33781 3.07800000 1202697918 1202697918 -11.00000000
-4.37833500 10.73949718 1.01466715 89 5 33782 11.64200000 1202697920 1202697920 5.00000000
-1.42449784 3.49585676 -0.59789252 2 6 33783 3.82200000 1202697923 1202697923 -9.00000000
-4.38177586 10.75867844 1.42635882 23 7 33784 11.70400000 1202697925 1202697925 7.00000000
-4.35969019 10.70980072 -1.41977787 2 8 33785 11.65000000 1202697927 1202697927 -7.00000000
-4.37297106 10.74779701 1.83779204 18 9 33786 11.74800000 1202697930 1202697930 9.00000000
-2.70014215 6.63635349 -0.62682408 4 10 33786 7.19200000 1202697932 1202697932 -5.00000000
-4.24220943 10.43162918 2.18896079 46 11 33787 11.47200000 1202697934 1202697934 11.00000000
-4.35820627 10.72222996 -0.60657376 8 12 33788 11.59000000 1202697937 1202697937 -3.00000000
-3.88376832 9.55978107 2.38223171 66 13 33789 10.59000000 1202697939 1202697939 13.00000000
-4.35074711 10.71459770 -0.20185453 8 14 33790 11.56600000 1202697941 1202697941 -1.00000000
-3.51703095 8.66140270 2.50485063 38 15 33790 9.67800000 1202697943 1202697943 15.00000000
-0.81267536 2.00942230 -0.58078992 4 0 33798 2.24400000 1202697964 1202697964 -15.00000000
-4.33016396 10.71214962 0.20168000 16 1 33799 11.55600000 1202697966 1202697966 1.00000000
-0.95777428 2.37057447 -0.59027159 3 2 33800 2.62400000 1202697969 1202697969 -13.00000000
-4.33835459 10.74320221 0.60720176 21 3 33801 11.60200000 1202697971 1202697971 3.00000000
-1.13430607 2.80891752 -0.58883655 2 4 33801 3.08600000 1202697973 1202697973 -11.00000000
-4.33336353 10.73623943 1.01292408 12 5 33802 11.62200000 1202697976 1202697976 5.00000000
-1.40933025 3.49348021 -0.59664106 2 6 33803 3.81400000 1202697978 1202697978 -9.00000000
-4.33083200 10.74076843 1.42197144 21 7 33804 11.66800000 1202697980 1202697980 7.00000000
-4.33860397 10.76546001 -1.42514014 2 8 33805 11.69400000 1202697983 1202697983 -7.00000000
-4.33287573 10.75124645 1.83591485 21 9 33805 11.73600000 1202697985 1202697985 9.00000000
-4.34447765 10.78546429 -1.01728177 4 10 33806 11.67200000 1202697987 1202697987 -5.00000000
-4.20430374 10.44273186 2.18819761 50 11 33807 11.46800000 1202697990 1202697990 11.00000000
-4.31926107 10.73367119 -0.60636437 8 12 33808 11.58600000 1202697992 1202697992 -3.00000000
-3.88091612 9.64921474 2.40112758 64 13 33809 10.67400000 1202697994 1202697994 13.00000000
-4.30511522 10.70931053 -0.20147058 8 14 33810 11.54400000 1202697996 1202697996 -1.00000000
-3.48670220 8.67782021 2.50588608 36 15 33811 9.68200000 1202697999 1202697999 15.00000000
-0.81283671 2.03018117 -0.58596629 4 0 33818 2.26400000 1202698019 1202698019 -15.00000000
-4.28903055 10.71791649 0.20150548 20 1 33819 11.54600000 1202698022 1202698022 1.00000000
-0.94515145 2.36304712 -0.58757216 3 2 33820 2.61200000 1202698024 1202698024 -13.00000000
-4.29825449 10.74640274 0.60657376 21 3 33820 11.59000000 1202698026 1202698026 3.00000000
-1.13251066 2.83291268 -0.59303439 2 4 33821 3.10800000 1202698029 1202698029 -11.00000000
-4.29290342 10.74389935 1.01222682 55 5 33822 11.61400000 1202698031 1202698031 5.00000000
-1.39566195 3.49470925 -0.59601533 2 6 33823 3.81000000 1202698033 1202698033 -9.00000000
-4.28595448 10.73738384 1.41953409 21 7 33824 11.64800000 1202698036 1202698036 7.00000000
-1.82647181 4.57808781 -0.60520315 2 8 33825 4.96600000 1202698038 1202698038 -7.00000000
-4.28685617 10.75054073 1.83309901 21 9 33826 11.71800000 1202698040 1202698040 9.00000000
-4.29351950 10.76725101 -1.01414418 4 10 33826 11.63600000 1202698043 1202698043 -5.00000000
-4.16928005 10.46099091 2.18896079 46 11 33827 11.47200000 1202698045 1202698045 11.00000000
-4.26698494 10.71157360 -0.60427094 8 12 33828 11.54600000 1202698047 1202698047 -3.00000000
-3.87171936 9.72426033 2.41642427 66 13 33829 10.74200000 1202698049 1202698049 13.00000000
-4.26844597 10.72613049 -0.20150548 8 14 33830 11.54600000 1202698052 1202698052 -1.00000000
-3.45781779 8.69352818 2.50692129 36 15 33831 9.68600000 1202698054 1202698054 15.00000000
-0.80432153 2.02941442 -0.58493102 4 0 33838 2.26000000 1202698075 1202698075 -15.00000000
-4.24643660 10.71980858 0.20126115 16 1 33839 11.53200000 1202698077 1202698077 1.00000000
-0.94120139 2.37720323 -0.59027159 3 2 33840 2.62400000 1202698079 1202698079 -13.00000000
-4.24821711 10.72977257 0.60479432 21 3 33840 11.55600000 1202698082 1202698082 3.00000000
-1.11683583 2.82224441 -0.58998144 2 4 33841 3.09200000 1202698084 1202698084 -11.00000000
-4.25830507 10.76622963 1.01292408 80 5 33842 11.62200000 1202698086 1202698086 5.00000000
-1.39071679 3.51793027 -0.59914398 2 6 33843 3.83000000 1202698089 1202698089 -9.00000000
-4.24407101 10.74120235 1.41807163 21 7 33844 11.63600000 1202698091 1202698091 7.00000000
-4.24875879 10.75856018 -1.42026532 2 8 33845 11.65400000 1202698093 1202698093 -7.00000000
-4.24392653 10.74632454 1.82997036 18 9 33845 11.69800000 1202698096 1202698096 9.00000000
-4.24127865 10.74510765 -1.01065803 4 10 33846 11.59600000 1202698098 1202698098 -5.00000000
-4.13201857 10.47365475 2.18857908 50 11 33847 11.47000000 1202698100 1202698100 11.00000000
-4.22663784 10.71897125 -0.60385227 8 12 33848 11.53800000 1202698102 1202698102 -3.00000000
-3.87062025 9.82111549 2.43711972 62 13 33849 10.83400000 1202698105 1202698105 13.00000000
-4.22071838 10.71491718 -0.20101681 14 14 33850 11.51800000 1202698107 1202698107 -1.00000000
-3.42745066 8.70554543 2.50692129 38 15 33851 9.68600000 1202698109 1202698109 15.00000000
-0.80005473 2.03940320 -0.58700162 4 0 33858 2.26800000 1202698130 1202698130 -15.00000000
-4.20826197 10.73270416 0.20122625 16 1 33859 11.53000000 1202698132 1202698132 1.00000000
-0.93431973 2.38410306 -0.59117138 3 2 33860 2.62800000 1202698135 1202698135 -13.00000000
-4.20636511 10.73337841 0.60416627 21 3 33860 11.54400000 1202698137 1202698137 3.00000000
-1.10697758 2.82612562 -0.58998144 2 4 33861 3.09200000 1202698139 1202698139 -11.00000000
-4.20689774 10.74577808 1.00961208 85 5 33862 11.58400000 1202698142 1202698142 5.00000000
-1.38130772 3.53012156 -0.60039550 2 6 33863 3.83800000 1202698144 1202698144 -9.00000000
-4.20221329 10.74485874 1.41660929 19 7 33864 11.62400000 1202698146 1202698146 7.00000000
-4.19961500 10.74374390 -1.41636550 2 8 33865 11.62200000 1202698149 1202698149 -7.00000000
-4.19919777 10.74267578 1.82684171 15 9 33865 11.67800000 1202698151 1202698151 9.00000000
-4.20084524 10.75242424 -1.00996077 4 10 33866 11.58800000 1202698153 1202698153 -5.00000000
-4.09471941 10.48618603 2.18819761 50 11 33867 11.46800000 1202698155 1202698155 11.00000000
-4.17612505 10.70016861 -0.60196817 8 12 33868 11.50200000 1202698158 1202698158 -3.00000000
-3.86464262 9.90718651 2.45511580 60 13 33869 10.91400000 1202698160 1202698160 13.00000000
-4.17820549 10.71654320 -0.20077248 19 14 33870 11.50400000 1202698162 1202698162 -1.00000000
-3.39563870 8.71385670 2.50588608 36 15 33871 9.68200000 1202698165 1202698165 15.00000000
-0.78629196 2.02403760 -0.58182520 4 0 33877 2.24800000 1202698185 1202698185 -15.00000000
-4.16106701 10.71677494 0.20066777 13 1 33878 11.49800000 1202698188 1202698188 1.00000000
-0.92640865 2.38718820 -0.59117138 3 2 33879 2.62800000 1202698190 1202698190 -13.00000000
-4.16713572 10.73795795 0.60364294 21 3 33879 11.53400000 1202698192 1202698192 3.00000000
-1.10043955 2.83710265 -0.59150791 2 4 33880 3.10000000 1202698195 1202698195 -11.00000000
-1.36388421 3.51994729 -0.59789252 2 6 33882 3.82200000 1202698199 1202698199 -9.00000000
-4.16297436 10.74947929 1.41539061 21 7 33883 11.61400000 1202698201 1202698201 7.00000000
-4.14676714 10.71318054 -1.41051579 2 8 33884 11.57400000 1202698204 1202698204 -7.00000000
-4.15784597 10.74180412 1.82433867 18 9 33884 11.66200000 1202698206 1202698206 9.00000000
-4.16085243 10.75514603 -1.00891483 4 10 33885 11.57600000 1202698208 1202698208 -5.00000000
-4.06133938 10.50336838 2.18896079 46 11 33886 11.47200000 1202698211 1202698211 11.00000000
-4.14061880 10.71395874 -0.60196817 8 12 33887 11.50200000 1202698213 1202698213 -3.00000000
-3.86968541 10.01811028 2.47941041 68 13 33888 11.02200000 1202698215 1202698215 13.00000000
-4.13328266 10.70608807 -0.20031872 19 14 33889 11.47800000 1202698218 1202698218 -1.00000000
-3.36407208 8.71366787 2.50278020 38 15 33889 9.67000000 1202698220 1202698220 15.00000000
-0.78338146 2.03758907 -0.58493102 4 0 33897 2.26000000 1202698241 1202698241 -15.00000000
-4.11287403 10.70323467 0.20014420 10 1 33898 11.46800000 1202698243 1202698243 1.00000000
-0.91807014 2.39040732 -0.59117138 3 2 33899 2.62800000 1202698245 1202698245 -13.00000000
-4.12676382 10.74498081 0.60322422 23 3 33899 11.52600000 1202698248 1202698248 3.00000000
-1.08771527 2.83359504 -0.58998144 2 4 33900 3.09200000 1202698250 1202698250 -11.00000000
-4.11866951 10.73510075 1.00595152 17 5 33901 11.54200000 1202698252 1202698252 5.00000000
-1.35724711 3.53944206 -0.60039550 2 6 33902 3.83800000 1202698254 1202698254 -9.00000000
-4.11619091 10.73984814 1.41222191 21 7 33903 11.58800000 1202698257 1202698257 7.00000000
-4.10082436 10.70534611 -1.40759087 2 8 33904 11.55000000 1202698259 1202698259 -7.00000000
-4.11679173 10.74702835 1.82277441 18 9 33904 11.65200000 1202698261 1202698261 9.00000000
-2.57883382 6.73565483 -0.63100755 4 10 33905 7.24000000 1202698264 1202698264 -5.00000000
-4.02254629 10.51198101 2.18781590 50 11 33906 11.46600000 1202698266 1202698266 11.00000000
-4.09463358 10.70596123 -0.60071212 8 12 33907 11.47800000 1202698268 1202698268 -3.00000000
-3.86113334 10.10072803 2.49650669 66 13 33908 11.09800000 1202698271 1202698271 13.00000000
-4.09517241 10.71858311 -0.20028381 17 14 33909 11.47600000 1202698273 1202698273 -1.00000000
-3.33417964 8.73135376 2.50433302 33 15 33910 9.67600000 1202698275 1202698275 15.00000000
-0.77763814 2.04392242 -0.58596629 4 0 33917 2.26400000 1202698296 1202698296 -15.00000000
-4.07264471 10.71004963 0.20000458 13 1 33918 11.46000000 1202698298 1202698298 1.00000000
-0.90695119 2.38631105 -0.58937174 3 2 33919 2.62000000 1202698301 1202698301 -13.00000000
-4.07813358 10.73576164 0.60186350 23 3 33920 11.50000000 1202698303 1202698303 3.00000000
-1.08339489 2.85205722 -0.59303439 4 4 33920 3.10800000 1202698305 1202698305 -11.00000000
-4.07622147 10.73637390 1.00473142 17 5 33921 11.52800000 1202698307 1202698307 5.00000000
-1.34208059 3.53677058 -0.59914398 2 6 33922 3.83000000 1202698310 1202698310 -9.00000000
-4.07022953 10.73187828 1.40929711 21 7 33923 11.56400000 1202698312 1202698312 7.00000000
-4.06202364 10.71588230 -1.40710342 2 8 33924 11.54600000 1202698314 1202698314 -7.00000000
-4.07295084 10.74470901 1.81995857 18 9 33924 11.63400000 1202698317 1202698317 9.00000000
-2.55954146 6.75579453 -0.63205343 4 10 33925 7.25200000 1202698319 1202698319 -5.00000000
-3.98304701 10.51861382 2.18628955 50 11 33926 11.45800000 1202698321 1202698321 11.00000000
-4.05582380 10.71645260 -0.60050279 8 12 33927 11.47400000 1202698324 1202698324 -3.00000000
-3.82447290 10.11049938 2.49560690 56 13 33928 11.09400000 1202698326 1202698326 13.00000000
-4.05419683 10.72346020 -0.20010929 12 14 33929 11.46600000 1202698328 1202698328 -1.00000000
-3.30725670 8.74778366 2.50588608 36 15 33929 9.68200000 1202698331 1202698331 15.00000000
-0.77186006 2.05024028 -0.58700162 4 0 33937 2.26800000 1202698351 1202698351 -15.00000000
-4.02889681 10.70735645 0.19969043 13 1 33938 11.44200000 1202698354 1202698354 1.00000000
-0.89861584 2.38946247 -0.58937174 3 2 33939 2.62000000 1202698356 1202698356 -13.00000000
-4.03571463 10.73684502 0.60113078 26 3 33940 11.48600000 1202698358 1202698358 3.00000000
-1.07205117 2.85214615 -0.59227115 4 4 33940 3.10400000 1202698360 1202698360 -11.00000000
-4.03591728 10.74307632 1.00403416 17 5 33941 11.52000000 1202698363 1202698363 5.00000000
-1.33250427 3.54883099 -0.60039550 2 6 33942 3.83800000 1202698365 1202698365 -9.00000000
-4.02995348 10.73858643 1.40832210 23 7 33943 11.55600000 1202698367 1202698367 7.00000000
-1.73378897 4.62246704 -0.60617810 2 8 33944 4.97400000 1202698370 1202698370 -7.00000000
-4.02591467 10.73921871 1.81651700 18 9 33945 11.61200000 1202698372 1202698372 9.00000000
-2.53174758 6.75349426 -0.63100755 4 10 33945 7.24000000 1202698374 1202698374 -5.00000000
-3.94630599 10.53245354 2.18628955 50 11 33946 11.45800000 1202698377 1202698377 11.00000000
-4.00718451 10.70061874 -0.59882802 8 12 33947 11.44200000 1202698379 1202698379 -3.00000000
-3.78710794 10.11831188 2.49425721 54 13 33948 11.08800000 1202698381 1202698381 13.00000000
-4.00973415 10.71881771 -0.19976024 8 14 33949 11.44600000 1202698384 1202698384 -1.00000000
-3.27517223 8.75984669 2.50588608 36 15 33950 9.68200000 1202698386 1202698386 15.00000000
-0.76100904 2.04192734 -0.58389574 4 0 33956 2.25600000 1202698407 1202698407 -15.00000000
-3.99336767 10.72065735 0.19969043 13 1 33957 11.44200000 1202698409 1202698409 1.00000000
-0.89612651 2.40703940 -0.59297097 3 2 33958 2.63600000 1202698411 1202698411 -13.00000000
-3.99033666 10.72396278 0.59966540 21 3 33959 11.45800000 1202698413 1202698413 3.00000000
-1.05984867 2.84832549 -0.59074467 2 4 33959 3.09600000 1202698416 1202698416 -11.00000000
-3.99193573 10.73399162 1.00194240 17 5 33960 11.49600000 1202698418 1202698418 5.00000000
-1.32623446 3.56804299 -0.60289842 2 6 33961 3.85400000 1202698420 1202698420 -9.00000000
-3.98879051 10.73700428 1.40637219 23 7 33962 11.54000000 1202698423 1202698423 7.00000000
-3.97516990 10.70606422 -1.40222871 2 8 33963 11.50600000 1202698425 1202698425 -7.00000000
-3.98665595 10.73699856 1.81401408 18 9 33963 11.59600000 1202698427 1202698427 9.00000000
-3.97265673 10.70502090 -0.99897915 4 10 33964 11.46200000 1202698430 1202698430 -5.00000000
-3.91545391 10.55652618 2.18857908 50 11 33965 11.47000000 1202698432 1202698432 11.00000000
-3.97167802 10.71384811 -0.59882802 8 12 33966 11.44200000 1202698434 1202698434 -3.00000000
-3.75488782 10.13446999 2.49515700 53 13 33967 11.09200000 1202698437 1202698437 13.00000000
-3.95194554 10.67204762 -0.19864330 21 14 33968 11.38200000 1202698439 1202698439 -1.00000000
-3.24495292 8.76284599 2.50381541 36 15 33968 9.67400000 1202698441 1202698441 15.00000000
-0.75588179 2.05000901 -0.58544868 4 0 33976 2.26200000 1202698462 1202698462 -15.00000000
-3.94347477 10.70075798 0.19906215 30 1 33977 11.40600000 1202698464 1202698464 1.00000000
-0.89041305 2.41746736 -0.59477061 3 2 33978 2.64400000 1202698466 1202698466 -13.00000000
-3.95149875 10.73407745 0.59945607 13 3 33979 11.45400000 1202698469 1202698469 3.00000000
-1.04854321 2.84832287 -0.58998144 2 4 33979 3.09200000 1202698471 1202698471 -11.00000000
-3.94137144 10.71233368 0.99863052 12 5 33980 11.45800000 1202698473 1202698473 5.00000000
-1.30627215 3.55225682 -0.59945685 2 6 33981 3.83200000 1202698476 1202698476 -9.00000000
-3.95060229 10.74899960 1.40612853 23 7 33982 11.53800000 1202698478 1202698478 7.00000000
-1.71323657 4.66397476 -0.61007792 2 8 33983 5.00600000 1202698480 1202698480 -7.00000000
-3.94251037 10.73855782 1.81182396 25 9 33984 11.58200000 1202698483 1202698483 9.00000000
-2.49395967 6.79301453 -0.63309932 4 10 33984 7.26400000 1202698485 1202698485 -5.00000000
-3.88669634 10.59224606 2.19315863 53 11 33985 11.49400000 1202698487 1202698487 11.00000000
-3.93150496 10.72014618 -0.59840930 8 12 33986 11.43400000 1202698489 1202698489 -3.00000000
-3.71613574 10.13836670 2.49290752 55 13 33987 11.08200000 1202698492 1202698492 13.00000000
-3.91604495 10.68953228 -0.19871309 6 14 33988 11.38600000 1202698494 1202698494 -1.00000000
-3.20749998 8.76016808 2.49967432 36 15 33989 9.65800000 1202698496 1202698496 15.00000000
-0.74836302 2.05276561 -0.58544868 4 0 33997 2.26200000 1202698517 1202698517 -15.00000000
-0.87887925 2.41339040 -0.59297097 3 2 33999 2.63600000 1202698522 1202698522 -13.00000000
-3.91144681 10.74661160 0.59935135 10 3 34000 11.45200000 1202698524 1202698524 3.00000000
-1.03809655 2.85214686 -0.58998144 2 4 34000 3.09200000 1202698526 1202698526 -11.00000000
-3.90344453 10.73045254 0.99897915 17 5 34001 11.46200000 1202698529 1202698529 5.00000000
-1.29121876 3.55145121 -0.59851825 2 6 34002 3.82600000 1202698531 1202698531 -9.00000000
-3.90643287 10.75034714 1.40442228 19 7 34003 11.52400000 1202698533 1202698533 7.00000000
-1.70290709 4.68888140 -0.61251533 2 8 34004 5.02600000 1202698536 1202698536 -7.00000000
-3.90163016 10.74297142 1.81025958 15 9 34004 11.57200000 1202698538 1202698538 9.00000000
-2.47720289 6.82458353 -0.63519102 4 10 34005 7.28800000 1202698540 1202698540 -5.00000000
-3.86592531 10.65625095 2.20346236 59 11 34006 11.54800000 1202698542 1202698542 11.00000000
-3.91669631 10.80207920 -0.60217750 4 12 34007 11.50600000 1202698545 1202698545 -3.00000000
-3.68027973 10.15558243 2.49380732 55 13 34008 11.08600000 1202698547 1202698547 13.00000000
-3.90339780 10.77714062 -0.20007439 6 14 34009 11.46400000 1202698549 1202698549 -1.00000000
-3.17624378 8.76949406 2.49915671 38 15 34009 9.65600000 1202698552 1202698552 15.00000000
-0.74512506 2.06626916 -0.58855450 4 0 34017 2.27400000 1202698572 1202698572 -15.00000000
-3.89121056 10.79642677 0.20031872 10 1 34018 11.47800000 1202698575 1202698575 1.00000000
-0.86648703 2.40544295 -0.59027159 3 2 34019 2.62400000 1202698577 1202698577 -13.00000000
-3.89758945 10.82597160 0.60301489 7 3 34020 11.52200000 1202698579 1202698579 3.00000000
-1.03478467 2.87422490 -0.59379756 2 4 34020 3.11200000 1202698582 1202698582 -11.00000000
-3.89901829 10.83587360 1.00752044 55 5 34021 11.56000000 1202698584 1202698584 5.00000000
-1.27212918 3.53734851 -0.59538954 2 6 34022 3.80600000 1202698586 1202698586 -9.00000000
-3.88432670 10.80688286 1.41002834 40 7 34023 11.57000000 1202698589 1202698589 7.00000000
-3.93344569 10.94954491 -1.42855239 2 8 34024 11.72200000 1202698591 1202698591 -7.00000000
-3.87557936 10.79438210 1.81651700 37 9 34025 11.61200000 1202698593 1202698593 9.00000000
-2.46144462 6.85569143 -0.63728279 4 10 34025 7.31200000 1202698595 1202698595 -5.00000000
-3.83202004 10.67891979 2.20537043 65 11 34026 11.55800000 1202698598 1202698598 11.00000000
-3.91133022 10.90592575 -0.60720176 4 12 34027 11.60200000 1202698600 1202698600 -3.00000000
-3.63954735 10.15369225 2.49020815 56 13 34028 11.07000000 1202698602 1202698602 13.00000000
-3.90824318 10.90929985 -0.20227338 8 14 34029 11.59000000 1202698605 1202698605 -1.00000000
-3.14473176 8.78289509 2.49967432 38 15 34030 9.65800000 1202698607 1202698607 15.00000000
-0.73761964 2.06690931 -0.58803689 4 0 34036 2.27200000 1202698628 1202698628 -15.00000000
-3.89838123 10.92981434 0.20255263 6 1 34037 11.60600000 1202698630 1202698630 1.00000000
-0.85719681 2.40463185 -0.58937174 3 2 34038 2.62000000 1202698632 1202698632 -13.00000000
-3.88043666 10.89151669 0.60594571 26 3 34039 11.57800000 1202698635 1202698635 3.00000000
-1.02524769 2.87764072 -0.59379756 4 4 34039 3.11200000 1202698637 1202698637 -11.00000000
-3.88846111 10.92006779 1.01414418 42 5 34040 11.63600000 1202698639 1202698639 5.00000000
-1.26701510 3.56015801 -0.59851825 2 6 34041 3.82600000 1202698642 1202698642 -9.00000000
-3.88505721 10.92257118 1.42343390 44 7 34042 11.68000000 1202698644 1202698644 7.00000000
-3.93567967 11.07101250 -1.44268930 2 8 34043 11.83800000 1202698646 1202698646 -7.00000000
-3.87737894 10.90701294 1.83341193 40 9 34043 11.72000000 1202698648 1202698648 9.00000000
-2.44003105 6.86757088 -0.63763142 4 10 34044 7.31600000 1202698651 1202698651 -5.00000000
-3.79264450 10.68046856 2.20308065 62 11 34045 11.54600000 1202698653 1202698653 11.00000000
-3.91388798 11.02800560 -0.61327273 4 12 34046 11.71800000 1202698655 1202698655 -3.00000000
-3.53549814 9.96735001 2.44161868 59 13 34047 10.85400000 1202698658 1202698658 13.00000000
-3.90010810 11.00135994 -0.20373939 6 14 34048 11.67400000 1202698660 1202698660 -1.00000000
-3.11841512 8.79637337 2.50070953 36 15 34048 9.66200000 1202698662 1202698662 15.00000000
-0.72975731 2.06764984 -0.58751923 4 0 34056 2.27000000 1202698683 1202698683 -15.00000000
-3.89546156 11.04330349 0.20440258 10 1 34057 11.71200000 1202698685 1202698685 1.00000000
-0.85268551 2.41863656 -0.59207118 3 2 34058 2.63200000 1202698688 1202698688 -13.00000000
-3.83841205 10.89369297 0.60531765 26 3 34059 11.56600000 1202698690 1202698690 3.00000000
-1.00997710 2.86638856 -0.59074467 2 4 34059 3.09600000 1202698692 1202698692 -11.00000000
-3.85561371 10.94860840 1.01553869 12 5 34060 11.65200000 1202698695 1202698695 5.00000000
-1.26113832 3.58319235 -0.60164696 2 6 34061 3.84600000 1202698697 1202698697 -9.00000000
-3.88247728 11.03718758 1.43659580 40 7 34062 11.78800000 1202698699 1202698699 7.00000000
-1.66770196 4.74362278 -0.61739010 2 8 34063 5.06600000 1202698701 1202698701 -7.00000000
-3.86880898 11.01060772 1.84842968 34 9 34064 11.81600000 1202698704 1202698704 9.00000000
-2.41472292 6.87228680 -0.63728279 4 10 34064 7.31200000 1202698706 1202698706 -5.00000000
-3.74883461 10.67511845 2.19926453 59 11 34065 11.52600000 1202698708 1202698708 11.00000000
-3.91373277 11.15090466 -0.61934370 8 12 34066 11.83400000 1202698711 1202698711 -3.00000000
-3.56905937 10.17455196 2.48930836 55 13 34067 11.06600000 1202698713 1202698713 13.00000000
-3.90270090 11.13190651 -0.20590349 6 14 34068 11.79800000 1202698715 1202698715 -1.00000000
-3.07976556 8.78951168 2.49553323 38 15 34069 9.64200000 1202698718 1202698718 15.00000000
-0.72217411 2.07031059 -0.58751923 4 0 34077 2.27000000 1202698738 1202698738 -15.00000000
-3.89182401 11.16324806 0.20635726 10 1 34078 11.82400000 1202698741 1202698741 1.00000000
-0.84381503 2.42174554 -0.59207118 3 2 34079 2.63200000 1202698743 1202698743 -13.00000000
-3.79320407 10.89259911 0.60448027 26 3 34080 11.55000000 1202698745 1202698745 3.00000000
-1.00592101 2.88861156 -0.59456080 2 4 34080 3.11600000 1202698748 1202698748 -11.00000000
-3.79450226 10.90245247 1.00996077 4 5 34081 11.58800000 1202698750 1202698750 5.00000000
-1.24799681 3.58779049 -0.60164696 2 6 34082 3.84600000 1202698752 1202698752 -9.00000000
-3.87850142 11.15634441 1.45024514 42 7 34083 11.90000000 1202698754 1202698754 7.00000000
-1.65030456 4.74970341 -0.61739010 2 8 34084 5.06600000 1202698757 1202698757 -7.00000000
-3.86406469 11.12107468 1.86469877 37 9 34084 11.92000000 1202698759 1202698759 9.00000000
-2.39605427 6.89991236 -0.63902593 4 10 34085 7.33200000 1202698761 1202698761 -5.00000000
-3.70582104 10.67765808 2.19697475 59 11 34086 11.51400000 1202698764 1202698764 11.00000000
-3.91538072 11.28782654 -0.62614739 4 12 34087 11.96400000 1202698766 1202698766 -3.00000000
-3.53238201 10.18940639 2.48975825 53 13 34088 11.06800000 1202698768 1202698768 13.00000000
-3.89722610 11.24816799 -0.20778835 8 14 34089 11.90600000 1202698771 1202698771 -1.00000000
-3.04716849 8.79473305 2.49398041 38 15 34089 9.63600000 1202698773 1202698773 15.00000000
-0.71242332 2.06551361 -0.58544868 4 0 34097 2.26200000 1202698794 1202698794 -15.00000000
-3.88085628 11.25805759 0.20785816 6 1 34098 11.91000000 1202698796 1202698796 1.00000000
-0.83662593 2.42836118 -0.59297097 3 2 34099 2.63600000 1202698798 1202698798 -13.00000000
-3.75255775 10.89821911 0.60406160 26 3 34100 11.54200000 1202698801 1202698801 3.00000000
-0.99327499 2.88468003 -0.59303439 2 4 34100 3.10800000 1202698803 1202698803 -11.00000000
-3.74669766 10.88737202 1.00734603 4 5 34101 11.55800000 1202698805 1202698805 5.00000000
-1.23932028 3.60333300 -0.60352415 2 6 34102 3.85800000 1202698807 1202698807 -9.00000000
-1.63371491 4.75543499 -0.61739010 2 8 34104 5.06600000 1202698812 1202698812 -7.00000000
-2.37842464 6.92707825 -0.64076900 4 10 34105 7.35200000 1202698817 1202698817 -5.00000000
-3.66151690 10.67010212 2.19277692 59 11 34106 11.49200000 1202698819 1202698819 11.00000000
-3.49868846 10.20720482 2.49110794 55 13 34108 11.07400000 1202698824 1202698824 13.00000000
-3.01394606 8.79800510 2.49190974 40 15 34109 9.62800000 1202698828 1202698828 15.00000000
-0.70717919 2.07139802 -0.58648396 4 0 34115 2.26600000 1202698849 1202698849 -15.00000000
-0.82647699 2.42359996 -0.59117138 3 2 34117 2.62800000 1202698854 1202698854 -13.00000000
-3.71185851 10.89104939 0.60301489 26 3 34118 11.52200000 1202698856 1202698856 3.00000000
-0.99054098 2.90636921 -0.59685051 4 4 34118 3.12800000 1202698858 1202698858 -11.00000000
-3.70797849 10.88588715 1.00612593 4 5 34119 11.54400000 1202698860 1202698860 5.00000000
-1.22417438 3.59598851 -0.60164696 2 6 34120 3.84600000 1202698863 1202698863 -9.00000000
-1.61876726 4.76054382 -0.61739010 2 8 34122 5.06600000 1202698867 1202698867 -7.00000000
-2.35665083 6.93451643 -0.64076900 4 10 34123 7.35200000 1202698872 1202698872 -5.00000000
-3.62482095 10.67225838 2.19086885 59 11 34124 11.48200000 1202698874 1202698874 11.00000000
-3.46096969 10.20153713 2.48705888 54 13 34126 11.05600000 1202698879 1202698879 13.00000000
-2.98815250 8.81291962 2.49346256 40 15 34127 9.63400000 1202698883 1202698883 15.00000000
-0.70488656 2.08849740 -0.59062505 4 0 34135 2.28200000 1202698904 1202698904 -15.00000000
-0.82050216 2.43385649 -0.59297097 3 2 34137 2.63600000 1202698909 1202698909 -13.00000000
-0.97662878 2.89864612 -0.59456080 2 4 34138 3.11600000 1202698913 1202698913 -11.00000000
-3.68330932 10.93841648 1.00978649 12 5 34139 11.58600000 1202698916 1202698916 5.00000000
-1.22043550 3.62645054 -0.60602713 2 6 34140 3.87400000 1202698918 1202698918 -9.00000000
-1.60467005 4.77369213 -0.61836505 2 8 34142 5.07400000 1202698923 1202698923 -7.00000000
-3.58504605 10.67740154 2.18934250 59 11 34144 11.47400000 1202698930 1202698930 11.00000000
-3.42100120 10.20062256 2.48390961 56 13 34146 11.04200000 1202698934 1202698934 13.00000000
-2.95583153 8.82381248 2.49346256 40 15 34148 9.63400000 1202698939 1202698939 15.00000000
-0.69441915 2.08385730 -0.58855450 4 0 34157 2.27400000 1202698960 1202698960 -15.00000000
-0.81361258 2.44438505 -0.59477061 3 2 34159 2.64400000 1202698964 1202698964 -13.00000000
-3.68424988 11.07526398 0.61170268 2 3 34160 11.68800000 1202698966 1202698966 3.00000000
-0.96549159 2.90237474 -0.59456080 2 4 34160 3.11600000 1202698969 1202698969 -11.00000000
-3.67962432 11.06780815 1.02041948 12 5 34161 11.70800000 1202698971 1202698971 5.00000000
-1.19529021 3.59736705 -0.60039550 2 6 34162 3.83800000 1202698973 1202698973 -9.00000000
-1.60258579 4.82880354 -0.62470227 2 8 34164 5.12600000 1202698978 1202698978 -7.00000000
-3.53907943 10.67617989 2.18628955 59 11 34166 11.45800000 1202698985 1202698985 11.00000000
-3.38303351 10.21738338 2.48480940 57 13 34168 11.04600000 1202698989 1202698989 13.00000000
-2.91982937 8.82358265 2.49035692 38 15 34169 9.62200000 1202698994 1202698994 15.00000000
-0.68411916 2.07709432 -0.58596629 4 0 34177 2.26400000 1202699015 1202699015 -15.00000000
-0.80629307 2.45091248 -0.59567040 3 2 34179 2.64800000 1202699019 1202699019 -13.00000000
-3.68299627 11.20189667 0.61798298 2 3 34180 11.80800000 1202699022 1202699022 3.00000000
-0.95780730 2.91318750 -0.59608728 2 4 34180 3.12400000 1202699024 1202699024 -11.00000000
-3.67206621 11.17522621 1.02913499 8 5 34181 11.80800000 1202699026 1202699026 5.00000000
-1.19135439 3.62779236 -0.60477567 2 6 34182 3.86600000 1202699029 1202699029 -9.00000000
-1.56097245 4.75891924 -0.61495268 2 8 34184 5.04600000 1202699033 1202699033 -7.00000000
