# .PCD v0.7 - Point Cloud Data file format
VERSION 0.7
FIELDS x y z intensity laser_id azimuth distance_m adjustedtime timestamp vertical_angle
SIZE 4 4 4 1 1 2 8 8 4 8
TYPE F F F U U U F U U F
COUNT 1 1 1 1 1 1 1 1 1 1
WIDTH 539
HEIGHT 1
VIEWPOINT 0 0 0 1 0 0 0
POINTS 539
DATA ascii
2.17947364 0.62042820 -0.60718948 4 0 7411 2.34600000 1204124935 1204124935 -15.00000000
8.16667461 2.32325673 0.14820583 15 1 7412 8.49200000 1204124937 1204124937 1.00000000
2.55114436 0.72526866 -0.61231679 9 2 7413 2.72200000 1204124940 1204124940 -13.00000000
8.17866802 2.32358289 0.44558832 23 3 7414 8.51400000 1204124942 1204124942 3.00000000
3.07639551 0.87401277 -0.62165570 5 4 7414 3.25800000 1204124944 1204124944 -11.00000000
8.17254734 2.32030272 0.74326420 76 5 7415 8.52800000 1204124946 1204124946 5.00000000
3.85584474 1.09400213 -0.63481104 4 6 7416 4.05800000 1204124949 1204124949 -9.00000000
8.17397976 2.31762624 1.04320157 97 7 7417 8.56000000 1204124951 1204124951 7.00000000
5.21403456 1.47738898 -0.66540664 9 8 7418 5.46000000 1204124953 1204124953 -7.00000000
8.49738216 2.40772080 1.39883697 10 9 7418 8.94200000 1204124956 1204124956 9.00000000
6.63671684 1.87925279 -0.60346639 12 10 7419 6.92400000 1204124958 1204124958 -5.00000000
8.52352333 2.41191387 1.72186041 12 11 7420 9.02400000 1204124960 1204124960 11.00000000
8.15459442 2.30598044 -0.44412291 17 12 7421 8.48600000 1204124963 1204124963 -3.00000000
8.16727161 2.30648661 -0.14813602 16 14 7423 8.48800000 1204124967 1204124967 -1.00000000
8.05378437 2.27443719 2.24240828 45 15 7423 8.66400000 1204124970 1204124970 15.00000000
2.17976618 0.61229420 -0.60667187 4 0 7431 2.34400000 1204124990 1204124990 -15.00000000
8.15933228 2.29041195 0.14792660 15 1 7432 8.47600000 1204124993 1204124993 1.00000000
2.55178428 0.71583271 -0.61186689 7 2 7433 2.72000000 1204124995 1204124995 -13.00000000
8.17326736 2.29124618 0.44485563 28 3 7434 8.50000000 1204124997 1204124997 3.00000000
3.08509874 0.86485869 -0.62280059 5 4 7434 3.26400000 1204124999 1204124999 -11.00000000
8.17292309 2.28961134 0.74256694 76 5 7435 8.52000000 1204125002 1204125002 5.00000000
3.88246679 1.08692658 -0.63856548 4 6 7436 4.08200000 1204125004 1204125004 -9.00000000
8.17819595 2.28800988 1.04271412 97 7 7437 8.55600000 1204125006 1204125006 7.00000000
5.21533632 1.45811069 -0.66491914 9 8 7438 5.45600000 1204125009 1204125009 -7.00000000
8.59937286 2.40260601 1.41416752 10 9 7439 9.04000000 1204125011 1204125011 9.00000000
6.64899302 1.85768318 -0.60398930 16 10 7439 6.93000000 1204125013 1204125013 -5.00000000
8.63400078 2.41065621 1.74246776 12 11 7440 9.13200000 1204125016 1204125016 11.00000000
8.16451740 2.27803826 -0.44422761 17 12 7441 8.48800000 1204125018 1204125018 -3.00000000
8.61793327 2.40292764 2.06550050 39 13 7442 9.18200000 1204125020 1204125020 13.00000000
8.15408325 2.27205920 -0.14775208 14 14 7443 8.46600000 1204125023 1204125023 -1.00000000
8.17559052 2.27651429 2.27398419 47 15 7444 8.78600000 1204125025 1204125025 15.00000000
2.18013406 0.60378522 -0.60615420 4 0 7452 2.34200000 1204125046 1204125046 -15.00000000
8.16189098 2.25889111 0.14782189 12 1 7453 8.47000000 1204125048 1204125048 1.00000000
2.55814719 0.70751411 -0.61276668 7 2 7454 2.72400000 1204125050 1204125050 -13.00000000
8.18161011 2.26127410 0.44485563 34 3 7455 8.50000000 1204125052 1204125052 3.00000000
3.07689404 0.85040736 -0.62051088 5 4 7455 3.25200000 1204125055 1204125055 -11.00000000
8.17549896 2.25804925 0.74204397 76 5 7456 8.51400000 1204125057 1204125057 5.00000000
3.86738276 1.06743360 -0.63543677 4 6 7457 4.06200000 1204125059 1204125059 -9.00000000
8.17887306 2.25590873 1.04173911 97 7 7458 8.54800000 1204125062 1204125062 7.00000000
5.21681786 1.43793070 -0.66443163 9 8 7459 5.45200000 1204125064 1204125064 -7.00000000
8.65531635 2.38569665 1.42198932 7 9 7459 9.09000000 1204125066 1204125066 9.00000000
6.64615297 1.83065557 -0.60311776 28 10 7460 6.92000000 1204125069 1204125069 -5.00000000
8.47242069 2.33210278 1.70812213 6 11 7461 8.95200000 1204125071 1204125071 11.00000000
8.15933228 2.24439049 -0.44349489 12 12 7462 8.47400000 1204125073 1204125073 -3.00000000
8.14885807 2.23845005 -0.14750774 12 14 7464 8.45200000 1204125078 1204125078 -1.00000000
8.21329212 2.25614977 2.28226638 47 15 7464 8.81800000 1204125080 1204125080 15.00000000
2.17850137 0.59515321 -0.60511893 4 0 7472 2.33800000 1204125101 1204125101 -15.00000000
8.16008091 2.22775364 0.14764735 12 1 7473 8.46000000 1204125103 1204125103 1.00000000
2.57564139 0.70268345 -0.61636591 7 2 7474 2.74000000 1204125105 1204125105 -13.00000000
8.18367290 2.23112535 0.44454160 49 3 7475 8.49400000 1204125108 1204125108 3.00000000
3.09120870 0.84276021 -0.62280059 5 4 7475 3.26400000 1204125110 1204125110 -11.00000000
8.16795254 2.22530794 0.74064952 76 5 7476 8.49800000 1204125112 1204125112 5.00000000
3.87489724 1.05496526 -0.63606256 4 6 7477 4.06600000 1204125115 1204125115 -9.00000000
8.18669796 2.22734547 1.04173911 90 7 7478 8.54800000 1204125117 1204125117 7.00000000
5.23138332 1.42231584 -0.66565037 9 8 7479 5.46200000 1204125119 1204125119 -7.00000000
8.10165215 2.20117021 1.32969296 7 9 7480 8.50000000 1204125122 1204125122 9.00000000
6.64096642 1.80431068 -0.60207188 40 10 7480 6.90800000 1204125124 1204125124 -5.00000000
8.07315731 2.19191551 1.62607431 12 11 7481 8.52200000 1204125126 1204125126 11.00000000
8.17482662 2.21798754 -0.44391358 12 12 7482 8.48200000 1204125128 1204125128 -3.00000000
8.06501484 2.18668199 1.92918026 18 13 7483 8.57600000 1204125131 1204125131 13.00000000
8.14890194 2.20789981 -0.14736812 12 14 7484 8.44400000 1204125133 1204125133 -1.00000000
8.07605934 2.18665051 2.24189067 18 15 7485 8.66200000 1204125135 1204125135 15.00000000
2.18036032 0.58830637 -0.60511893 4 0 7490 2.33800000 1204125156 1204125156 -15.00000000
8.08015537 2.17868042 0.14607663 12 1 7491 8.37000000 1204125158 1204125158 1.00000000
2.57030988 0.69256037 -0.61456627 7 2 7492 2.73200000 1204125161 1204125161 -13.00000000
8.09421349 2.17944026 0.43930802 23 3 7493 8.39400000 1204125163 1204125163 3.00000000
3.08436227 0.83049250 -0.62089247 5 4 7493 3.25400000 1204125165 1204125165 -11.00000000
8.08832455 2.17634082 0.73280549 18 5 7494 8.40800000 1204125168 1204125168 5.00000000
3.86293149 1.03868330 -0.63355958 4 6 7495 4.05000000 1204125170 1204125170 -9.00000000
8.06329250 2.16658711 1.02516496 28 7 7496 8.41200000 1204125172 1204125172 7.00000000
5.23007441 1.40432966 -0.66491914 9 8 7497 5.45600000 1204125175 1204125175 -7.00000000
8.06426811 2.16534042 1.32249701 25 9 7497 8.45400000 1204125177 1204125177 9.00000000
6.63313198 1.77982426 -0.60085171 44 10 7498 6.89400000 1204125179 1204125179 -5.00000000
8.05155945 2.15891528 1.62035000 25 11 7499 8.49200000 1204125181 1204125181 11.00000000
8.06407356 2.16076183 -0.43752858 17 12 7500 8.36000000 1204125184 1204125184 -3.00000000
8.06807995 2.16032624 1.92828047 34 13 7501 8.57200000 1204125186 1204125186 13.00000000
8.04375648 2.15230894 -0.14534365 20 14 7502 8.32800000 1204125188 1204125188 -1.00000000
8.06944847 2.15918326 2.23826718 22 15 7502 8.64800000 1204125191 1204125191 15.00000000
2.18613434 0.58168536 -0.60615420 4 0 7510 2.34200000 1204125211 1204125211 -15.00000000
8.03746510 2.13710213 0.14516912 31 1 7511 8.31800000 1204125214 1204125214 1.00000000
2.55576110 0.67908025 -0.61051714 9 2 7512 2.71400000 1204125216 1204125216 -13.00000000
8.05158138 2.13784671 0.43658656 36 3 7513 8.34200000 1204125218 1204125218 3.00000000
3.10052490 0.82324779 -0.62356383 5 4 7513 3.26800000 1204125221 1204125221 -11.00000000
8.05928326 2.13838577 0.72949356 36 5 7514 8.37000000 1204125223 1204125223 5.00000000
3.88180876 1.02924299 -0.63606256 6 6 7515 4.06600000 1204125225 1204125225 -9.00000000
8.04969788 2.13283515 1.02248383 30 7 7516 8.39000000 1204125228 1204125228 7.00000000
5.23686361 1.38657284 -0.66516286 9 8 7517 5.45800000 1204125230 1204125230 -7.00000000
8.06642151 2.13425303 1.32155836 27 9 7518 8.44800000 1204125232 1204125232 9.00000000
6.63930416 1.75665939 -0.60085171 60 10 7518 6.89400000 1204125234 1204125234 -5.00000000
8.06284237 2.13180041 1.62111318 28 11 7519 8.49600000 1204125237 1204125237 11.00000000
8.02329159 2.11984515 -0.43491179 34 12 7520 8.31000000 1204125239 1204125239 -3.00000000
8.08122349 2.13364267 1.92963016 27 13 7521 8.57800000 1204125241 1204125241 13.00000000
8.04155350 2.12166739 -0.14516912 40 14 7522 8.31800000 1204125244 1204125244 -1.00000000
8.12213993 2.14141297 2.25069046 20 15 7523 8.69600000 1204125246 1204125246 15.00000000
2.19769573 0.57573479 -0.60874242 4 0 7532 2.35200000 1204125267 1204125267 -15.00000000
8.04561138 2.10622478 0.14516912 34 1 7533 8.31800000 1204125269 1204125269 1.00000000
2.56966162 0.67222100 -0.61321658 10 2 7534 2.72600000 1204125271 1204125271 -13.00000000
8.05200195 2.10489464 0.43616787 26 3 7535 8.33400000 1204125274 1204125274 3.00000000
3.09796500 0.80984700 -0.62241894 5 4 7535 3.26200000 1204125276 1204125276 -11.00000000
8.06743431 2.10742474 0.72949356 18 5 7536 8.37000000 1204125278 1204125278 5.00000000
3.87999821 1.01283348 -0.63512391 6 6 7537 4.06000000 1204125281 1204125281 -9.00000000
8.10392761 2.11393619 1.02833354 26 7 7538 8.43800000 1204125283 1204125283 7.00000000
5.22678137 1.36244881 -0.66321295 9 8 7539 5.44200000 1204125285 1204125285 -7.00000000
6.64214420 1.73014903 -0.60050309 60 10 7540 6.89000000 1204125290 1204125290 -5.00000000
8.03523827 2.09002781 -0.43512115 25 12 7542 8.31400000 1204125294 1204125294 -3.00000000
8.03802776 2.08775806 -0.14495969 20 14 7544 8.30600000 1204125299 1204125299 -1.00000000
8.22155476 2.13542652 2.27605462 40 15 7544 8.79400000 1204125301 1204125301 15.00000000
2.18285751 0.56371248 -0.60408366 4 0 7552 2.33400000 1204125322 1204125322 -15.00000000
8.10519409 2.09161854 0.14611155 15 1 7553 8.37200000 1204125324 1204125324 1.00000000
2.57576632 0.66422033 -0.61411637 9 2 7554 2.73000000 1204125327 1204125327 -13.00000000
8.17727852 2.10717654 0.44255283 78 3 7555 8.45600000 1204125329 1204125329 3.00000000
3.08176136 0.79412913 -0.61860275 5 4 7555 3.24200000 1204125331 1204125331 -11.00000000
8.16156673 2.10160875 0.73733759 54 5 7556 8.46000000 1204125334 1204125334 5.00000000
3.89881444 1.00322175 -0.63762689 6 6 7557 4.07600000 1204125336 1204125336 -9.00000000
8.18623734 2.10491467 1.03783929 92 7 7558 8.51600000 1204125338 1204125338 7.00000000
5.23535109 1.34518361 -0.66370046 9 8 7559 5.44600000 1204125340 1204125340 -7.00000000
6.63077497 1.70249367 -0.59893429 44 10 7560 6.87200000 1204125345 1204125345 -5.00000000
8.13341522 2.08527994 -0.44004071 17 12 7562 8.40800000 1204125350 1204125350 -3.00000000
8.14793873 2.08597279 -0.14680964 16 14 7564 8.41200000 1204125354 1204125354 -1.00000000
8.22371197 2.10384226 2.27450180 51 15 7565 8.78800000 1204125357 1204125357 15.00000000
2.18461776 0.55685210 -0.60408366 4 0 7570 2.33400000 1204125377 1204125377 -15.00000000
8.16985989 2.08095264 0.14715870 12 1 7571 8.43200000 1204125380 1204125380 1.00000000
2.57406330 0.65516371 -0.61321658 9 2 7572 2.72600000 1204125382 1204125382 -13.00000000
8.18385887 2.08147645 0.44255283 100 3 7573 8.45600000 1204125384 1204125384 3.00000000
3.08424115 0.78444356 -0.61860275 5 4 7573 3.24200000 1204125387 1204125387 -11.00000000
8.16812897 2.07595801 0.73733759 87 5 7574 8.46000000 1204125389 1204125389 5.00000000
3.88663006 0.98707831 -0.63512391 6 6 7575 4.06000000 1204125391 1204125391 -9.00000000
8.18703747 2.07772160 1.03710806 100 7 7576 8.51000000 1204125393 1204125393 7.00000000
5.24339962 1.32970560 -0.66418791 9 8 7577 5.45000000 1204125396 1204125396 -7.00000000
6.62836552 1.67969644 -0.59823704 44 10 7578 6.86400000 1204125400 1204125400 -5.00000000
8.16509628 2.06608701 -0.44140145 17 12 7580 8.43400000 1204125405 1204125405 -3.00000000
8.15832901 2.06134486 -0.14687945 12 14 7582 8.41600000 1204125410 1204125410 -1.00000000
8.21493340 2.07564688 2.27036071 51 15 7582 8.77200000 1204125412 1204125412 15.00000000
2.18842196 0.54969358 -0.60460126 4 0 7590 2.33600000 1204125433 1204125433 -15.00000000
8.14410114 2.04414582 0.14656530 12 1 7591 8.39800000 1204125435 1204125435 1.00000000
2.57255411 0.64522636 -0.61231679 9 2 7592 2.72200000 1204125437 1204125437 -13.00000000
8.17170048 2.04804134 0.44150612 100 3 7593 8.43600000 1204125440 1204125440 3.00000000
3.10409975 0.77796835 -0.62203735 5 4 7593 3.26000000 1204125442 1204125442 -11.00000000
8.15020084 2.04114103 0.73507154 79 5 7594 8.43400000 1204125444 1204125444 5.00000000
3.87855434 0.97062808 -0.63324672 6 6 7595 4.04800000 1204125446 1204125446 -9.00000000
8.17113018 2.04335189 1.03418326 100 7 7596 8.48600000 1204125449 1204125449 7.00000000
5.25186062 1.31235719 -0.66467541 9 8 7597 5.45400000 1204125451 1204125451 -7.00000000
6.63225508 1.65606618 -0.59806269 40 10 7598 6.86200000 1204125456 1204125456 -5.00000000
8.16063118 2.03467393 -0.44077343 12 12 7600 8.42200000 1204125460 1204125460 -3.00000000
8.15383244 2.02995586 -0.14667003 12 14 7602 8.40400000 1204125465 1204125465 -1.00000000
8.20900631 2.04369187 2.26673722 47 15 7602 8.75800000 1204125467 1204125467 15.00000000
2.19782853 0.54390752 -0.60667187 4 0 7610 2.34400000 1204125488 1204125488 -15.00000000
8.15118694 2.01570511 0.14656530 12 1 7611 8.39800000 1204125490 1204125490 1.00000000
2.56722355 0.63437265 -0.61051714 9 2 7612 2.71400000 1204125493 1204125493 -13.00000000
8.16328812 2.01567411 0.44066876 99 3 7613 8.42000000 1204125495 1204125495 3.00000000
3.11060834 0.76806951 -0.62280059 5 4 7613 3.26400000 1204125497 1204125497 -11.00000000
8.16694736 2.01506543 0.73594308 100 5 7614 8.44400000 1204125499 1204125499 5.00000000
3.89342642 0.95992070 -0.63512391 6 6 7615 4.06000000 1204125502 1204125502 -9.00000000
8.16279411 2.01101804 1.03223336 100 7 7616 8.47000000 1204125504 1204125504 7.00000000
5.24869967 1.29211867 -0.66370046 9 8 7617 5.44600000 1204125506 1204125506 -7.00000000
6.64379978 1.63433301 -0.59858567 12 10 7618 6.86800000 1204125511 1204125511 -5.00000000
8.15992546 2.00427008 -0.44035473 12 12 7620 8.41400000 1204125516 1204125516 -3.00000000
8.15698433 2.00052857 -0.14660022 14 14 7622 8.40000000 1204125520 1204125520 -1.00000000
8.21609020 2.01502466 2.26673722 47 15 7622 8.75800000 1204125522 1204125522 15.00000000
2.20909810 0.53852004 -0.60926002 4 0 7630 2.35400000 1204125543 1204125543 -15.00000000
8.16205978 1.98818648 0.14663512 12 1 7631 8.40200000 1204125546 1204125546 1.00000000
2.56942225 0.62540752 -0.61051714 10 2 7632 2.71400000 1204125548 1204125548 -13.00000000
8.16251183 1.98527849 0.44025007 100 3 7633 8.41200000 1204125550 1204125550 3.00000000
3.10563993 0.75535089 -0.62127411 5 4 7633 3.25600000 1204125552 1204125552 -11.00000000
8.16037941 1.98325157 0.73472291 79 5 7634 8.43000000 1204125555 1204125555 5.00000000
3.90251231 0.94772273 -0.63606256 6 6 7635 4.06600000 1204125557 1204125557 -9.00000000
8.16976357 1.98251224 1.03223336 99 7 7636 8.47000000 1204125559 1204125559 7.00000000
5.25703621 1.27472496 -0.66418791 9 8 7637 5.45000000 1204125562 1204125562 -7.00000000
6.64365530 1.60972428 -0.59806269 12 10 7638 6.86200000 1204125566 1204125566 -5.00000000
8.16493130 1.97530460 -0.44025007 17 12 7640 8.41200000 1204125571 1204125571 -3.00000000
8.14642334 1.96781754 -0.14628607 14 14 7642 8.38200000 1204125575 1204125575 -1.00000000
8.21590900 1.98308456 2.26466656 49 15 7643 8.75000000 1204125578 1204125578 15.00000000
2.20523643 0.52983755 -0.60770714 4 0 7649 2.34800000 1204125599 1204125599 -15.00000000
8.16082954 1.95924199 0.14649551 12 1 7650 8.39400000 1204125601 1204125601 1.00000000
2.57906199 0.61870193 -0.61231679 9 2 7651 2.72200000 1204125603 1204125603 -13.00000000
8.15933895 1.95587182 0.43972671 100 3 7652 8.40200000 1204125605 1204125605 3.00000000
3.10430932 0.74413276 -0.62051088 5 4 7652 3.25200000 1204125608 1204125608 -11.00000000
8.15916157 1.95432353 0.73402566 76 5 7653 8.42200000 1204125610 1204125610 5.00000000
3.90947580 0.93569595 -0.63668829 6 6 7654 4.07000000 1204125612 1204125612 -9.00000000
8.17243195 1.95448601 1.03174591 100 7 7655 8.46600000 1204125615 1204125615 7.00000000
5.25351143 1.25543940 -0.66321295 9 8 7656 5.44200000 1204125617 1204125617 -7.00000000
6.61988783 1.58074307 -0.59544802 16 10 7657 6.83200000 1204125622 1204125622 -5.00000000
8.14812279 1.94265950 -0.43899399 17 12 7659 8.38800000 1204125626 1204125626 -3.00000000
8.14512348 1.93893981 -0.14614645 14 14 7661 8.37400000 1204125631 1204125631 -1.00000000
8.20894337 1.95413208 2.26104307 51 15 7661 8.73600000 1204125633 1204125633 15.00000000
2.19391298 0.51902336 -0.60408366 4 0 7669 2.33400000 1204125654 1204125654 -15.00000000
8.14037418 1.92430294 0.14600684 15 1 7670 8.36600000 1204125656 1204125656 1.00000000
2.58120584 0.60969555 -0.61231679 9 2 7671 2.72200000 1204125658 1204125658 -13.00000000
8.16222858 1.92646098 0.43951735 100 3 7672 8.39800000 1204125661 1204125661 3.00000000
3.09351277 0.73013532 -0.61783952 5 4 7672 3.23800000 1204125663 1204125663 -11.00000000
8.14266300 1.92034280 0.73193395 79 5 7673 8.39800000 1204125665 1204125665 5.00000000
3.89541388 0.91796577 -0.63387245 6 6 7674 4.05200000 1204125668 1204125668 -9.00000000
8.17920399 1.92594695 1.03174591 100 7 7675 8.46600000 1204125670 1204125670 7.00000000
5.25979424 1.23754823 -0.66345668 9 8 7676 5.44400000 1204125672 1204125672 -7.00000000
6.61178875 1.55443394 -0.59422785 28 10 7677 6.81800000 1204125677 1204125677 -5.00000000
8.15874290 1.91511822 -0.43920335 17 12 7679 8.39200000 1204125681 1204125681 -3.00000000
8.14405346 1.90867102 -0.14600684 16 14 7681 8.36600000 1204125686 1204125686 -1.00000000
8.19878674 1.92149830 2.25638437 47 15 7681 8.71800000 1204125688 1204125688 15.00000000
2.19947433 0.51223838 -0.60511893 4 0 7689 2.33800000 1204125709 1204125709 -15.00000000
8.14314651 1.89496958 0.14593703 15 1 7690 8.36200000 1204125711 1204125711 1.00000000
2.57952213 0.59979904 -0.61141694 9 2 7691 2.71800000 1204125714 1204125714 -13.00000000
8.17246246 1.90028811 0.43972671 100 3 7691 8.40200000 1204125716 1204125716 3.00000000
3.11134100 0.72288698 -0.62089247 6 4 7692 3.25400000 1204125718 1204125718 -11.00000000
8.15319824 1.89280903 0.73228258 79 5 7693 8.40200000 1204125721 1204125721 5.00000000
3.89282155 0.90302354 -0.63293386 6 6 7694 4.04600000 1204125723 1204125723 -9.00000000
8.16460514 1.89245391 1.02906477 95 7 7695 8.44400000 1204125725 1204125725 7.00000000
5.26795006 1.22007644 -0.66394418 9 8 7696 5.44800000 1204125727 1204125727 -7.00000000
6.62688017 1.53359103 -0.59509939 32 10 7697 6.82800000 1204125732 1204125732 -5.00000000
8.15370274 1.88392949 -0.43857533 17 12 7699 8.38000000 1204125737 1204125737 -3.00000000
8.25975418 1.90691447 1.95707417 3 13 7700 8.70000000 1204125739 1204125739 13.00000000
8.14871788 1.87978184 -0.14597192 16 14 7701 8.36400000 1204125741 1204125741 -1.00000000
8.21297359 1.89460456 2.25845504 47 15 7701 8.72600000 1204125744 1204125744 15.00000000
2.20878100 0.50628412 -0.60718948 4 0 7709 2.34600000 1204125764 1204125764 -15.00000000
8.14386368 1.86519384 0.14583232 15 1 7710 8.35600000 1204125767 1204125767 1.00000000
2.57020235 0.58818281 -0.60871756 9 2 7711 2.70600000 1204125769 1204125769 -13.00000000
8.16574383 1.86720538 0.43899399 100 3 7712 8.38800000 1204125771 1204125771 3.00000000
3.11767316 0.71289718 -0.62165570 15 4 7712 3.25800000 1204125774 1204125774 -11.00000000
8.15004349 1.86211860 0.73141098 76 5 7713 8.39200000 1204125776 1204125776 5.00000000
3.89017248 0.88811058 -0.63199526 6 6 7714 4.04000000 1204125778 1204125778 -9.00000000
8.15954876 1.86129367 1.02760231 97 7 7715 8.43200000 1204125780 1204125780 7.00000000
5.25669289 1.19815123 -0.66199428 9 8 7716 5.43200000 1204125783 1204125783 -7.00000000
6.63996363 1.51221931 -0.59579664 16 10 7717 6.83600000 1204125787 1204125787 -5.00000000
8.14464855 1.85191369 -0.43773794 21 12 7719 8.36400000 1204125792 1204125792 -3.00000000
8.24545670 1.87332177 1.95212519 3 13 7720 8.67800000 1204125794 1204125794 13.00000000
8.15523052 1.85132611 -0.14597192 20 14 7721 8.36400000 1204125797 1204125797 -1.00000000
8.21044254 1.86235309 2.25586677 51 15 7722 8.71600000 1204125799 1204125799 15.00000000
2.21053481 0.49857095 -0.60718948 4 0 7729 2.34600000 1204125820 1204125820 -15.00000000
8.15032482 1.83675504 0.14583232 18 1 7730 8.35600000 1204125822 1204125822 1.00000000
2.58364654 0.58177608 -0.61141694 7 2 7731 2.71800000 1204125824 1204125824 -13.00000000
8.15630341 1.83660650 0.43815663 100 3 7731 8.37200000 1204125827 1204125827 3.00000000
3.11631179 0.70114827 -0.62089247 13 4 7732 3.25400000 1204125829 1204125829 -11.00000000
8.15260696 1.83278430 0.73106235 76 5 7733 8.38800000 1204125831 1204125831 5.00000000
3.90095830 0.87625766 -0.63324672 6 6 7734 4.04800000 1204125833 1204125833 -9.00000000
8.16987038 1.83366966 1.02808976 95 7 7735 8.43600000 1204125836 1204125836 7.00000000
5.26278019 1.18022907 -0.66223800 9 8 7736 5.43400000 1204125838 1204125838 -7.00000000
6.64131355 1.48816097 -0.59544802 12 10 7737 6.83200000 1204125843 1204125843 -5.00000000
8.14521599 1.82216418 -0.43742391 17 12 7739 8.35800000 1204125847 1204125847 -3.00000000
8.24243641 1.84240282 1.94987571 3 13 7740 8.66800000 1204125850 1204125850 13.00000000
8.14798164 1.81979656 -0.14572759 18 14 7741 8.35000000 1204125852 1204125852 -1.00000000
8.21845818 1.83553708 2.25638437 49 15 7741 8.71800000 1204125854 1204125854 15.00000000
2.20094562 0.48834094 -0.60408366 4 0 7749 2.33400000 1204125875 1204125875 -15.00000000
8.15473461 1.80786109 0.14579740 15 1 7750 8.35400000 1204125877 1204125877 1.00000000
2.58946681 0.57359684 -0.61231679 7 2 7751 2.72200000 1204125879 1204125879 -13.00000000
8.16071415 1.80769253 0.43805194 100 3 7751 8.37000000 1204125882 1204125882 3.00000000
3.12832475 0.69238728 -0.62280059 5 4 7752 3.26400000 1204125884 1204125884 -11.00000000
8.15311813 1.80302453 0.73053944 79 5 7753 8.38200000 1204125886 1204125886 5.00000000
3.91170859 0.86434025 -0.63449818 6 6 7754 4.05600000 1204125889 1204125889 -9.00000000
8.16846752 1.80342841 1.02711487 97 7 7755 8.42800000 1204125891 1204125891 7.00000000
5.26299095 1.16099608 -0.66175056 6 8 7756 5.43000000 1204125893 1204125893 -7.00000000
6.63090181 1.46153855 -0.59405357 12 10 7757 6.81600000 1204125898 1204125898 -5.00000000
8.14567471 1.79243326 -0.43710992 17 12 7759 8.35200000 1204125903 1204125903 -3.00000000
8.25072098 1.81403863 1.95032561 4 13 7760 8.67000000 1204125905 1204125905 13.00000000
8.14061260 1.78834033 -0.14548326 16 14 7761 8.33600000 1204125907 1204125907 -1.00000000
8.21349430 1.80435109 2.25327849 47 15 7761 8.70600000 1204125909 1204125909 15.00000000
2.19508719 0.47900775 -0.60201311 4 0 7769 2.32600000 1204125930 1204125930 -15.00000000
8.15122700 1.77725482 0.14562288 21 1 7770 8.34400000 1204125932 1204125932 1.00000000
2.59145331 0.56455445 -0.61231679 9 2 7771 2.72200000 1204125935 1204125935 -13.00000000
8.16728497 1.77776992 0.43805194 100 3 7772 8.37000000 1204125937 1204125937 3.00000000
3.12304926 0.67979294 -0.62127411 5 4 7772 3.25600000 1204125939 1204125939 -11.00000000
8.13794708 1.76989627 0.72862202 76 5 7773 8.36000000 1204125942 1204125942 5.00000000
3.90698051 0.84900272 -0.63324672 6 6 7774 4.04800000 1204125944 1204125944 -9.00000000
8.17471313 1.77490425 1.02711487 97 7 7775 8.42800000 1204125946 1204125946 7.00000000
5.26313162 1.14177608 -0.66126305 9 8 7776 5.42600000 1204125949 1204125949 -7.00000000
6.63401604 1.43796146 -0.59387922 8 10 7777 6.81400000 1204125953 1204125953 -5.00000000
8.14993000 1.76356626 -0.43700522 17 12 7779 8.35000000 1204125958 1204125958 -3.00000000
8.26081181 1.78605080 1.95122540 4 13 7780 8.67400000 1204125960 1204125960 13.00000000
8.13703251 1.75780213 -0.14530873 14 14 7781 8.32600000 1204125962 1204125962 -1.00000000
8.20494556 1.77097428 2.24913740 47 15 7782 8.69000000 1204125965 1204125965 15.00000000
2.20430136 0.47296369 -0.60408366 4 0 7789 2.33400000 1204125985 1204125985 -15.00000000
8.14760399 1.74669504 0.14544836 15 1 7790 8.33400000 1204125988 1204125988 1.00000000
2.58197522 0.55305618 -0.60961735 7 2 7791 2.71000000 1204125990 1204125990 -13.00000000
8.17508793 1.75109470 0.43815663 100 3 7791 8.37200000 1204125992 1204125992 3.00000000
3.13884163 0.67176336 -0.62394542 5 4 7792 3.27000000 1204125995 1204125995 -11.00000000
8.14602375 1.74189532 0.72879630 79 5 7793 8.36200000 1204125997 1204125997 5.00000000
3.90605664 0.83453417 -0.63262099 6 6 7794 4.04400000 1204125999 1204125999 -9.00000000
8.16921043 1.74387181 1.02565241 90 7 7795 8.41600000 1204126002 1204126002 7.00000000
5.26320219 1.12256920 -0.66077560 9 8 7796 5.42200000 1204126004 1204126004 -7.00000000
6.62340593 1.41147351 -0.59248471 12 10 7797 6.79800000 1204126009 1204126009 -5.00000000
8.15017605 1.73386014 -0.43669122 17 12 7799 8.34400000 1204126013 1204126013 -3.00000000
8.25555897 1.75477338 1.94852602 4 13 7800 8.66200000 1204126015 1204126015 13.00000000
8.14703083 1.73021865 -0.14537854 14 14 7801 8.33000000 1204126018 1204126018 -1.00000000
8.20729828 1.74152088 2.24810219 47 15 7802 8.68600000 1204126020 1204126020 15.00000000
2.20963788 0.46644938 -0.60511893 4 0 7808 2.33800000 1204126041 1204126041 -15.00000000
8.14552498 1.71801627 0.14530873 18 1 7809 8.32600000 1204126043 1204126043 1.00000000
2.58379483 0.54449099 -0.60961735 7 2 7810 2.71000000 1204126045 1204126045 -13.00000000
8.16130733 1.71985710 0.43710992 99 3 7810 8.35200000 1204126048 1204126048 3.00000000
3.13720965 0.66054195 -0.62318218 5 4 7811 3.26600000 1204126050 1204126050 -11.00000000
8.15565491 1.71569288 0.72914493 76 5 7812 8.36600000 1204126052 1204126052 5.00000000
3.91460204 0.82279557 -0.63355958 6 6 7813 4.05000000 1204126055 1204126055 -9.00000000
8.15940666 1.71350837 1.02370250 95 7 7814 8.40000000 1204126057 1204126057 7.00000000
5.26301050 1.10429430 -0.66028810 6 8 7815 5.41800000 1204126059 1204126059 -7.00000000
6.63780022 1.39154577 -0.59335631 12 10 7816 6.80800000 1204126064 1204126064 -5.00000000
8.14219666 1.70395982 -0.43595850 17 12 7818 8.33000000 1204126068 1204126068 -3.00000000
8.25370312 1.72579193 1.94672644 3 13 7819 8.65400000 1204126071 1204126071 13.00000000
8.15859604 1.70441949 -0.14548326 16 14 7820 8.33600000 1204126073 1204126073 -1.00000000
8.21302795 1.71429491 2.24810219 47 15 7821 8.68600000 1204126075 1204126075 15.00000000
2.22260213 0.46108794 -0.60822475 4 0 7828 2.35000000 1204126096 1204126096 -15.00000000
8.15147305 1.68957257 0.14530873 15 1 7829 8.32600000 1204126098 1204126098 1.00000000
2.58377147 0.53507334 -0.60916746 7 2 7830 2.70800000 1204126101 1204126101 -13.00000000
8.15161419 1.68811822 0.43627253 100 3 7830 8.33600000 1204126103 1204126103 3.00000000
3.12796116 0.64720029 -0.62089247 5 4 7831 3.25400000 1204126105 1204126105 -11.00000000
8.15183830 1.68519711 0.72827339 76 5 7832 8.35600000 1204126108 1204126108 5.00000000
3.92518854 0.81072432 -0.63481104 6 6 7833 4.05800000 1204126110 1204126110 -9.00000000
8.16533852 1.68501627 1.02370250 90 7 7834 8.40000000 1204126112 1204126112 7.00000000
5.26488876 1.08551538 -0.66004437 9 8 7835 5.41600000 1204126115 1204126115 -7.00000000
6.71481943 1.38324058 -0.59980583 8 10 7836 6.88200000 1204126119 1204126119 -5.00000000
8.14222527 1.67432106 -0.43564451 17 12 7838 8.32400000 1204126124 1204126124 -3.00000000
8.23677063 1.69226444 1.94132757 3 13 7839 8.63000000 1204126126 1204126126 13.00000000
8.14686584 1.67231143 -0.14516912 16 14 7840 8.31800000 1204126128 1204126128 -1.00000000
8.21139145 1.68406320 2.24603176 47 15 7841 8.67800000 1204126131 1204126131 15.00000000
2.20724034 0.44946930 -0.60356599 4 0 7849 2.33200000 1204126151 1204126151 -15.00000000
8.14781284 1.65769124 0.14513421 18 1 7850 8.31600000 1204126154 1204126154 1.00000000
2.59335399 0.52715254 -0.61096704 7 2 7851 2.71600000 1204126156 1204126156 -13.00000000
8.15774727 1.65822971 0.43627253 100 3 7851 8.33600000 1204126158 1204126158 3.00000000
3.12646413 0.63494992 -0.62012923 5 4 7852 3.25000000 1204126161 1204126161 -11.00000000
8.14819717 1.65332687 0.72740185 76 5 7853 8.34600000 1204126163 1204126163 5.00000000
3.93006968 0.79672486 -0.63512391 9 6 7854 4.06000000 1204126165 1204126165 -9.00000000
8.17145920 1.65507746 1.02370250 92 7 7855 8.40000000 1204126167 1204126167 7.00000000
5.26883221 1.06621134 -0.66004437 9 8 7856 5.41600000 1204126170 1204126170 -7.00000000
8.09662151 1.63697743 -0.72269541 17 10 7857 8.29200000 1204126174 1204126174 -5.00000000
8.14634991 1.64407194 -0.43553984 17 12 7859 8.32200000 1204126179 1204126179 -3.00000000
8.25246906 1.66398966 1.94357705 3 13 7860 8.64000000 1204126181 1204126181 13.00000000
8.13725758 1.63928115 -0.14488988 16 14 7861 8.30200000 1204126184 1204126184 -1.00000000
8.21343231 1.65462685 2.24499631 47 15 7861 8.67400000 1204126186 1204126186 15.00000000
2.20311260 0.44062525 -0.60201311 4 0 7869 2.32600000 1204126207 1204126207 -15.00000000
8.15354919 1.62923992 0.14513421 12 1 7870 8.31600000 1204126209 1204126209 1.00000000
2.60091138 0.51924133 -0.61231679 6 2 7871 2.72200000 1204126211 1204126211 -13.00000000
8.16348553 1.62974381 0.43627253 100 3 7871 8.33600000 1204126214 1204126214 3.00000000
3.13636279 0.62556869 -0.62165570 5 4 7872 3.25800000 1204126216 1204126216 -11.00000000
8.14219475 1.62253797 0.72635597 76 5 7873 8.33400000 1204126218 1204126218 5.00000000
3.92701459 0.78184432 -0.63418531 6 6 7874 4.05400000 1204126220 1204126220 -9.00000000
8.17718697 1.62654364 1.02370250 90 7 7875 8.40000000 1204126223 1204126223 7.00000000
5.26862764 1.04703927 -0.65955687 9 8 7876 5.41200000 1204126225 1204126225 -7.00000000
8.11791992 1.61180913 -0.72408992 17 10 7877 8.30800000 1204126230 1204126230 -5.00000000
8.14224339 1.61368442 -0.43501648 17 12 7879 8.31200000 1204126234 1204126234 -3.00000000
8.25440407 1.63441598 1.94267726 2 13 7880 8.63600000 1204126237 1204126237 13.00000000
8.14293098 1.61086679 -0.14488988 14 14 7881 8.30200000 1204126239 1204126239 -1.00000000
8.20049000 1.62076628 2.23982000 47 15 7882 8.65400000 1204126241 1204126241 15.00000000
2.20645738 0.43368962 -0.60253072 4 0 7888 2.32800000 1204126262 1204126262 -15.00000000
8.13732338 1.59795427 0.14475025 15 1 7889 8.29400000 1204126264 1204126264 1.00000000
2.59688210 0.50948805 -0.61096704 7 2 7890 2.71600000 1204126267 1204126267 -13.00000000
8.17304516 1.60200632 0.43648186 100 3 7891 8.34000000 1204126269 1204126269 3.00000000
3.12878704 0.61327654 -0.61974764 5 4 7891 3.24800000 1204126271 1204126271 -11.00000000
8.14753056 1.59552860 0.72635597 76 5 7892 8.33400000 1204126273 1204126273 5.00000000
3.91989279 0.76692116 -0.63262099 9 6 7893 4.04400000 1204126276 1204126276 -9.00000000
8.16695023 1.59637165 1.02175260 92 7 7894 8.38400000 1204126278 1204126278 7.00000000
5.27012253 1.02918172 -0.65931314 9 8 7895 5.41000000 1204126280 1204126280 -7.00000000
7.87878084 1.53718889 -0.70230097 21 10 7896 8.05800000 1204126285 1204126285 -5.00000000
8.13578701 1.58438420 -0.43438843 17 12 7898 8.30000000 1204126290 1204126290 -3.00000000
8.27316856 1.60963964 1.94582665 1 13 7899 8.65000000 1204126292 1204126292 13.00000000
8.14822769 1.58385503 -0.14488988 14 14 7900 8.30200000 1204126294 1204126294 -1.00000000
8.20554161 1.59499574 2.23982000 47 15 7900 8.65400000 1204126297 1204126297 15.00000000
2.20985460 0.42635098 -0.60304838 4 0 7908 2.33000000 1204126317 1204126317 -15.00000000
8.14088821 1.56916153 0.14471535 12 1 7909 8.29200000 1204126320 1204126320 1.00000000
2.59099054 0.49894613 -0.60916746 7 2 7910 2.70800000 1204126322 1204126322 -13.00000000
8.16093540 1.57007134 0.43553984 100 3 7911 8.32200000 1204126324 1204126324 3.00000000
3.14440417 0.60494763 -0.62241894 5 4 7911 3.26200000 1204126326 1204126326 -11.00000000
8.14913750 1.56632662 0.72600734 76 5 7912 8.33000000 1204126329 1204126329 5.00000000
3.92836571 0.75435102 -0.63355958 6 6 7913 4.05000000 1204126331 1204126331 -9.00000000
8.15687656 1.56486189 1.01980269 95 7 7914 8.36800000 1204126333 1204126333 7.00000000
5.26783419 1.00965822 -0.65858191 9 8 7915 5.40400000 1204126336 1204126336 -7.00000000
7.85670280 1.50443161 -0.69986063 17 10 7916 8.03000000 1204126340 1204126340 -5.00000000
8.13538265 1.55485058 -0.43407443 25 12 7918 8.29400000 1204126345 1204126345 -3.00000000
8.15763569 1.55615211 -0.14495969 20 14 7920 8.30600000 1204126350 1204126350 -1.00000000
8.21133232 1.56491017 2.23982000 47 15 7921 8.65400000 1204126352 1204126352 15.00000000
2.21892190 0.42007190 -0.60511893 4 0 7928 2.33800000 1204126373 1204126373 -15.00000000
8.15024567 1.54147816 0.14478517 12 1 7929 8.29600000 1204126375 1204126375 1.00000000
2.59271646 0.48989883 -0.60916746 7 2 7930 2.70800000 1204126377 1204126377 -13.00000000
8.15655327 1.53972232 0.43501648 100 3 7931 8.31200000 1204126379 1204126379 3.00000000
3.14263821 0.59323961 -0.62165570 5 4 7931 3.25800000 1204126382 1204126382 -11.00000000
8.14868164 1.53676355 0.72548443 76 5 7932 8.32400000 1204126384 1204126384 5.00000000
3.92903376 0.74026817 -0.63324672 6 6 7933 4.04800000 1204126386 1204126386 -9.00000000
8.16228962 1.53637958 1.01980269 97 7 7934 8.36800000 1204126389 1204126389 7.00000000
5.25962114 0.98906273 -0.65711951 9 8 7935 5.39200000 1204126391 1204126391 -7.00000000
7.86973906 1.47846889 -0.70055789 17 10 7936 8.03800000 1204126396 1204126396 -5.00000000
8.13290882 1.52497101 -0.43365574 21 12 7938 8.28600000 1204126400 1204126400 -3.00000000
8.15122414 1.52546012 -0.14475025 14 14 7940 8.29400000 1204126405 1204126405 -1.00000000
8.21647644 1.53767180 2.23982000 47 15 7940 8.65400000 1204126407 1204126407 15.00000000
2.22037482 0.41232386 -0.60511893 4 0 7948 2.33800000 1204126428 1204126428 -15.00000000
8.14967823 1.51192486 0.14468046 15 1 7949 8.29000000 1204126430 1204126430 1.00000000
2.59824276 0.48155585 -0.61006725 7 2 7950 2.71200000 1204126432 1204126432 -13.00000000
8.15598679 1.51015043 0.43470246 100 3 7951 8.30600000 1204126435 1204126435 3.00000000
3.13696814 0.58083636 -0.62012923 5 4 7951 3.25000000 1204126437 1204126437 -11.00000000
8.15203667 1.50794756 0.72531009 76 5 7952 8.32200000 1204126439 1204126439 5.00000000
3.94130611 0.72834361 -0.63481104 6 6 7953 4.05800000 1204126442 1204126442 -9.00000000
8.16174603 1.50679731 1.01907146 99 7 7954 8.36200000 1204126444 1204126444 7.00000000
5.27085018 0.97213739 -0.65809447 9 8 7955 5.40000000 1204126446 1204126446 -7.00000000
7.86309528 1.44882321 -0.69951200 17 10 7956 8.02600000 1204126451 1204126451 -5.00000000
8.14407539 1.49765623 -0.43396974 21 12 7958 8.29200000 1204126455 1204126455 -3.00000000
8.13289738 1.49266601 -0.14433140 12 14 7960 8.27000000 1204126460 1204126460 -1.00000000
8.20495605 1.50441098 2.23516130 51 15 7961 8.63600000 1204126462 1204126462 15.00000000
2.21419811 0.40318647 -0.60304838 4 0 7968 2.33000000 1204126483 1204126483 -15.00000000
8.14506912 1.48167849 0.14450592 15 1 7969 8.28000000 1204126485 1204126485 1.00000000
2.60565996 0.47352868 -0.61141694 9 2 7970 2.71800000 1204126488 1204126488 -13.00000000
8.16120815 1.48167145 0.43470246 100 3 7971 8.30600000 1204126490 1204126490 3.00000000
3.14670324 0.57128555 -0.62165570 5 4 7971 3.25800000 1204126492 1204126492 -11.00000000
8.13764668 1.47592688 0.72356695 79 5 7972 8.30200000 1204126495 1204126495 5.00000000
3.92827487 0.71176392 -0.63230813 6 6 7973 4.04200000 1204126497 1204126497 -9.00000000
8.17281628 1.47935903 1.01980269 95 7 7974 8.36800000 1204126499 1204126499 7.00000000
5.27030468 0.95302629 -0.65760696 9 8 7975 5.39600000 1204126502 1204126502 -7.00000000
7.86418343 1.42065871 -0.69916338 17 10 7976 8.02200000 1204126506 1204126506 -5.00000000
8.14532185 1.46851027 -0.43376040 17 12 7978 8.28800000 1204126511 1204126511 -3.00000000
8.14002609 1.46462190 -0.14436631 12 14 7980 8.27200000 1204126515 1204126515 -1.00000000
8.19659042 1.47479939 2.23153782 49 15 7980 8.62200000 1204126518 1204126518 15.00000000
2.20988655 0.39443669 -0.60149544 4 0 7988 2.32400000 1204126538 1204126538 -15.00000000
8.14034843 1.45148277 0.14433140 15 1 7989 8.27000000 1204126541 1204126541 1.00000000
2.60345984 0.46374685 -0.61051714 9 2 7990 2.71400000 1204126543 1204126543 -13.00000000
8.16436386 1.45282459 0.43459779 100 3 7991 8.30400000 1204126545 1204126545 3.00000000
3.14867806 0.56029803 -0.62165570 5 4 7991 3.25800000 1204126548 1204126548 -11.00000000
8.15059566 1.44890702 0.72426420 79 5 7992 8.31000000 1204126550 1204126550 5.00000000
3.92684555 0.69735658 -0.63168240 6 6 7993 4.03800000 1204126552 1204126552 -9.00000000
8.16424847 1.44839430 1.01809645 100 7 7994 8.35400000 1204126555 1204126555 7.00000000
5.26969004 0.93393087 -0.65711951 9 8 7995 5.39200000 1204126557 1204126557 -7.00000000
7.87105656 1.39354622 -0.69933766 21 10 7996 8.02400000 1204126561 1204126561 -5.00000000
8.14056492 1.43833137 -0.43323705 17 12 7998 8.27800000 1204126566 1204126566 -3.00000000
8.14508915 1.43619895 -0.14436631 12 14 8000 8.27200000 1204126571 1204126571 -1.00000000
8.19623280 1.44374204 2.22998500 56 15 8001 8.61600000 1204126573 1204126573 15.00000000
2.21872640 0.38882607 -0.60356599 4 0 8006 2.33200000 1204126594 1204126594 -15.00000000
8.14092827 1.42521226 0.14426160 18 1 8007 8.26600000 1204126596 1204126596 1.00000000
2.59722567 0.45422271 -0.60871756 10 2 8008 2.70600000 1204126598 1204126598 -13.00000000
8.15905094 1.42544973 0.43407443 100 3 8009 8.29400000 1204126601 1204126601 3.00000000
3.15429068 0.55107921 -0.62241894 5 4 8009 3.26200000 1204126603 1204126603 -11.00000000
8.15314484 1.42295158 0.72408992 83 5 8010 8.30800000 1204126605 1204126605 5.00000000
3.92317891 0.68399876 -0.63074374 6 6 8011 4.03200000 1204126608 1204126608 -9.00000000
8.15702438 1.42069471 1.01663411 100 7 8012 8.34200000 1204126610 1204126610 7.00000000
5.26868629 0.91669053 -0.65663201 9 8 8013 5.38800000 1204126612 1204126612 -7.00000000
7.87735844 1.36915290 -0.69951200 21 10 8014 8.02600000 1204126617 1204126617 -5.00000000
8.13323593 1.41070199 -0.43260902 17 12 8016 8.26600000 1204126621 1204126621 -3.00000000
8.24503803 1.42861164 1.93187964 3 13 8017 8.58800000 1204126624 1204126624 13.00000000
8.14562035 1.40992129 -0.14429650 12 14 8018 8.26800000 1204126626 1204126626 -1.00000000
8.20238400 1.41974652 2.23050261 60 15 8018 8.61800000 1204126628 1204126628 15.00000000
2.22578216 0.38205937 -0.60511893 4 0 8026 2.33800000 1204126649 1204126649 -15.00000000
8.13796997 1.39543462 0.14412197 18 1 8027 8.25800000 1204126651 1204126651 1.00000000
2.60839915 0.44679898 -0.61096704 12 2 8028 2.71600000 1204126654 1204126654 -13.00000000
8.15413380 1.39527631 0.43355107 100 3 8029 8.28400000 1204126656 1204126656 3.00000000
3.14845467 0.53874081 -0.62089247 5 4 8029 3.25400000 1204126658 1204126658 -11.00000000
8.15806198 1.39448309 0.72408992 83 5 8030 8.30800000 1204126661 1204126661 5.00000000
3.93333125 0.67163008 -0.63199526 6 6 8031 4.04000000 1204126663 1204126663 -9.00000000
8.15214920 1.39054382 1.01541531 97 7 8032 8.33200000 1204126665 1204126665 7.00000000
5.26402664 0.89696002 -0.65565705 9 8 8033 5.38000000 1204126667 1204126667 -7.00000000
8.23931217 1.40245187 1.32374847 5 9 8034 8.46200000 1204126670 1204126670 9.00000000
7.91548014 1.34733105 -0.70247531 17 10 8034 8.06000000 1204126672 1204126672 -5.00000000
8.24705696 1.40228915 1.62607431 3 11 8035 8.52200000 1204126674 1204126674 11.00000000
8.13614178 1.38196862 -0.43250436 17 12 8036 8.26400000 1204126677 1204126677 -3.00000000
8.14063358 1.37980831 -0.14412197 10 14 8038 8.25800000 1204126681 1204126681 -1.00000000
8.21134186 1.39031875 2.23153782 58 15 8039 8.62200000 1204126684 1204126684 15.00000000
2.22329187 0.37364727 -0.60408366 4 0 8046 2.33400000 1204126704 1204126704 -15.00000000
8.14673519 1.36768138 0.14419179 15 1 8047 8.26200000 1204126707 1204126707 1.00000000
2.60417724 0.43672433 -0.60961735 9 2 8048 2.71000000 1204126709 1204126709 -13.00000000
8.14319611 1.36416471 0.43271369 100 3 8049 8.26800000 1204126711 1204126711 3.00000000
3.14644361 0.52709860 -0.62012923 5 4 8049 3.25000000 1204126714 1204126714 -11.00000000
8.15305424 1.36435342 0.72321838 79 5 8050 8.29800000 1204126716 1204126716 5.00000000
3.94734192 0.65985024 -0.63387245 6 6 8051 4.05200000 1204126718 1204126718 -9.00000000
8.16282749 1.36305988 1.01614654 99 7 8052 8.33800000 1204126720 1204126720 7.00000000
5.27691555 0.88021272 -0.65687579 9 8 8053 5.39000000 1204126723 1204126723 -7.00000000
8.10880375 1.35112941 -0.71920919 17 10 8054 8.25200000 1204126727 1204126727 -5.00000000
8.14682674 1.35454249 -0.43281835 17 12 8056 8.27000000 1204126732 1204126732 -3.00000000
8.12764645 1.34843814 -0.14380783 12 14 8058 8.24000000 1204126737 1204126737 -1.00000000
8.20828438 1.36181653 2.22946715 60 15 8058 8.61400000 1204126739 1204126739 15.00000000
2.22839499 0.36651129 -0.60511893 4 0 8066 2.33800000 1204126760 1204126760 -15.00000000
8.13764763 1.33696640 0.14394745 18 1 8067 8.24800000 1204126762 1204126762 1.00000000
2.60183978 0.42700022 -0.60871756 7 2 8068 2.70600000 1204126764 1204126764 -13.00000000
8.15184975 1.33637762 0.43292302 99 3 8069 8.27200000 1204126767 1204126767 3.00000000
3.15213895 0.51674747 -0.62089247 5 4 8069 3.25400000 1204126769 1204126769 -11.00000000
8.13417339 1.33202195 0.72112662 79 5 8070 8.27400000 1204126771 1204126771 5.00000000
3.93987370 0.64447302 -0.63230813 9 6 8071 4.04200000 1204126773 1204126773 -9.00000000
8.16753578 1.33455801 1.01614654 99 7 8072 8.33800000 1204126776 1204126776 7.00000000
5.27407885 0.86082816 -0.65614456 9 8 8073 5.38400000 1204126778 1204126778 -7.00000000
8.11936951 1.32377803 -0.71973211 17 10 8074 8.25800000 1204126783 1204126783 -5.00000000
8.14953423 1.32577586 -0.43271369 17 12 8076 8.26800000 1204126787 1204126787 -3.00000000
8.13427734 1.32037950 -0.14384273 14 14 8078 8.24200000 1204126792 1204126792 -1.00000000
8.19010544 1.32944155 2.22325563 54 15 8078 8.59000000 1204126794 1204126794 15.00000000
2.22400141 0.35742176 -0.60356599 4 0 8087 2.33200000 1204126815 1204126815 -15.00000000
8.13656998 1.30618048 0.14384273 15 1 8088 8.24200000 1204126817 1204126817 1.00000000
2.59569073 0.41622695 -0.60691792 7 2 8089 2.69800000 1204126820 1204126820 -13.00000000
8.16458130 1.30775416 0.43334171 100 3 8090 8.28000000 1204126822 1204126822 3.00000000
3.15788889 0.50581187 -0.62165570 5 4 8090 3.25800000 1204126824 1204126824 -11.00000000
8.14096737 1.30251455 0.72130090 83 5 8091 8.27600000 1204126826 1204126826 5.00000000
3.93635750 0.62909311 -0.63136947 6 6 8092 4.03600000 1204126829 1204126829 -9.00000000
8.15277004 1.30148423 1.01370919 99 7 8093 8.31800000 1204126831 1204126831 7.00000000
5.28896046 0.84336746 -0.65760696 9 8 8094 5.39600000 1204126833 1204126833 -7.00000000
8.03365803 1.27959394 -0.71171379 17 10 8095 8.16600000 1204126838 1204126838 -5.00000000
8.14053059 1.29370308 -0.43198100 17 12 8097 8.25400000 1204126843 1204126843 -3.00000000
8.13116264 1.28930438 -0.14370312 14 14 8099 8.23400000 1204126847 1204126847 -1.00000000
8.20255470 1.30062461 2.22532606 58 15 8099 8.59800000 1204126849 1204126849 15.00000000
2.22905231 0.35025612 -0.60460126 4 0 8107 2.33600000 1204126870 1204126870 -15.00000000
8.13712883 1.27715051 0.14377293 15 1 8108 8.23800000 1204126873 1204126873 1.00000000
2.59520245 0.40686193 -0.60646802 7 2 8109 2.69600000 1204126875 1204126875 -13.00000000
8.14936447 1.27615643 0.43229499 99 3 8110 8.26000000 1204126877 1204126877 3.00000000
3.15963531 0.49478570 -0.62165570 5 4 8110 3.25800000 1204126879 1204126879 -11.00000000
8.13955975 1.27316558 0.72077799 76 5 8111 8.27000000 1204126882 1204126882 5.00000000
3.94438457 0.61626363 -0.63230813 6 6 8112 4.04200000 1204126884 1204126884 -9.00000000
8.15334034 1.27240562 1.01322174 100 7 8113 8.31400000 1204126886 1204126886 7.00000000
5.28010368 0.82306594 -0.65614456 9 8 8114 5.38400000 1204126889 1204126889 -7.00000000
7.88648796 1.22794104 -0.69829184 26 10 8115 8.01200000 1204126893 1204126893 -5.00000000
8.13512897 1.26374650 -0.43145761 17 12 8117 8.24400000 1204126898 1204126898 -3.00000000
8.14154148 1.26183224 -0.14380783 12 14 8119 8.24000000 1204126902 1204126902 -1.00000000
8.19962978 1.26936984 2.22325563 60 15 8120 8.59000000 1204126905 1204126905 15.00000000
2.23020148 0.34286240 -0.60460126 4 0 8126 2.33600000 1204126926 1204126926 -15.00000000
8.13934231 1.24985635 0.14373802 15 1 8127 8.23600000 1204126928 1204126928 1.00000000
2.60809469 0.40002632 -0.60916746 7 2 8128 2.70800000 1204126930 1204126930 -13.00000000
8.13973236 1.24700797 0.43156230 94 3 8129 8.24600000 1204126932 1204126932 3.00000000
3.15543675 0.48341334 -0.62051088 5 4 8129 3.25200000 1204126935 1204126935 -11.00000000
8.15161419 1.24737227 0.72147524 90 5 8130 8.27800000 1204126937 1204126937 5.00000000
3.95421720 0.60437399 -0.63355958 4 6 8131 4.05000000 1204126939 1204126939 -9.00000000
8.14966583 1.24416292 1.01224673 99 7 8132 8.30600000 1204126942 1204126942 7.00000000
5.26317978 0.80255955 -0.65370715 9 8 8133 5.36400000 1204126944 1204126944 -7.00000000
7.88263798 1.20058179 -0.69759458 30 10 8134 8.00400000 1204126949 1204126949 -5.00000000
8.13532543 1.23616242 -0.43124828 17 12 8136 8.24000000 1204126953 1204126953 -3.00000000
8.13777256 1.23362815 -0.14366820 12 14 8138 8.23200000 1204126958 1204126958 -1.00000000
8.20357800 1.24360371 2.22325563 56 15 8138 8.59000000 1204126960 1204126960 15.00000000
2.22947431 0.33478856 -0.60408366 4 0 8146 2.33400000 1204126981 1204126981 -15.00000000
8.13772297 1.22054720 0.14363331 18 1 8147 8.23000000 1204126983 1204126983 1.00000000
2.60562062 0.39034250 -0.60826766 7 2 8148 2.70400000 1204126985 1204126985 -13.00000000
8.14403534 1.21858740 0.43156230 97 3 8149 8.24600000 1204126988 1204126988 3.00000000
3.14351368 0.47036216 -0.61783952 5 4 8149 3.23800000 1204126990 1204126990 -11.00000000
8.14803696 1.21773231 0.72077799 90 5 8150 8.27000000 1204126992 1204126992 5.00000000
3.95630288 0.59056753 -0.63355958 6 6 8151 4.05000000 1204126995 1204126995 -9.00000000
8.15199566 1.21541488 1.01200306 97 7 8152 8.30400000 1204126997 1204126997 7.00000000
5.26987600 0.78476751 -0.65419465 9 8 8153 5.36800000 1204126999 1204126999 -7.00000000
7.88875151 1.17335200 -0.69776887 26 10 8154 8.00600000 1204127004 1204127004 -5.00000000
8.14551830 1.20863676 -0.43156230 17 12 8156 8.24600000 1204127008 1204127008 -3.00000000
8.13016033 1.20345759 -0.14345878 12 14 8158 8.22000000 1204127013 1204127013 -1.00000000
8.19258022 1.21269727 2.21911454 54 15 8158 8.57400000 1204127015 1204127015 15.00000000
2.22866082 0.32711297 -0.60356599 4 0 8165 2.33200000 1204127036 1204127036 -15.00000000
8.13974667 1.19326484 0.14359841 18 1 8166 8.22800000 1204127038 1204127038 1.00000000
2.61846995 0.38339376 -0.61096704 7 2 8167 2.71600000 1204127041 1204127041 -13.00000000
8.14387131 1.19241750 0.43135294 86 3 8167 8.24200000 1204127043 1204127043 3.00000000
3.14894128 0.46050349 -0.61860275 5 4 8168 3.24200000 1204127045 1204127045 -11.00000000
8.13231564 1.18782616 0.71903485 90 5 8169 8.25000000 1204127048 1204127048 5.00000000
3.93869257 0.57459313 -0.63043088 6 6 8170 4.03000000 1204127050 1204127050 -9.00000000
8.16580296 1.18980634 1.01322174 100 7 8171 8.31400000 1204127052 1204127052 7.00000000
5.28030682 0.76843119 -0.65516961 6 8 8172 5.37600000 1204127054 1204127054 -7.00000000
7.87682581 1.14489281 -0.69637436 17 10 8173 7.99000000 1204127059 1204127059 -5.00000000
8.14948177 1.18161857 -0.43156230 17 12 8175 8.24600000 1204127064 1204127064 -3.00000000
8.13410664 1.17649043 -0.14345878 12 14 8177 8.22000000 1204127068 1204127068 -1.00000000
8.18508530 1.18386376 2.21600866 51 15 8177 8.56200000 1204127071 1204127071 15.00000000
2.23170137 0.31960538 -0.60408366 4 0 8185 2.33400000 1204127091 1204127091 -15.00000000
8.12406731 1.16201317 0.14324935 18 1 8186 8.20800000 1204127094 1204127094 1.00000000
