# .PCD v0.7 - Point Cloud Data file format
VERSION 0.7
FIELDS x y z intensity laser_id azimuth distance_m adjustedtime timestamp vertical_angle
SIZE 4 4 4 1 1 2 8 8 4 8
TYPE F F F U U U F U U F
COUNT 1 1 1 1 1 1 1 1 1 1
WIDTH 524
HEIGHT 1
VIEWPOINT 0 0 0 1 0 0 0
POINTS 524
DATA ascii
-6.50490808 8.91718578 2.54824543 57 13 32389 11.32800000 1203694153 1203694153 13.00000000
-5.62290525 7.71092796 2.55713224 40 15 32390 9.88000000 1203694157 1203694157 15.00000000
-1.25648165 1.72812986 -0.57250774 4 0 32398 2.21200000 1203694178 1203694178 -15.00000000
-1.45585513 2.00381279 -0.57182556 4 2 32400 2.54200000 1203694183 1203694183 -13.00000000
-1.73861802 2.39388084 -0.57509834 2 4 32401 3.01400000 1203694187 1203694187 -11.00000000
-2.14068031 2.94964027 -0.57724315 1 6 32403 3.69000000 1203694192 1203694192 -9.00000000
-2.75268912 3.79571271 -0.57571077 2 8 32405 4.72400000 1203694196 1203694196 -7.00000000
-3.89529967 5.37324381 -0.58063155 4 10 32406 6.66200000 1203694201 1203694201 -5.00000000
-6.44904900 8.90246773 -0.57611418 4 12 32408 11.00800000 1203694206 1203694206 -3.00000000
-6.46916962 8.93352413 2.54644585 57 13 32409 11.32000000 1203694208 1203694208 13.00000000
-5.59595490 7.73050880 2.55713224 42 15 32410 9.88000000 1203694212 1203694212 15.00000000
-1.25496411 1.73877108 -0.57457829 4 0 32418 2.22000000 1203694233 1203694233 -15.00000000
-1.44657183 2.00572133 -0.57092577 4 2 32420 2.53800000 1203694238 1203694238 -13.00000000
-1.72795486 2.39675021 -0.57433510 4 4 32421 3.01000000 1203694242 1203694242 -11.00000000
-2.13729906 2.96671128 -0.57912040 1 6 32423 3.70200000 1203694247 1203694247 -9.00000000
-2.74290228 3.81013155 -0.57644200 2 8 32425 4.73000000 1203694252 1203694252 -7.00000000
-3.86837339 5.37548828 -0.57941139 4 10 32426 6.64800000 1203694256 1203694256 -5.00000000
-6.43192673 8.94438267 -0.57737029 4 12 32428 11.03200000 1203694261 1203694261 -3.00000000
-6.43339682 8.94972229 2.54464626 62 13 32429 11.31200000 1203694263 1203694263 13.00000000
-5.57321882 7.75881195 2.55972028 40 15 32431 9.89000000 1203694268 1203694268 15.00000000
-1.24213636 1.73371875 -0.57147247 4 0 32438 2.20800000 1203694289 1203694289 -15.00000000
-1.44636810 2.02026558 -0.57362521 4 2 32440 2.55000000 1203694293 1203694293 -13.00000000
-1.71272266 2.39318800 -0.57204539 3 4 32441 2.99800000 1203694298 1203694298 -11.00000000
-2.12463236 2.97094011 -0.57849467 1 6 32443 3.69800000 1203694302 1203694302 -9.00000000
-2.71458149 3.79868674 -0.57327342 2 8 32445 4.70400000 1203694307 1203694307 -7.00000000
-3.84495354 5.38247347 -0.57871413 4 10 32446 6.64000000 1203694312 1203694312 -5.00000000
-6.42039204 8.99441528 -0.57914966 4 12 32448 11.06600000 1203694316 1203694316 -3.00000000
-6.40438080 8.97529697 2.54554605 57 13 32449 11.31600000 1203694318 1203694318 13.00000000
-5.54409361 7.77253246 2.55816746 42 15 32450 9.88400000 1203694323 1203694323 15.00000000
-1.23607695 1.73804402 -0.57147247 4 0 32458 2.20800000 1203694344 1203694344 -15.00000000
-1.44156504 2.02847910 -0.57452500 4 2 32460 2.55400000 1203694348 1203694348 -13.00000000
-1.70208442 2.39595103 -0.57128215 3 4 32461 2.99400000 1203694353 1203694353 -11.00000000
-2.10052729 2.95900917 -0.57474023 1 6 32463 3.67400000 1203694358 1203694358 -9.00000000
-2.72312689 3.83890224 -0.57790440 2 8 32465 4.74200000 1203694362 1203694362 -7.00000000
-3.82844663 5.39911270 -0.57906276 4 10 32466 6.64400000 1203694367 1203694367 -5.00000000
-6.40743208 9.04284573 -0.58082443 4 12 32468 11.09800000 1203694371 1203694371 -3.00000000
-6.37075949 8.99441719 2.54464626 56 13 32469 11.31200000 1203694374 1203694374 13.00000000
-4.84489489 6.84269047 2.24654937 36 15 32470 8.68000000 1203694378 1203694378 15.00000000
-1.23253536 1.74528944 -0.57250774 4 0 32477 2.21200000 1203694400 1203694400 -15.00000000
-1.43033600 2.02687955 -0.57272536 4 2 32479 2.54600000 1203694405 1203694405 -13.00000000
-1.70544672 2.41762471 -0.57509834 2 4 32480 3.01400000 1203694409 1203694409 -11.00000000
-2.09980822 2.97887492 -0.57724315 1 6 32482 3.69000000 1203694414 1203694414 -9.00000000
-2.71724057 3.85764885 -0.57936686 2 8 32484 4.75400000 1203694418 1203694418 -7.00000000
-3.82887435 5.43784380 -0.58185172 4 10 32485 6.67600000 1203694423 1203694423 -5.00000000
-6.36706591 9.04934311 -0.57988238 8 12 32487 11.08000000 1203694428 1203694428 -3.00000000
-6.33865595 9.01230621 2.54374647 55 13 32488 11.30800000 1203694430 1203694430 13.00000000
-4.81439924 6.84765625 2.24292588 40 15 32489 8.66600000 1203694435 1203694435 15.00000000
-1.22643566 1.74958122 -0.57250774 4 0 32497 2.21200000 1203694455 1203694455 -15.00000000
-1.42101610 2.02866769 -0.57182556 4 2 32499 2.54200000 1203694460 1203694460 -13.00000000
-1.69924939 2.42677951 -0.57586157 2 4 32500 3.01800000 1203694465 1203694465 -11.00000000
-2.06901288 2.95705295 -0.57161152 1 6 32502 3.65400000 1203694469 1203694469 -9.00000000
-2.69920850 3.86060262 -0.57839191 2 8 32504 4.74600000 1203694474 1203694474 -7.00000000
-3.79274893 5.42668009 -0.57923704 4 10 32505 6.64600000 1203694478 1203694478 -5.00000000
-6.34115696 9.07970047 -0.58040577 8 12 32507 11.09000000 1203694483 1203694483 -3.00000000
-6.30492735 9.03118134 2.54284668 62 13 32508 11.30400000 1203694485 1203694485 13.00000000
-4.79700613 6.87634706 2.24654937 42 15 32510 8.68000000 1203694490 1203694490 15.00000000
-1.22504163 1.75998092 -0.57457829 4 0 32516 2.22000000 1203694511 1203694511 -15.00000000
-1.41205561 2.03016925 -0.57092577 4 2 32518 2.53800000 1203694515 1203694515 -13.00000000
-1.69343400 2.43562508 -0.57662481 2 4 32519 3.02200000 1203694520 1203694520 -11.00000000
-2.08173728 2.99634337 -0.57786894 1 6 32521 3.69400000 1203694524 1203694524 -9.00000000
-2.67507076 3.85322571 -0.57595450 2 8 32523 4.72600000 1203694529 1203694529 -7.00000000
-3.78268433 5.45068502 -0.58045727 4 10 32524 6.66000000 1203694534 1203694534 -5.00000000
-6.32011795 9.11380863 -0.58124316 8 12 32526 11.10600000 1203694538 1203694538 -3.00000000
-6.27050304 9.04563332 2.54104710 55 13 32527 11.29600000 1203694541 1203694541 13.00000000
-4.77978086 6.89773464 2.24861979 40 15 32528 8.68800000 1203694545 1203694545 15.00000000
-1.21889079 1.76424634 -0.57457829 4 0 32536 2.22000000 1203694566 1203694566 -15.00000000
-1.41381752 2.04791522 -0.57452500 4 2 32538 2.55400000 1203694570 1203694570 -13.00000000
-1.67823112 2.43182635 -0.57433510 4 4 32539 3.01000000 1203694575 1203694575 -11.00000000
-2.06453705 2.99383450 -0.57599169 1 6 32541 3.68200000 1203694580 1203694580 -9.00000000
-2.67962599 3.88869357 -0.57985431 6 8 32543 4.75800000 1203694584 1203694584 -7.00000000
-3.78058815 5.48846817 -0.58307195 4 10 32544 6.69000000 1203694589 1203694589 -5.00000000
-6.30072260 9.15391159 -0.58239454 8 12 32546 11.12800000 1203694594 1203694594 -3.00000000
-6.23888969 9.06746674 2.54104710 55 13 32547 11.29600000 1203694596 1203694596 13.00000000
-4.75129509 6.90801048 2.24654937 40 15 32548 8.68000000 1203694600 1203694600 15.00000000
-1.20804715 1.76232827 -0.57250774 4 0 32557 2.21200000 1203694621 1203694621 -15.00000000
-1.40850449 2.05629897 -0.57542479 4 2 32559 2.55800000 1203694626 1203694626 -13.00000000
-1.66708839 2.43472123 -0.57357186 4 4 32560 3.00600000 1203694630 1203694630 -11.00000000
-2.04462647 2.98833895 -0.57348877 1 6 32562 3.66600000 1203694635 1203694635 -9.00000000
-2.66871619 3.90340495 -0.58058554 8 8 32564 4.76400000 1203694640 1203694640 -7.00000000
-3.75819802 5.49899769 -0.58272332 4 10 32565 6.68600000 1203694644 1203694644 -5.00000000
-6.27614069 9.19013786 -0.58323193 4 12 32567 11.14400000 1203694649 1203694649 -3.00000000
-6.20891047 9.09510040 2.54239678 54 13 32568 11.30200000 1203694651 1203694651 13.00000000
-4.72038078 6.91981983 2.24447870 42 15 32570 8.67200000 1203694656 1203694656 15.00000000
-1.19971478 1.76333988 -0.57147247 4 0 32577 2.20800000 1203694676 1203694676 -15.00000000
-1.40570068 2.06764936 -0.57722443 4 2 32579 2.56600000 1203694681 1203694681 -13.00000000
-1.66520059 2.45026827 -0.57586157 2 4 32580 3.01800000 1203694686 1203694686 -11.00000000
-2.05415845 3.02487302 -0.57912040 1 6 32582 3.70200000 1203694690 1203694690 -9.00000000
-2.66287708 3.92419481 -0.58229172 6 8 32584 4.77800000 1203694695 1203694695 -7.00000000
-3.76023054 5.54341078 -0.58603519 8 10 32585 6.72400000 1203694700 1203694700 -5.00000000
-6.25859070 9.23348236 -0.58459264 4 12 32587 11.17000000 1203694704 1203694704 -3.00000000
-6.18259001 9.12478447 2.54464626 55 13 32588 11.31200000 1203694706 1203694706 13.00000000
-4.69619751 6.93625450 2.24447870 42 15 32590 8.67200000 1203694711 1203694711 15.00000000
-1.20003891 1.77712309 -0.57457829 4 0 32597 2.22000000 1203694732 1203694732 -15.00000000
-1.38975465 2.05962038 -0.57362521 4 2 32599 2.55000000 1203694736 1203694736 -13.00000000
-1.65663743 2.45606589 -0.57586157 2 4 32600 3.01800000 1203694741 1203694741 -11.00000000
-2.03365064 3.01728249 -0.57630455 1 6 32602 3.68400000 1203694746 1203694746 -9.00000000
-2.63363838 3.91041541 -0.57887936 2 8 32604 4.75000000 1203694750 1203694750 -7.00000000
-3.72527981 5.53336430 -0.58359486 8 10 32605 6.69600000 1203694755 1203694755 -5.00000000
-6.23858500 9.27350140 -0.58574402 8 12 32607 11.19200000 1203694759 1203694759 -3.00000000
-6.14635134 9.13984203 2.54284668 54 13 32608 11.30400000 1203694762 1203694762 13.00000000
-4.67411184 6.95581198 2.24551415 42 15 32610 8.67600000 1203694766 1203694766 15.00000000
-1.19597936 1.78451073 -0.57561356 4 0 32617 2.22400000 1203694787 1203694787 -15.00000000
-1.38689411 2.07093573 -0.57542479 4 2 32619 2.55800000 1203694792 1203694792 -13.00000000
-1.64368546 2.45530796 -0.57433510 4 4 32620 3.01000000 1203694796 1203694796 -11.00000000
-2.03079438 3.03585625 -0.57849467 1 6 32622 3.69800000 1203694801 1203694801 -9.00000000
-2.61776614 3.91628385 -0.57839191 2 8 32624 4.74600000 1203694806 1203694806 -7.00000000
-3.71701121 5.56290054 -0.58533800 8 10 32625 6.71600000 1203694810 1203694810 -5.00000000
-6.21061230 9.30186558 -0.58616269 8 12 32627 11.20000000 1203694815 1203694815 -3.00000000
-6.11332798 9.15962029 2.54239678 55 13 32628 11.30200000 1203694817 1203694817 13.00000000
-4.64980316 6.97208548 2.24551415 45 15 32630 8.67600000 1203694822 1203694822 15.00000000
-1.18608534 1.78182662 -0.57354301 4 0 32635 2.21600000 1203694842 1203694842 -15.00000000
-1.38146055 2.07690525 -0.57587469 4 2 32637 2.56000000 1203694847 1203694847 -13.00000000
-1.64031184 2.46699905 -0.57586157 2 4 32638 3.01800000 1203694852 1203694852 -11.00000000
-2.03217840 3.05867434 -0.58162332 2 6 32640 3.71800000 1203694856 1203694856 -9.00000000
-2.62301707 3.95094943 -0.58229172 2 8 32642 4.77800000 1203694861 1203694861 -7.00000000
-3.69731331 5.57123041 -0.58498937 4 10 32643 6.71200000 1203694865 1203694865 -5.00000000
-6.19460487 9.34130573 -0.58741879 8 12 32645 11.22400000 1203694870 1203694870 -3.00000000
-6.08452177 9.17878056 2.54239678 55 13 32646 11.30200000 1203694872 1203694872 13.00000000
-4.62696171 6.98263025 2.24447870 42 15 32647 8.67200000 1203694877 1203694877 15.00000000
-1.18092322 1.78756785 -0.57406062 4 0 32655 2.21800000 1203694898 1203694898 -15.00000000
-1.37634957 2.08496737 -0.57677448 4 2 32657 2.56400000 1203694902 1203694902 -13.00000000
-1.62736523 2.46615529 -0.57433510 2 4 32658 3.01000000 1203694907 1203694907 -11.00000000
-2.02148938 3.06574941 -0.58162332 2 6 32660 3.71800000 1203694911 1203694911 -9.00000000
-2.60920978 3.96008134 -0.58229172 2 8 32662 4.77800000 1203694916 1203694916 -7.00000000
-3.67455578 5.57911062 -0.58446640 4 10 32663 6.70600000 1203694921 1203694921 -5.00000000
-6.16964579 9.37454987 -0.58815145 8 12 32665 11.23800000 1203694925 1203694925 -3.00000000
-6.05672932 9.20647621 2.54419637 56 13 32666 11.31000000 1203694928 1203694928 13.00000000
-4.59603214 6.99147034 2.24189067 45 15 32668 8.66200000 1203694932 1203694932 15.00000000
-1.16769886 1.78239334 -0.57095480 4 0 32677 2.20600000 1203694953 1203694953 -15.00000000
-1.36833370 2.09023690 -0.57677448 4 2 32679 2.56400000 1203694958 1203694958 -13.00000000
-1.62433386 2.48224235 -0.57662481 2 4 32680 3.02200000 1203694962 1203694962 -11.00000000
-2.00321627 3.06356883 -0.57974613 1 6 32682 3.70600000 1203694967 1203694967 -9.00000000
-2.59398484 3.97007084 -0.58229172 2 8 32684 4.77800000 1203694971 1203694971 -7.00000000
-3.66509104 5.61152792 -0.58638382 4 10 32685 6.72800000 1203694976 1203694976 -5.00000000
-6.14452076 9.41489601 -0.58919817 8 12 32687 11.25800000 1203694981 1203694981 -3.00000000
-6.02772284 9.23945713 2.54689574 57 13 32688 11.32200000 1203694983 1203694983 13.00000000
-4.57459736 7.01474142 2.24396110 45 15 32689 8.67000000 1203694988 1203694988 15.00000000
-1.17200017 1.80265486 -0.57613117 4 0 32697 2.22600000 1203695008 1203695008 -15.00000000
-1.35890579 2.09173203 -0.57587469 4 2 32699 2.56000000 1203695013 1203695013 -13.00000000
-1.61993647 2.49448323 -0.57815129 4 4 32700 3.03000000 1203695017 1203695017 -11.00000000
-1.98175740 3.05397224 -0.57661742 1 6 32702 3.68600000 1203695022 1203695022 -9.00000000
-2.56931090 3.96244550 -0.57985431 2 8 32704 4.75800000 1203695027 1203695027 -7.00000000
-3.66281962 5.65103769 -0.58917284 4 10 32705 6.76000000 1203695031 1203695031 -5.00000000
-6.12139082 9.45137501 -0.59014022 8 12 32707 11.27600000 1203695036 1203695036 -3.00000000
-5.98907995 9.25062656 2.54419637 57 13 32708 11.31000000 1203695038 1203695038 13.00000000
-4.54780674 7.02983904 2.24344349 45 15 32710 8.66800000 1203695043 1203695043 15.00000000
-1.16633117 1.80632794 -0.57613117 4 0 32715 2.22600000 1203695064 1203695064 -15.00000000
-1.35549724 2.10090351 -0.57722443 4 2 32717 2.56600000 1203695068 1203695068 -13.00000000
-1.60145092 2.48306155 -0.57433510 4 4 32718 3.01000000 1203695073 1203695073 -11.00000000
-1.98071396 3.07346654 -0.57912040 1 6 32720 3.70200000 1203695077 1203695077 -9.00000000
-2.56437325 3.98218036 -0.58156049 2 8 32722 4.77200000 1203695082 1203695082 -7.00000000
-3.64181304 5.65749121 -0.58864987 4 10 32723 6.75400000 1203695087 1203695087 -5.00000000
-6.09815121 9.48063755 -0.59076828 8 12 32725 11.28800000 1203695091 1203695091 -3.00000000
-5.95998859 9.26939583 2.54419637 56 13 32726 11.31000000 1203695094 1203695094 13.00000000
-4.52797365 7.04492712 2.24396110 45 15 32727 8.67000000 1203695098 1203695098 15.00000000
-1.15793431 1.80713499 -0.57509589 4 0 32735 2.22200000 1203695119 1203695119 -15.00000000
-1.34710467 2.10398102 -0.57677448 3 2 32737 2.56400000 1203695123 1203695123 -13.00000000
-1.59489036 2.49194360 -0.57509834 4 4 32738 3.01400000 1203695128 1203695128 -11.00000000
-1.98061621 3.09700322 -0.58224910 2 6 32740 3.72200000 1203695133 1203695133 -9.00000000
-2.54938841 3.98943472 -0.58131677 2 8 32742 4.77000000 1203695137 1203695137 -7.00000000
-3.63169551 5.68528032 -0.59021866 4 10 32743 6.77200000 1203695142 1203695142 -5.00000000
-6.08113909 9.52711964 -0.59233832 8 12 32745 11.31800000 1203695146 1203695146 -3.00000000
-5.92549992 9.28685760 2.54329658 59 13 32746 11.30600000 1203695149 1203695149 13.00000000
-4.49381351 7.04844379 2.23982000 45 15 32748 8.65400000 1203695153 1203695153 15.00000000
-1.14301288 1.79832375 -0.57095480 4 0 32756 2.20600000 1203695174 1203695174 -15.00000000
-1.33938420 2.10890436 -0.57677448 4 2 32758 2.56400000 1203695179 1203695179 -13.00000000
-1.59626865 2.51434684 -0.57891446 4 4 32759 3.03400000 1203695183 1203695183 -11.00000000
-1.96713555 3.10090566 -0.58162332 2 6 32761 3.71800000 1203695188 1203695188 -9.00000000
-2.53900027 4.00545835 -0.58229172 2 8 32763 4.77800000 1203695193 1203695193 -7.00000000
-3.61829829 5.71033382 -0.59143889 4 10 32764 6.78600000 1203695197 1203695197 -5.00000000
-6.05686378 9.56621838 -0.59338510 8 12 32766 11.33800000 1203695202 1203695202 -3.00000000
-5.89975929 9.32168674 2.54689574 56 13 32767 11.32200000 1203695204 1203695204 13.00000000
-4.46711683 7.06082201 2.23878479 47 15 32768 8.65000000 1203695209 1203695209 15.00000000
-1.14085090 1.80883861 -0.57302535 4 0 32776 2.21400000 1203695229 1203695229 -15.00000000
-1.33201456 2.11356664 -0.57677448 3 2 32778 2.56400000 1203695234 1203695234 -13.00000000
-1.58329642 2.51325917 -0.57738805 4 4 32779 3.02600000 1203695239 1203695239 -11.00000000
-1.95524704 3.10608172 -0.58131045 2 6 32781 3.71600000 1203695243 1203695243 -9.00000000
-2.54191399 4.04118204 -0.58619153 2 8 32783 4.81000000 1203695248 1203695248 -7.00000000
-3.58879900 5.70774889 -0.58987010 4 10 32784 6.76800000 1203695252 1203695252 -5.00000000
-6.03193474 9.60083199 -0.59422243 8 12 32786 11.35400000 1203695257 1203695257 -3.00000000
-5.87133026 9.34882545 2.54869556 64 13 32787 11.33000000 1203695259 1203695259 13.00000000
-4.44120789 7.07714748 2.23878479 45 15 32789 8.65000000 1203695264 1203695264 15.00000000
-1.14099717 1.82243633 -0.57613117 4 0 32795 2.22600000 1203695285 1203695285 -15.00000000
-1.32293129 2.11466813 -0.57587469 3 2 32797 2.56000000 1203695289 1203695289 -13.00000000
-1.58536291 2.53514147 -0.58120418 4 4 32798 3.04600000 1203695294 1203695294 -11.00000000
-1.94493616 3.11254835 -0.58131045 2 6 32800 3.71600000 1203695299 1203695299 -9.00000000
-2.52849913 4.04958916 -0.58619153 2 8 32802 4.81000000 1203695303 1203695303 -7.00000000
-3.58462048 5.74328136 -0.59231043 4 10 32803 6.79600000 1203695308 1203695308 -5.00000000
-6.00957632 9.63603401 -0.59516448 4 12 32805 11.37200000 1203695312 1203695312 -3.00000000
-5.83617258 9.36162853 2.54689574 57 13 32806 11.32200000 1203695315 1203695315 13.00000000
-4.42099571 7.09434414 2.23982000 47 15 32807 8.65400000 1203695319 1203695319 15.00000000
-1.13360929 1.82476711 -0.57561356 4 0 32815 2.22400000 1203695340 1203695340 -15.00000000
-1.31759727 2.12258434 -0.57677448 4 2 32817 2.56400000 1203695345 1203695345 -13.00000000
-1.57029319 2.53065085 -0.57891446 4 4 32818 3.03400000 1203695349 1203695349 -11.00000000
-1.93926418 3.12771273 -0.58287483 2 6 32820 3.72600000 1203695354 1203695354 -9.00000000
-2.51225710 4.05501556 -0.58570409 2 8 32822 4.80600000 1203695358 1203695358 -7.00000000
-3.57713914 5.77608538 -0.59440219 4 10 32823 6.82000000 1203695363 1203695363 -5.00000000
-5.98220968 9.66714287 -0.59579253 4 12 32825 11.38400000 1203695368 1203695368 -3.00000000
-5.79730797 9.37199974 2.54419637 60 13 32826 11.31000000 1203695370 1203695370 13.00000000
-4.39597988 7.11214352 2.24033761 47 15 32828 8.65600000 1203695375 1203695375 15.00000000
-1.12621903 1.82706845 -0.57509589 4 0 32835 2.22200000 1203695395 1203695395 -15.00000000
-1.31120205 2.12882996 -0.57722443 4 2 32837 2.56600000 1203695400 1203695400 -13.00000000
-1.56145000 2.53611660 -0.57891446 4 4 32838 3.03400000 1203695405 1203695405 -11.00000000
-1.92419422 3.12773323 -0.58162332 2 6 32840 3.71800000 1203695409 1203695409 -9.00000000
-2.49600792 4.06037807 -0.58521658 2 8 32842 4.80200000 1203695414 1203695414 -7.00000000
-3.55069637 5.77835178 -0.59335631 4 10 32843 6.80800000 1203695418 1203695418 -5.00000000
-5.97559977 9.73221874 -0.59851402 4 12 32845 11.43600000 1203695423 1203695423 -3.00000000
-5.76863575 9.39882278 2.54599595 62 13 32846 11.31800000 1203695425 1203695425 13.00000000
-4.36731958 7.11844873 2.23774958 47 15 32847 8.64600000 1203695430 1203695430 15.00000000
-1.11781871 1.82769251 -0.57406062 4 0 32855 2.21800000 1203695451 1203695451 -15.00000000
-1.30986011 2.14337087 -0.57992381 4 2 32857 2.57800000 1203695455 1203695455 -13.00000000
-1.54440010 2.52814865 -0.57586157 4 4 32858 3.01800000 1203695460 1203695460 -11.00000000
-1.91738153 3.14117503 -0.58287483 2 6 32860 3.72600000 1203695464 1203695464 -9.00000000
-2.47561741 4.05889750 -0.58375418 2 8 32862 4.79000000 1203695469 1203695469 -7.00000000
-3.52531862 5.78220510 -0.59248471 4 10 32863 6.79800000 1203695474 1203695474 -5.00000000
-5.95302200 9.77178097 -0.59966540 4 12 32865 11.45800000 1203695478 1203695478 -3.00000000
-5.73579264 9.41890144 2.54599595 60 13 32866 11.31800000 1203695481 1203695481 13.00000000
-4.33541346 7.12209892 2.23412609 47 15 32867 8.63200000 1203695485 1203695485 15.00000000
-1.11475909 1.83634341 -0.57561356 4 0 32874 2.22400000 1203695506 1203695506 -15.00000000
-1.30274522 2.14770269 -0.57992381 4 2 32876 2.57800000 1203695511 1203695511 -13.00000000
-1.55025852 2.55675888 -0.58120418 4 4 32877 3.04600000 1203695515 1203695515 -11.00000000
-1.90081286 3.13737917 -0.58099759 1 6 32879 3.71400000 1203695520 1203695520 -9.00000000
-2.46420002 4.07048082 -0.58424163 2 8 32881 4.79400000 1203695524 1203695524 -7.00000000
-3.50199866 5.78704500 -0.59178752 4 10 32882 6.79000000 1203695529 1203695529 -5.00000000
-5.92471838 9.79830456 -0.60008407 4 12 32884 11.46600000 1203695534 1203695534 -3.00000000
-5.70855904 9.44454193 2.54779553 59 13 32885 11.32600000 1203695536 1203695536 13.00000000
-4.31177187 7.13643646 2.23412609 47 15 32886 8.63200000 1203695540 1203695540 15.00000000
-1.11531925 1.85180759 -0.57923704 4 0 32894 2.23800000 1203695561 1203695561 -15.00000000
-1.29122102 2.14555836 -0.57812423 4 2 32896 2.57000000 1203695566 1203695566 -13.00000000
-1.53727627 2.55542541 -0.57967770 4 4 32897 3.03800000 1203695570 1203695570 -11.00000000
-1.89799130 3.15753961 -0.58350056 2 6 32899 3.73000000 1203695575 1203695575 -9.00000000
-2.46019745 4.09607506 -0.58667904 2 8 32901 4.81400000 1203695580 1203695580 -7.00000000
-3.52074814 5.86414480 -0.59841132 4 10 32902 6.86600000 1203695584 1203695584 -5.00000000
-5.89458990 9.82577610 -0.60050279 4 12 32904 11.47400000 1203695589 1203695589 -3.00000000
-5.67154741 9.45772552 2.54599595 57 13 32905 11.31800000 1203695591 1203695591 13.00000000
-4.28856564 7.15716362 2.23567891 47 15 32907 8.63800000 1203695596 1203695596 15.00000000
-1.10488474 1.84905612 -0.57716650 4 0 32914 2.23000000 1203695617 1203695617 -15.00000000
-1.28372383 2.15005255 -0.57812423 4 2 32916 2.57000000 1203695621 1203695621 -13.00000000
-1.52834678 2.56077600 -0.57967770 4 4 32917 3.03800000 1203695626 1203695626 -11.00000000
-1.89100492 3.17093182 -0.58475202 2 6 32919 3.73800000 1203695630 1203695630 -9.00000000
-2.43165827 4.08076382 -0.58326668 2 8 32921 4.78600000 1203695635 1203695635 -7.00000000
-3.47578692 5.83531666 -0.59422785 4 10 32922 6.81800000 1203695640 1203695640 -5.00000000
-5.86740589 9.85830688 -0.60123545 8 12 32924 11.48800000 1203695644 1203695644 -3.00000000
-5.63252115 9.46741676 2.54329658 59 13 32925 11.30600000 1203695646 1203695646 13.00000000
-4.26085806 7.16470385 2.23360825 47 15 32926 8.63000000 1203695651 1203695651 15.00000000
-1.09645331 1.84957802 -0.57613117 4 0 32934 2.22600000 1203695672 1203695672 -15.00000000
-1.28415620 2.16793370 -0.58172345 4 2 32936 2.58600000 1203695676 1203695676 -13.00000000
-1.51739812 2.56271672 -0.57891446 2 4 32937 3.03400000 1203695681 1203695681 -11.00000000
-1.87791312 3.17411327 -0.58412629 2 6 32939 3.73400000 1203695686 1203695686 -9.00000000
-2.41941929 4.09264469 -0.58375418 2 8 32941 4.79000000 1203695690 1203695690 -7.00000000
-3.46553278 5.86456680 -0.59597099 4 10 32942 6.83800000 1203695695 1203695695 -5.00000000
-5.84108210 9.89248657 -0.60207283 4 12 32944 11.50400000 1203695699 1203695699 -3.00000000
-5.59745836 9.48366356 2.54239678 57 13 32945 11.30200000 1203695702 1203695702 13.00000000
-4.23287773 7.17454195 2.23205543 47 15 32946 8.62400000 1203695706 1203695706 15.00000000
-1.09129345 1.85486889 -0.57664883 4 0 32953 2.22800000 1203695727 1203695727 -15.00000000
-1.27399719 2.16714048 -0.58037370 3 2 32955 2.58000000 1203695732 1203695732 -13.00000000
-1.51485944 2.57789040 -0.58120418 2 4 32956 3.04600000 1203695736 1203695736 -11.00000000
-1.86537671 3.17691636 -0.58350056 2 6 32958 3.73000000 1203695741 1203695741 -9.00000000
-2.45003343 4.17598057 -0.59447867 2 8 32960 4.87800000 1203695745 1203695745 -7.00000000
-3.44001865 5.86571503 -0.59492511 4 10 32961 6.82600000 1203695750 1203695750 -5.00000000
-5.83954859 9.96522045 -0.60531765 4 12 32963 11.56600000 1203695755 1203695755 -3.00000000
-5.56794834 9.50553703 2.54329658 59 13 32964 11.30600000 1203695757 1203695757 13.00000000
-4.20027733 7.17353535 2.22739673 47 15 32965 8.60600000 1203695762 1203695762 15.00000000
-1.07994318 1.85032463 -0.57406062 4 0 32973 2.21800000 1203695782 1203695782 -15.00000000
-1.26838815 2.17494106 -0.58127350 4 2 32975 2.58400000 1203695787 1203695787 -13.00000000
-1.51178420 2.59333897 -0.58349389 2 4 32976 3.05800000 1203695792 1203695792 -11.00000000
-1.85427582 3.18340826 -0.58350056 2 6 32978 3.73000000 1203695796 1203695796 -9.00000000
-2.42146206 4.16048813 -0.59106630 2 8 32980 4.85000000 1203695801 1203695801 -7.00000000
-3.43555307 5.90524149 -0.59771407 4 10 32981 6.85800000 1203695805 1203695805 -5.00000000
-5.82179165 10.01489735 -0.60709709 4 12 32983 11.60000000 1203695810 1203695810 -3.00000000
-5.53865051 9.53165436 2.54509616 57 13 32984 11.31400000 1203695812 1203695812 13.00000000
-4.17492723 7.19055271 2.22791433 45 15 32986 8.60800000 1203695817 1203695817 15.00000000
-1.07347775 1.85408306 -0.57406062 4 0 32993 2.21800000 1203695838 1203695838 -15.00000000
-1.25200582 2.16417408 -0.57722443 4 2 32995 2.56600000 1203695842 1203695842 -13.00000000
-1.50272250 2.59860039 -0.58349389 4 4 32996 3.05800000 1203695847 1203695847 -11.00000000
-1.83722258 3.17959929 -0.58162332 2 6 32998 3.71800000 1203695851 1203695851 -9.00000000
-2.41287971 4.17923021 -0.59252876 2 8 33000 4.86200000 1203695856 1203695856 -7.00000000
-3.40495992 5.89994144 -0.59597099 4 10 33001 6.83800000 1203695861 1203695861 -5.00000000
-5.78979111 10.04034901 -0.60741109 4 12 33003 11.60600000 1203695865 1203695865 -3.00000000
-4.81048632 8.34545612 2.22386622 41 13 33004 9.88600000 1203695868 1203695868 13.00000000
-4.15009499 7.20268393 2.22739673 47 15 33005 8.60600000 1203695872 1203695872 15.00000000
-1.07469630 1.87122059 -0.57820177 4 0 33013 2.23400000 1203695893 1203695893 -15.00000000
-1.25608325 2.18881369 -0.58262324 4 2 33015 2.59000000 1203695897 1203695897 -13.00000000
-1.48778129 2.59361219 -0.58120418 2 4 33016 3.04600000 1203695902 1203695902 -11.00000000
-1.83200645 3.19627595 -0.58350056 2 6 33018 3.73000000 1203695907 1203695907 -9.00000000
-2.39827681 4.18762732 -0.59252876 2 8 33020 4.86200000 1203695911 1203695911 -7.00000000
-3.38434458 5.91179132 -0.59597099 4 10 33021 6.83800000 1203695916 1203695916 -5.00000000
-5.75867510 10.06743240 -0.60782981 4 12 33023 11.61400000 1203695921 1203695921 -3.00000000
-4.77648926 8.35373878 2.22161651 57 13 33024 9.87600000 1203695923 1203695923 13.00000000
-4.12588596 7.21880341 2.22791433 47 15 33025 8.60800000 1203695927 1203695927 15.00000000
-1.06815791 1.87496066 -0.57820177 4 0 33033 2.23400000 1203695948 1203695948 -15.00000000
-1.23975885 2.17794251 -0.57857412 3 2 33035 2.57200000 1203695953 1203695953 -13.00000000
-1.47871888 2.59878969 -0.58120418 2 4 33036 3.04600000 1203695957 1203695957 -11.00000000
-1.82669604 3.21295476 -0.58537775 2 6 33038 3.74200000 1203695962 1203695962 -9.00000000
-2.39148879 4.20978165 -0.59447867 2 8 33040 4.87800000 1203695967 1203695967 -7.00000000
-3.36959100 5.93396378 -0.59701681 4 10 33041 6.85000000 1203695971 1203695971 -5.00000000
-5.74419594 10.12395287 -0.61002791 4 12 33043 11.65600000 1203695976 1203695976 -3.00000000
-4.75210714 8.37883568 2.22386622 56 13 33044 9.88600000 1203695978 1203695978 13.00000000
-4.08987570 7.21707010 2.22273803 45 15 33046 8.58800000 1203695983 1203695983 15.00000000
-1.05970573 1.87531400 -0.57716650 4 0 33053 2.23000000 1203696003 1203696003 -15.00000000
-1.23789763 2.19243860 -0.58127350 4 2 33055 2.58400000 1203696008 1203696008 -13.00000000
-1.47156823 2.60735512 -0.58196741 2 4 33056 3.05000000 1203696013 1203696013 -11.00000000
-1.81741035 3.22275281 -0.58600348 2 6 33058 3.74600000 1203696017 1203696017 -9.00000000
-2.37677932 4.21810389 -0.59447867 2 8 33060 4.87800000 1203696022 1203696022 -7.00000000
-3.37819004 5.99776888 -0.60224617 4 10 33061 6.91000000 1203696027 1203696027 -5.00000000
-5.71273994 10.15090370 -0.61044657 4 12 33063 11.66400000 1203696031 1203696031 -3.00000000
-4.72091961 8.39197636 2.22296643 57 13 33064 9.88200000 1203696033 1203696033 13.00000000
-4.05613899 7.21614599 2.21807933 42 15 33066 8.57000000 1203696038 1203696038 15.00000000
-1.05159152 1.87544775 -0.57613117 4 0 33072 2.22600000 1203696059 1203696059 -15.00000000
-1.23062038 2.19653153 -0.58127350 4 2 33074 2.58400000 1203696063 1203696063 -13.00000000
-1.46675098 2.61907244 -0.58349389 2 4 33075 3.05800000 1203696068 1203696068 -11.00000000
-1.80671322 3.22876191 -0.58600348 2 6 33077 3.74600000 1203696073 1203696073 -9.00000000
-2.35115361 4.20517015 -0.59155381 2 8 33079 4.85400000 1203696077 1203696077 -7.00000000
-3.36994624 6.02980900 -0.60433793 4 10 33080 6.93400000 1203696082 1203696082 -5.00000000
-5.68196821 10.17502403 -0.61076063 4 12 33082 11.67000000 1203696086 1203696086 -3.00000000
-4.69496441 8.41098785 2.22386622 55 13 33083 9.88600000 1203696089 1203696089 13.00000000
-4.00489807 7.18062878 2.20306778 20 15 33085 8.51200000 1203696093 1203696093 15.00000000
-1.04879439 1.88586032 -0.57820177 4 0 33092 2.23400000 1203696114 1203696114 -15.00000000
-1.21631968 2.18888974 -0.57812423 4 2 33094 2.57000000 1203696119 1203696119 -13.00000000
-1.45950639 2.62760901 -0.58425713 2 4 33095 3.06200000 1203696123 1203696123 -11.00000000
-1.80310047 3.24886632 -0.58850646 2 6 33097 3.76200000 1203696128 1203696128 -9.00000000
-2.35571432 4.24807262 -0.59642857 2 8 33099 4.89400000 1203696133 1203696133 -7.00000000
-3.32569551 5.99971342 -0.60015446 4 10 33100 6.88600000 1203696137 1203696137 -5.00000000
-5.65125465 10.20353127 -0.61128396 4 12 33102 11.68000000 1203696142 1203696142 -3.00000000
-4.66368818 8.42391586 2.22296643 55 13 33103 9.88200000 1203696144 1203696144 13.00000000
-3.93024802 7.10497046 2.17563295 15 15 33105 8.40600000 1203696149 1203696149 15.00000000
-1.04626822 1.89609361 -0.58027232 4 0 33111 2.24200000 1203696169 1203696169 -15.00000000
-1.20999527 2.19461775 -0.57857412 3 2 33113 2.57200000 1203696174 1203696174 -13.00000000
-1.45457542 2.63931203 -0.58578360 2 4 33114 3.07000000 1203696179 1203696179 -11.00000000
-1.79803407 3.26521015 -0.59038365 2 6 33116 3.77400000 1203696183 1203696183 -9.00000000
-2.32821727 4.23151207 -0.59301621 2 8 33118 4.86600000 1203696188 1203696188 -7.00000000
-3.33650613 6.06657362 -0.60573244 4 10 33119 6.95000000 1203696192 1203696192 -5.00000000
-5.63277769 10.25022125 -0.61295873 4 12 33121 11.71200000 1203696197 1203696197 -3.00000000
-4.63197517 8.43250275 2.22116661 57 13 33122 9.87400000 1203696199 1203696199 13.00000000
-3.88559294 7.07664156 2.16320968 15 15 33123 8.35800000 1203696204 1203696204 15.00000000
-1.03593349 1.89295554 -0.57820177 4 0 33131 2.23400000 1203696225 1203696225 -15.00000000
-1.21074164 2.21421647 -0.58262324 4 2 33133 2.59000000 1203696229 1203696229 -13.00000000
-1.43782079 2.63059163 -0.58273065 2 4 33134 3.05400000 1203696234 1203696234 -11.00000000
-1.77337003 3.24719477 -0.58600348 2 6 33136 3.74600000 1203696238 1203696238 -9.00000000
-2.31913733 4.25006819 -0.59447867 2 8 33138 4.87800000 1203696243 1203696243 -7.00000000
-3.29622841 6.04320097 -0.60224617 4 10 33139 6.91000000 1203696248 1203696248 -5.00000000
-5.60269785 10.28034401 -0.61358672 4 12 33141 11.72400000 1203696252 1203696252 -3.00000000
-4.60251188 8.44861984 2.22116661 57 13 33142 9.87400000 1203696255 1203696255 13.00000000
-3.85039377 7.07386780 2.15803313 15 15 33144 8.33800000 1203696259 1203696259 15.00000000
-1.02714610 1.89334357 -0.57716650 4 0 33152 2.23000000 1203696280 1203696280 -15.00000000
-1.20540404 2.22377896 -0.58397293 4 2 33154 2.59600000 1203696285 1203696285 -13.00000000
-1.43004012 2.63929605 -0.58349389 2 4 33155 3.05800000 1203696289 1203696289 -11.00000000
-1.76898015 3.26757002 -0.58850646 2 6 33157 3.76200000 1203696294 1203696294 -9.00000000
-2.30732250 4.26552391 -0.59545362 2 8 33159 4.88600000 1203696298 1203696298 -7.00000000
-3.27405691 6.05524158 -0.60224617 4 10 33160 6.91000000 1203696303 1203696303 -5.00000000
-5.58586597 10.33946800 -0.61588955 4 12 33162 11.76800000 1203696308 1203696308 -3.00000000
-4.57521915 8.47229099 2.22296643 55 13 33163 9.88200000 1203696310 1203696310 13.00000000
-3.81191325 7.06176519 2.15026855 18 15 33164 8.30800000 1203696315 1203696315 15.00000000
-1.02053082 1.89691746 -0.57716650 4 0 33172 2.23000000 1203696335 1203696335 -15.00000000
-1.19486618 2.22282362 -0.58262324 4 2 33174 2.59000000 1203696340 1203696340 -13.00000000
-1.43011093 2.66156602 -0.58731008 2 4 33175 3.07800000 1203696344 1203696344 -11.00000000
-1.75382590 3.26676321 -0.58725500 2 6 33177 3.75400000 1203696349 1203696349 -9.00000000
-2.30180240 4.29104519 -0.59789097 2 8 33179 4.90600000 1203696354 1203696354 -7.00000000
-3.27173042 6.10175133 -0.60573244 4 10 33180 6.95000000 1203696358 1203696358 -5.00000000
-5.54785442 10.35538292 -0.61568022 4 12 33182 11.76400000 1203696363 1203696363 -3.00000000
-4.54745770 8.49164581 2.22386622 56 13 33183 9.88600000 1203696365 1203696365 13.00000000
-3.77780223 7.06035900 2.14560986 18 15 33185 8.29000000 1203696370 1203696370 15.00000000
-1.01390314 1.90046823 -0.57716650 4 0 33192 2.23000000 1203696391 1203696391 -15.00000000
-1.18251646 2.21838260 -0.58037370 4 2 33194 2.58000000 1203696395 1203696395 -13.00000000
-1.41711891 2.65961123 -0.58578360 2 4 33195 3.07000000 1203696400 1203696400 -11.00000000
-1.75169504 3.29030204 -0.59038365 2 6 33197 3.77400000 1203696404 1203696404 -9.00000000
-2.29613233 4.31657934 -0.60032839 2 8 33199 4.92600000 1203696409 1203696409 -7.00000000
-3.25041127 6.11313438 -0.60573244 4 10 33200 6.95000000 1203696414 1203696414 -5.00000000
-5.52666616 10.40290546 -0.61735493 4 12 33202 11.79600000 1203696418 1203696418 -3.00000000
-4.51230478 8.49714088 2.22116661 59 13 33203 9.87400000 1203696421 1203696421 13.00000000
-3.75527430 7.07455397 2.14612746 18 15 33204 8.29200000 1203696425 1203696425 15.00000000
-1.01810360 1.92448723 -0.58337814 4 0 33212 2.25400000 1203696446 1203696446 -15.00000000
-1.17294431 2.21905112 -0.57947391 3 2 33214 2.57600000 1203696450 1203696450 -13.00000000
-1.40232348 2.65412641 -0.58349389 2 4 33215 3.05800000 1203696455 1203696455 -11.00000000
-1.73835468 3.29290271 -0.58975792 2 6 33217 3.77000000 1203696460 1203696460 -9.00000000
-2.28845978 4.33861446 -0.60227829 2 8 33219 4.94200000 1203696464 1203696464 -7.00000000
-3.23648643 6.13854265 -0.60712689 4 10 33220 6.96600000 1203696469 1203696469 -5.00000000
-5.50521374 10.45040703 -0.61902970 4 12 33222 11.82800000 1203696473 1203696473 -3.00000000
-4.48080063 8.50939178 2.22026682 56 13 33223 9.87000000 1203696476 1203696476 13.00000000
-3.72482204 7.07972193 2.14353943 18 15 33225 8.28200000 1203696480 1203696480 15.00000000
-1.00453448 1.91416788 -0.57923704 4 0 33231 2.23800000 1203696501 1203696501 -15.00000000
-1.17281878 2.23673558 -0.58307314 3 2 33233 2.59200000 1203696506 1203696506 -13.00000000
-1.39351439 2.65876222 -0.58349389 4 4 33234 3.05800000 1203696510 1203696510 -11.00000000
-1.72925830 3.30214906 -0.59038365 2 6 33236 3.77400000 1203696515 1203696515 -9.00000000
-2.25565386 4.31100225 -0.59740353 2 8 33238 4.90200000 1203696520 1203696520 -7.00000000
-3.21611261 6.14924145 -0.60712689 4 10 33239 6.96600000 1203696524 1203696524 -5.00000000
-5.47422838 10.47568607 -0.61944836 4 12 33241 11.83600000 1203696529 1203696529 -3.00000000
-4.45255804 8.52420330 2.22026682 59 13 33242 9.87000000 1203696531 1203696531 13.00000000
-3.68915009 7.06570196 2.13577485 20 15 33243 8.25200000 1203696536 1203696536 15.00000000
-0.99071282 1.90395296 -0.57509589 4 0 33251 2.22200000 1203696556 1203696556 -15.00000000
-1.16320622 2.23735762 -0.58217335 3 2 33253 2.58800000 1203696561 1203696561 -13.00000000
-1.38060391 2.65664196 -0.58196741 2 4 33254 3.05000000 1203696566 1203696566 -11.00000000
-1.71407998 3.30115271 -0.58913219 2 6 33256 3.76600000 1203696570 1203696570 -9.00000000
-2.25156188 4.33999443 -0.60032839 2 8 33258 4.92600000 1203696575 1203696575 -7.00000000
-3.18729043 6.14628077 -0.60573244 4 10 33259 6.95000000 1203696579 1203696579 -5.00000000
-5.44314098 10.50537109 -0.62007642 4 12 33261 11.84800000 1203696584 1203696584 -3.00000000
-4.42277575 8.53969383 2.22026682 59 13 33262 9.87000000 1203696586 1203696586 13.00000000
-3.65790129 7.06888103 2.13266897 22 15 33264 8.24000000 1203696591 1203696591 15.00000000
-0.98937523 1.91770053 -0.57820177 4 0 33271 2.23400000 1203696612 1203696612 -15.00000000
-1.16253233 2.25526166 -0.58577257 3 2 33273 2.60400000 1203696616 1203696616 -13.00000000
-1.37491894 2.66842580 -0.58349389 2 4 33274 3.05800000 1203696621 1203696621 -11.00000000
-1.70616305 3.31414104 -0.59038365 2 6 33276 3.77400000 1203696626 1203696626 -9.00000000
-2.23639870 4.34782743 -0.60032839 2 8 33278 4.92600000 1203696630 1203696630 -7.00000000
-3.17310476 6.17154455 -0.60712689 4 10 33279 6.96600000 1203696635 1203696635 -5.00000000
-5.41100073 10.53318977 -0.62059975 4 12 33281 11.85800000 1203696639 1203696639 -3.00000000
-4.39293957 8.55508041 2.22026682 60 13 33282 9.87000000 1203696642 1203696642 13.00000000
-3.63267565 7.07753515 2.13163376 20 15 33283 8.23600000 1203696646 1203696646 15.00000000
-0.98443466 1.92458224 -0.57923704 4 0 33291 2.23800000 1203696667 1203696667 -15.00000000
-1.14401090 2.23848271 -0.58037370 3 2 33293 2.58000000 1203696672 1203696672 -13.00000000
-1.37095487 2.68369913 -0.58578360 2 4 33294 3.07000000 1203696676 1203696676 -11.00000000
-1.69638014 3.32359529 -0.59100944 2 6 33296 3.77800000 1203696681 1203696681 -9.00000000
-2.22120833 4.35560751 -0.60032839 2 8 33298 4.92600000 1203696685 1203696685 -7.00000000
-3.14430404 6.16838217 -0.60573244 4 10 33299 6.95000000 1203696690 1203696690 -5.00000000
-4.99394751 9.80117321 2.13820553 12 11 33300 11.20600000 1203696692 1203696692 11.00000000
-5.38598347 10.57515049 -0.62196052 4 12 33301 11.88400000 1203696695 1203696695 -3.00000000
-4.36128187 8.56688881 2.21936703 59 13 33302 9.86600000 1203696697 1203696697 13.00000000
-3.59269738 7.06325150 2.12335134 15 15 33304 8.20400000 1203696702 1203696702 15.00000000
-0.97979516 1.93128181 -0.58027232 4 0 33310 2.24200000 1203696722 1203696722 -15.00000000
-1.14010584 2.24921703 -0.58217335 3 2 33312 2.58800000 1203696727 1203696727 -13.00000000
-1.36559713 2.69523573 -0.58731008 4 4 33313 3.07800000 1203696732 1203696732 -11.00000000
-1.67642748 3.31157827 -0.58788073 2 6 33315 3.75800000 1203696736 1203696736 -9.00000000
-2.19600081 4.34169245 -0.59740353 2 8 33317 4.90200000 1203696741 1203696741 -7.00000000
-3.13461900 6.20011187 -0.60782415 4 10 33318 6.97400000 1203696745 1203696745 -5.00000000
-4.95433426 9.80366230 2.13515258 12 11 33319 11.19000000 1203696748 1203696748 11.00000000
-5.35808945 10.60721493 -0.62279791 4 12 33320 11.90000000 1203696750 1203696750 -3.00000000
-4.32406569 8.56390858 2.21486807 64 13 33321 9.84600000 1203696752 1203696752 13.00000000
-3.57745314 7.08830070 2.12749267 11 15 33322 8.22000000 1203696757 1203696757 15.00000000
-0.96957570 1.92778671 -0.57820177 4 0 33330 2.23400000 1203696778 1203696778 -15.00000000
-1.13399768 2.25666547 -0.58307314 3 2 33332 2.59200000 1203696782 1203696782 -13.00000000
-1.35265589 2.69296861 -0.58578360 2 4 33333 3.07000000 1203696787 1203696787 -11.00000000
-1.67549014 3.33859611 -0.59163517 2 6 33335 3.78200000 1203696791 1203696791 -9.00000000
-2.19150925 4.37062550 -0.60032839 2 8 33337 4.92600000 1203696796 1203696796 -7.00000000
-3.13259745 6.25020218 -0.61165899 4 10 33338 7.01800000 1203696801 1203696801 -5.00000000
-4.91216850 9.80509853 2.13171816 15 11 33339 11.17200000 1203696803 1203696803 11.00000000
-5.33533955 10.65442657 -0.62447262 4 12 33340 11.93200000 1203696805 1203696805 -3.00000000
-4.29937935 8.58940601 2.21756744 60 13 33341 9.85800000 1203696808 1203696808 13.00000000
-3.54058695 7.07655764 2.12024570 9 15 33342 8.19200000 1203696812 1203696812 15.00000000
-0.95785952 1.92284954 -0.57561356 4 0 33352 2.22400000 1203696833 1203696833 -15.00000000
-1.13053417 2.27147055 -0.58577257 3 2 33354 2.60400000 1203696838 1203696838 -13.00000000
-1.33705878 2.68759608 -0.58349389 2 4 33355 3.05800000 1203696842 1203696842 -11.00000000
-1.65914154 3.33792949 -0.59038365 2 6 33357 3.77400000 1203696847 1203696847 -9.00000000
-2.17471123 4.37900829 -0.60032839 2 8 33359 4.92600000 1203696851 1203696851 -7.00000000
-3.09617305 6.23720026 -0.60921866 4 10 33360 6.99000000 1203696856 1203696856 -5.00000000
-4.86052132 9.79574966 2.12561226 21 11 33361 11.14000000 1203696858 1203696858 11.00000000
-5.29971457 10.68556976 -0.62510067 4 12 33362 11.94400000 1203696861 1203696861 -3.00000000
-4.25944233 8.59188366 2.21396828 64 13 33363 9.84200000 1203696863 1203696863 13.00000000
-3.50652671 7.07625246 2.11610460 4 15 33364 8.17600000 1203696867 1203696867 15.00000000
-0.95798439 1.94003880 -0.57975465 4 0 33372 2.24000000 1203696888 1203696888 -15.00000000
-1.12087393 2.27190781 -0.58487272 3 2 33374 2.60000000 1203696893 1203696893 -13.00000000
-1.33287919 2.70281172 -0.58578360 2 4 33375 3.07000000 1203696897 1203696897 -11.00000000
-1.64922595 3.34724450 -0.59100944 2 6 33377 3.77800000 1203696902 1203696902 -9.00000000
-2.17344022 4.41506863 -0.60422820 2 8 33379 4.95800000 1203696907 1203696907 -7.00000000
-3.09197521 6.28372335 -0.61270487 4 10 33380 7.03000000 1203696911 1203696911 -5.00000000
-4.81330109 9.78623009 2.11988783 18 11 33381 11.11000000 1203696914 1203696914 11.00000000
-5.26414537 10.70758915 -0.62531000 4 12 33382 11.94800000 1203696916 1203696916 -3.00000000
-4.23286295 8.61369514 2.21576786 60 13 33383 9.85000000 1203696918 1203696918 13.00000000
-3.50355554 7.13587809 2.13008070 2 15 33385 8.23000000 1203696923 1203696923 15.00000000
-0.94933516 1.93783426 -0.57820177 4 0 33390 2.23400000 1203696944 1203696944 -15.00000000
-1.11201763 2.27191734 -0.58397293 3 2 33392 2.59600000 1203696948 1203696948 -13.00000000
-1.32438147 2.70698571 -0.58578360 2 4 33393 3.07000000 1203696953 1203696953 -11.00000000
-1.63696718 3.34885979 -0.59038365 2 6 33395 3.77400000 1203696957 1203696957 -9.00000000
-2.14039421 4.38263273 -0.59886593 2 8 33397 4.91400000 1203696962 1203696962 -7.00000000
-3.08095956 6.31131077 -0.61444801 4 10 33398 7.05000000 1203696967 1203696967 -5.00000000
-4.77822828 9.79248142 2.11797976 21 11 33399 11.10000000 1203696969 1203696969 11.00000000
-5.22172499 10.70612335 -0.62426329 4 12 33400 11.92800000 1203696971 1203696971 -3.00000000
-4.20407343 8.62344742 2.21486807 64 13 33401 9.84600000 1203696973 1203696973 13.00000000
-3.92665505 8.05797386 2.40184069 42 15 33402 9.28000000 1203696978 1203696978 15.00000000
-0.94847196 1.95330083 -0.58182520 4 0 33410 2.24800000 1203696999 1203696999 -15.00000000
-1.09897673 2.26526546 -0.58127350 3 2 33412 2.58400000 1203697003 1203697003 -13.00000000
-1.30978453 2.70099306 -0.58349389 2 4 33413 3.05800000 1203697008 1203697008 -11.00000000
-1.63732564 3.37944150 -0.59476382 2 6 33415 3.80200000 1203697013 1203697013 -9.00000000
-2.13027239 4.40079784 -0.60032839 2 8 33417 4.92600000 1203697017 1203697017 -7.00000000
-3.03634787 6.27539635 -0.60991591 4 10 33418 6.99800000 1203697022 1203697022 -5.00000000
-4.73632383 9.79319477 2.11454535 21 11 33419 11.08200000 1203697024 1203697024 11.00000000
-5.20866156 10.77463341 -0.62719411 4 12 33420 11.98400000 1203697026 1203697026 -3.00000000
-4.16546774 8.62052345 2.21036911 64 13 33421 9.82600000 1203697029 1203697029 13.00000000
-3.92707014 8.13077641 2.41944051 42 15 33422 9.34800000 1203697033 1203697033 15.00000000
-0.93594187 1.94648206 -0.57871938 4 0 33432 2.23600000 1203697054 1203697054 -15.00000000
-1.09870934 2.28703403 -0.58577257 3 2 33434 2.60400000 1203697059 1203697059 -13.00000000
-1.30450284 2.71662116 -0.58578360 2 4 33435 3.07000000 1203697063 1203697063 -11.00000000
-1.62262857 3.38214135 -0.59413809 2 6 33437 3.79800000 1203697068 1203697068 -9.00000000
-2.12193918 4.42684555 -0.60276580 2 8 33439 4.94600000 1203697072 1203697072 -7.00000000
-3.00878620 6.27982140 -0.60921866 4 10 33440 6.99000000 1203697077 1203697077 -5.00000000
-4.69444609 9.80245495 2.11263728 25 11 33441 11.07200000 1203697079 1203697079 11.00000000
-4.13570118 8.64348507 2.21216869 62 13 33443 9.83400000 1203697084 1203697084 13.00000000
-3.91582561 8.18762302 2.43186378 45 15 33444 9.39600000 1203697089 1203697089 15.00000000
-0.92914170 1.94973731 -0.57871938 4 0 33452 2.23600000 1203697109 1203697109 -15.00000000
-1.09239483 2.29437423 -0.58667237 3 2 33454 2.60800000 1203697114 1203697114 -13.00000000
-1.29501212 2.72115803 -0.58578360 2 4 33455 3.07000000 1203697119 1203697119 -11.00000000
-1.60233045 3.36994505 -0.59100944 2 6 33457 3.77800000 1203697123 1203697123 -9.00000000
-2.11158442 4.44498396 -0.60422820 2 8 33459 4.95800000 1203697128 1203697128 -7.00000000
-3.04154205 6.40547276 -0.62037456 4 10 33460 7.11800000 1203697132 1203697132 -5.00000000
-4.65009880 9.79749870 2.10805774 25 11 33461 11.04800000 1203697135 1203697135 11.00000000
-4.10383463 8.65434742 2.21126890 60 13 33463 9.83000000 1203697139 1203697139 13.00000000
-3.91143084 8.25604057 2.44791055 45 15 33465 9.45800000 1203697144 1203697144 15.00000000
-0.92563009 1.95995605 -0.58078992 4 0 33472 2.24400000 1203697165 1203697165 -15.00000000
-1.08105302 2.29112387 -0.58487272 3 2 33474 2.60000000 1203697169 1203697169 -13.00000000
-1.28885543 2.73276472 -0.58731008 2 4 33475 3.07800000 1203697174 1203697174 -11.00000000
-1.59055734 3.37551761 -0.59100944 2 6 33477 3.77800000 1203697178 1203697178 -9.00000000
-2.09605575 4.45232773 -0.60422820 2 8 33479 4.95800000 1203697183 1203697183 -7.00000000
-3.00389457 6.38360071 -0.61723697 4 10 33480 7.08200000 1203697188 1203697188 -5.00000000
-4.60250139 9.78524590 2.10195184 25 11 33481 11.01600000 1203697190 1203697190 11.00000000
-4.07525778 8.67214775 2.21216869 62 13 33483 9.83400000 1203697195 1203697195 13.00000000
-3.90620685 8.31617737 2.46188664 45 15 33484 9.51200000 1203697199 1203697199 15.00000000
-0.92205846 1.97017407 -0.58286047 4 0 33492 2.25200000 1203697220 1203697220 -15.00000000
-1.07139802 2.29135275 -0.58397293 3 2 33494 2.59600000 1203697224 1203697224 -13.00000000
-1.27930844 2.73724699 -0.58731008 2 4 33495 3.07800000 1203697229 1203697229 -11.00000000
-1.57542181 3.37388968 -0.58975792 2 6 33497 3.77000000 1203697234 1203697234 -9.00000000
-2.06707335 4.43083382 -0.60032839 2 8 33499 4.92600000 1203697238 1203697238 -7.00000000
-2.98748755 6.40668774 -0.61845714 4 10 33500 7.09600000 1203697243 1203697243 -5.00000000
-4.56085205 9.78523636 2.09851742 21 11 33501 10.99800000 1203697245 1203697245 11.00000000
-4.04002571 8.67572021 2.20946932 59 13 33503 9.82200000 1203697250 1203697250 13.00000000
-3.90894771 8.39806747 2.48207474 47 15 33504 9.59000000 1203697254 1203697254 15.00000000
-0.91586447 1.97306108 -0.58286047 4 0 33510 2.25200000 1203697275 1203697275 -15.00000000
-1.06583405 2.29824328 -0.58487272 3 2 33512 2.60000000 1203697280 1203697280 -13.00000000
-1.26905155 2.73768997 -0.58654684 2 4 33513 3.07400000 1203697284 1203697284 -11.00000000
-1.57726681 3.40570951 -0.59445095 2 6 33515 3.80000000 1203697289 1203697289 -9.00000000
-2.07481670 4.48414707 -0.60666561 2 8 33517 4.97800000 1203697294 1203697294 -7.00000000
-2.96232748 6.40519142 -0.61741126 4 10 33518 7.08400000 1203697298 1203697298 -5.00000000
-4.52926445 9.79773521 2.09813571 25 11 33519 10.99600000 1203697301 1203697301 11.00000000
-4.00294495 8.66713905 2.20407033 62 13 33521 9.79800000 1203697305 1203697305 13.00000000
-3.91021562 8.47413158 2.50070953 47 15 33523 9.66200000 1203697310 1203697310 15.00000000
-0.90735710 1.97273576 -0.58182520 4 0 33530 2.24800000 1203697330 1203697330 -15.00000000
-1.06105995 2.30903244 -0.58667237 3 2 33532 2.60800000 1203697335 1203697335 -13.00000000
