# .PCD v0.7 - Point Cloud Data file format
VERSION 0.7
FIELDS x y z intensity laser_id azimuth distance_m adjustedtime timestamp vertical_angle
SIZE 4 4 4 1 1 2 8 8 4 8
TYPE F F F U U U F U U F
COUNT 1 1 1 1 1 1 1 1 1 1
WIDTH 536
HEIGHT 1
VIEWPOINT 0 0 0 1 0 0 0
POINTS 536
DATA ascii
1.00017440 5.34438467 -0.66760027 2 8 1060 5.47800000 1202907057 1202907057 -7.00000000
0.87162256 4.65298271 -0.41416410 8 10 1061 4.75200000 1202907062 1202907062 -5.00000000
1.97009289 10.50681305 2.07790995 59 11 1062 10.89000000 1202907064 1202907064 11.00000000
0.70295751 3.74537325 -0.19971400 1 12 1063 3.81600000 1202907067 1202907067 -3.00000000
1.89440250 10.08371162 2.36873460 56 13 1064 10.53000000 1202907069 1202907069 13.00000000
0.70475435 3.74773097 -0.06656348 4 14 1065 3.81400000 1202907071 1202907071 -1.00000000
1.63990223 8.71227169 2.37544131 45 15 1066 9.17800000 1202907074 1202907074 15.00000000
0.42222798 2.23031068 -0.60822475 3 0 1072 2.35000000 1202907094 1202907094 -15.00000000
0.71296495 3.76246095 0.06684272 3 1 1073 3.83000000 1202907097 1202907097 1.00000000
0.50006127 2.63640952 -0.61951518 4 2 1074 2.75400000 1202907099 1202907099 -13.00000000
0.71191788 3.74977946 0.20002803 66 3 1075 3.82200000 1202907101 1202907101 3.00000000
0.59945977 3.15744567 -0.62470865 2 4 1075 3.27400000 1202907104 1202907104 -11.00000000
0.71604252 3.76791573 0.33554962 51 5 1076 3.85000000 1202907106 1202907106 5.00000000
0.76373541 4.01506186 -0.64732581 2 6 1077 4.13800000 1202907108 1202907108 -9.00000000
0.86213195 4.52804089 0.56596124 2 7 1078 4.64400000 1202907110 1202907110 7.00000000
1.02086449 5.35663843 -0.66955018 2 8 1079 5.49400000 1202907113 1202907113 -7.00000000
0.88406092 4.63440990 -0.41276959 11 10 1080 4.73600000 1202907117 1202907117 -5.00000000
2.00786972 10.51564980 2.08096290 56 11 1081 10.90600000 1202907120 1202907120 11.00000000
0.71912307 3.76263905 -0.20076072 1 12 1082 3.83600000 1202907122 1202907122 -3.00000000
1.92453551 10.06014729 2.36468554 54 13 1083 10.51200000 1202907124 1202907124 13.00000000
0.71605021 3.73948121 -0.06645876 4 14 1084 3.80800000 1202907127 1202907127 -1.00000000
1.66762781 8.70897484 2.37595892 42 15 1084 9.18000000 1202907129 1202907129 15.00000000
0.43001065 2.22882342 -0.60822475 3 0 1092 2.35000000 1202907150 1202907150 -15.00000000
0.72723150 3.76583958 0.06694743 3 1 1093 3.83600000 1202907152 1202907152 1.00000000
0.50741184 2.62508130 -0.61726570 3 2 1094 2.74400000 1202907154 1202907154 -13.00000000
0.72614086 3.75315428 0.20034204 61 3 1095 3.82800000 1202907157 1202907157 3.00000000
0.60898596 3.14762378 -0.62318218 2 4 1095 3.26600000 1202907159 1202907159 -11.00000000
0.72919065 3.76539350 0.33554962 55 5 1096 3.85000000 1202907161 1202907161 5.00000000
0.77173150 3.98134303 -0.64231992 2 6 1097 4.10600000 1202907163 1202907163 -9.00000000
0.90175241 4.64777517 0.58131677 2 7 1098 4.77000000 1202907166 1202907166 7.00000000
1.03804266 5.34524727 -0.66857523 2 8 1099 5.48600000 1202907168 1202907168 -7.00000000
0.89985251 4.62933969 -0.41259527 11 10 1100 4.73400000 1202907173 1202907173 -5.00000000
2.04606366 10.51628494 2.08248949 56 11 1101 10.91400000 1202907175 1202907175 11.00000000
0.73339814 3.76598716 -0.20107475 1 12 1102 3.84200000 1202907177 1202907177 -3.00000000
1.94920075 9.99981213 2.35208821 51 13 1103 10.45600000 1202907180 1202907180 13.00000000
0.72526973 3.71733212 -0.06610972 4 14 1104 3.78800000 1202907182 1202907182 -1.00000000
1.69579804 8.69172382 2.37285304 42 15 1104 9.16800000 1202907184 1202907184 15.00000000
0.43553805 2.21790695 -0.60563654 4 0 1111 2.34000000 1202907205 1202907205 -15.00000000
0.73354477 3.73201299 0.06638896 4 1 1112 3.80400000 1202907207 1202907207 1.00000000
0.51912355 2.63868093 -0.62086493 3 2 1113 2.76000000 1202907210 1202907210 -13.00000000
0.74089807 3.76248336 0.20097007 63 3 1114 3.84000000 1202907212 1202907212 3.00000000
0.62017918 3.14943957 -0.62394542 2 4 1114 3.27000000 1202907214 1202907214 -11.00000000
0.74205840 3.76490951 0.33572391 52 5 1115 3.85200000 1202907216 1202907216 5.00000000
0.78951788 4.00201797 -0.64607435 2 6 1116 4.13000000 1202907219 1202907219 -9.00000000
1.05807185 5.35346031 -0.67003763 2 8 1118 5.49800000 1202907223 1202907223 -7.00000000
0.91829216 4.64196634 -0.41398978 11 10 1119 4.75000000 1202907228 1202907228 -5.00000000
2.08283234 10.51907158 2.08439755 59 11 1120 10.92400000 1202907230 1202907230 11.00000000
0.74665910 3.76745296 -0.20128408 3 12 1121 3.84600000 1202907233 1202907233 -3.00000000
1.99675941 10.06592941 2.36918449 57 13 1122 10.53200000 1202907235 1202907235 13.00000000
0.73837173 3.71882939 -0.06617953 4 14 1123 3.79200000 1202907237 1202907237 -1.00000000
1.72385907 8.68226242 2.37181783 40 15 1123 9.16400000 1202907239 1202907239 15.00000000
0.44441393 2.22205615 -0.60718948 3 0 1131 2.34600000 1202907260 1202907260 -15.00000000
0.74578243 3.72550797 0.06631915 4 1 1132 3.80000000 1202907263 1202907263 1.00000000
0.52756542 2.63303137 -0.61996508 3 2 1133 2.75600000 1202907265 1202907265 -13.00000000
0.75638342 3.77162385 0.20159811 63 3 1134 3.85200000 1202907267 1202907267 3.00000000
0.63348520 3.15880513 -0.62623513 2 4 1134 3.28200000 1202907269 1202907269 -11.00000000
0.75754851 3.77401686 0.33676979 52 5 1135 3.86400000 1202907272 1202907272 5.00000000
0.80114812 3.98761773 -0.64419711 2 6 1136 4.11800000 1202907274 1202907274 -9.00000000
1.07126880 5.32248926 -0.66662532 2 8 1138 5.47000000 1202907279 1202907279 -7.00000000
0.95495051 4.74029636 -0.42305398 8 10 1139 4.85400000 1202907283 1202907283 -5.00000000
2.11759782 10.50211430 2.08248949 56 11 1140 10.91400000 1202907286 1202907286 11.00000000
0.75743473 3.75307679 -0.20065606 3 12 1141 3.83400000 1202907288 1202907288 -3.00000000
2.03188396 10.05889797 2.36918449 54 13 1142 10.53200000 1202907290 1202907290 13.00000000
0.75570750 3.73778963 -0.06656348 6 14 1143 3.81400000 1202907292 1202907292 -1.00000000
1.75528646 8.67399311 2.37129998 40 15 1144 9.16200000 1202907295 1202907295 15.00000000
0.45294100 2.22230530 -0.60770714 4 0 1152 2.34800000 1202907316 1202907316 -15.00000000
0.76103091 3.73058701 0.06645876 4 1 1153 3.80800000 1202907318 1202907318 1.00000000
0.53487331 2.61962390 -0.61726570 3 2 1154 2.74400000 1202907320 1202907320 -13.00000000
0.77020204 3.76882625 0.20159811 61 3 1155 3.85200000 1202907322 1202907322 3.00000000
0.64741707 3.16800308 -0.62852484 2 4 1155 3.29400000 1202907325 1202907325 -11.00000000
0.77337217 3.78097463 0.33764136 55 5 1156 3.87400000 1202907327 1202907327 5.00000000
0.81813526 3.99626613 -0.64607435 2 6 1157 4.13000000 1202907329 1202907329 -9.00000000
0.97590971 4.75847769 -0.59642857 6 8 1159 4.89400000 1202907334 1202907334 -7.00000000
0.95308810 4.64308310 -0.41468704 8 10 1160 4.75800000 1202907339 1202907339 -5.00000000
2.15765619 10.50197506 2.08401585 62 11 1161 10.92200000 1202907341 1202907341 11.00000000
0.76997846 3.74440646 -0.20034204 5 12 1162 3.82800000 1202907343 1202907343 -3.00000000
2.06755948 10.04565716 2.36783481 59 13 1163 10.52600000 1202907345 1202907345 13.00000000
0.77101594 3.74282908 -0.06670310 6 14 1164 3.82200000 1202907348 1202907348 -1.00000000
1.78672290 8.67348957 2.37285304 42 15 1164 9.16800000 1202907350 1202907350 15.00000000
0.46305004 2.23206019 -0.61081296 4 0 1172 2.36000000 1202907371 1202907371 -15.00000000
0.77730078 3.74357128 0.06673800 4 1 1173 3.82400000 1202907373 1202907373 1.00000000
0.54401428 2.61774087 -0.61726570 3 2 1174 2.74400000 1202907375 1202907375 -13.00000000
0.78172612 3.75829315 0.20117941 63 3 1175 3.84400000 1202907378 1202907378 3.00000000
0.65767193 3.16187978 -0.62776160 2 4 1175 3.29000000 1202907380 1202907380 -11.00000000
0.78900200 3.78995562 0.33868721 54 5 1176 3.88600000 1202907382 1202907382 5.00000000
0.83207983 3.99338603 -0.64607435 2 6 1177 4.13000000 1202907385 1202907385 -9.00000000
0.97750658 4.68314314 -0.58741021 6 8 1179 4.82000000 1202907389 1202907389 -7.00000000
0.91224867 4.36668825 -0.39028341 7 10 1180 4.47800000 1202907394 1202907394 -5.00000000
2.19751620 10.50975323 2.08706880 59 11 1181 10.93800000 1202907396 1202907396 11.00000000
0.78140777 3.73387623 -0.19992335 7 12 1182 3.82000000 1202907398 1202907398 -3.00000000
2.10021567 10.02693462 2.36513543 57 13 1183 10.51400000 1202907401 1202907401 13.00000000
0.78407615 3.74011493 -0.06670310 6 14 1184 3.82200000 1202907403 1202907403 -1.00000000
1.81936646 8.67854404 2.37595892 42 15 1184 9.18000000 1202907405 1202907405 15.00000000
0.46846652 2.22303295 -0.60874242 4 0 1190 2.35200000 1202907426 1202907426 -15.00000000
0.79153377 3.75285077 0.06694743 4 1 1191 3.83600000 1202907428 1202907428 1.00000000
0.55384547 2.62364578 -0.61906528 3 2 1192 2.75200000 1202907431 1202907431 -13.00000000
0.79493636 3.76572800 0.20170277 58 3 1192 3.85400000 1202907433 1202907433 3.00000000
0.66192025 3.13290596 -0.62241894 2 4 1193 3.26200000 1202907435 1202907435 -11.00000000
0.80049241 3.78550887 0.33851290 52 5 1194 3.88400000 1202907438 1202907438 5.00000000
0.84830248 4.00814533 -0.64889014 2 6 1195 4.14800000 1202907440 1202907440 -9.00000000
0.97204059 4.58489466 -0.57546705 6 8 1197 4.72200000 1202907444 1202907444 -7.00000000
0.92472184 4.35795355 -0.38976049 2 10 1198 4.47200000 1202907449 1202907449 -5.00000000
2.23296976 10.51432037 2.08935857 62 11 1199 10.95000000 1202907451 1202907451 11.00000000
0.79604095 3.74507833 -0.20065606 7 12 1200 3.83400000 1202907454 1202907454 -3.00000000
2.13211131 10.02219391 2.36558533 54 13 1201 10.51600000 1202907456 1202907456 13.00000000
0.79457283 3.73176551 -0.06659839 6 14 1202 3.81600000 1202907458 1202907458 -1.00000000
1.84340334 8.65766907 2.37181783 42 15 1202 9.16400000 1202907461 1202907461 15.00000000
0.47460371 2.21382856 -0.60667187 4 0 1210 2.34400000 1202907481 1202907481 -15.00000000
0.80378985 3.74615455 0.06687762 4 1 1211 3.83200000 1202907484 1202907484 1.00000000
0.56545526 2.63312840 -0.62176472 3 2 1212 2.76400000 1202907486 1202907486 -13.00000000
0.81292993 3.78231597 0.20274949 58 3 1213 3.87400000 1202907488 1202907488 3.00000000
0.67450225 3.13825417 -0.62394542 2 4 1213 3.27000000 1202907491 1202907491 -11.00000000
0.81370139 3.78269148 0.33851290 52 5 1214 3.88400000 1202907493 1202907493 5.00000000
0.86894053 4.03605795 -0.65389609 2 6 1215 4.18000000 1202907495 1202907495 -9.00000000
0.97464752 4.51937819 -0.56766742 6 8 1217 4.65800000 1202907500 1202907500 -7.00000000
0.93614501 4.33717155 -0.38819167 5 10 1218 4.45400000 1202907504 1202907504 -5.00000000
2.27131629 10.51413727 2.09088492 62 11 1219 10.95800000 1202907507 1202907507 11.00000000
0.81037509 3.74813318 -0.20097007 12 12 1220 3.84000000 1202907509 1202907509 -3.00000000
2.16790652 10.01849937 2.36648512 54 13 1221 10.52000000 1202907511 1202907511 13.00000000
0.80971062 3.73874116 -0.06677291 6 14 1222 3.82600000 1202907514 1202907514 -1.00000000
1.87389517 8.64519119 2.37026477 45 15 1223 9.15800000 1202907516 1202907516 15.00000000
0.48268849 2.21010256 -0.60615420 3 0 1232 2.34200000 1202907537 1202907537 -15.00000000
0.81731403 3.73913336 0.06680781 4 1 1233 3.82800000 1202907539 1202907539 1.00000000
0.57306272 2.61951542 -0.61906528 3 2 1234 2.75200000 1202907541 1202907541 -13.00000000
0.82678735 3.77931094 0.20274949 58 3 1234 3.87400000 1202907544 1202907544 3.00000000
0.69158620 3.15865493 -0.62852484 2 4 1235 3.29400000 1202907546 1202907546 -11.00000000
0.82864630 3.78148556 0.33868721 51 5 1236 3.88600000 1202907548 1202907548 5.00000000
0.89162534 4.06549311 -0.65921485 2 6 1237 4.21400000 1202907550 1202907550 -9.00000000
0.98773414 4.49621391 -0.56523001 6 8 1239 4.63800000 1202907555 1202907555 -7.00000000
0.95193595 4.32965326 -0.38784304 7 10 1240 4.45000000 1202907560 1202907560 -5.00000000
2.30998302 10.49766922 2.08935857 62 11 1241 10.95000000 1202907562 1202907562 11.00000000
0.82304263 3.73719192 -0.20055139 14 12 1242 3.83200000 1202907564 1202907564 -3.00000000
2.20761728 10.01581097 2.36783481 59 13 1243 10.52600000 1202907567 1202907567 13.00000000
0.82492191 3.73951006 -0.06684272 4 14 1244 3.83000000 1202907569 1202907569 -1.00000000
1.90598500 8.64015102 2.37078238 40 15 1244 9.16000000 1202907571 1202907571 15.00000000
0.49333173 2.22160554 -0.60977769 4 0 1252 2.35600000 1202907592 1202907592 -15.00000000
0.83166260 3.74211383 0.06691252 4 1 1253 3.83400000 1202907594 1202907594 1.00000000
0.58220303 2.61749911 -0.61906528 3 2 1254 2.75200000 1202907596 1202907596 -13.00000000
0.84257644 3.78809953 0.20337753 60 3 1254 3.88600000 1202907599 1202907599 3.00000000
0.69919497 3.14089084 -0.62547189 2 4 1255 3.27800000 1202907601 1202907601 -11.00000000
0.84444076 3.79023814 0.33973309 49 5 1256 3.89800000 1202907603 1202907603 5.00000000
0.89893264 4.03150797 -0.65420896 2 6 1257 4.18200000 1202907606 1202907606 -9.00000000
0.99909586 4.47336531 -0.56279260 6 8 1259 4.61800000 1202907610 1202907610 -7.00000000
0.96791273 4.33019257 -0.38819167 7 10 1260 4.45400000 1202907615 1202907615 -5.00000000
2.34832716 10.49720573 2.09088492 59 11 1261 10.95800000 1202907617 1202907617 11.00000000
0.83695561 3.73819423 -0.20076072 14 12 1262 3.83600000 1202907620 1202907620 -3.00000000
2.24086094 10.00043678 2.36603522 57 13 1263 10.51800000 1202907622 1202907622 13.00000000
0.84190845 3.75416899 -0.06715686 4 14 1264 3.84800000 1202907624 1202907624 -1.00000000
1.93613315 8.63344574 2.37078238 42 15 1264 9.16000000 1202907626 1202907626 15.00000000
0.50030869 2.22004461 -0.60977769 4 0 1270 2.35600000 1202907647 1202907647 -15.00000000
0.84693438 3.75508809 0.06719176 4 1 1271 3.85000000 1202907649 1202907649 1.00000000
0.58913600 2.60995436 -0.61771560 4 2 1272 2.74600000 1202907652 1202907652 -13.00000000
0.85337317 3.77749205 0.20295884 60 3 1273 3.87800000 1202907654 1202907654 3.00000000
0.70819366 3.13484883 -0.62470865 2 4 1273 3.27400000 1202907656 1202907656 -11.00000000
0.85985893 3.80311322 0.34112757 42 5 1274 3.91400000 1202907659 1202907659 5.00000000
0.90897781 4.01710367 -0.65233171 2 6 1275 4.17000000 1202907661 1202907661 -9.00000000
1.01051176 4.45858860 -0.56133020 6 8 1277 4.60600000 1202907666 1202907666 -7.00000000
0.98018944 4.32130146 -0.38766876 2 10 1278 4.44800000 1202907670 1202907670 -5.00000000
2.38390112 10.50126362 2.09317470 56 11 1279 10.97000000 1202907673 1202907673 11.00000000
0.85135025 3.74723220 -0.20138876 17 12 1280 3.84800000 1202907675 1202907675 -3.00000000
2.26967478 9.98194695 2.36333585 56 13 1281 10.50600000 1202907677 1202907677 13.00000000
0.85236722 3.74565601 -0.06705215 4 14 1282 3.84200000 1202907679 1202907679 -1.00000000
1.96560991 8.63074493 2.37181783 42 15 1283 9.16400000 1202907682 1202907682 15.00000000
0.50719243 2.21451855 -0.60874242 4 0 1290 2.35200000 1202907702 1202907702 -15.00000000
0.86003691 3.75210905 0.06719176 4 1 1291 3.85000000 1202907705 1202907705 1.00000000
0.60042149 2.61737919 -0.61996508 3 2 1292 2.75600000 1202907707 1202907707 -13.00000000
0.71825343 3.12853074 -0.62394542 2 4 1293 3.27000000 1202907712 1202907712 -11.00000000
0.92122382 4.00620604 -0.65108025 2 6 1295 4.16200000 1202907716 1202907716 -9.00000000
1.02874219 4.46664047 -0.56279260 6 8 1297 4.61800000 1202907721 1202907721 -7.00000000
0.97512954 4.23048687 -0.37982473 2 10 1298 4.35800000 1202907726 1202907726 -5.00000000
2.42627978 10.51774693 2.09813571 43 11 1299 10.99600000 1202907728 1202907728 11.00000000
0.86577320 3.75007582 -0.20170277 17 12 1300 3.85400000 1202907730 1202907730 -3.00000000
2.30538177 9.97776031 2.36423564 56 13 1301 10.51000000 1202907732 1202907732 13.00000000
0.86678833 3.74850273 -0.06715686 4 14 1302 3.84800000 1202907735 1202907735 -1.00000000
1.99485373 8.62006664 2.37078238 40 15 1303 9.16000000 1202907737 1202907737 15.00000000
0.51404375 2.20897150 -0.60770714 4 0 1310 2.34800000 1202907758 1202907758 -15.00000000
0.87403613 3.75297928 0.06726158 4 1 1311 3.85400000 1202907760 1202907760 1.00000000
0.60955417 2.61526728 -0.61996508 3 2 1312 2.75600000 1202907762 1202907762 -13.00000000
0.92757535 3.97972417 0.21415873 7 3 1312 4.09200000 1202907765 1202907765 3.00000000
0.73095351 3.13365221 -0.62547189 2 4 1313 3.27800000 1202907767 1202907767 -11.00000000
0.90042943 3.85716462 0.34653124 1 5 1314 3.97600000 1202907769 1202907769 5.00000000
0.93700010 4.01066017 -0.65233171 2 6 1315 4.17000000 1202907772 1202907772 -9.00000000
1.04613650 4.47075415 -0.56376761 6 8 1317 4.62600000 1202907776 1202907776 -7.00000000
0.98080504 4.18825912 -0.37633851 2 10 1318 4.31800000 1202907781 1202907781 -5.00000000
2.46073890 10.49965668 2.09622765 56 11 1319 10.98600000 1202907783 1202907783 11.00000000
0.88524324 3.77425361 -0.20316818 26 12 1320 3.88200000 1202907785 1202907785 -3.00000000
2.34108734 9.97344685 2.36513543 57 13 1321 10.51400000 1202907788 1202907788 13.00000000
0.88169706 3.75324082 -0.06729648 4 14 1322 3.85600000 1202907790 1202907790 -1.00000000
2.02227855 8.60176754 2.36767673 40 15 1323 9.14800000 1202907792 1202907792 15.00000000
0.52175140 2.20716357 -0.60770714 4 0 1330 2.34800000 1202907813 1202907813 -15.00000000
0.88989335 3.76158118 0.06747101 4 1 1331 3.86600000 1202907815 1202907815 1.00000000
0.61867946 2.61312366 -0.61996508 3 2 1332 2.75600000 1202907818 1202907818 -13.00000000
0.94422239 3.98812318 0.21478677 7 3 1332 4.10400000 1202907820 1202907820 3.00000000
0.74369818 3.13872290 -0.62699836 2 4 1333 3.28600000 1202907822 1202907822 -11.00000000
0.91388798 3.85399795 0.34653124 3 5 1334 3.97600000 1202907825 1202907825 5.00000000
0.95099419 4.00736475 -0.65233171 2 6 1335 4.17000000 1202907827 1202907827 -9.00000000
1.06449020 4.47866249 -0.56523001 6 8 1337 4.63800000 1202907832 1202907832 -7.00000000
0.98158717 4.12666082 -0.37110916 2 10 1338 4.25800000 1202907836 1202907836 -5.00000000
2.49555612 10.48336315 2.09470105 56 11 1339 10.97800000 1202907838 1202907838 11.00000000
0.89470953 3.75559759 -0.20233081 29 12 1340 3.86600000 1202907841 1202907841 -3.00000000
2.37679076 9.96900558 2.36603522 60 13 1341 10.51800000 1202907843 1202907843 13.00000000
0.89757752 3.76181102 -0.06750591 4 14 1342 3.86800000 1202907845 1202907845 -1.00000000
2.05318928 8.59841347 2.36871195 42 15 1343 9.15200000 1202907848 1202907848 15.00000000
0.53209406 2.21462846 -0.61029530 4 0 1351 2.35800000 1202907868 1202907868 -15.00000000
0.90273929 3.75440574 0.06740119 4 1 1352 3.86200000 1202907871 1202907871 1.00000000
0.62825286 2.61083841 -0.61996508 3 2 1353 2.75600000 1202907873 1202907873 -13.00000000
0.96163690 3.99628663 0.21541479 15 3 1353 4.11600000 1202907875 1202907875 3.00000000
0.75611645 3.13979340 -0.62776160 2 4 1354 3.29000000 1202907878 1202907878 -11.00000000
0.93174183 3.86611795 0.34792572 1 5 1355 3.99200000 1202907880 1202907880 5.00000000
0.97771752 4.05378056 -0.66046631 2 6 1356 4.22200000 1202907882 1202907882 -9.00000000
1.07903373 4.46701288 -0.56425506 6 8 1358 4.63000000 1202907887 1202907887 -7.00000000
0.99436474 4.11335230 -0.37023759 4 10 1359 4.24800000 1202907891 1202907891 -5.00000000
0.90752852 3.74841070 -0.20212147 33 12 1361 3.86200000 1202907896 1202907896 -3.00000000
2.41239524 9.95643902 2.36513543 56 13 1362 10.51400000 1202907898 1202907898 13.00000000
0.91512907 3.77404284 -0.06778514 4 14 1363 3.88400000 1202907901 1202907901 -1.00000000
2.08501196 8.59870434 2.37078238 42 15 1363 9.16000000 1202907903 1202907903 15.00000000
0.54211068 2.22214174 -0.61288351 4 0 1371 2.36800000 1202907924 1202907924 -15.00000000
0.91963333 3.76677299 0.06768043 4 1 1372 3.87800000 1202907926 1202907926 1.00000000
0.63643754 2.60484338 -0.61906528 3 2 1373 2.75200000 1202907928 1202907928 -13.00000000
0.97321045 3.98320460 0.21489143 1 3 1373 4.10600000 1202907931 1202907931 3.00000000
0.76240873 3.11806440 -0.62394542 2 4 1374 3.27000000 1202907933 1202907933 -11.00000000
0.94901997 3.87832451 0.34932020 3 5 1375 4.00800000 1202907935 1202907935 5.00000000
0.98434424 4.01964426 -0.65546042 2 6 1376 4.19000000 1202907937 1202907937 -9.00000000
1.09461987 4.46321917 -0.56425506 6 8 1378 4.63000000 1202907942 1202907942 -7.00000000
1.00824201 4.10792112 -0.37006328 4 10 1379 4.24600000 1202907947 1202907947 -5.00000000
2.36492443 9.62824726 1.92717087 9 11 1380 10.10000000 1202907949 1202907949 11.00000000
0.92442143 3.76073623 -0.20295884 38 12 1381 3.87800000 1202907951 1202907951 -3.00000000
2.44387650 9.93471146 2.36198616 54 13 1382 10.50000000 1202907954 1202907954 13.00000000
0.92590731 3.76111698 -0.06761062 4 14 1383 3.87400000 1202907956 1202907956 -1.00000000
2.11605167 8.58912849 2.37026477 45 15 1384 9.15800000 1202907958 1202907958 15.00000000
0.54475552 2.19960856 -0.60718948 4 0 1391 2.34600000 1202907979 1202907979 -15.00000000
0.93951106 3.79071331 0.06816910 4 1 1392 3.90600000 1202907981 1202907981 1.00000000
0.64646453 2.60638881 -0.61996508 3 2 1393 2.75600000 1202907984 1202907984 -13.00000000
0.98154813 3.95441127 0.21353070 1 3 1394 4.08000000 1202907986 1202907986 3.00000000
0.77612591 3.12681651 -0.62623513 2 4 1394 3.28200000 1202907988 1202907988 -11.00000000
0.96351266 3.87885547 0.34966883 3 5 1395 4.01200000 1202907990 1202907990 5.00000000
0.99789286 4.01426649 -0.65514755 2 6 1396 4.18800000 1202907993 1202907993 -9.00000000
1.11163151 4.46514988 -0.56498629 4 8 1398 4.63600000 1202907997 1202907997 -7.00000000
1.04762185 4.20490789 -0.37912747 5 10 1399 4.35000000 1202908002 1202908002 -5.00000000
2.39899373 9.62183857 1.92755246 9 11 1400 10.10200000 1202908004 1202908004 11.00000000
0.94044429 3.76911354 -0.20358688 38 12 1401 3.89000000 1202908007 1202908007 -3.00000000
2.47995663 9.93179226 2.36333585 55 13 1402 10.50600000 1202908009 1202908009 13.00000000
0.94000000 3.76174212 -0.06768043 4 14 1403 3.87800000 1202908011 1202908011 -1.00000000
2.14218092 8.57269382 2.36767673 45 15 1403 9.14800000 1202908014 1202908014 15.00000000
0.55243027 2.19769382 -0.60718948 3 0 1411 2.34600000 1202908034 1202908034 -15.00000000
0.95078611 3.77965355 0.06802948 4 1 1412 3.89800000 1202908037 1202908037 1.00000000
0.65746146 2.61167550 -0.62176472 3 2 1413 2.76400000 1202908039 1202908039 -13.00000000
1.00266433 3.98001194 0.21510078 1 3 1414 4.11000000 1202908041 1202908041 3.00000000
0.78511739 3.11647320 -0.62470865 2 4 1414 3.27400000 1202908043 1202908043 -11.00000000
1.00610030 3.98777437 -0.65139312 2 6 1416 4.16400000 1202908048 1202908048 -9.00000000
1.12915611 4.46894073 -0.56596124 4 8 1418 4.64400000 1202908053 1202908053 -7.00000000
1.05154824 4.15873051 -0.37529263 7 10 1419 4.30600000 1202908057 1202908057 -5.00000000
2.43545532 9.62482548 1.92984223 12 11 1420 10.11400000 1202908060 1202908060 11.00000000
0.95751750 3.78129697 -0.20442425 43 12 1421 3.90600000 1202908062 1202908062 -3.00000000
2.51460981 9.92307472 2.36333585 55 13 1422 10.50600000 1202908064 1202908064 13.00000000
0.95066744 3.74874616 -0.06750591 4 14 1423 3.86800000 1202908067 1202908067 -1.00000000
2.17168617 8.55729485 2.36560607 40 15 1424 9.14000000 1202908069 1202908069 15.00000000
0.56171602 2.20530772 -0.60977769 4 0 1429 2.35600000 1202908090 1202908090 -15.00000000
0.96166766 3.77277255 0.06795967 4 1 1430 3.89400000 1202908092 1202908092 1.00000000
0.66084641 2.59071445 -0.61726570 3 2 1431 2.74400000 1202908094 1202908094 -13.00000000
1.00972903 3.95555520 0.21394938 1 3 1432 4.08800000 1202908096 1202908096 3.00000000
0.79781771 3.12540483 -0.62699836 2 4 1432 3.28600000 1202908099 1202908099 -11.00000000
1.01030600 3.95205903 -0.64607435 2 6 1434 4.13000000 1202908103 1202908103 -9.00000000
1.14614415 4.47690964 -0.56742364 2 8 1436 4.65600000 1202908108 1202908108 -7.00000000
1.07251966 4.18628693 -0.37808162 7 10 1437 4.33800000 1202908113 1202908113 -5.00000000
2.46275496 9.60571575 1.92755246 12 11 1438 10.10200000 1202908115 1202908115 11.00000000
0.96889567 3.77633572 -0.20431957 47 12 1439 3.90400000 1202908117 1202908117 -3.00000000
2.54577160 9.91512585 2.36333585 59 13 1440 10.50600000 1202908120 1202908120 13.00000000
0.97239256 3.78447676 -0.06820401 4 14 1441 3.90800000 1202908122 1202908122 -1.00000000
2.19898963 8.55829716 2.36767673 42 15 1441 9.14800000 1202908124 1202908124 15.00000000
0.57037729 2.20707440 -0.61081296 4 0 1449 2.36000000 1202908145 1202908145 -15.00000000
0.97983807 3.78875279 0.06830872 4 1 1450 3.91400000 1202908147 1202908147 1.00000000
0.67086214 2.59216499 -0.61816549 3 2 1451 2.74800000 1202908149 1202908149 -13.00000000
0.80872250 3.12260103 -0.62699836 2 4 1452 3.28600000 1202908154 1202908154 -11.00000000
1.02607882 3.95615673 -0.64732581 2 6 1454 4.13800000 1202908159 1202908159 -9.00000000
1.09414303 4.20951414 -0.38052198 7 10 1457 4.36600000 1202908168 1202908168 -5.00000000
2.49874115 9.60656166 1.92946053 15 11 1458 10.11200000 1202908170 1202908170 11.00000000
0.98358095 3.77872920 -0.20463359 36 12 1459 3.91000000 1202908172 1202908172 -3.00000000
2.57840157 9.89863586 2.36153626 57 13 1460 10.49800000 1202908175 1202908175 13.00000000
0.99114537 3.80234480 -0.06858796 3 14 1461 3.93000000 1202908177 1202908177 -1.00000000
2.23131776 8.55391884 2.36871195 42 15 1462 9.15200000 1202908179 1202908179 15.00000000
0.57748234 2.20123172 -0.60977769 4 0 1470 2.35600000 1202908200 1202908200 -15.00000000
1.00082684 3.81221414 0.06879739 3 1 1471 3.94200000 1202908202 1202908202 1.00000000
0.68233907 2.59722781 -0.61996508 3 2 1472 2.75600000 1202908205 1202908205 -13.00000000
0.81716686 3.10822344 -0.62470865 2 4 1473 3.27400000 1202908209 1202908209 -11.00000000
1.03755438 3.94090772 -0.64544863 2 6 1475 4.12600000 1202908214 1202908214 -9.00000000
1.39627039 5.29589748 -0.67247504 2 8 1477 5.51800000 1202908219 1202908219 -7.00000000
1.14768493 4.34996080 -0.39359534 2 10 1478 4.51600000 1202908223 1202908223 -5.00000000
2.53894591 9.61632061 1.93327677 15 11 1479 10.13200000 1202908225 1202908225 11.00000000
0.99895465 3.78089166 -0.20494761 19 12 1480 3.91600000 1202908228 1202908228 -3.00000000
2.61317015 9.88346767 2.36018658 54 13 1481 10.49200000 1202908230 1202908230 13.00000000
1.00507498 3.79868650 -0.06858796 3 14 1482 3.93000000 1202908232 1202908232 -1.00000000
2.26215124 8.54981327 2.36974716 42 15 1482 9.15600000 1202908235 1202908235 15.00000000
0.58516258 2.19920254 -0.60977769 4 0 1490 2.35600000 1202908255 1202908255 -15.00000000
1.01875854 3.82608867 0.06911153 1 1 1491 3.96000000 1202908258 1202908258 1.00000000
0.69240439 2.59859633 -0.62086493 3 2 1492 2.76000000 1202908260 1202908260 -13.00000000
0.82902324 3.10914612 -0.62547189 2 4 1493 3.27800000 1202908265 1202908265 -11.00000000
1.05436206 3.94871306 -0.64732581 2 6 1495 4.13800000 1202908269 1202908269 -9.00000000
1.41526079 5.29290915 -0.67271876 2 8 1497 5.52000000 1202908274 1202908274 -7.00000000
2.11612058 7.90851116 -0.71624589 4 10 1498 8.21800000 1202908278 1202908278 -5.00000000
2.57351327 9.61119175 1.93403995 18 11 1499 10.13600000 1202908281 1202908281 11.00000000
1.01524794 3.78895688 -0.20557563 7 12 1500 3.92800000 1202908283 1202908283 -3.00000000
2.64714932 9.87240314 2.35973644 55 13 1501 10.49000000 1202908285 1202908285 13.00000000
1.01988339 3.80094934 -0.06869267 1 14 1502 3.93600000 1202908288 1202908288 -1.00000000
2.29247069 8.53773308 2.36871195 40 15 1503 9.15200000 1202908290 1202908290 15.00000000
0.59094340 2.19165421 -0.60822475 4 0 1509 2.35000000 1202908311 1202908311 -15.00000000
1.05644536 3.91536069 0.07078696 1 1 1510 4.05600000 1202908313 1202908313 1.00000000
0.70101786 2.59628606 -0.62086493 3 2 1511 2.76000000 1202908315 1202908315 -13.00000000
0.84137738 3.11396098 -0.62699836 2 4 1512 3.28600000 1202908320 1202908320 -11.00000000
1.06745064 3.94519496 -0.64732581 2 6 1514 4.13800000 1202908325 1202908325 -9.00000000
1.43020928 5.27860689 -0.67150009 2 8 1516 5.51000000 1202908329 1202908329 -7.00000000
2.13607812 7.87837505 -0.71415418 4 10 1517 8.19400000 1202908334 1202908334 -5.00000000
2.60845566 9.61397362 1.93632972 21 11 1518 10.14800000 1202908336 1202908336 11.00000000
1.06234634 3.91278291 -0.21248399 3 12 1519 4.06000000 1202908338 1202908338 -3.00000000
2.68191648 9.87109280 2.36153626 55 13 1520 10.49800000 1202908341 1202908341 13.00000000
2.31674719 8.52116776 2.36612368 40 15 1521 9.14200000 1202908345 1202908345 15.00000000
0.60011840 2.19516850 -0.60977769 4 0 1529 2.35600000 1202908366 1202908366 -15.00000000
0.70801812 2.58630490 -0.61906528 3 2 1531 2.75200000 1202908371 1202908371 -13.00000000
0.85224199 3.11100507 -0.62699836 2 4 1532 3.28600000 1202908375 1202908375 -11.00000000
1.07807994 3.93001461 -0.64544863 2 6 1534 4.12600000 1202908380 1202908380 -9.00000000
1.45072961 5.28123903 -0.67247504 2 8 1536 5.51800000 1202908384 1202908384 -7.00000000
2.16145349 7.86318588 -0.71345693 4 10 1537 8.18600000 1202908389 1202908389 -5.00000000
2.64043665 9.59913158 1.93518484 25 11 1538 10.14200000 1202908391 1202908391 11.00000000
2.71739173 9.86542892 2.36243606 56 13 1540 10.50200000 1202908396 1202908396 13.00000000
2.34847689 8.51448154 2.36664128 40 15 1542 9.14400000 1202908401 1202908401 15.00000000
0.60712755 2.18923116 -0.60874242 4 0 1550 2.35200000 1202908421 1202908421 -15.00000000
0.71540689 2.57618165 -0.61726570 3 2 1552 2.74400000 1202908426 1202908426 -13.00000000
0.86153609 3.10029435 -0.62547189 2 4 1553 3.27800000 1202908431 1202908431 -11.00000000
1.09353602 3.92984319 -0.64607435 2 6 1555 4.13000000 1202908435 1202908435 -9.00000000
1.46474826 5.25676394 -0.67003763 2 8 1557 5.49800000 1202908440 1202908440 -7.00000000
2.19561005 7.87440300 -0.71520001 4 10 1558 8.20600000 1202908444 1202908444 -5.00000000
2.67771196 9.59695339 1.93671131 25 11 1559 10.15000000 1202908447 1202908447 11.00000000
2.75143456 9.84789562 2.36063647 55 13 1561 10.49400000 1202908451 1202908451 13.00000000
2.37974429 8.51181412 2.36819434 40 15 1562 9.15000000 1202908456 1202908456 15.00000000
0.61790222 2.19825721 -0.61184824 4 0 1570 2.36400000 1202908477 1202908477 -15.00000000
0.72439510 2.57366872 -0.61726570 3 2 1572 2.74400000 1202908481 1202908481 -13.00000000
0.87341738 3.10104752 -0.62623513 2 4 1573 3.28200000 1202908486 1202908486 -11.00000000
1.11368144 3.94881654 -0.64982879 2 6 1575 4.15400000 1202908490 1202908490 -9.00000000
1.48039138 5.24206686 -0.66881895 2 8 1577 5.48800000 1202908495 1202908495 -7.00000000
2.23175263 7.89736748 -0.71798903 4 10 1578 8.23800000 1202908500 1202908500 -5.00000000
2.71600342 9.60455036 1.94014585 28 11 1579 10.16800000 1202908502 1202908502 11.00000000
2.78260779 9.82698059 2.35793686 56 13 1581 10.48200000 1202908507 1202908507 13.00000000
2.41207480 8.51274872 2.37078238 40 15 1582 9.16000000 1202908511 1202908511 15.00000000
0.62201494 2.18504786 -0.60874242 4 0 1589 2.35200000 1202908532 1202908532 -15.00000000
0.73613095 2.58249688 -0.61996508 3 2 1591 2.75600000 1202908537 1202908537 -13.00000000
0.88585007 3.10568595 -0.62776160 2 4 1592 3.29000000 1202908541 1202908541 -11.00000000
1.12297261 3.93180585 -0.64763868 2 6 1594 4.14000000 1202908546 1202908546 -9.00000000
1.50540817 5.26384926 -0.67223132 2 8 1596 5.51600000 1202908550 1202908550 -7.00000000
2.24586916 7.84778261 -0.71415418 4 10 1597 8.19400000 1202908555 1202908555 -5.00000000
2.75216222 9.61058998 1.94319880 25 11 1598 10.18400000 1202908557 1202908557 11.00000000
3.21307516 11.21271038 -0.61128396 4 12 1599 11.68000000 1202908560 1202908560 -3.00000000
2.81625414 9.82144547 2.35883665 55 13 1600 10.48600000 1202908562 1202908562 13.00000000
3.20436740 11.16760063 -0.20279697 2 14 1601 11.62000000 1202908564 1202908564 -1.00000000
2.43656111 8.49170399 2.36715889 40 15 1601 9.14600000 1202908566 1202908566 15.00000000
0.62589055 2.16987014 -0.60511893 3 0 1609 2.33800000 1202908587 1202908587 -15.00000000
3.21746922 11.14718342 0.20251772 3 1 1610 11.60400000 1202908590 1202908590 1.00000000
0.74622256 2.58365607 -0.62086493 3 2 1611 2.76000000 1202908592 1202908592 -13.00000000
3.23129869 11.18044758 0.60992324 7 3 1612 11.65400000 1202908594 1202908594 3.00000000
0.89232475 3.08748627 -0.62470865 2 4 1612 3.27400000 1202908596 1202908596 -11.00000000
1.13504291 3.92216945 -0.64670008 2 6 1614 4.13400000 1202908601 1202908601 -9.00000000
1.52156329 5.25093555 -0.67125636 2 8 1616 5.50800000 1202908606 1202908606 -7.00000000
2.28767562 7.88964796 -0.71868628 4 10 1617 8.24600000 1202908610 1202908610 -5.00000000
2.78569245 9.60092449 1.94319880 25 11 1618 10.18400000 1202908613 1202908613 11.00000000
3.20374656 11.03455639 -0.60217750 4 12 1619 11.50600000 1202908615 1202908615 -3.00000000
2.85106397 9.81342697 2.35928655 54 13 1620 10.48800000 1202908617 1202908617 13.00000000
3.21262741 11.05073643 -0.20087720 6 14 1621 11.51000000 1202908619 1202908619 -1.00000000
2.46550989 8.47529697 2.36508846 40 15 1622 9.13800000 1202908622 1202908622 15.00000000
0.63524890 2.17520022 -0.60718948 3 0 1628 2.34600000 1202908643 1202908643 -15.00000000
3.22468853 11.03472328 0.20066777 6 1 1629 11.49800000 1202908645 1202908645 1.00000000
0.75478613 2.58116722 -0.62086493 3 2 1630 2.76000000 1202908647 1202908647 -13.00000000
3.24311638 11.08341122 0.60521299 31 3 1631 11.56400000 1202908649 1202908649 3.00000000
0.90696913 3.09958434 -0.62776160 2 4 1631 3.29000000 1202908652 1202908652 -11.00000000
3.25225496 11.10745049 1.01257539 25 5 1632 11.61800000 1202908654 1202908654 5.00000000
1.14471054 3.90700984 -0.64482284 2 6 1633 4.12200000 1202908656 1202908656 -9.00000000
3.25816846 11.11326027 1.42197144 31 7 1634 11.66800000 1202908659 1202908659 7.00000000
1.54176176 5.25538492 -0.67247504 2 8 1635 5.51800000 1202908661 1202908661 -7.00000000
3.27390242 11.15250587 1.84092081 21 9 1636 11.76800000 1202908663 1202908663 9.00000000
2.29923487 7.83231354 -0.71415418 4 10 1636 8.19400000 1202908666 1202908666 -5.00000000
2.81696177 9.58975029 1.94281721 21 11 1637 10.18200000 1202908668 1202908668 11.00000000
3.20258379 10.89548588 -0.59516448 4 12 1638 11.37200000 1202908670 1202908670 -3.00000000
2.88359094 9.80391788 2.35928655 54 13 1639 10.48800000 1202908672 1202908672 13.00000000
3.21086264 10.90957546 -0.19850367 6 14 1640 11.37400000 1202908675 1202908675 -1.00000000
2.49375987 8.47306919 2.36664128 40 15 1640 9.14400000 1202908677 1202908677 15.00000000
0.64393395 2.17667437 -0.60822475 4 0 1648 2.35000000 1202908698 1202908698 -15.00000000
3.22572494 10.89684868 0.19836405 6 1 1649 11.36600000 1202908700 1202908700 1.00000000
0.75936371 2.56356907 -0.61726570 3 2 1650 2.74400000 1202908702 1202908702 -13.00000000
3.24148631 10.93606472 0.59778130 34 3 1651 11.42200000 1202908705 1202908705 3.00000000
0.92336237 3.11522245 -0.63157779 2 4 1651 3.31000000 1202908707 1202908707 -11.00000000
3.24171877 10.92984772 0.99741030 8 5 1652 11.44400000 1202908709 1202908709 5.00000000
1.15777957 3.90109634 -0.64450997 2 6 1653 4.12000000 1202908712 1202908712 -9.00000000
3.25286126 10.95338917 1.40295982 31 7 1654 11.51200000 1202908714 1202908714 7.00000000
1.55557346 5.23474836 -0.67052513 2 8 1655 5.50200000 1202908716 1202908716 -7.00000000
3.26439238 10.97817421 1.81401408 28 9 1656 11.59600000 1202908719 1202908719 9.00000000
2.34132528 7.87389374 -0.71868628 4 10 1656 8.24600000 1202908721 1202908721 -5.00000000
2.85265851 9.58738613 1.94434369 21 11 1657 10.19000000 1202908723 1202908723 11.00000000
3.19044304 10.71578979 -0.58595335 4 12 1658 11.19600000 1202908725 1202908725 -3.00000000
2.91612601 9.78818989 2.35793686 55 13 1659 10.48200000 1202908728 1202908728 13.00000000
3.21236205 10.77565384 -0.19626977 6 14 1660 11.24600000 1202908730 1202908730 -1.00000000
2.52552891 8.47171879 2.36871195 40 15 1660 9.15200000 1202908732 1202908732 15.00000000
0.65596402 2.18921804 -0.61236584 3 0 1668 2.36600000 1202908753 1202908753 -15.00000000
3.22124434 10.74377823 0.19578110 6 1 1669 11.21800000 1202908755 1202908755 1.00000000
0.76942760 2.56463575 -0.61816549 3 2 1670 2.74800000 1202908758 1202908758 -13.00000000
3.23239303 10.77412701 0.58951223 31 3 1670 11.26400000 1202908760 1202908760 3.00000000
0.92632806 3.08565545 -0.62623513 2 4 1671 3.28200000 1202908762 1202908762 -11.00000000
3.24431300 10.80015945 0.98660302 21 5 1672 11.32000000 1202908765 1202908765 5.00000000
1.17309582 3.90270662 -0.64544863 2 6 1673 4.12600000 1202908767 1202908767 -9.00000000
3.25333953 10.81650448 1.38687313 29 7 1674 11.38000000 1202908769 1202908769 7.00000000
1.57726920 5.24069166 -0.67198753 2 8 1675 5.51400000 1202908771 1202908771 -7.00000000
3.25978994 10.83109665 1.79148746 31 9 1675 11.45200000 1202908774 1202908774 9.00000000
2.36879611 7.86567307 -0.71868628 4 10 1676 8.24600000 1202908776 1202908776 -5.00000000
2.89290500 9.59992695 1.94892311 15 11 1677 10.21400000 1202908778 1202908778 11.00000000
3.19150281 10.58411789 -0.57935905 8 12 1678 11.07000000 1202908781 1202908781 -3.00000000
2.95027542 9.77795124 2.35793686 55 13 1679 10.48200000 1202908783 1202908783 13.00000000
3.20082855 10.60165596 -0.19330285 6 14 1680 11.07600000 1202908785 1202908785 -1.00000000
2.55229354 8.45360374 2.36612368 40 15 1680 9.14200000 1202908788 1202908788 15.00000000
0.66079706 2.17767191 -0.60977769 4 0 1688 2.35600000 1202908808 1202908808 -15.00000000
3.21689677 10.59470177 0.19326794 10 1 1689 11.07400000 1202908811 1202908811 1.00000000
0.78177416 2.57312179 -0.62086493 3 2 1690 2.76000000 1202908813 1202908813 -13.00000000
3.24281335 10.66666222 0.58427864 23 3 1691 11.16400000 1202908815 1202908815 3.00000000
0.93709338 3.08240318 -0.62623513 2 4 1691 3.28200000 1202908818 1202908818 -11.00000000
3.25126028 10.68774319 0.97736448 24 5 1692 11.21400000 1202908820 1202908820 5.00000000
1.19246399 3.91748548 -0.64857727 2 6 1693 4.14600000 1202908822 1202908822 -9.00000000
3.25290227 10.67975044 1.37078643 23 7 1694 11.24800000 1202908824 1202908824 7.00000000
3.23161697 10.60322857 -1.36103678 2 8 1695 11.16800000 1202908827 1202908827 -7.00000000
3.26028275 10.69059181 1.77021241 28 9 1696 11.31600000 1202908829 1202908829 9.00000000
3.23605466 10.61114693 -0.97056633 4 10 1696 11.13600000 1202908831 1202908831 -5.00000000
2.93384647 9.61418152 1.95388412 12 11 1697 10.24000000 1202908834 1202908834 11.00000000
3.23659468 10.59965611 -0.58082443 34 12 1698 11.09800000 1202908836 1202908836 -3.00000000
2.98325014 9.76386642 2.35703707 56 13 1699 10.47800000 1202908838 1202908838 13.00000000
3.24073911 10.59997940 -0.19347738 21 14 1700 11.08600000 1202908841 1202908841 -1.00000000
2.58213019 8.44049835 2.36508846 40 15 1701 9.13800000 1202908843 1202908843 15.00000000
0.66782713 2.17350531 -0.60926002 4 0 1708 2.35400000 1202908864 1202908864 -15.00000000
3.26149917 10.60825634 0.19372171 33 1 1709 11.10000000 1202908866 1202908866 1.00000000
0.79418933 2.58155274 -0.62356430 3 2 1710 2.77200000 1202908868 1202908868 -13.00000000
3.27288198 10.63866901 0.58333659 13 3 1710 11.14600000 1202908871 1202908871 3.00000000
0.95015770 3.08661890 -0.62776160 2 4 1711 3.29000000 1202908873 1202908873 -11.00000000
3.27212548 10.62301445 0.97248375 12 5 1712 11.15800000 1202908875 1202908875 5.00000000
1.20380402 3.90574813 -0.64732581 2 6 1713 4.13800000 1202908877 1202908877 -9.00000000
3.28489637 10.65125847 1.36859274 12 7 1714 11.23000000 1202908880 1202908880 7.00000000
1.61850023 5.24472761 -0.67393744 2 8 1715 5.53000000 1202908882 1202908882 -7.00000000
3.28534079 10.63951015 1.76364219 12 9 1716 11.27400000 1202908884 1202908884 9.00000000
2.42129946 7.84132910 -0.71798903 4 10 1716 8.23800000 1202908887 1202908887 -5.00000000
2.97028637 9.61326027 1.95579219 12 11 1717 10.25000000 1202908889 1202908889 11.00000000
3.28183365 10.61500740 -0.58228987 8 12 1718 11.12600000 1202908891 1202908891 -3.00000000
3.01731420 9.75339317 2.35703707 57 13 1719 10.47800000 1202908894 1202908894 13.00000000
3.28185940 10.60197449 -0.19372171 8 14 1720 11.10000000 1202908896 1202908896 -1.00000000
2.60953426 8.43004322 2.36457086 38 15 1720 9.13600000 1202908898 1202908898 15.00000000
0.67655766 2.17485023 -0.61029530 3 0 1728 2.35800000 1202908919 1202908919 -15.00000000
3.29910326 10.59871578 0.19375661 10 1 1729 11.10200000 1202908921 1202908921 1.00000000
0.79740071 2.56015897 -0.61906528 3 2 1730 2.75200000 1202908923 1202908923 -13.00000000
3.31296754 10.63671398 0.58385992 13 3 1730 11.15600000 1202908926 1202908926 3.00000000
0.95858961 3.07578611 -0.62623513 2 4 1731 3.28200000 1202908928 1202908928 -11.00000000
3.31274557 10.62294006 0.97352964 12 5 1732 11.17000000 1202908930 1202908930 5.00000000
1.21389973 3.89020824 -0.64544863 2 6 1733 4.12600000 1202908933 1202908933 -9.00000000
3.31968975 10.63214779 1.36761773 10 7 1734 11.22200000 1202908935 1202908935 7.00000000
1.63857377 5.24473000 -0.67466867 2 8 1735 5.53600000 1202908937 1202908937 -7.00000000
3.32481718 10.63551903 1.76489365 12 9 1736 11.28200000 1202908940 1202908940 9.00000000
2.45103383 7.84043598 -0.71868628 4 10 1736 8.24600000 1202908942 1202908942 -5.00000000
3.01730537 9.64592934 1.96456945 12 11 1737 10.29600000 1202908944 1202908944 11.00000000
3.31648064 10.59586239 -0.58187115 12 12 1738 11.11800000 1202908947 1202908947 -3.00000000
3.05134153 9.74280167 2.35703707 56 13 1739 10.47800000 1202908949 1202908949 13.00000000
3.32363105 10.60571957 -0.19400094 12 14 1740 11.11600000 1202908951 1202908951 -1.00000000
2.63836718 8.41903973 2.36405325 40 15 1740 9.13400000 1202908953 1202908953 15.00000000
0.68588603 2.17800331 -0.61184824 4 0 1748 2.36400000 1202908974 1202908974 -15.00000000
3.33968544 10.59857845 0.19396605 13 1 1749 11.11400000 1202908976 1202908976 1.00000000
0.80750448 2.56107712 -0.61996508 3 2 1750 2.75600000 1202908979 1202908979 -13.00000000
3.35373354 10.63021469 0.58417392 13 3 1751 11.16200000 1202908981 1202908981 3.00000000
0.97168303 3.07991028 -0.62776160 2 4 1751 3.29000000 1202908983 1202908983 -11.00000000
3.35280538 10.62081146 0.97440118 12 5 1752 11.18000000 1202908986 1202908986 5.00000000
1.22271180 3.87087798 -0.64294565 2 6 1753 4.11000000 1202908988 1202908988 -9.00000000
3.36037207 10.63185215 1.36908019 12 7 1754 11.23400000 1202908990 1202908990 7.00000000
1.64549828 5.20301723 -0.67003763 2 8 1755 5.49800000 1202908993 1202908993 -7.00000000
3.36602402 10.64326954 1.76802230 12 9 1755 11.30200000 1202908995 1202908995 9.00000000
2.48439837 7.85082817 -0.72042936 4 10 1756 8.26600000 1202908997 1202908997 -5.00000000
3.12859464 9.88052654 2.01456141 25 11 1757 10.55800000 1202909000 1202909000 11.00000000
3.35224032 10.58041382 -0.58166182 12 12 1758 11.11400000 1202909002 1202909002 -3.00000000
3.08533168 9.73209095 2.35703707 57 13 1759 10.47800000 1202909004 1202909004 13.00000000
3.36365509 10.60358429 -0.19417547 12 14 1760 11.12600000 1202909006 1202909006 -1.00000000
2.67037559 8.41299534 2.36508846 40 15 1761 9.13800000 1202909009 1202909009 15.00000000
0.69289780 2.17375517 -0.61133057 4 0 1768 2.36200000 1202909029 1202909029 -15.00000000
3.38152218 10.60209751 0.19424528 13 1 1769 11.13000000 1202909032 1202909032 1.00000000
0.81169957 2.54339075 -0.61636591 3 2 1770 2.74000000 1202909034 1202909034 -13.00000000
3.38714457 10.61332607 0.58385992 10 3 1770 11.15600000 1202909036 1202909036 3.00000000
0.98123354 3.07275939 -0.62699836 2 4 1771 3.28600000 1202909039 1202909039 -11.00000000
3.39410353 10.62232876 0.97562140 12 5 1772 11.19400000 1202909041 1202909041 5.00000000
1.24584126 3.89669108 -0.64795154 2 6 1773 4.14200000 1202909043 1202909043 -9.00000000
3.39867353 10.62383842 1.36956763 12 7 1774 11.23800000 1202909046 1202909046 7.00000000
1.66001904 5.18589830 -0.66857523 2 8 1775 5.48600000 1202909048 1202909048 -7.00000000
3.40380597 10.62709808 1.76739657 12 9 1776 11.29800000 1202909050 1202909050 9.00000000
3.39908743 10.61236668 -0.97492415 4 10 1776 11.18600000 1202909053 1202909053 -5.00000000
3.18942881 9.95180702 2.03135252 37 11 1777 10.64600000 1202909055 1202909055 11.00000000
3.39403152 10.58386230 -0.58249921 12 12 1778 11.13000000 1202909057 1202909057 -3.00000000
3.11452103 9.70641708 2.35343790 60 13 1779 10.46200000 1202909059 1202909059 13.00000000
3.40431571 10.60320187 -0.19438490 10 14 1780 11.13800000 1202909062 1202909062 -1.00000000
2.69972610 8.40362263 2.36508846 40 15 1781 9.13800000 1202909064 1202909064 15.00000000
0.69794595 2.16605139 -0.60977769 4 0 1786 2.35600000 1202909085 1202909085 -15.00000000
3.42094922 10.61045456 0.19459434 13 1 1787 11.15000000 1202909087 1202909087 1.00000000
0.82925880 2.57050228 -0.62356430 3 2 1788 2.77200000 1202909089 1202909089 -13.00000000
3.42537618 10.61783886 0.58469731 10 3 1788 11.17200000 1202909092 1202909092 3.00000000
0.98967588 3.06592488 -0.62623513 2 4 1789 3.28200000 1202909094 1202909094 -11.00000000
3.42990708 10.61919689 0.97631866 12 5 1790 11.20200000 1202909096 1202909096 5.00000000
1.25078726 3.87020230 -0.64419711 2 6 1791 4.11800000 1202909099 1202909099 -9.00000000
3.43569708 10.62444210 1.37103009 14 7 1792 11.25000000 1202909101 1202909101 7.00000000
1.68852520 5.21843100 -0.67344999 2 8 1793 5.52600000 1202909103 1202909103 -7.00000000
3.43775463 10.62446976 1.76864803 12 9 1793 11.30600000 1202909106 1202909106 9.00000000
3.43241024 10.60163593 -0.97492415 4 10 1794 11.18600000 1202909108 1202909108 -5.00000000
3.22914815 9.96788597 2.03669524 40 11 1795 10.67400000 1202909110 1202909110 11.00000000
3.43588710 10.59974670 -0.58396459 12 12 1796 11.15800000 1202909112 1202909112 -3.00000000
3.12455750 9.63355923 2.33814120 66 13 1797 10.39400000 1202909115 1202909115 13.00000000
3.44007897 10.60006332 -0.19452453 12 14 1798 11.14600000 1202909117 1202909117 -1.00000000
2.72432351 8.38958836 2.36353540 42 15 1799 9.13200000 1202909119 1202909119 15.00000000
0.70430487 2.15992856 -0.60874242 4 0 1806 2.35200000 1202909140 1202909140 -15.00000000
3.45796585 10.59844875 0.19459434 13 1 1807 11.15000000 1202909142 1202909142 1.00000000
0.83701694 2.56388688 -0.62266451 3 2 1808 2.76800000 1202909145 1202909145 -13.00000000
3.46737719 10.62100697 0.58553469 10 3 1808 11.18800000 1202909147 1202909147 3.00000000
1.00159109 3.06618404 -0.62699836 2 4 1809 3.28600000 1202909149 1202909149 -11.00000000
3.46695423 10.60715961 0.97631866 12 5 1810 11.20200000 1202909152 1202909152 5.00000000
1.26490319 3.86769009 -0.64450997 2 6 1811 4.12000000 1202909154 1202909154 -9.00000000
3.48017097 10.63502407 1.37395501 17 7 1812 11.27400000 1202909156 1202909156 7.00000000
1.70920157 5.22005129 -0.67442495 2 8 1813 5.53400000 1202909159 1202909159 -7.00000000
3.48219633 10.63493252 1.77240252 12 9 1813 11.33000000 1202909161 1202909161 9.00000000
2.55505848 7.79876995 -0.71798903 4 10 1814 8.23800000 1202909163 1202909163 -5.00000000
3.26575756 9.96215057 2.03784013 43 11 1815 10.68000000 1202909165 1202909165 11.00000000
3.47784615 10.60287094 -0.58480197 12 12 1816 11.17400000 1202909168 1202909168 -3.00000000
3.12170458 9.51150036 2.31114721 59 13 1817 10.27400000 1202909170 1202909170 13.00000000
3.48329830 10.60698891 -0.19487357 12 14 1818 11.16600000 1202909172 1202909172 -1.00000000
2.75178289 8.37452126 2.36198258 38 15 1819 9.12600000 1202909175 1202909175 15.00000000
0.71426135 2.16479516 -0.61081296 4 0 1826 2.36000000 1202909195 1202909195 -15.00000000
3.50058222 10.60340309 0.19490847 13 1 1827 11.16800000 1202909198 1202909198 1.00000000
0.84596145 2.56094956 -0.62266451 3 2 1828 2.76800000 1202909200 1202909200 -13.00000000
3.51257420 10.63349247 0.58689541 13 3 1828 11.21400000 1202909202 1202909202 3.00000000
1.01105571 3.05894089 -0.62623513 2 4 1829 3.28200000 1202909205 1202909205 -11.00000000
3.51021481 10.61390972 0.97806174 12 5 1830 11.22200000 1202909207 1202909207 5.00000000
1.28522265 3.88388014 -0.64795154 2 6 1831 4.14200000 1202909209 1202909209 -9.00000000
3.51852083 10.62658024 1.37444246 14 7 1832 11.27800000 1202909211 1202909211 7.00000000
3.51538110 10.61089039 -1.37249255 2 8 1833 11.26200000 1202909214 1202909214 -7.00000000
