# .PCD v0.7 - Point Cloud Data file format
VERSION 0.7
FIELDS x y z intensity laser_id azimuth distance_m adjustedtime timestamp vertical_angle
SIZE 4 4 4 1 1 2 8 8 4 8
TYPE F F F U U U F U U F
COUNT 1 1 1 1 1 1 1 1 1 1
WIDTH 536
HEIGHT 1
VIEWPOINT 0 0 0 1 0 0 0
POINTS 536
DATA ascii
3.77854919 10.60554123 0.59003556 15 3 1961 11.27400000 1202509577 1202509577 3.00000000
1.08837605 3.05314207 -0.63005131 2 4 1962 3.30200000 1202509580 1202509580 -11.00000000
3.78909302 10.62340450 0.98677731 12 5 1963 11.32200000 1202509582 1202509582 5.00000000
1.37436032 3.85114241 -0.64763868 2 6 1964 4.14000000 1202509584 1202509584 -9.00000000
3.79359579 10.62430668 1.38516700 14 7 1965 11.36600000 1202509587 1202509587 7.00000000
3.78276062 10.58812618 -1.38053596 2 8 1966 11.32800000 1202509589 1202509589 -7.00000000
3.79467702 10.61563301 1.78554296 12 9 1967 11.41400000 1202509591 1202509591 9.00000000
2.76170683 7.72589254 -0.71781468 8 10 1967 8.23600000 1202509594 1202509594 -5.00000000
3.52794170 9.86400700 2.03631353 43 11 1968 10.67200000 1202509596 1202509596 11.00000000
3.78797007 10.58521080 -0.58919817 12 12 1969 11.25800000 1202509598 1202509598 -3.00000000
3.00142670 8.38265991 2.05560279 6 13 1970 9.13800000 1202509600 1202509600 13.00000000
3.79561543 10.59491634 -0.19644429 10 14 1971 11.25600000 1202509603 1202509603 -1.00000000
2.47378159 6.90141249 1.96443653 6 15 1972 7.59000000 1202509605 1202509605 15.00000000
0.76956427 2.13754702 -0.60874242 4 0 1980 2.35200000 1202509626 1202509626 -15.00000000
3.81342363 10.58639431 0.19640939 13 1 1981 11.25400000 1202509628 1202509628 1.00000000
0.91646326 2.54278922 -0.62401420 3 2 1982 2.77400000 1202509630 1202509630 -13.00000000
3.82348990 10.60853100 0.59097761 10 3 1982 11.29200000 1202509633 1202509633 3.00000000
1.09689510 3.04174519 -0.62852484 2 4 1983 3.29400000 1202509635 1202509635 -11.00000000
3.82935691 10.61319351 0.98712593 12 5 1984 11.32600000 1202509637 1202509637 5.00000000
1.38779557 3.84422112 -0.64732581 4 6 1985 4.13800000 1202509640 1202509640 -9.00000000
3.83925414 10.62900162 1.38760436 14 7 1986 11.38600000 1202509642 1202509642 7.00000000
1.87028897 5.17508078 -0.67564362 2 8 1987 5.54400000 1202509644 1202509644 -7.00000000
3.83775210 10.61904240 1.78835881 12 9 1987 11.43200000 1202509647 1202509647 9.00000000
2.79271531 7.72321272 -0.71851194 8 10 1988 8.24400000 1202509649 1202509649 -5.00000000
3.56407142 9.85101032 2.03631353 46 11 1989 10.67200000 1202509651 1202509651 11.00000000
3.83353972 10.59003639 -0.59024489 12 12 1990 11.27800000 1202509653 1202509653 -3.00000000
3.05336666 8.43023491 2.06999969 12 13 1991 9.20200000 1202509656 1202509656 13.00000000
3.83782887 10.59033394 -0.19661881 10 14 1992 11.26600000 1202509658 1202509658 -1.00000000
2.50366950 6.90501213 1.96806002 9 15 1993 7.60400000 1202509660 1202509660 15.00000000
0.77834249 2.13847852 -0.60977769 4 0 2000 2.35600000 1202509681 1202509681 -15.00000000
3.85582805 10.58804989 0.19668862 13 1 2001 11.27000000 1202509683 1202509683 1.00000000
0.92199790 2.53041983 -0.62176472 3 2 2002 2.76400000 1202509686 1202509686 -13.00000000
3.86528349 10.60825634 0.59171033 13 3 2002 11.30600000 1202509688 1202509688 3.00000000
1.10885096 3.04158688 -0.62928808 2 4 2003 3.29800000 1202509690 1202509690 -11.00000000
3.87047696 10.61099243 0.98817182 12 5 2004 11.33800000 1202509693 1202509693 5.00000000
1.39714253 3.82821965 -0.64544863 4 6 2005 4.12600000 1202509695 1202509695 -9.00000000
3.88178015 10.63045311 1.38955426 12 7 2006 11.40200000 1202509697 1202509697 7.00000000
1.88152969 5.14987516 -0.67320627 2 8 2007 5.52400000 1202509700 1202509700 -7.00000000
3.88293076 10.62784576 1.79211318 12 9 2007 11.45600000 1202509702 1202509702 9.00000000
2.81760502 7.70780373 -0.71798903 8 10 2008 8.23800000 1202509704 1202509704 -5.00000000
3.59708738 9.83482170 2.03555036 46 11 2009 10.66800000 1202509706 1202509706 11.00000000
3.87185526 10.58034134 -0.59045428 12 12 2010 11.28200000 1202509709 1202509709 -3.00000000
3.07875490 8.40854549 2.06730008 12 13 2011 9.19000000 1202509711 1202509711 13.00000000
3.87889981 10.58813858 -0.19682825 10 14 2012 11.27800000 1202509713 1202509713 -1.00000000
2.53241134 6.90892744 1.97168350 15 15 2013 7.61800000 1202509716 1202509716 15.00000000
0.78676319 2.13951182 -0.61081296 4 0 2019 2.36000000 1202509736 1202509736 -15.00000000
3.89782286 10.59397221 0.19703767 13 1 2020 11.29000000 1202509739 1202509739 1.00000000
0.92903757 2.52369094 -0.62086493 3 2 2021 2.76000000 1202509741 1202509741 -13.00000000
3.90527034 10.60850048 0.59244305 10 3 2021 11.32000000 1202509743 1202509743 3.00000000
1.11621690 3.03052402 -0.62776160 2 4 2022 3.29000000 1202509746 1202509746 -11.00000000
3.91115451 10.61305523 0.98956633 12 5 2023 11.35400000 1202509748 1202509748 5.00000000
1.41392994 3.83468580 -0.64732581 4 6 2024 4.13800000 1202509750 1202509750 -9.00000000
3.91838479 10.62124634 1.39004171 14 7 2025 11.40600000 1202509752 1202509752 7.00000000
1.90753317 5.16781712 -0.67637485 2 8 2026 5.55000000 1202509755 1202509755 -7.00000000
3.92294073 10.62788391 1.79430330 12 9 2026 11.47000000 1202509757 1202509757 9.00000000
2.84522033 7.70402479 -0.71851194 8 10 2027 8.24400000 1202509759 1202509759 -5.00000000
3.62968111 9.82283974 2.03555036 50 11 2028 10.66800000 1202509762 1202509762 11.00000000
3.90761209 10.56931686 -0.59055895 12 12 2029 11.28400000 1202509764 1202509764 -3.00000000
3.11676311 8.42570496 2.07404876 52 13 2030 9.22000000 1202509766 1202509766 13.00000000
3.91954279 10.59022045 -0.19710748 10 14 2031 11.29400000 1202509769 1202509769 -1.00000000
2.55544472 6.90456104 1.97271872 18 15 2031 7.62200000 1202509771 1202509771 15.00000000
0.79826510 2.14761734 -0.61391878 4 0 2039 2.37200000 1202509792 1202509792 -15.00000000
3.94035530 10.59529591 0.19731690 13 1 2040 11.30600000 1202509794 1202509794 1.00000000
0.93648207 2.51677990 -0.61996508 3 2 2041 2.75600000 1202509796 1202509796 -13.00000000
3.94715285 10.60790634 0.59317571 13 3 2041 11.33400000 1202509799 1202509799 3.00000000
1.12678862 3.02660918 -0.62776160 2 4 2042 3.29000000 1202509801 1202509801 -11.00000000
3.95860910 10.62734413 0.99218100 12 5 2043 11.38400000 1202509803 1202509803 5.00000000
1.42523730 3.82417393 -0.64638722 4 6 2044 4.13200000 1202509805 1202509805 -9.00000000
3.96098447 10.62238407 1.39199162 14 7 2045 11.42200000 1202509808 1202509808 7.00000000
1.91515219 5.13322926 -0.67271876 4 8 2046 5.52000000 1202509810 1202509810 -7.00000000
3.96277714 10.62152863 1.79555476 12 9 2046 11.47800000 1202509812 1202509812 9.00000000
2.87070155 7.69031286 -0.71816331 4 10 2047 8.24000000 1202509815 1202509815 -5.00000000
3.66532087 9.81378746 2.03631353 43 11 2048 10.67200000 1202509817 1202509817 11.00000000
3.95147347 10.57432175 -0.59160566 12 12 2049 11.30400000 1202509819 1202509819 -3.00000000
3.13114095 8.37461758 2.06415081 55 13 2050 9.17600000 1202509822 1202509822 13.00000000
3.96139026 10.58958435 -0.19735181 12 14 2051 11.30800000 1202509824 1202509824 -1.00000000
2.58547449 6.90781355 1.97634220 20 15 2052 7.63600000 1202509826 1202509826 15.00000000
0.80168051 2.13396716 -0.61081296 4 0 2059 2.36000000 1202509847 1202509847 -15.00000000
3.98153734 10.59270859 0.19752634 13 1 2060 11.31800000 1202509849 1202509849 1.00000000
0.94663352 2.51714349 -0.62086493 3 2 2061 2.76000000 1202509852 1202509852 -13.00000000
3.99233651 10.61019230 0.59411776 13 3 2062 11.35200000 1202509854 1202509854 3.00000000
1.13872933 3.02633238 -0.62852484 4 4 2062 3.29400000 1202509856 1202509856 -11.00000000
3.99497938 10.61159706 0.99200666 12 5 2063 11.38200000 1202509858 1202509858 5.00000000
1.44345164 3.83211565 -0.64857727 4 6 2064 4.14600000 1202509861 1202509861 -9.00000000
4.00363970 10.62335300 1.39394152 14 7 2065 11.43800000 1202509863 1202509863 7.00000000
1.93515992 5.13208485 -0.67344999 4 8 2066 5.52600000 1202509865 1202509865 -7.00000000
4.00331402 10.61687279 1.79711914 12 9 2066 11.48800000 1202509868 1202509868 9.00000000
2.89682508 7.67838144 -0.71798903 4 10 2067 8.23800000 1202509870 1202509870 -5.00000000
3.70232844 9.80828094 2.03784013 43 11 2068 10.68000000 1202509872 1202509872 11.00000000
3.99753404 10.58475399 -0.59296638 8 12 2069 11.33000000 1202509875 1202509875 -3.00000000
3.16793203 8.38368893 2.06909990 64 13 2070 9.19800000 1202509877 1202509877 13.00000000
3.99620914 10.57008076 -0.19724710 8 14 2071 11.30200000 1202509879 1202509879 -1.00000000
2.60495138 6.89016676 1.97375405 20 15 2071 7.62600000 1202509882 1202509882 15.00000000
0.80912453 2.13115573 -0.61081296 4 0 2079 2.36000000 1202509902 1202509902 -15.00000000
0.95679885 2.51746702 -0.62176472 3 2 2081 2.76400000 1202509907 1202509907 -13.00000000
1.14649510 3.01499891 -0.62699836 2 4 2082 3.28600000 1202509911 1202509911 -11.00000000
1.44698083 3.80120778 -0.64419711 4 6 2084 4.11800000 1202509916 1202509916 -9.00000000
1.95518315 5.13086367 -0.67418122 2 8 2086 5.53200000 1202509921 1202509921 -7.00000000
4.04501438 10.60951138 1.79837060 9 9 2087 11.49600000 1202509923 1202509923 9.00000000
2.92290020 7.66636133 -0.71781468 4 10 2087 8.23600000 1202509925 1202509925 -5.00000000
3.73514366 9.79162884 2.03707695 46 11 2088 10.67600000 1202509928 1202509928 11.00000000
3.19439650 8.36529732 2.06730008 59 13 2090 9.19000000 1202509932 1202509932 13.00000000
2.63225698 6.88598633 1.97530699 22 15 2092 7.63200000 1202509937 1202509937 15.00000000
0.81895399 2.13567615 -0.61288351 4 0 2098 2.36800000 1202509958 1202509958 -15.00000000
0.96653855 2.51791906 -0.62266451 3 2 2100 2.76800000 1202509962 1202509962 -13.00000000
1.15930247 3.01851130 -0.62852484 2 4 2101 3.29400000 1202509967 1202509967 -11.00000000
1.46170473 3.80191994 -0.64513576 2 6 2103 4.12400000 1202509971 1202509971 -9.00000000
1.97361290 5.12805700 -0.67466867 2 8 2105 5.53600000 1202509976 1202509976 -7.00000000
2.95832992 7.68265676 -0.72025508 4 10 2106 8.26400000 1202509981 1202509981 -5.00000000
3.76406431 9.77002907 2.03516865 50 11 2107 10.66600000 1202509983 1202509983 11.00000000
3.22492409 8.36193085 2.06909990 59 13 2109 9.19800000 1202509988 1202509988 13.00000000
2.66430879 6.90471792 1.98307157 22 15 2110 7.66200000 1202509992 1202509992 15.00000000
0.82500798 2.12920165 -0.61184824 4 0 2118 2.36400000 1202510013 1202510013 -15.00000000
0.97250301 2.50726247 -0.62086493 3 2 2120 2.76000000 1202510017 1202510017 -13.00000000
1.17551422 3.02908826 -0.63157779 4 4 2121 3.31000000 1202510022 1202510022 -11.00000000
1.47425175 3.79495311 -0.64482284 4 6 2123 4.12200000 1202510027 1202510027 -9.00000000
1.99150121 5.12113667 -0.67466867 2 8 2125 5.53600000 1202510031 1202510031 -7.00000000
2.98007226 7.65928555 -0.71903485 4 10 2126 8.25000000 1202510036 1202510036 -5.00000000
3.79600859 9.75134182 2.03402400 46 11 2127 10.66000000 1202510038 1202510038 11.00000000
3.24984765 8.33972836 2.06640029 60 13 2129 9.18600000 1202510043 1202510043 13.00000000
2.69310832 6.90390539 1.98565972 18 15 2131 7.67200000 1202510047 1202510047 15.00000000
0.83666080 2.13710237 -0.61495405 4 0 2138 2.37600000 1202510068 1202510068 -15.00000000
0.98267114 2.50748134 -0.62176472 3 2 2140 2.76400000 1202510073 1202510073 -13.00000000
1.18464720 3.02131104 -0.63081455 2 4 2141 3.30600000 1202510077 1202510077 -11.00000000
1.49181998 3.80081677 -0.64670008 4 6 2143 4.13400000 1202510082 1202510082 -9.00000000
2.00210595 5.09567785 -0.67223132 2 8 2145 5.51600000 1202510087 1202510087 -7.00000000
3.00533223 7.64512825 -0.71868628 4 10 2146 8.24600000 1202510091 1202510091 -5.00000000
3.83289838 9.74534035 2.03555036 46 11 2147 10.66800000 1202510093 1202510093 11.00000000
3.27608347 8.32108116 2.06460071 59 13 2149 9.17800000 1202510098 1202510098 13.00000000
2.72306800 6.91291094 1.99083614 15 15 2150 7.69200000 1202510103 1202510103 15.00000000
0.83843130 2.11979723 -0.61081296 4 0 2158 2.36000000 1202510123 1202510123 -15.00000000
0.99285269 2.50765967 -0.62266451 3 2 2160 2.76800000 1202510128 1202510128 -13.00000000
1.19229412 3.00985646 -0.62928808 4 4 2161 3.29800000 1202510133 1202510133 -11.00000000
1.50726271 3.80109501 -0.64763868 2 6 2163 4.14000000 1202510137 1202510137 -9.00000000
2.01914859 5.08681297 -0.67198753 2 8 2165 5.51400000 1202510142 1202510142 -7.00000000
3.03567743 7.64384937 -0.71955782 4 10 2166 8.25600000 1202510146 1202510146 -5.00000000
3.86544251 9.72825241 2.03478718 50 11 2167 10.66400000 1202510149 1202510149 11.00000000
3.30799031 8.31683731 2.06640029 59 13 2169 9.18600000 1202510153 1202510153 13.00000000
2.74767208 6.90108919 1.99031842 15 15 2171 7.69000000 1202510158 1202510158 15.00000000
0.84295845 2.10968184 -0.60874242 4 0 2178 2.35200000 1202510179 1202510179 -15.00000000
1.00304735 2.50779724 -0.62356430 3 2 2180 2.77200000 1202510183 1202510183 -13.00000000
1.19841683 2.99473977 -0.62699836 2 4 2181 3.28600000 1202510188 1202510188 -11.00000000
1.51978731 3.79397678 -0.64732581 4 6 2183 4.13800000 1202510193 1202510193 -9.00000000
2.05092978 5.11474133 -0.67661858 2 8 2185 5.55200000 1202510197 1202510197 -7.00000000
3.05269694 7.60916758 -0.71729177 4 10 2186 8.23000000 1202510202 1202510202 -5.00000000
3.89937711 9.71469975 2.03478718 50 11 2187 10.66400000 1202510204 1202510204 11.00000000
3.33990741 8.31247234 2.06820011 60 13 2189 9.19400000 1202510209 1202510209 13.00000000
2.77054191 6.89193964 1.99031842 11 15 2190 7.69000000 1202510213 1202510213 15.00000000
0.85248667 2.11210084 -0.61029530 4 0 2198 2.35800000 1202510234 1202510234 -15.00000000
1.00595498 2.48982596 -0.61996508 3 2 2200 2.75600000 1202510239 1202510239 -13.00000000
1.21327770 3.00145936 -0.62928808 2 4 2201 3.29800000 1202510243 1202510243 -11.00000000
1.52635288 3.77216840 -0.64450997 2 6 2203 4.12000000 1202510248 1202510248 -9.00000000
2.06728077 5.10387135 -0.67613113 2 8 2205 5.54800000 1202510252 1202510252 -7.00000000
3.08522558 7.61323786 -0.71868628 4 10 2206 8.24600000 1202510257 1202510257 -5.00000000
3.92810011 9.68829346 2.03211570 50 11 2207 10.65000000 1202510259 1202510259 11.00000000
3.37183452 8.30798626 2.06999969 62 13 2209 9.20200000 1202510264 1202510264 13.00000000
2.80160046 6.89605713 1.99445951 9 15 2211 7.70600000 1202510269 1202510269 15.00000000
0.86240190 2.11641836 -0.61236584 4 0 2217 2.36600000 1202510289 1202510289 -15.00000000
1.01420605 2.48647642 -0.61996508 3 2 2219 2.75600000 1202510294 1202510294 -13.00000000
1.22767496 3.00832582 -0.63157779 4 4 2220 3.31000000 1202510299 1202510299 -11.00000000
1.55678189 3.81097436 -0.65201885 2 6 2222 4.16800000 1202510303 1202510303 -9.00000000
2.08419442 5.09698772 -0.67613113 2 8 2224 5.54800000 1202510308 1202510308 -7.00000000
3.10592866 7.59190083 -0.71764040 4 10 2225 8.23400000 1202510312 1202510312 -5.00000000
3.96020603 9.67521477 2.03211570 50 11 2226 10.65000000 1202510315 1202510315 11.00000000
3.39493322 8.28594017 2.06730008 62 13 2228 9.19000000 1202510319 1202510319 13.00000000
3.05479741 7.45207024 2.15803313 33 15 2229 8.33800000 1202510324 1202510324 15.00000000
0.87051958 2.11518168 -0.61288351 4 0 2237 2.36800000 1202510345 1202510345 -15.00000000
1.02139473 2.47931743 -0.61906528 3 2 2239 2.75200000 1202510349 1202510349 -13.00000000
1.23517597 2.99676156 -0.63005131 4 4 2240 3.30200000 1202510354 1202510354 -11.00000000
1.56329465 3.78908229 -0.64920300 2 6 2242 4.15000000 1202510358 1202510358 -9.00000000
2.09363842 5.06949902 -0.67344999 2 8 2244 5.52600000 1202510363 1202510363 -7.00000000
3.15523577 7.63625431 -0.72286975 4 10 2245 8.29400000 1202510368 1202510368 -5.00000000
3.99470472 9.66314602 2.03249741 50 11 2246 10.65200000 1202510370 1202510370 11.00000000
3.41787481 8.25963306 2.06370091 62 13 2248 9.17400000 1202510375 1202510375 13.00000000
3.03275800 7.32534122 2.12438679 9 15 2249 8.20800000 1202510379 1202510379 15.00000000
0.87789768 2.11213017 -0.61288351 4 0 2257 2.36800000 1202510400 1202510400 -15.00000000
1.03303719 2.48293400 -0.62086493 3 2 2259 2.76000000 1202510405 1202510405 -13.00000000
1.24261117 2.98518181 -0.62852484 4 4 2260 3.29400000 1202510409 1202510409 -11.00000000
1.57955050 3.79089618 -0.65045452 2 6 2262 4.15800000 1202510414 1202510414 -9.00000000
2.11667037 5.07498455 -0.67515618 2 8 2264 5.54000000 1202510418 1202510418 -7.00000000
3.17573380 7.61048412 -0.72147524 4 10 2265 8.27800000 1202510423 1202510423 -5.00000000
4.03219318 9.65820122 2.03440547 18 11 2266 10.66200000 1202510425 1202510425 11.00000000
3.44969106 8.25484467 2.06550050 59 13 2268 9.18200000 1202510430 1202510430 13.00000000
2.97335672 7.11152411 2.06537604 6 15 2269 7.98000000 1202510434 1202510434 15.00000000
0.88227427 2.10192752 -0.61081296 4 0 2277 2.36000000 1202510455 1202510455 -15.00000000
1.04320765 2.48290610 -0.62176472 3 2 2279 2.76400000 1202510460 1202510460 -13.00000000
1.24998069 2.97358656 -0.62699836 2 4 2280 3.28600000 1202510464 1202510464 -11.00000000
1.58817685 3.77443480 -0.64857727 2 6 2282 4.14600000 1202510469 1202510469 -9.00000000
2.14284825 5.08768940 -0.67783731 2 8 2284 5.56200000 1202510474 1202510474 -7.00000000
3.19609070 7.58466434 -0.72008073 4 10 2285 8.26200000 1202510478 1202510478 -5.00000000
4.40604019 10.45090580 2.20460725 46 11 2286 11.55400000 1202510481 1202510481 11.00000000
3.47848487 8.24275303 2.06550050 59 13 2288 9.18200000 1202510485 1202510485 13.00000000
3.04074693 7.19845581 2.09384608 18 15 2290 8.09000000 1202510490 1202510490 15.00000000
0.88960600 2.09883499 -0.61081296 4 0 2297 2.36000000 1202510511 1202510511 -15.00000000
1.05491281 2.48642516 -0.62356430 3 2 2299 2.77200000 1202510515 1202510515 -13.00000000
1.26648974 2.98366261 -0.63005131 4 4 2300 3.30200000 1202510520 1202510520 -11.00000000
1.59979749 3.76523185 -0.64795154 2 6 2302 4.14200000 1202510524 1202510524 -9.00000000
2.15671015 5.07104445 -0.67661858 2 8 2304 5.55200000 1202510529 1202510529 -7.00000000
3.21552587 7.55696154 -0.71851194 4 10 2305 8.24400000 1202510534 1202510534 -5.00000000
4.44787645 10.44810677 2.20727849 59 11 2306 11.56800000 1202510536 1202510536 11.00000000
3.50876427 8.23414612 2.06640029 59 13 2308 9.18600000 1202510540 1202510540 13.00000000
3.02520442 7.09592390 2.06692886 9 15 2309 7.98600000 1202510545 1202510545 15.00000000
0.89692688 2.09571695 -0.61081296 4 0 2317 2.36000000 1202510566 1202510566 -15.00000000
1.05898130 2.47198009 -0.62086493 3 2 2319 2.76000000 1202510570 1202510570 -13.00000000
1.27999055 2.98644161 -0.63157779 4 4 2320 3.31000000 1202510575 1202510575 -11.00000000
1.61916137 3.77414751 -0.65045452 2 6 2322 4.15800000 1202510580 1202510580 -9.00000000
3.24660373 7.55667496 -0.71955782 4 10 2325 8.25600000 1202510589 1202510589 -5.00000000
4.49129772 10.44875050 2.21071291 62 11 2326 11.58600000 1202510591 1202510591 11.00000000
3.53286409 8.21110725 2.06370091 60 13 2328 9.17400000 1202510596 1202510596 13.00000000
3.07974458 7.15452385 2.08711672 38 15 2329 8.06400000 1202510600 1202510600 15.00000000
0.91343242 2.11385369 -0.61702460 4 0 2337 2.38400000 1202510621 1202510621 -15.00000000
1.06915092 2.47184563 -0.62176472 3 2 2339 2.76400000 1202510626 1202510626 -13.00000000
1.29196680 2.98555899 -0.63234103 4 4 2340 3.31400000 1202510630 1202510630 -11.00000000
1.63389599 3.77209783 -0.65108025 2 6 2342 4.16200000 1202510635 1202510635 -9.00000000
2.18574262 5.04129410 -0.67466867 2 8 2344 5.53600000 1202510639 1202510639 -7.00000000
3.27771902 7.55626297 -0.72060370 4 10 2345 8.26800000 1202510644 1202510644 -5.00000000
4.53399611 10.44741726 2.21376586 62 11 2346 11.60200000 1202510646 1202510646 11.00000000
3.55684614 8.18800068 2.06100154 60 13 2348 9.16200000 1202510651 1202510651 13.00000000
3.09699965 7.12601233 2.08194041 36 15 2349 8.04400000 1202510656 1202510656 15.00000000
0.91462570 2.09648705 -0.61288351 4 0 2357 2.36800000 1202510676 1202510676 -15.00000000
1.08089221 2.47524214 -0.62356430 3 2 2359 2.77200000 1202510681 1202510681 -13.00000000
1.29923654 2.97383475 -0.63081455 4 4 2360 3.30600000 1202510686 1202510686 -11.00000000
1.65338492 3.78085065 -0.65358317 2 6 2362 4.17800000 1202510690 1202510690 -9.00000000
2.20651078 5.04090786 -0.67564362 2 8 2364 5.54400000 1202510695 1202510695 -7.00000000
3.30966997 7.55755091 -0.72182387 4 10 2365 8.28200000 1202510699 1202510699 -5.00000000
4.58461857 10.46389484 2.22063518 62 11 2366 11.63800000 1202510702 1202510702 11.00000000
3.58697128 8.17910480 2.06190133 62 13 2368 9.16600000 1202510706 1202510706 13.00000000
3.12465000 7.11815119 2.08297563 38 15 2370 8.04800000 1202510711 1202510711 15.00000000
0.91653919 2.08299375 -0.60977769 4 0 2375 2.35600000 1202510732 1202510732 -15.00000000
1.08866310 2.47183418 -0.62356430 3 2 2377 2.77200000 1202510736 1202510736 -13.00000000
1.30698931 2.96614528 -0.63005131 4 4 2378 3.30200000 1202510741 1202510741 -11.00000000
1.65568876 3.75394893 -0.64982879 2 6 2380 4.15400000 1202510745 1202510745 -9.00000000
2.21592259 5.01942301 -0.67369372 2 8 2382 5.52800000 1202510750 1202510750 -7.00000000
3.33178639 7.54347134 -0.72147524 4 10 2383 8.27800000 1202510755 1202510755 -5.00000000
4.62064314 10.45662308 2.22216153 62 11 2384 11.64600000 1202510757 1202510757 11.00000000
3.61422563 8.17136002 2.06280112 60 13 2386 9.17000000 1202510762 1202510762 13.00000000
3.14419270 7.10531569 2.08194041 45 15 2387 8.04400000 1202510766 1202510766 15.00000000
0.92537308 2.08331275 -0.61081296 4 0 2395 2.36000000 1202510787 1202510787 -15.00000000
1.09411800 2.46089625 -0.62176472 3 2 2397 2.76400000 1202510791 1202510791 -13.00000000
1.31733513 2.96156502 -0.63005131 4 4 2398 3.30200000 1202510796 1202510796 -11.00000000
1.66878247 3.74814677 -0.64982879 2 6 2400 4.15400000 1202510801 1202510801 -9.00000000
2.24959111 5.04792118 -0.67856848 2 8 2402 5.56800000 1202510805 1202510805 -7.00000000
3.34511638 7.50267982 -0.71868628 4 10 2403 8.24600000 1202510810 1202510810 -5.00000000
4.66031456 10.44760227 2.22368813 62 11 2404 11.65400000 1202510812 1202510812 11.00000000
3.64431596 8.16225338 2.06370091 62 13 2406 9.17400000 1202510817 1202510817 13.00000000
3.16897583 7.09429741 2.08194041 42 15 2407 8.04400000 1202510821 1202510821 15.00000000
0.93422025 2.08359551 -0.61184824 4 0 2415 2.36400000 1202510842 1202510842 -15.00000000
1.09631824 2.44283891 -0.61816549 3 2 2417 2.74800000 1202510847 1202510847 -13.00000000
1.32846916 2.95873952 -0.63043290 4 4 2418 3.30400000 1202510851 1202510851 -11.00000000
2.26556921 5.03641748 -0.67808104 2 8 2422 5.56400000 1202510861 1202510861 -7.00000000
3.38355041 7.51821041 -0.72130090 8 10 2423 8.27600000 1202510865 1202510865 -5.00000000
4.70400953 10.44738293 2.22712255 56 11 2424 11.67200000 1202510868 1202510868 11.00000000
3.66798115 8.13882256 2.06100154 59 13 2426 9.16200000 1202510872 1202510872 13.00000000
3.19654512 7.08615685 2.08297563 42 15 2428 8.04800000 1202510877 1202510877 15.00000000
0.94626683 2.09088182 -0.61495405 4 0 2435 2.37600000 1202510897 1202510897 -15.00000000
1.11287975 2.45674825 -0.62266451 3 2 2437 2.76800000 1202510902 1202510902 -13.00000000
1.33716810 2.95050812 -0.62966967 4 4 2438 3.30000000 1202510907 1202510907 -11.00000000
2.27657032 5.01401806 -0.67613113 2 8 2442 5.54800000 1202510916 1202510916 -7.00000000
3.41389346 7.51542377 -0.72217250 4 10 2443 8.28600000 1202510921 1202510921 -5.00000000
4.74369812 10.43804836 2.22864914 59 11 2444 11.68000000 1202510923 1202510923 11.00000000
3.69314098 8.11887360 2.05920196 62 13 2446 9.15400000 1202510927 1202510927 13.00000000
3.22606397 7.08550453 2.08608150 42 15 2448 8.06000000 1202510932 1202510932 15.00000000
0.94838113 2.07718825 -0.61184824 4 0 2454 2.36400000 1202510953 1202510953 -15.00000000
1.12102044 2.45304418 -0.62266451 3 2 2456 2.76800000 1202510957 1202510957 -13.00000000
1.35021031 2.95319963 -0.63119614 4 4 2457 3.30800000 1202510962 1202510962 -11.00000000
2.29153156 5.00283194 -0.67564362 2 8 2461 5.54400000 1202510971 1202510971 -7.00000000
3.43215632 7.48957157 -0.72077799 4 10 2462 8.27000000 1202510976 1202510976 -5.00000000
4.79219532 10.45259857 2.23513651 59 11 2463 11.71400000 1202510978 1202510978 11.00000000
3.72492051 8.11720943 2.06190133 57 13 2465 9.16600000 1202510983 1202510983 13.00000000
3.24712348 7.06950092 2.08452868 45 15 2467 8.05400000 1202510987 1202510987 15.00000000
0.95400912 2.07035613 -0.61081296 4 0 2474 2.36000000 1202511008 1202511008 -15.00000000
1.13120866 2.45265532 -0.62356430 3 2 2476 2.77200000 1202511013 1202511013 -13.00000000
1.36462355 2.95738149 -0.63310426 4 4 2477 3.31800000 1202511017 1202511017 -11.00000000
1.73686731 3.76064873 -0.65608615 2 6 2479 4.19400000 1202511022 1202511022 -9.00000000
2.31231260 5.00200987 -0.67661858 2 8 2481 5.55200000 1202511027 1202511027 -7.00000000
3.46413350 7.49020386 -0.72199816 8 10 2482 8.28400000 1202511031 1202511031 -5.00000000
3.75323200 8.10415745 2.06190133 60 13 2485 9.16600000 1202511038 1202511038 13.00000000
3.26690626 7.04760742 2.08142281 45 15 2487 8.04200000 1202511043 1202511043 15.00000000
0.96485054 2.07385182 -0.61288351 4 0 2495 2.36800000 1202511063 1202511063 -15.00000000
1.14019048 2.44849277 -0.62356430 3 2 2497 2.77200000 1202511068 1202511068 -13.00000000
1.36716282 2.93456411 -0.62928808 4 4 2498 3.29800000 1202511073 1202511073 -11.00000000
1.74229074 3.73635459 -0.65295744 2 6 2500 4.17400000 1202511077 1202511077 -9.00000000
2.33230948 4.99709892 -0.67710608 2 8 2502 5.55600000 1202511082 1202511082 -7.00000000
3.48819113 7.47023582 -0.72130090 4 10 2503 8.27600000 1202511086 1202511086 -5.00000000
4.87517881 10.43582630 2.23895264 56 11 2504 11.73400000 1202511089 1202511089 11.00000000
3.78456092 8.09387684 2.06280112 60 13 2506 9.17000000 1202511093 1202511093 13.00000000
3.29312420 7.03966045 2.08245802 45 15 2507 8.04600000 1202511098 1202511098 15.00000000
0.97536784 2.07746601 -0.61495405 4 0 2515 2.37600000 1202511119 1202511119 -15.00000000
1.14209998 2.43038821 -0.61996508 3 2 2517 2.75600000 1202511123 1202511123 -13.00000000
1.38575101 2.94754100 -0.63310426 4 4 2518 3.31800000 1202511128 1202511128 -11.00000000
1.75532246 3.73025012 -0.65295744 2 6 2520 4.17400000 1202511132 1202511132 -9.00000000
2.34973836 4.98892689 -0.67710608 2 8 2522 5.55600000 1202511137 1202511137 -7.00000000
3.51339674 7.45621204 -0.72112662 8 10 2523 8.27400000 1202511142 1202511142 -5.00000000
4.91994810 10.43650341 2.24276900 59 11 2524 11.75400000 1202511144 1202511144 11.00000000
3.80281186 8.05946827 2.05740237 62 13 2526 9.14600000 1202511149 1202511149 13.00000000
3.32055378 7.03103685 2.08349323 45 15 2528 8.05000000 1202511153 1202511153 15.00000000
0.98059797 2.07072830 -0.61391878 4 0 2534 2.37200000 1202511174 1202511174 -15.00000000
1.15516102 2.43715334 -0.62266451 3 2 2536 2.76800000 1202511179 1202511179 -13.00000000
1.39215302 2.93583369 -0.63157779 4 4 2537 3.31000000 1202511183 1202511183 -11.00000000
1.76768279 3.72440863 -0.65295744 2 6 2539 4.17400000 1202511188 1202511188 -9.00000000
2.36882472 4.98648691 -0.67783731 2 8 2541 5.56200000 1202511192 1202511192 -7.00000000
3.54580021 7.46071577 -0.72269541 8 10 2542 8.29200000 1202511197 1202511197 -5.00000000
4.96296024 10.43786144 2.24658513 62 11 2543 11.77400000 1202511199 1202511199 11.00000000
3.82951713 8.04681396 2.05740237 62 13 2545 9.14600000 1202511204 1202511204 13.00000000
3.34760880 7.03103590 2.08659911 45 15 2546 8.06200000 1202511209 1202511209 15.00000000
0.98865312 2.06903577 -0.61443639 4 0 2554 2.37400000 1202511229 1202511229 -15.00000000
1.16534281 2.43662214 -0.62356430 3 2 2556 2.77200000 1202511234 1202511234 -13.00000000
1.40069783 2.92741442 -0.63081455 4 4 2557 3.30600000 1202511238 1202511238 -11.00000000
1.77896619 3.71465254 -0.65233171 2 6 2559 4.17000000 1202511243 1202511243 -9.00000000
2.37935185 4.96386719 -0.67588741 2 8 2561 5.54600000 1202511248 1202511248 -7.00000000
3.57785201 7.46086836 -0.72391558 8 10 2562 8.30600000 1202511252 1202511252 -5.00000000
5.01634932 10.45587540 2.25421739 62 11 2563 11.81400000 1202511255 1202511255 11.00000000
3.85758233 8.03339672 2.05740237 56 13 2565 9.14600000 1202511259 1202511259 13.00000000
3.36833525 7.00827169 2.08349323 45 15 2567 8.05000000 1202511264 1202511264 15.00000000
0.99251342 2.05861139 -0.61236584 4 0 2574 2.36600000 1202511285 1202511285 -15.00000000
1.17722881 2.43955994 -0.62536395 3 2 2576 2.78000000 1202511289 1202511289 -13.00000000
1.40920079 2.91897106 -0.63005131 4 4 2577 3.30200000 1202511294 1202511294 -11.00000000
1.79364073 3.71197724 -0.65295744 2 6 2579 4.17400000 1202511298 1202511298 -9.00000000
2.40444326 4.97161484 -0.67808104 2 8 2581 5.56400000 1202511303 1202511303 -7.00000000
3.59346008 7.42681217 -0.72182387 8 10 2582 8.28200000 1202511308 1202511308 -5.00000000
5.05452728 10.44183636 2.25498080 62 11 2583 11.81800000 1202511310 1202511310 11.00000000
3.88390136 8.01637554 2.05650258 60 13 2585 9.14200000 1202511315 1202511315 13.00000000
3.38734388 6.98837137 2.08090520 45 15 2586 8.04000000 1202511319 1202511319 15.00000000
0.99715817 2.04992270 -0.61081296 4 0 2594 2.36000000 1202511340 1202511340 -15.00000000
1.18232512 2.42842722 -0.62356430 3 2 2596 2.77200000 1202511344 1202511344 -13.00000000
1.42282009 2.92109442 -0.63157779 4 4 2597 3.31000000 1202511349 1202511349 -11.00000000
1.80312443 3.69859123 -0.65170598 2 6 2599 4.16600000 1202511354 1202511354 -9.00000000
2.43135834 4.98281622 -0.68076217 2 8 2601 5.58600000 1202511358 1202511358 -7.00000000
3.62810302 7.43212795 -0.72356695 8 10 2602 8.30200000 1202511363 1202511363 -5.00000000
5.09439182 10.43118477 2.25650716 62 11 2603 11.82600000 1202511365 1202511365 11.00000000
3.91185999 8.00276947 2.05650258 59 13 2605 9.14200000 1202511370 1202511370 13.00000000
3.41717958 6.98458576 2.08349323 45 15 2607 8.05000000 1202511374 1202511374 15.00000000
1.00941432 2.05683517 -0.61391878 4 0 2614 2.37200000 1202511395 1202511395 -15.00000000
1.18478060 2.41204143 -0.62041503 4 2 2616 2.75800000 1202511400 1202511400 -13.00000000
1.43127620 2.91258597 -0.63081455 4 4 2617 3.30600000 1202511404 1202511404 -11.00000000
1.82299864 3.70645523 -0.65420896 2 6 2619 4.18200000 1202511409 1202511409 -9.00000000
2.44610667 4.96895552 -0.68003094 2 8 2621 5.58000000 1202511414 1202511414 -7.00000000
3.66106606 7.43371725 -0.72496146 8 10 2622 8.31800000 1202511418 1202511418 -5.00000000
5.14292002 10.43799400 2.26184988 62 11 2623 11.85400000 1202511420 1202511420 11.00000000
3.93459964 7.97857857 2.05380321 59 13 2625 9.13000000 1202511425 1202511425 13.00000000
3.44032264 6.97321558 2.08349323 45 15 2626 8.05000000 1202511430 1202511430 15.00000000
1.01315916 2.04637384 -0.61184824 4 0 2634 2.36400000 1202511450 1202511450 -15.00000000
1.19751930 2.41662169 -0.62266451 3 2 2636 2.76800000 1202511455 1202511455 -13.00000000
1.44753838 2.91988492 -0.63348585 4 4 2637 3.32000000 1202511460 1202511460 -11.00000000
1.83416939 3.69653010 -0.65358317 2 6 2639 4.17800000 1202511464 1202511464 -9.00000000
2.45725584 4.94794130 -0.67832476 2 8 2641 5.56600000 1202511469 1202511469 -7.00000000
3.69142485 7.42981386 -0.72583300 8 10 2642 8.32800000 1202511473 1202511473 -5.00000000
5.18718910 10.43580055 2.26528430 50 11 2643 11.87200000 1202511476 1202511476 11.00000000
3.95895410 7.95781660 2.05200362 49 13 2645 9.12200000 1202511480 1202511480 13.00000000
3.46930194 6.96747684 2.08556390 45 15 2647 8.05800000 1202511485 1202511485 15.00000000
1.02166545 2.04645967 -0.61288351 4 0 2653 2.36800000 1202511506 1202511506 -15.00000000
1.21075284 2.42309666 -0.62536395 3 2 2655 2.78000000 1202511510 1202511510 -13.00000000
1.45282388 2.90628839 -0.63157779 4 4 2656 3.31000000 1202511515 1202511515 -11.00000000
1.84995306 3.69749403 -0.65483469 2 6 2658 4.18600000 1202511520 1202511520 -9.00000000
2.47542810 4.94331551 -0.67881227 2 8 2660 5.57000000 1202511524 1202511524 -7.00000000
3.72139716 7.42821980 -0.72687888 8 10 2661 8.34000000 1202511529 1202511529 -5.00000000
5.23056364 10.43609333 2.26910067 59 11 2662 11.89200000 1202511531 1202511531 11.00000000
3.48944068 6.95309019 2.08452868 45 15 2665 8.05400000 1202511540 1202511540 15.00000000
1.02358913 2.03252864 -0.60977769 4 0 2673 2.35600000 1202511561 1202511561 -15.00000000
1.22095788 2.42233610 -0.62626374 3 2 2675 2.78400000 1202511566 1202511566 -13.00000000
1.46295989 2.90119934 -0.63157779 4 4 2676 3.31000000 1202511570 1202511570 -11.00000000
1.85127795 3.66808844 -0.65076739 2 6 2678 4.16000000 1202511575 1202511575 -9.00000000
2.48998332 4.92932892 -0.67808104 4 8 2680 5.56400000 1202511579 1202511579 -7.00000000
3.73831749 7.39740229 -0.72513580 8 10 2681 8.32000000 1202511584 1202511584 -5.00000000
5.27138948 10.42653275 2.27100873 62 11 2682 11.90200000 1202511586 1202511586 11.00000000
3.50966454 6.92991304 2.08142281 45 15 2686 8.04200000 1202511596 1202511596 15.00000000
1.03067780 2.02894330 -0.60977769 4 0 2693 2.35600000 1202511616 1202511616 -15.00000000
1.22763956 2.41458511 -0.62536395 3 2 2695 2.78000000 1202511621 1202511621 -13.00000000
1.47485828 2.89957476 -0.63234103 4 4 2696 3.31400000 1202511626 1202511626 -11.00000000
1.86765540 3.66864538 -0.65201885 2 6 2698 4.16800000 1202511630 1202511630 -9.00000000
2.51438451 4.93475723 -0.68003094 4 8 2700 5.58000000 1202511635 1202511635 -7.00000000
3.76864052 7.39318323 -0.72600734 8 10 2701 8.33000000 1202511639 1202511639 -5.00000000
5.31488800 10.42206001 2.27406168 62 11 2702 11.91800000 1202511642 1202511642 11.00000000
4.61830854 9.04831886 2.34533978 53 13 2704 10.42600000 1202511646 1202511646 13.00000000
3.53174710 6.91651630 2.08090520 45 15 2705 8.04000000 1202511651 1202511651 15.00000000
1.04480135 2.03908753 -0.61391878 4 0 2713 2.37200000 1202511672 1202511672 -15.00000000
1.23072505 2.39988089 -0.62266451 3 2 2715 2.76800000 1202511676 1202511676 -13.00000000
1.49034774 2.90488958 -0.63463074 4 4 2716 3.32600000 1202511681 1202511681 -11.00000000
1.87954760 3.66034651 -0.65170598 2 6 2718 4.16600000 1202511685 1202511685 -9.00000000
2.53068733 4.92418480 -0.67978722 4 8 2720 5.57800000 1202511690 1202511690 -7.00000000
3.78440332 7.36049223 -0.72408992 17 10 2721 8.30800000 1202511695 1202511695 -5.00000000
5.36290979 10.42613983 2.27902269 65 11 2722 11.94400000 1202511697 1202511697 11.00000000
4.65164900 9.03560829 2.34623957 59 13 2724 10.43000000 1202511702 1202511702 13.00000000
3.55852246 6.90929842 2.08245802 45 15 2725 8.04600000 1202511706 1202511706 15.00000000
1.04978418 2.03217888 -0.61288351 4 0 2732 2.36800000 1202511727 1202511727 -15.00000000
1.24046659 2.39924860 -0.62356430 3 2 2734 2.77200000 1202511732 1202511732 -13.00000000
1.49095285 2.88249350 -0.63081455 4 4 2735 3.30600000 1202511736 1202511736 -11.00000000
1.88895106 3.64883065 -0.65076739 4 6 2737 4.16000000 1202511741 1202511741 -9.00000000
2.53878331 4.89990282 -0.67759353 4 8 2739 5.56000000 1202511745 1202511745 -7.00000000
3.81795979 7.36559105 -0.72583300 8 10 2740 8.32800000 1202511750 1202511750 -5.00000000
5.40649223 10.42572689 2.28283882 65 11 2741 11.96400000 1202511752 1202511752 11.00000000
4.67620039 9.00975513 2.34354019 60 13 2743 10.41800000 1202511757 1202511757 13.00000000
3.58497596 6.90431786 2.08452868 45 15 2744 8.05400000 1202511761 1202511761 15.00000000
1.05687141 2.02850199 -0.61288351 4 0 2752 2.36800000 1202511782 1202511782 -15.00000000
1.24522984 2.38799238 -0.62176472 3 2 2754 2.76400000 1202511787 1202511787 -13.00000000
1.49918938 2.87379026 -0.63005131 4 4 2755 3.30200000 1202511791 1202511791 -11.00000000
1.91264749 3.66322756 -0.65452182 2 6 2757 4.18400000 1202511796 1202511796 -9.00000000
2.55771065 4.89452934 -0.67808104 4 8 2759 5.56400000 1202511801 1202511801 -7.00000000
3.84364724 7.35221910 -0.72583300 8 10 2760 8.32800000 1202511805 1202511805 -5.00000000
4.70762157 8.99337769 2.34354019 57 13 2763 10.41800000 1202511812 1202511812 13.00000000
3.60667133 6.88428688 2.08245802 47 15 2765 8.04600000 1202511817 1202511817 15.00000000
1.05999923 2.01814508 -0.61081296 4 0 2771 2.36000000 1202511838 1202511838 -15.00000000
1.25676882 2.39074969 -0.62356430 3 2 2773 2.77200000 1202511842 1202511842 -13.00000000
1.50871098 2.86880302 -0.63005131 4 4 2774 3.30200000 1202511847 1202511847 -11.00000000
1.92386460 3.65511680 -0.65420896 2 6 2776 4.18200000 1202511851 1202511851 -9.00000000
2.58132911 4.90007114 -0.68003094 4 8 2778 5.58000000 1202511856 1202511856 -7.00000000
3.87079382 7.34472036 -0.72635597 8 10 2779 8.33400000 1202511861 1202511861 -5.00000000
4.73923779 8.98116398 2.34443998 59 13 2782 10.42200000 1202511867 1202511867 13.00000000
3.62286973 6.86267185 2.07935214 45 15 2783 8.03400000 1202511872 1202511872 15.00000000
1.07246304 2.02467561 -0.61391878 4 0 2791 2.37200000 1202511893 1202511893 -15.00000000
1.26875758 2.39323497 -0.62536395 3 2 2793 2.78000000 1202511897 1202511897 -13.00000000
1.52239537 2.87045670 -0.63157779 4 4 2794 3.31000000 1202511902 1202511902 -11.00000000
1.92457151 3.62569666 -0.65014166 2 6 2796 4.15600000 1202511907 1202511907 -9.00000000
2.59748626 4.88927794 -0.67978722 4 8 2798 5.57800000 1202511911 1202511911 -7.00000000
3.90482354 7.34699821 -0.72792476 8 10 2799 8.35200000 1202511916 1202511916 -5.00000000
4.77605200 8.97488785 2.34713936 59 13 2802 10.43400000 1202511923 1202511923 13.00000000
3.64861870 6.85339451 2.08038759 45 15 2803 8.03800000 1202511927 1202511927 15.00000000
1.08316481 2.02773547 -0.61598933 4 0 2811 2.38000000 1202511948 1202511948 -15.00000000
1.27710378 2.38879180 -0.62536395 3 2 2813 2.78000000 1202511953 1202511953 -13.00000000
1.53240585 2.86512518 -0.63157779 4 4 2814 3.31000000 1202511957 1202511957 -11.00000000
1.93908036 3.62243962 -0.65076739 2 6 2816 4.16000000 1202511962 1202511962 -9.00000000
2.60703778 4.86618280 -0.67783731 4 8 2818 5.56200000 1202511966 1202511966 -7.00000000
3.93703389 7.34561539 -0.72914493 8 10 2819 8.36600000 1202511971 1202511971 -5.00000000
4.79997921 8.94442558 2.34354019 60 13 2822 10.41800000 1202511978 1202511978 13.00000000
3.67434669 6.84402084 2.08142281 45 15 2823 8.04200000 1202511983 1202511983 15.00000000
1.08932018 2.02224135 -0.61547166 4 0 2831 2.37800000 1202512003 1202512003 -15.00000000
1.28173542 2.37745786 -0.62356430 3 2 2833 2.77200000 1202512008 1202512008 -13.00000000
1.54053366 2.85630274 -0.63081455 4 4 2834 3.30600000 1202512013 1202512013 -11.00000000
1.96203470 3.63477015 -0.65420896 2 6 2836 4.18200000 1202512017 1202512017 -9.00000000
2.63627410 4.87975740 -0.68100590 4 8 2838 5.58800000 1202512022 1202512022 -7.00000000
3.96738768 7.34059191 -0.73001653 4 10 2839 8.37600000 1202512026 1202512026 -5.00000000
4.82746220 8.92076015 2.34174037 60 13 2842 10.41000000 1202512033 1202512033 13.00000000
3.70124674 6.83390474 2.08245802 45 15 2844 8.04600000 1202512038 1202512038 15.00000000
1.09417653 2.01522255 -0.61443639 4 0 2850 2.37400000 1202512059 1202512059 -15.00000000
1.29333413 2.38004351 -0.62536395 3 2 2852 2.78000000 1202512063 1202512063 -13.00000000
1.54999709 2.85117841 -0.63081455 2 4 2853 3.30600000 1202512068 1202512068 -11.00000000
1.97596550 3.63171411 -0.65483469 2 6 2855 4.18600000 1202512072 1202512072 -9.00000000
2.65339088 4.87273169 -0.68124962 6 8 2857 5.59000000 1202512077 1202512077 -7.00000000
3.98408294 7.31339836 -0.72862202 4 10 2858 8.36000000 1202512082 1202512082 -5.00000000
4.86075020 8.91154575 2.34354019 60 13 2861 10.41800000 1202512089 1202512089 13.00000000
3.72084713 6.81885195 2.08142281 45 15 2862 8.04200000 1202512093 1202512093 15.00000000
1.09749341 2.00461268 -0.61236584 4 0 2870 2.36600000 1202512114 1202512114 -15.00000000
1.30725265 2.38576841 -0.62806332 3 2 2872 2.79200000 1202512118 1202512118 -13.00000000
1.55616534 2.83886433 -0.62928808 2 4 2873 3.29800000 1202512123 1202512123 -11.00000000
1.98578000 3.61959910 -0.65389609 2 6 2875 4.18000000 1202512128 1202512128 -9.00000000
2.67516065 4.87214041 -0.68246830 6 8 2877 5.60000000 1202512132 1202512132 -7.00000000
4.00383186 7.28896904 -0.72757614 4 10 2878 8.34800000 1202512137 1202512137 -5.00000000
4.89182806 8.89452457 2.34354019 59 13 2881 10.41800000 1202512144 1202512144 13.00000000
3.73997021 6.79735947 2.07883453 45 15 2882 8.03200000 1202512148 1202512148 15.00000000
1.10331404 1.99700201 -0.61133057 4 0 2892 2.36200000 1202512169 1202512169 -15.00000000
1.30885983 2.36708808 -0.62446415 3 2 2894 2.77600000 1202512174 1202512174 -13.00000000
1.56705427 2.83286810 -0.62928808 2 4 2895 3.29800000 1202512178 1202512178 -11.00000000
2.00349069 3.61886048 -0.65514755 2 6 2897 4.18800000 1202512183 1202512183 -9.00000000
2.69384861 4.86183262 -0.68246830 6 8 2899 5.60000000 1202512188 1202512188 -7.00000000
4.03855133 7.28573942 -0.72879630 8 10 2900 8.36200000 1202512192 1202512192 -5.00000000
4.92783546 8.87908363 2.34443998 56 13 2903 10.42200000 1202512199 1202512199 13.00000000
3.77191663 6.79073524 2.08142281 45 15 2905 8.04200000 1202512204 1202512204 15.00000000
1.11403859 1.99988925 -0.61340111 4 0 2912 2.37000000 1202512224 1202512224 -15.00000000
1.31521666 2.35910082 -0.62356430 4 2 2914 2.77200000 1202512229 1202512229 -13.00000000
1.58649623 2.84452677 -0.63310426 2 4 2915 3.31800000 1202512234 1202512234 -11.00000000
2.01514792 3.61012006 -0.65483469 2 6 2917 4.18600000 1202512238 1202512238 -9.00000000
2.69918537 4.83160353 -0.67954344 6 8 2919 5.57600000 1202512243 1202512243 -7.00000000
4.06784678 7.27855492 -0.72949356 8 10 2920 8.37000000 1202512248 1202512248 -5.00000000
4.95499277 8.85502529 2.34264016 60 13 2923 10.41400000 1202512254 1202512254 13.00000000
3.79276609 6.77247095 2.07986975 45 15 2925 8.03600000 1202512259 1202512259 15.00000000
1.12350154 2.00123763 -0.61495405 4 0 2931 2.37600000 1202512280 1202512280 -15.00000000
1.31730509 2.34453273 -0.62086493 3 2 2933 2.76000000 1202512284 1202512284 -13.00000000
1.59784424 2.84267306 -0.63386750 2 4 2934 3.32200000 1202512289 1202512289 -11.00000000
2.01354909 3.57931447 -0.65045452 2 6 2936 4.15800000 1202512294 1202512294 -9.00000000
2.71714067 4.82608604 -0.68003094 6 8 2938 5.58000000 1202512298 1202512298 -7.00000000
4.09782743 7.27544117 -0.73053944 8 10 2939 8.38200000 1202512303 1202512303 -5.00000000
4.98433018 8.83854580 2.34264016 57 13 2942 10.41400000 1202512310 1202512310 13.00000000
3.81520343 6.75985670 2.07986975 42 15 2944 8.03600000 1202512314 1202512314 15.00000000
1.12667394 1.99057877 -0.61288351 4 0 2951 2.36800000 1202512335 1202512335 -15.00000000
1.33316493 2.35348511 -0.62446415 3 2 2953 2.77600000 1202512340 1202512340 -13.00000000
1.60388553 2.83024597 -0.63234103 2 4 2954 3.31400000 1202512344 1202512344 -11.00000000
2.03577638 3.58944678 -0.65358317 2 6 2956 4.17800000 1202512349 1202512349 -9.00000000
2.73789001 4.82347727 -0.68100590 9 8 2958 5.58800000 1202512354 1202512354 -7.00000000
4.10844135 7.23510456 -0.72792476 8 10 2959 8.35200000 1202512358 1202512358 -5.00000000
5.01515198 8.82109356 2.34264016 59 13 2962 10.41400000 1202512365 1202512365 13.00000000
3.83686566 6.74313974 2.07883453 42 15 2964 8.03200000 1202512370 1202512370 15.00000000
1.13457298 1.98831165 -0.61340111 4 0 2971 2.37000000 1202512390 1202512390 -15.00000000
1.34330487 2.35220146 -0.62536395 4 2 2973 2.78000000 1202512395 1202512395 -13.00000000
1.60791171 2.81440210 -0.63005131 2 4 2974 3.30200000 1202512400 1202512400 -11.00000000
2.05123496 3.58746314 -0.65452182 2 6 2976 4.18400000 1202512404 1202512404 -9.00000000
2.76062584 4.82422876 -0.68246830 6 8 2978 5.60000000 1202512409 1202512409 -7.00000000
4.13268185 7.21899033 -0.72775048 8 10 2979 8.35000000 1202512413 1202512413 -5.00000000
5.04785109 8.80691433 2.34354019 56 13 2982 10.41800000 1202512420 1202512420 13.00000000
3.85440087 6.72199965 2.07624626 40 15 2983 8.02200000 1202512425 1202512425 15.00000000
1.14054322 1.98266459 -0.61288351 3 0 2991 2.36800000 1202512446 1202512446 -15.00000000
1.35539663 2.35425353 -0.62716353 4 2 2993 2.78800000 1202512450 1202512450 -13.00000000
1.61772597 2.80877233 -0.63005131 2 4 2994 3.30200000 1202512455 1202512455 -11.00000000
2.06078553 3.57514691 -0.65358317 2 6 2996 4.17800000 1202512459 1202512459 -9.00000000
2.77744889 4.81456280 -0.68246830 6 8 2998 5.60000000 1202512464 1202512464 -7.00000000
4.15486765 7.19934368 -0.72722751 8 10 2999 8.34400000 1202512469 1202512469 -5.00000000
5.08441162 8.79936504 2.34623957 57 13 3002 10.43000000 1202512476 1202512476 13.00000000
3.87997937 6.70949984 2.07676411 42 15 3004 8.02400000 1202512480 1202512480 15.00000000
1.14967191 1.98408628 -0.61443639 4 0 3009 2.37400000 1202512501 1202512501 -15.00000000
1.35105467 2.32975435 -0.62176472 3 2 3011 2.76400000 1202512506 1202512506 -13.00000000
1.64230502 2.83084702 -0.63615721 2 4 3012 3.33400000 1202512510 1202512510 -11.00000000
2.07696629 3.57719684 -0.65514755 2 6 3014 4.18800000 1202512515 1202512515 -9.00000000
2.78657651 4.79551506 -0.68100590 6 8 3016 5.58800000 1202512519 1202512519 -7.00000000
4.17846584 7.18797779 -0.72740185 8 10 3017 8.34600000 1202512524 1202512524 -5.00000000
5.10222816 8.76650524 2.34174037 56 13 3020 10.41000000 1202512531 1202512531 13.00000000
3.90375805 6.70463610 2.07883453 42 15 3021 8.03200000 1202512536 1202512536 15.00000000
1.16243696 1.99006975 -0.61754227 4 0 3029 2.38600000 1202512556 1202512556 -15.00000000
1.36311281 2.33175373 -0.62356430 3 2 3031 2.77200000 1202512561 1202512561 -13.00000000
1.64028323 2.80476022 -0.63157779 2 4 3032 3.31000000 1202512565 1202512565 -11.00000000
2.08944035 3.56992507 -0.65514755 2 6 3034 4.18800000 1202512570 1202512570 -9.00000000
2.80129218 4.78233337 -0.68051839 6 8 3036 5.58400000 1202512575 1202512575 -7.00000000
4.20856762 7.18194342 -0.72827339 8 10 3037 8.35600000 1202512579 1202512579 -5.00000000
5.13082552 8.74528027 2.34084058 59 13 3040 10.40600000 1202512586 1202512586 13.00000000
3.92830563 6.69028282 2.07883453 42 15 3042 8.03200000 1202512591 1202512591 15.00000000
1.15957463 1.96935284 -0.61236584 4 0 3049 2.36600000 1202512612 1202512612 -15.00000000
1.38113737 2.34377050 -0.62806332 3 2 3051 2.79200000 1202512616 1202512616 -13.00000000
1.65604579 2.80916500 -0.63386750 2 4 3052 3.32200000 1202512621 1202512621 -11.00000000
2.10289288 3.56431103 -0.65546042 2 6 3054 4.19000000 1202512625 1202512625 -9.00000000
2.82604313 4.78620052 -0.68246830 6 8 3056 5.60000000 1202512630 1202512630 -7.00000000
4.23665190 7.17235518 -0.72879630 8 10 3057 8.36200000 1202512635 1202512635 -5.00000000
5.16330481 8.73067188 2.34174037 60 13 3060 10.41000000 1202512642 1202512642 13.00000000
3.95046973 6.67721939 2.07883453 9 15 3061 8.03200000 1202512646 1202512646 15.00000000
1.17038584 1.97193837 -0.61443639 4 0 3069 2.37400000 1202512667 1202512667 -15.00000000
1.39130068 2.34228611 -0.62896317 3 2 3071 2.79600000 1202512671 1202512671 -13.00000000
1.66383564 2.79999185 -0.63310426 2 4 3072 3.31800000 1202512676 1202512676 -11.00000000
2.10724425 3.54336619 -0.65295744 2 6 3074 4.17400000 1202512681 1202512681 -9.00000000
2.84070230 4.77289534 -0.68198085 6 8 3076 5.59600000 1202512685 1202512685 -7.00000000
4.26879740 7.16950655 -0.73001653 8 10 3077 8.37600000 1202512690 1202512690 -5.00000000
5.19374943 8.71259594 2.34174037 55 13 3080 10.41000000 1202512697 1202512697 13.00000000
4.51137161 7.56189394 2.35939431 38 15 3082 9.11600000 1202512701 1202512701 15.00000000
1.16932774 1.95457828 -0.61029530 4 0 3089 2.35800000 1202512722 1202512722 -15.00000000
1.39145994 2.32403946 -0.62536395 3 2 3091 2.78000000 1202512727 1202512727 -13.00000000
1.67763448 2.80090380 -0.63463074 2 4 3092 3.32600000 1202512731 1202512731 -11.00000000
2.12264681 3.54107189 -0.65389609 2 6 3094 4.18000000 1202512736 1202512736 -9.00000000
2.86347270 4.77316380 -0.68344325 6 8 3096 5.60800000 1202512741 1202512741 -7.00000000
4.28867102 7.14601994 -0.72914493 8 10 3097 8.36600000 1202512745 1202512745 -5.00000000
5.22613764 8.69775391 2.34264016 60 13 3100 10.41400000 1202512752 1202512752 13.00000000
