# .PCD v0.7 - Point Cloud Data file format
VERSION 0.7
FIELDS x y z intensity laser_id azimuth distance_m adjustedtime timestamp vertical_angle
SIZE 4 4 4 1 1 2 8 8 4 8
TYPE F F F U U U F U U F
COUNT 1 1 1 1 1 1 1 1 1 1
WIDTH 539
HEIGHT 1
VIEWPOINT 0 0 0 1 0 0 0
POINTS 539
DATA ascii
5.20681906 1.50976479 -0.66565037 9 8 7383 5.46200000 1203524714 1203524714 -7.00000000
8.32356930 2.41192031 1.37255597 10 9 7384 8.77400000 1203524717 1203524717 9.00000000
6.63468170 1.92253149 -0.60433793 48 10 7384 6.93400000 1203524719 1203524719 -5.00000000
8.31816673 2.40878129 1.68331695 12 11 7385 8.82200000 1203524721 1203524721 11.00000000
8.15186691 2.35908198 -0.44475096 12 12 7386 8.49800000 1203524724 1203524724 -3.00000000
8.28558540 2.39621186 1.99126673 11 13 7387 8.85200000 1203524726 1203524726 13.00000000
8.16455555 2.35966563 -0.14834546 14 14 7388 8.50000000 1203524728 1203524728 -1.00000000
7.86528587 2.27317262 2.19375014 42 15 7388 8.47600000 1203524730 1203524730 15.00000000
2.18537807 0.62788564 -0.60926002 4 0 7397 2.35400000 1203524751 1203524751 -15.00000000
8.16097355 2.34320474 0.14820583 12 1 7398 8.49200000 1203524753 1203524753 1.00000000
2.55873036 0.73418742 -0.61456627 7 2 7399 2.73200000 1203524756 1203524756 -13.00000000
8.17104626 2.34300971 0.44548365 21 3 7400 8.51200000 1203524758 1203524758 3.00000000
3.07991242 0.88315070 -0.62280059 5 4 7400 3.26400000 1203524760 1203524760 -11.00000000
8.17451477 2.34246063 0.74396139 76 5 7401 8.53600000 1203524763 1203524763 5.00000000
3.86455441 1.10668337 -0.63668829 4 6 7402 4.07000000 1203524765 1203524765 -9.00000000
8.18355942 2.34196138 1.04515147 95 7 7403 8.57600000 1203524767 1203524767 7.00000000
5.19895744 1.48684990 -0.66394418 9 8 7404 5.44800000 1203524770 1203524770 -7.00000000
8.27116203 2.36546969 1.36254418 7 9 7404 8.71000000 1203524772 1203524772 9.00000000
6.66084051 1.90367627 -0.60608101 16 10 7405 6.95400000 1203524774 1203524774 -5.00000000
8.25897980 2.35886741 1.66957867 9 11 7406 8.75000000 1203524777 1203524777 11.00000000
8.15469646 2.32754350 -0.44443694 17 12 7407 8.49200000 1203524779 1203524779 -3.00000000
8.41424847 2.40003753 2.02006054 4 13 7408 8.98000000 1203524781 1203524781 13.00000000
8.16353416 2.32698441 -0.14817093 14 14 7409 8.49000000 1203524783 1203524783 -1.00000000
7.97242737 2.27100563 2.22118497 45 15 7410 8.58200000 1203524786 1203524786 15.00000000
2.17268801 0.61603761 -0.60511893 4 0 7417 2.33800000 1203524806 1203524806 -15.00000000
8.17102718 2.31524849 0.14824075 15 1 7418 8.49400000 1203524809 1203524809 1.00000000
2.56127763 0.72525132 -0.61456627 7 2 7419 2.73200000 1203524811 1203524811 -13.00000000
8.17877102 2.31590080 0.44548365 26 3 7419 8.51200000 1203524813 1203524813 3.00000000
3.07353091 0.86972159 -0.62089247 5 4 7420 3.25400000 1203524816 1203524816 -11.00000000
8.16922188 2.31011677 0.74274123 79 5 7421 8.52200000 1203524818 1203524818 5.00000000
3.86079001 1.09103799 -0.63543677 4 6 7422 4.06200000 1203524820 1203524820 -9.00000000
8.18786430 2.31230235 1.04466403 95 7 7423 8.57200000 1203524823 1203524823 7.00000000
5.21939993 1.47300637 -0.66589409 9 8 7424 5.46400000 1203524825 1203524825 -7.00000000
8.52883530 2.40538025 1.40353000 10 9 7425 8.97200000 1203524827 1203524827 9.00000000
6.63292885 1.87067938 -0.60294342 12 10 7425 6.91800000 1203524830 1203524830 -5.00000000
8.56761646 2.41470337 1.73025596 12 11 7426 9.06800000 1203524832 1203524832 11.00000000
8.15700436 2.29743958 -0.44412291 17 12 7427 8.48600000 1203524834 1203524834 -3.00000000
8.15043259 2.29251814 -0.14778697 16 14 7429 8.46800000 1203524839 1203524839 -1.00000000
8.06957531 2.26825523 2.24603176 45 15 7430 8.67800000 1203524841 1203524841 15.00000000
2.17099810 0.60778767 -0.60408366 5 0 7436 2.33400000 1203524862 1203524862 -15.00000000
8.15555096 2.28167462 0.14782189 15 1 7437 8.47000000 1203524864 1203524864 1.00000000
2.57492924 0.71990210 -0.61726570 7 2 7438 2.74400000 1203524866 1203524866 -13.00000000
8.18448257 2.28822851 0.44537899 28 3 7438 8.51000000 1203524869 1203524869 3.00000000
3.08396149 0.86163777 -0.62241894 5 4 7439 3.26200000 1203524871 1203524871 -11.00000000
8.15956593 2.27819180 0.74117243 76 5 7440 8.50400000 1203524873 1203524873 5.00000000
3.87960839 1.08247626 -0.63793975 4 6 7441 4.07800000 1203524876 1203524876 -9.00000000
8.19166279 2.28407121 1.04417658 97 7 7442 8.56800000 1203524878 1203524878 7.00000000
5.21660662 1.45355880 -0.66491914 9 8 7443 5.45600000 1203524880 1203524880 -7.00000000
8.62768841 2.40402508 1.41854775 10 9 7443 9.06800000 1203524883 1203524883 9.00000000
6.62374067 1.84439790 -0.60154891 16 10 7444 6.90200000 1203524885 1203524885 -5.00000000
8.66825485 2.41206813 1.74895525 12 11 7445 9.16600000 1203524887 1203524887 11.00000000
8.16842651 2.27144766 -0.44433227 12 12 7446 8.49000000 1203524889 1203524889 -3.00000000
8.64255810 2.40166736 2.07089949 38 13 7447 9.20600000 1203524892 1203524892 13.00000000
8.16184330 2.26654792 -0.14785679 12 14 7448 8.47200000 1203524894 1203524894 -1.00000000
8.18501949 2.27144527 2.27605462 51 15 7449 8.79400000 1203524896 1203524896 15.00000000
2.17683077 0.60123444 -0.60511893 4 0 7456 2.33800000 1203524917 1203524917 -15.00000000
8.14033413 2.24680805 0.14740303 12 1 7457 8.44600000 1203524919 1203524919 1.00000000
2.56427622 0.70728248 -0.61411637 9 2 7458 2.73000000 1203524922 1203524922 -13.00000000
8.18471813 2.25752115 0.44496030 39 3 7458 8.50200000 1203524924 1203524924 3.00000000
3.07748699 0.84825909 -0.62051088 5 4 7459 3.25200000 1203524926 1203524926 -11.00000000
8.16362762 2.24863768 0.74082381 76 5 7460 8.50000000 1203524929 1203524929 5.00000000
3.87574530 1.06683040 -0.63668829 4 6 7461 4.07000000 1203524931 1203524931 -9.00000000
8.17853165 2.24967170 1.04149544 100 7 7462 8.54600000 1203524933 1203524933 7.00000000
5.23121929 1.43797135 -0.66613781 9 8 7463 5.46600000 1203524936 1203524936 -7.00000000
8.48555470 2.33253169 1.39383113 5 9 7463 8.91000000 1203524938 1203524938 9.00000000
6.64358711 1.82495964 -0.60276914 36 10 7464 6.91600000 1203524940 1203524940 -5.00000000
8.24875450 2.26434278 1.66270959 3 11 7465 8.71400000 1203524942 1203524942 11.00000000
8.15704441 2.23763704 -0.44328555 12 12 7466 8.47000000 1203524945 1203524945 -3.00000000
8.16199017 2.23593044 -0.14771716 12 14 7468 8.46400000 1203524949 1203524949 -1.00000000
8.19103527 2.24235034 2.27553701 40 15 7469 8.79200000 1203524952 1203524952 15.00000000
2.18274784 0.59426689 -0.60615420 4 0 7477 2.34200000 1203524972 1203524972 -15.00000000
8.15623283 2.21905684 0.14754264 12 1 7478 8.45400000 1203524975 1203524975 1.00000000
2.55744886 0.69532281 -0.61186689 7 2 7479 2.72000000 1203524977 1203524977 -13.00000000
8.18330097 2.22488737 0.44443694 55 3 7479 8.49200000 1203524979 1203524979 3.00000000
3.09573197 0.84109175 -0.62356383 5 4 7480 3.26800000 1203524982 1203524982 -11.00000000
8.16989136 2.21817923 0.74064952 72 5 7481 8.49800000 1203524984 1203524984 5.00000000
3.87200356 1.05054891 -0.63543677 6 6 7482 4.06200000 1203524986 1203524986 -9.00000000
8.15606785 2.21136951 1.03759563 54 7 7483 8.51400000 1203524988 1203524988 7.00000000
5.21921062 1.41411614 -0.66394418 9 8 7484 5.44800000 1203524991 1203524991 -7.00000000
8.08221340 2.18983102 1.32625139 10 9 7484 8.47800000 1203524993 1203524993 9.00000000
6.64638472 1.79955602 -0.60242051 40 10 7485 6.91200000 1203524995 1203524995 -5.00000000
8.06180191 2.18128014 1.62340295 15 11 7486 8.50800000 1203524998 1203524998 11.00000000
8.15362358 2.20459700 -0.44265753 12 12 7487 8.45800000 1203525000 1203525000 -3.00000000
8.05751324 2.17710161 1.92693079 20 13 7488 8.56600000 1203525002 1203525002 13.00000000
8.14503384 2.19922376 -0.14726341 14 14 7489 8.43800000 1203525005 1203525005 -1.00000000
8.07571888 2.18050838 2.24137282 20 15 7489 8.66000000 1203525007 1203525007 15.00000000
2.19600344 0.58964992 -0.60926002 4 0 7497 2.35400000 1203525028 1203525028 -15.00000000
8.06156635 2.16310644 0.14569269 15 1 7498 8.34800000 1203525030 1203525030 1.00000000
2.56174278 0.68689615 -0.61231679 9 2 7499 2.72200000 1203525032 1203525032 -13.00000000
8.05790901 2.16061759 0.43721458 23 3 7499 8.35400000 1203525035 1203525035 3.00000000
3.08727098 0.82723176 -0.62127411 5 4 7500 3.25600000 1203525037 1203525037 -11.00000000
8.04863644 2.15512013 0.72897065 18 5 7501 8.36400000 1203525039 1203525039 5.00000000
3.87564707 1.03702664 -0.63543677 4 6 7502 4.06200000 1203525041 1203525041 -9.00000000
8.05826187 2.15468335 1.02418995 33 7 7503 8.40400000 1203525044 1203525044 7.00000000
5.22795057 1.39691401 -0.66443163 9 8 7504 5.45200000 1203525046 1203525046 -7.00000000
8.06881618 2.15599632 1.32280982 25 9 7504 8.45600000 1203525048 1203525048 9.00000000
6.64877605 1.77531695 -0.60207188 48 10 7505 6.90800000 1203525051 1203525051 -5.00000000
8.05988216 2.15059519 1.62149489 28 11 7506 8.49800000 1203525053 1203525053 11.00000000
8.03003979 2.14113140 -0.43553984 17 12 7507 8.32200000 1203525055 1203525055 -3.00000000
8.05941486 2.14745712 1.92558098 34 13 7508 8.56000000 1203525058 1203525058 13.00000000
8.04058361 2.14093661 -0.14523892 22 14 7509 8.32200000 1203525060 1203525060 -1.00000000
8.09299088 2.15337825 2.24396110 22 15 7510 8.67000000 1203525062 1203525062 15.00000000
2.19057846 0.58000296 -0.60718948 4 0 7517 2.34600000 1203525083 1203525083 -15.00000000
8.04200363 2.12779236 0.14520402 31 1 7518 8.32000000 1203525085 1203525085 1.00000000
2.57166076 0.67994231 -0.61411637 9 2 7519 2.73000000 1203525088 1203525088 -13.00000000
8.05032539 2.12698770 0.43637720 42 3 7520 8.33800000 1203525090 1203525090 3.00000000
3.09393597 0.81745315 -0.62203735 5 4 7520 3.26000000 1203525092 1203525092 -11.00000000
8.06766891 2.13006377 0.73001653 32 5 7521 8.37600000 1203525094 1203525094 5.00000000
3.88306332 1.02449965 -0.63606256 6 6 7522 4.06600000 1203525097 1203525097 -9.00000000
8.06765366 2.12704754 1.02443373 26 7 7523 8.40600000 1203525099 1203525099 7.00000000
5.23855352 1.38017380 -0.66516286 9 8 7524 5.45800000 1203525101 1203525101 -7.00000000
8.05910110 2.12328839 1.31999397 25 9 7524 8.43800000 1203525104 1203525104 9.00000000
6.63373852 1.74651766 -0.60015446 60 10 7525 6.88600000 1203525106 1203525106 -5.00000000
8.08632660 2.12744308 1.62531102 25 11 7526 8.51800000 1203525108 1203525108 11.00000000
8.04132843 2.11410379 -0.43574917 38 12 7527 8.32600000 1203525111 1203525111 -3.00000000
8.07440090 2.12129211 1.92738068 17 13 7528 8.56800000 1203525113 1203525113 13.00000000
8.03446865 2.10930228 -0.14499459 40 14 7529 8.30800000 1203525115 1203525115 -1.00000000
8.18043423 2.14762282 2.26621962 31 15 7529 8.75600000 1203525118 1203525118 15.00000000
2.18137431 0.56942528 -0.60408366 4 0 7537 2.33400000 1203525138 1203525138 -15.00000000
8.04164219 2.09768867 0.14506440 31 1 7538 8.31200000 1203525141 1203525141 1.00000000
2.58156157 0.67292756 -0.61591601 10 2 7539 2.73800000 1203525143 1203525143 -13.00000000
8.07123089 2.10239816 0.43710992 23 3 7540 8.35200000 1203525145 1203525145 3.00000000
3.09107089 0.80516368 -0.62089247 5 4 7540 3.25400000 1203525147 1203525147 -11.00000000
8.08469582 2.10439873 0.73088807 18 5 7541 8.38600000 1203525150 1203525150 5.00000000
3.88852763 1.01143622 -0.63637543 6 6 7542 4.06800000 1203525152 1203525152 -9.00000000
8.17685604 2.12534022 1.03735185 66 7 7543 8.51200000 1203525154 1203525154 7.00000000
5.23565388 1.35988319 -0.66418791 9 8 7544 5.45000000 1203525157 1203525157 -7.00000000
6.63208055 1.72134876 -0.59945720 52 10 7545 6.87800000 1203525161 1203525161 -5.00000000
8.04865932 2.08602142 -0.43574917 21 12 7547 8.32600000 1203525166 1203525166 -3.00000000
8.04952621 2.08324790 -0.14513421 14 14 7549 8.31600000 1203525171 1203525171 -1.00000000
8.22004604 2.12584853 2.27501941 49 15 7550 8.79000000 1203525173 1203525173 15.00000000
2.18512130 0.56267017 -0.60460126 4 0 7556 2.33600000 1203525194 1203525194 -15.00000000
8.11827183 2.08894944 0.14632097 12 1 7557 8.38400000 1203525196 1203525196 1.00000000
2.56868005 0.66048080 -0.61231679 9 2 7558 2.72200000 1203525198 1203525198 -13.00000000
8.17681313 2.10097027 0.44244817 60 3 7559 8.45400000 1203525200 1203525200 3.00000000
3.09182262 0.79442030 -0.62051088 5 4 7559 3.25200000 1203525203 1203525203 -11.00000000
8.16110229 2.09541488 0.73716325 65 5 7560 8.45800000 1203525205 1203525205 5.00000000
3.87655306 0.99460852 -0.63387245 6 6 7561 4.05200000 1203525207 1203525207 -9.00000000
8.18193626 2.09772015 1.03710806 100 7 7562 8.51000000 1203525210 1203525210 7.00000000
5.24398041 1.34349906 -0.66467541 9 8 7563 5.45400000 1203525212 1203525212 -7.00000000
6.62810183 1.69687581 -0.59858567 44 10 7564 6.86800000 1203525217 1203525217 -5.00000000
8.15421867 2.08454800 -0.44108742 17 12 7566 8.42800000 1203525221 1203525221 -3.00000000
8.16295624 2.08374619 -0.14705397 14 14 7568 8.42600000 1203525226 1203525226 -1.00000000
8.21545315 2.09714699 2.27191353 51 15 7568 8.77800000 1203525228 1203525228 15.00000000
2.19643474 0.55741531 -0.60718948 4 0 7576 2.34600000 1203525249 1203525249 -15.00000000
8.14683628 2.06600571 0.14670493 12 1 7577 8.40600000 1203525251 1203525251 1.00000000
2.56719184 0.65055299 -0.61141694 9 2 7578 2.71800000 1203525253 1203525253 -13.00000000
8.18797016 2.07339549 0.44265753 100 3 7579 8.45800000 1203525256 1203525256 3.00000000
3.10028625 0.78506881 -0.62165570 5 4 7579 3.25800000 1203525258 1203525258 -11.00000000
8.17416191 2.06838083 0.73768622 87 5 7580 8.46400000 1203525260 1203525260 5.00000000
3.88574648 0.98252344 -0.63481104 6 6 7581 4.05800000 1203525263 1203525263 -9.00000000
8.16418839 2.06282520 1.03393948 97 7 7582 8.48400000 1203525265 1203525265 7.00000000
5.24093962 1.32324219 -0.66370046 9 8 7583 5.44600000 1203525267 1203525267 -7.00000000
6.63398457 1.67372906 -0.59858567 44 10 7584 6.86800000 1203525272 1203525272 -5.00000000
8.15563583 2.05460811 -0.44077343 17 12 7586 8.42200000 1203525276 1203525276 -3.00000000
8.16436195 2.05377603 -0.14694926 12 14 7588 8.42000000 1203525281 1203525281 -1.00000000
8.22495747 2.06749272 2.27243114 47 15 7589 8.78000000 1203525283 1203525283 15.00000000
2.19649291 0.54927623 -0.60667187 4 0 7596 2.34400000 1203525304 1203525304 -15.00000000
8.16175842 2.03949451 0.14684455 12 1 7597 8.41400000 1203525306 1203525306 1.00000000
2.56944704 0.64158785 -0.61141694 10 2 7598 2.71800000 1203525309 1203525309 -13.00000000
8.17384148 2.03948283 0.44150612 100 3 7599 8.43600000 1203525311 1203525311 3.00000000
3.10110307 0.77376670 -0.62127411 5 4 7599 3.25600000 1203525313 1203525313 -11.00000000
8.18326473 2.04031706 0.73786050 94 5 7600 8.46600000 1203525316 1203525316 5.00000000
3.88340211 0.96752101 -0.63387245 6 6 7601 4.05200000 1203525318 1203525318 -9.00000000
8.17326546 2.03479385 1.03418326 100 7 7602 8.48600000 1203525320 1203525320 7.00000000
5.24167395 1.30398130 -0.66321295 9 8 7603 5.44200000 1203525323 1203525323 -7.00000000
6.63978624 1.65056193 -0.59858567 40 10 7604 6.86800000 1203525327 1203525327 -5.00000000
8.16663456 2.02708936 -0.44098276 12 12 7606 8.42600000 1203525332 1203525332 -3.00000000
8.15207195 2.02045393 -0.14660022 12 14 7608 8.40000000 1203525336 1203525336 -1.00000000
8.22239304 2.03788280 2.26984310 51 15 7608 8.77000000 1203525339 1203525339 15.00000000
2.19652104 0.54114360 -0.60615420 4 0 7616 2.34200000 1203525359 1203525359 -15.00000000
8.15717697 2.00812411 0.14663512 12 1 7617 8.40200000 1203525362 1203525362 1.00000000
2.57545567 0.63354588 -0.61231679 9 2 7618 2.72200000 1203525364 1203525364 -13.00000000
8.16345501 2.00664759 0.44056407 100 3 7619 8.41800000 1203525366 1203525366 3.00000000
3.09425259 0.76059395 -0.61936599 5 4 7619 3.24600000 1203525369 1203525369 -11.00000000
8.16324902 2.00508618 0.73542017 90 5 7620 8.43800000 1203525371 1203525371 5.00000000
3.89059281 0.95490128 -0.63449818 6 6 7621 4.05600000 1203525373 1203525373 -9.00000000
8.17260742 2.00436020 1.03320825 100 7 7622 8.47800000 1203525376 1203525376 7.00000000
5.25004959 1.28662157 -0.66370046 9 8 7623 5.44600000 1203525378 1203525378 -7.00000000
8.16590023 1.99667263 -0.44056407 17 12 7626 8.41800000 1203525387 1203525387 -3.00000000
8.14547634 1.98866558 -0.14635588 14 14 7628 8.38600000 1203525392 1203525392 -1.00000000
8.21854591 2.00498533 2.26673722 54 15 7629 8.75800000 1203525394 1203525394 15.00000000
2.18703985 0.53112125 -0.60304838 4 0 7635 2.33000000 1203525415 1203525415 -15.00000000
8.15213203 1.97823358 0.14642569 12 1 7636 8.39000000 1203525417 1203525417 1.00000000
2.57754230 0.62500191 -0.61231679 9 2 7637 2.72200000 1203525419 1203525419 -13.00000000
8.16424084 1.97815466 0.44025007 99 3 7638 8.41200000 1203525422 1203525422 3.00000000
3.09675765 0.75032890 -0.61936599 5 4 7638 3.24600000 1203525424 1203525424 -11.00000000
8.15048885 1.97331655 0.73367703 76 5 7639 8.41800000 1203525426 1203525426 5.00000000
3.89181781 0.94152981 -0.63418531 6 6 7640 4.05400000 1203525429 1203525429 -9.00000000
8.17149067 1.97538209 1.03223336 99 7 7641 8.47000000 1203525431 1203525431 7.00000000
5.25042820 1.26827240 -0.66321295 9 8 7642 5.44200000 1203525433 1203525433 -7.00000000
6.63343668 1.60112119 -0.59701681 12 10 7643 6.85000000 1203525438 1203525438 -5.00000000
8.17247677 1.96958244 -0.44056407 12 12 7645 8.41800000 1203525442 1203525442 -3.00000000
8.14813805 1.96070766 -0.14628607 14 14 7647 8.38200000 1203525447 1203525447 -1.00000000
8.20977879 1.97554040 2.26259613 49 15 7647 8.74200000 1203525449 1203525449 15.00000000
2.19075918 0.52393317 -0.60356599 4 0 7655 2.33200000 1203525470 1203525470 -15.00000000
8.14731789 1.94697654 0.14621626 12 1 7656 8.37800000 1203525472 1203525472 1.00000000
2.57970834 0.61600077 -0.61231679 9 2 7657 2.72200000 1203525475 1203525475 -13.00000000
8.17109585 1.94964409 0.44025007 100 3 7658 8.41200000 1203525477 1203525477 3.00000000
3.10890627 0.74179286 -0.62127411 5 4 7658 3.25600000 1203525479 1203525479 -11.00000000
8.15732670 1.94485402 0.73367703 76 5 7659 8.41800000 1203525482 1203525482 5.00000000
3.89700222 0.92839694 -0.63449818 6 6 7660 4.05600000 1203525484 1203525484 -9.00000000
8.16674995 1.94408798 1.03077090 100 7 7661 8.45800000 1203525486 1203525486 7.00000000
5.26254845 1.25177479 -0.66418791 9 8 7662 5.45000000 1203525488 1203525488 -7.00000000
6.61572456 1.57242775 -0.59492511 16 10 7663 6.82600000 1203525493 1203525493 -5.00000000
8.15792561 1.93597043 -0.43941268 17 12 7665 8.39600000 1203525498 1203525498 -3.00000000
8.14131165 1.92902601 -0.14604174 16 14 7667 8.36800000 1203525502 1203525502 -1.00000000
8.20944500 1.94365644 2.26052547 51 15 7668 8.73400000 1203525505 1203525505 15.00000000
2.19821596 0.51761115 -0.60511893 4 0 7675 2.33800000 1203525525 1203525525 -15.00000000
8.14433193 1.91623533 0.14604174 18 1 7676 8.36800000 1203525528 1203525528 1.00000000
2.57425475 0.60520822 -0.61051714 9 2 7677 2.71400000 1203525530 1203525530 -13.00000000
8.16229725 1.91745567 0.43941268 100 3 7678 8.39600000 1203525532 1203525532 3.00000000
3.11721039 0.73228312 -0.62241894 5 4 7678 3.26200000 1203525535 1203525535 -11.00000000
8.15242863 1.91363597 0.73263115 76 5 7679 8.40600000 1203525537 1203525537 5.00000000
3.90021920 0.91478819 -0.63449818 6 6 7680 4.05600000 1203525539 1203525539 -9.00000000
8.15995693 1.91239810 1.02906477 92 7 7681 8.44400000 1203525541 1203525541 7.00000000
5.26108742 1.23203957 -0.66345668 9 8 7682 5.44400000 1203525544 1203525544 -7.00000000
6.63863277 1.55341053 -0.59649390 36 10 7683 6.84400000 1203525548 1203525548 -5.00000000
8.14907455 1.90384710 -0.43857533 17 12 7685 8.38000000 1203525553 1203525553 -3.00000000
8.25506973 1.92709112 1.95707417 3 13 7686 8.70000000 1203525555 1203525555 13.00000000
8.15189075 1.90150428 -0.14611155 18 14 7687 8.37200000 1203525558 1203525558 -1.00000000
8.21396351 1.91598344 2.26000786 49 15 7687 8.73200000 1203525560 1203525560 15.00000000
2.20753717 0.51167965 -0.60718948 4 0 7695 2.34600000 1203525581 1203525581 -15.00000000
8.14512634 1.88644111 0.14593703 15 1 7696 8.36200000 1203525583 1203525583 1.00000000
2.57445312 0.59577936 -0.61006725 7 2 7697 2.71200000 1203525585 1203525585 -13.00000000
8.15531921 1.88580251 0.43867999 100 3 7698 8.38200000 1203525588 1203525588 3.00000000
3.10253239 0.71741682 -0.61898440 9 4 7698 3.24400000 1203525590 1203525590 -11.00000000
8.15323448 1.88382149 0.73210824 76 5 7699 8.40000000 1203525592 1203525592 5.00000000
3.91493726 0.90383446 -0.63637543 6 6 7700 4.06800000 1203525594 1203525594 -9.00000000
8.16851711 1.88434911 1.02930844 99 7 7701 8.44600000 1203525597 1203525597 7.00000000
5.25374985 1.21099222 -0.66199428 9 8 7702 5.43200000 1203525599 1203525599 -7.00000000
6.63819027 1.52888644 -0.59597099 24 10 7703 6.83800000 1203525604 1203525604 -5.00000000
8.15761757 1.87583756 -0.43867999 17 12 7705 8.38200000 1203525608 1203525608 -3.00000000
8.24655247 1.89477277 1.95347500 3 13 7706 8.68400000 1203525611 1203525611 13.00000000
8.14288616 1.86945772 -0.14583232 18 14 7707 8.35600000 1203525613 1203525613 -1.00000000
8.22436714 1.88816428 2.26104307 49 15 7707 8.73600000 1203525615 1203525615 15.00000000
2.20168829 0.50263649 -0.60511893 4 0 7714 2.33800000 1203525636 1203525636 -15.00000000
8.16108513 1.86164415 0.14611155 15 1 7715 8.37200000 1203525638 1203525638 1.00000000
2.58591461 0.58940423 -0.61231679 9 2 7716 2.72200000 1203525641 1203525641 -13.00000000
8.15568542 1.85741758 0.43836597 99 3 7717 8.37600000 1203525643 1203525643 3.00000000
3.10872293 0.70799643 -0.61974764 16 4 7717 3.24800000 1203525645 1203525645 -11.00000000
8.15555096 1.85588980 0.73175961 83 5 7718 8.39600000 1203525647 1203525647 5.00000000
3.91791296 0.89084709 -0.63637543 6 6 7719 4.06800000 1203525650 1203525650 -9.00000000
8.16697788 1.85549176 1.02833354 99 7 7720 8.43800000 1203525652 1203525652 7.00000000
5.25967264 1.19400287 -0.66223800 9 8 7721 5.43400000 1203525654 1203525654 -7.00000000
6.64322376 1.50686491 -0.59597099 16 10 7722 6.83800000 1203525659 1203525659 -5.00000000
8.15405273 1.84656990 -0.43815663 17 12 7724 8.37200000 1203525664 1203525664 -3.00000000
8.23948574 1.86440527 1.95032561 3 13 7725 8.67000000 1203525666 1203525666 13.00000000
8.13538742 1.83935773 -0.14558798 18 14 7726 8.34200000 1203525668 1203525668 -1.00000000
8.21174049 1.85662067 2.25586677 47 15 7726 8.71600000 1203525670 1203525670 15.00000000
2.19588995 0.49325454 -0.60304838 4 0 7734 2.33000000 1203525691 1203525691 -15.00000000
8.14412022 1.82789016 0.14569269 18 1 7735 8.34800000 1203525694 1203525694 1.00000000
2.59366083 0.58165336 -0.61366647 7 2 7736 2.72800000 1203525696 1203525696 -13.00000000
8.16211987 1.82893765 0.43836597 100 3 7737 8.37600000 1203525698 1203525698 3.00000000
3.12458563 0.70014560 -0.62241894 12 4 7737 3.26200000 1203525700 1203525700 -11.00000000
8.14059353 1.82262194 0.72984219 79 5 7738 8.37400000 1203525703 1203525703 5.00000000
3.91328788 0.87544060 -0.63512391 6 6 7739 4.06000000 1203525705 1203525705 -9.00000000
8.17921638 1.82827151 1.02906477 97 7 7740 8.44400000 1203525707 1203525707 7.00000000
5.27155781 1.17736673 -0.66321295 9 8 7741 5.44200000 1203525710 1203525710 -7.00000000
6.63288689 1.48019505 -0.59457648 12 10 7742 6.82200000 1203525714 1203525714 -5.00000000
8.16239834 1.81853008 -0.43826130 17 12 7744 8.37400000 1203525719 1203525719 -3.00000000
8.24594307 1.83563268 1.95032561 3 13 7745 8.67000000 1203525721 1203525721 13.00000000
8.14371014 1.81138289 -0.14562288 16 14 7746 8.34400000 1203525723 1203525723 -1.00000000
8.21471882 1.82567239 2.25483155 47 15 7747 8.71200000 1203525726 1203525726 15.00000000
2.20137095 0.48642007 -0.60408366 4 0 7754 2.33400000 1203525747 1203525747 -15.00000000
8.14654541 1.79858851 0.14562288 18 1 7755 8.34400000 1203525749 1203525749 1.00000000
2.58616042 0.57049733 -0.61141694 9 2 7756 2.71800000 1203525751 1203525751 -13.00000000
8.17235470 1.80129516 0.43857533 100 3 7757 8.38000000 1203525753 1203525753 3.00000000
3.13276219 0.69050223 -0.62356383 5 4 7757 3.26800000 1203525756 1203525756 -11.00000000
8.14690590 1.79419482 0.72984219 79 5 7758 8.37400000 1203525758 1203525758 5.00000000
3.90088606 0.85837919 -0.63262099 6 6 7759 4.04400000 1203525760 1203525760 -9.00000000
8.17003822 1.79629946 1.02711487 92 7 7760 8.42800000 1203525763 1203525763 7.00000000
5.26787996 1.15725470 -0.66223800 9 8 7761 5.43400000 1203525765 1203525765 -7.00000000
6.62633657 1.45446992 -0.59353060 12 10 7762 6.81000000 1203525770 1203525770 -5.00000000
8.14138317 1.78404164 -0.43679589 17 12 7764 8.34600000 1203525774 1203525774 -3.00000000
8.25991535 1.80850506 1.95212519 3 13 7765 8.67800000 1203525776 1203525776 13.00000000
8.14607716 1.78209031 -0.14555307 16 14 7766 8.34000000 1203525779 1203525779 -1.00000000
8.20940399 1.79594421 2.25172567 47 15 7766 8.70000000 1203525781 1203525781 15.00000000
2.21438241 0.48119426 -0.60718948 4 0 7774 2.34600000 1203525802 1203525802 -15.00000000
8.15082073 1.76971662 0.14558798 21 1 7775 8.34200000 1203525804 1203525804 1.00000000
2.58432722 0.56064016 -0.61051714 9 2 7776 2.71400000 1203525806 1203525806 -13.00000000
8.16688156 1.77021885 0.43794727 100 3 7777 8.36800000 1203525809 1203525809 3.00000000
3.14090943 0.68081033 -0.62470865 5 4 7777 3.27400000 1203525811 1203525811 -11.00000000
8.15701294 1.76658940 0.73019081 90 5 7778 8.37800000 1203525813 1203525813 5.00000000
3.91930413 0.84809959 -0.63512391 6 6 7779 4.06000000 1203525816 1203525816 -9.00000000
8.16073704 1.76441371 1.02516496 92 7 7780 8.41200000 1203525818 1203525818 7.00000000
5.26218557 1.13676345 -0.66101933 9 8 7781 5.42400000 1203525820 1203525820 -7.00000000
6.63526869 1.43217158 -0.59387922 12 10 7782 6.81400000 1203525825 1203525825 -5.00000000
8.13389397 1.75266707 -0.43606320 17 12 7784 8.33200000 1203525829 1203525829 -3.00000000
8.25855732 1.77802086 1.95032561 4 13 7785 8.67000000 1203525832 1203525832 13.00000000
8.15420246 1.75406492 -0.14558798 14 14 7786 8.34200000 1203525834 1203525834 -1.00000000
8.21562290 1.76727712 2.25172567 47 15 7786 8.70000000 1203525836 1203525836 15.00000000
2.21038079 0.47225079 -0.60563654 4 0 7794 2.34000000 1203525857 1203525857 -15.00000000
8.14912510 1.73958421 0.14544836 18 1 7795 8.33400000 1203525859 1203525859 1.00000000
2.58626842 0.55161577 -0.61051714 9 2 7796 2.71400000 1203525862 1203525862 -13.00000000
8.15707970 1.73979378 0.43710992 100 3 7796 8.35200000 1203525864 1203525864 3.00000000
3.12598562 0.66615963 -0.62127411 5 4 7797 3.25600000 1203525866 1203525866 -11.00000000
8.16118145 1.73769045 0.73001653 76 5 7798 8.37600000 1203525869 1203525869 5.00000000
3.91451216 0.83276933 -0.63387245 6 6 7799 4.05200000 1203525871 1203525871 -9.00000000
8.16296291 1.73509121 1.02467740 95 7 7800 8.40800000 1203525873 1203525873 7.00000000
5.26029634 1.11715090 -0.66028810 9 8 7801 5.41800000 1203525875 1203525875 -7.00000000
6.64412546 1.40982854 -0.59422785 8 10 7802 6.81800000 1203525880 1203525880 -5.00000000
8.13019276 1.72219431 -0.43553984 17 12 7804 8.32200000 1203525885 1203525885 -3.00000000
8.24183559 1.74434030 1.94492686 4 13 7805 8.64600000 1203525887 1203525887 13.00000000
8.13679886 1.72062612 -0.14516912 14 14 7806 8.31800000 1203525889 1203525889 -1.00000000
8.21796227 1.73778903 2.25069046 47 15 7806 8.69600000 1203525892 1203525892 15.00000000
2.21012521 0.46413520 -0.60511893 4 0 7814 2.33800000 1203525912 1203525912 -15.00000000
8.15514851 1.71112788 0.14544836 15 1 7815 8.33400000 1203525915 1203525915 1.00000000
2.59008551 0.54298449 -0.61096704 7 2 7816 2.71600000 1203525917 1203525917 -13.00000000
8.16144753 1.70947552 0.43700522 97 3 7817 8.35000000 1203525919 1203525919 3.00000000
3.12637019 0.65484136 -0.62089247 5 4 7817 3.25400000 1203525922 1203525922 -11.00000000
8.14574623 1.70470273 0.72809905 72 5 7818 8.35400000 1203525924 1203525924 5.00000000
3.92706299 0.82112151 -0.63543677 6 6 7819 4.06200000 1203525926 1203525926 -9.00000000
8.16896915 1.70658660 1.02467740 97 7 7820 8.40800000 1203525928 1203525928 7.00000000
5.26027727 1.09797108 -0.65980065 9 8 7821 5.41400000 1203525931 1203525931 -7.00000000
6.64900589 1.38662767 -0.59422785 12 10 7822 6.81800000 1203525935 1203525935 -5.00000000
8.14397621 1.69543242 -0.43595850 17 12 7824 8.33000000 1203525940 1203525940 -3.00000000
8.24787426 1.71556032 1.94492686 3 13 7825 8.64600000 1203525942 1203525942 13.00000000
8.13100815 1.68977165 -0.14495969 14 14 7826 8.30600000 1203525945 1203525945 -1.00000000
8.21103573 1.70490789 2.24706697 45 15 7827 8.68200000 1203525947 1203525947 15.00000000
2.19462490 0.45328674 -0.60046017 4 0 7833 2.32000000 1203525968 1203525968 -15.00000000
8.14902687 1.68165016 0.14523892 15 1 7834 8.32200000 1203525970 1203525970 1.00000000
2.60141492 0.53636003 -0.61321658 6 2 7835 2.72600000 1203525972 1203525972 -13.00000000
8.16677761 1.68382716 0.43700522 100 3 7835 8.35000000 1203525975 1203525975 3.00000000
3.12467885 0.64367813 -0.62012923 5 4 7836 3.25000000 1203525977 1203525977 -11.00000000
8.14159679 1.67567277 0.72722751 76 5 7837 8.34400000 1203525979 1203525979 5.00000000
3.92008996 0.80610502 -0.63387245 9 6 7838 4.05200000 1203525981 1203525981 -9.00000000
8.16680622 1.67788994 1.02370250 97 7 7839 8.40000000 1203525984 1203525984 7.00000000
5.26583385 1.08092046 -0.66004437 9 8 7840 5.41600000 1203525986 1203525986 -7.00000000
6.69260311 1.37257683 -0.59771407 4 10 7841 6.85800000 1203525991 1203525991 -5.00000000
8.14564037 1.66761553 -0.43574917 17 12 7843 8.32600000 1203525995 1203525995 -3.00000000
8.24779034 1.68702841 1.94357705 3 13 7844 8.64000000 1203525998 1203525998 13.00000000
8.13656712 1.66279900 -0.14495969 14 14 7845 8.30600000 1203526000 1203526000 -1.00000000
8.20878029 1.67755651 2.24499631 47 15 7845 8.67400000 1203526002 1203526002 15.00000000
2.21133995 0.44869655 -0.60460126 4 0 7853 2.33600000 1203526023 1203526023 -15.00000000
8.14112854 1.65041339 0.14499459 18 1 7854 8.30800000 1203526025 1203526025 1.00000000
2.59372139 0.52534187 -0.61096704 7 2 7855 2.71600000 1203526027 1203526027 -13.00000000
8.16477489 1.65372360 0.43658656 100 3 7855 8.34200000 1203526030 1203526030 3.00000000
3.13845229 0.63510340 -0.62241894 5 4 7856 3.26200000 1203526032 1203526032 -11.00000000
8.14739609 1.64724314 0.72722751 76 5 7857 8.34400000 1203526034 1203526034 5.00000000
3.91707110 0.79124308 -0.63293386 6 6 7858 4.04600000 1203526037 1203526037 -9.00000000
8.16872120 1.64858687 1.02321506 92 7 7859 8.39600000 1203526039 1203526039 7.00000000
5.27152109 1.06292510 -0.66028810 9 8 7860 5.41800000 1203526041 1203526041 -7.00000000
8.09385586 1.63053763 -0.72234678 17 10 7861 8.28800000 1203526046 1203526046 -5.00000000
8.13183117 1.63523436 -0.43470246 17 12 7863 8.30600000 1203526051 1203526051 -3.00000000
8.25553894 1.65861177 1.94402707 3 13 7864 8.64200000 1203526053 1203526053 13.00000000
8.14428234 1.63478053 -0.14499459 16 14 7865 8.30800000 1203526055 1203526055 -1.00000000
8.20890331 1.64775181 2.24344349 47 15 7865 8.66800000 1203526057 1203526057 15.00000000
2.20531440 0.43946463 -0.60253072 4 0 7873 2.32800000 1203526078 1203526078 -15.00000000
8.14880085 1.62237597 0.14502950 15 1 7874 8.31000000 1203526080 1203526080 1.00000000
2.58789420 0.51476419 -0.60916746 7 2 7875 2.70800000 1203526083 1203526083 -13.00000000
8.16294575 1.62222981 0.43616787 100 3 7876 8.33400000 1203526085 1203526085 3.00000000
3.14257550 0.62452698 -0.62280059 5 4 7876 3.26400000 1203526087 1203526087 -11.00000000
8.14527988 1.61724138 0.72653025 72 5 7877 8.33600000 1203526090 1203526090 5.00000000
3.92368436 0.77833384 -0.63355958 6 6 7878 4.05000000 1203526092 1203526092 -9.00000000
8.16274261 1.61774719 1.02175260 95 7 7879 8.38400000 1203526094 1203526094 7.00000000
5.26156807 1.04181850 -0.65858191 9 8 7880 5.40400000 1203526097 1203526097 -7.00000000
8.11122513 1.60459471 -0.72339267 17 10 7881 8.30000000 1203526101 1203526101 -5.00000000
8.14140892 1.60761285 -0.43491179 17 12 7883 8.31000000 1203526106 1203526106 -3.00000000
8.24598312 1.62676704 1.94042778 2 13 7884 8.62600000 1203526108 1203526108 13.00000000
8.14797688 1.60595500 -0.14495969 14 14 7885 8.30600000 1203526110 1203526110 -1.00000000
8.21109676 1.61690712 2.24240828 47 15 7886 8.66400000 1203526113 1203526113 15.00000000
2.21441865 0.43324769 -0.60460126 4 0 7893 2.33600000 1203526133 1203526133 -15.00000000
8.14656448 1.59238696 0.14488988 15 1 7894 8.30200000 1203526136 1203526136 1.00000000
2.58967543 0.50572759 -0.60916746 7 2 7895 2.70800000 1203526138 1203526138 -13.00000000
8.15847969 1.59323764 0.43564451 100 3 7895 8.32400000 1203526140 1203526140 3.00000000
3.14088273 0.61280167 -0.62203735 5 4 7896 3.26000000 1203526143 1203526143 -11.00000000
8.15087509 1.58879912 0.72653025 76 5 7897 8.33600000 1203526145 1203526145 5.00000000
3.93607211 0.76652086 -0.63512391 9 6 7898 4.06000000 1203526147 1203526147 -9.00000000
8.16833973 1.58924401 1.02175260 95 7 7899 8.38400000 1203526150 1203526150 7.00000000
5.25737810 1.02193081 -0.65760696 9 8 7900 5.39600000 1203526152 1203526152 -7.00000000
7.87033987 1.52841365 -0.70142943 21 10 7901 8.04800000 1203526157 1203526157 -5.00000000
8.13912773 1.57766390 -0.43449309 17 12 7903 8.30200000 1203526161 1203526161 -3.00000000
8.24013233 1.59575033 1.93772840 1 13 7904 8.61400000 1203526163 1203526163 13.00000000
8.13390064 1.57370496 -0.14461064 14 14 7905 8.28600000 1203526166 1203526166 -1.00000000
8.21669102 1.58823514 2.24240828 47 15 7906 8.66400000 1203526168 1203526168 15.00000000
2.21402025 0.42515096 -0.60408366 4 0 7913 2.33400000 1203526189 1203526189 -15.00000000
8.15207386 1.56394041 0.14488988 12 1 7914 8.30200000 1203526191 1203526191 1.00000000
2.60290837 0.49888584 -0.61186689 7 2 7915 2.72000000 1203526193 1203526193 -13.00000000
8.16202927 1.56437349 0.43553984 100 3 7915 8.32200000 1203526196 1203526196 3.00000000
3.13914609 0.60109574 -0.62127411 5 4 7916 3.25600000 1203526198 1203526198 -11.00000000
8.14854431 1.55884016 0.72583300 76 5 7917 8.32800000 1203526200 1203526200 5.00000000
3.94066405 0.75314754 -0.63543677 6 6 7918 4.06200000 1203526203 1203526203 -9.00000000
8.16993809 1.55997694 1.02126515 92 7 7919 8.38000000 1203526205 1203526205 7.00000000
5.26286316 1.00394487 -0.65785074 9 8 7920 5.39800000 1203526207 1203526207 -7.00000000
7.85801268 1.49757481 -0.69986063 17 10 7921 8.03000000 1203526212 1203526212 -5.00000000
8.13869858 1.54812372 -0.43417910 21 12 7923 8.29600000 1203526216 1203526216 -3.00000000
8.13148594 1.54381084 -0.14447102 18 14 7925 8.27800000 1203526221 1203526221 -1.00000000
8.21079636 1.55738378 2.23930240 47 15 7926 8.65200000 1203526223 1203526223 15.00000000
2.21169400 0.41670462 -0.60304838 4 0 7933 2.33000000 1203526244 1203526244 -15.00000000
8.13979626 1.53214574 0.14457573 15 1 7934 8.28400000 1203526246 1203526246 1.00000000
2.60463381 0.48979697 -0.61186689 7 2 7935 2.72000000 1203526249 1203526249 -13.00000000
8.15566349 1.53365850 0.43491179 97 3 7935 8.31000000 1203526251 1203526251 3.00000000
3.14508414 0.59085941 -0.62203735 5 4 7936 3.26000000 1203526253 1203526253 -11.00000000
8.14414501 1.52854931 0.72496146 76 5 7937 8.31800000 1203526256 1203526256 5.00000000
3.93550277 0.73793131 -0.63418531 6 6 7938 4.05400000 1203526258 1203526258 -9.00000000
8.17143154 1.53071797 1.02077758 97 7 7939 8.37600000 1203526260 1203526260 7.00000000
5.27023840 0.98629826 -0.65833819 9 8 7940 5.40200000 1203526263 1203526263 -7.00000000
7.85340023 1.46830523 -0.69898903 17 10 7941 8.02000000 1203526267 1203526267 -5.00000000
8.15190697 1.52117050 -0.43459779 21 12 7943 8.30400000 1203526272 1203526272 -3.00000000
8.13879108 1.51578331 -0.14450592 12 14 7945 8.28000000 1203526276 1203526276 -1.00000000
8.20478725 1.52659309 2.23619652 49 15 7946 8.64000000 1203526279 1203526279 15.00000000
2.20919299 0.40905091 -0.60201311 4 0 7951 2.32600000 1203526299 1203526299 -15.00000000
8.13080502 1.50402021 0.14433140 15 1 7952 8.27000000 1203526302 1203526302 1.00000000
2.59466195 0.47948709 -0.60916746 7 2 7953 2.70800000 1203526304 1203526304 -13.00000000
8.17026138 1.50984395 0.43543515 100 3 7953 8.32000000 1203526306 1203526306 3.00000000
3.14499426 0.58061951 -0.62165570 5 4 7954 3.25800000 1203526309 1203526309 -11.00000000
8.14106941 1.50151074 0.72426420 76 5 7955 8.31000000 1203526311 1203526311 5.00000000
3.91837502 0.72198445 -0.63105661 6 6 7956 4.03400000 1203526313 1203526313 -9.00000000
8.16058159 1.50216424 1.01882768 97 7 7957 8.36000000 1203526315 1203526315 7.00000000
5.26550150 0.96830034 -0.65736324 9 8 7958 5.39400000 1203526318 1203526318 -7.00000000
7.85797405 1.44362581 -0.69898903 17 10 7959 8.02000000 1203526322 1203526322 -5.00000000
8.14092922 1.49267137 -0.43376040 17 12 7961 8.28800000 1203526327 1203526327 -3.00000000
8.14351273 1.49020720 -0.14450592 12 14 7963 8.28000000 1203526332 1203526332 -1.00000000
8.20168018 1.50085127 2.23412609 49 15 7963 8.63200000 1203526334 1203526334 15.00000000
2.21821046 0.40271723 -0.60408366 4 0 7971 2.33400000 1203526355 1203526355 -15.00000000
8.13994122 1.47634292 0.14440121 15 1 7972 8.27400000 1203526357 1203526357 1.00000000
2.59440255 0.47007969 -0.60871756 9 2 7973 2.70600000 1203526359 1203526359 -13.00000000
8.15779400 1.47811043 0.43449309 100 3 7973 8.30200000 1203526362 1203526362 3.00000000
3.15086555 0.57033724 -0.62241894 5 4 7974 3.26200000 1203526364 1203526364 -11.00000000
8.15018177 1.47379303 0.72461283 76 5 7975 8.31400000 1203526366 1203526366 5.00000000
3.93059087 0.71005815 -0.63262099 9 6 7976 4.04400000 1203526368 1203526368 -9.00000000
8.15796089 1.47225916 1.01785278 97 7 7977 8.35200000 1203526371 1203526371 7.00000000
5.26884937 0.94991446 -0.65736324 9 8 7978 5.39400000 1203526373 1203526373 -7.00000000
7.87669134 1.41865981 -0.70020926 17 10 7979 8.03400000 1203526378 1203526378 -5.00000000
8.12839794 1.46106517 -0.43281835 17 12 7981 8.27000000 1203526382 1203526382 -3.00000000
8.14472866 1.46106577 -0.14443612 12 14 7983 8.27600000 1203526387 1203526387 -1.00000000
8.20712566 1.47078061 2.23412609 49 15 7984 8.63200000 1203526389 1203526389 15.00000000
2.22150469 0.39531025 -0.60460126 4 0 7991 2.33600000 1203526410 1203526410 -15.00000000
8.14504433 1.44792020 0.14440121 18 1 7992 8.27400000 1203526412 1203526412 1.00000000
2.59602761 0.46102065 -0.60871756 10 2 7993 2.70600000 1203526415 1203526415 -13.00000000
8.15725708 1.44715405 0.43417910 100 3 7994 8.29600000 1203526417 1203526417 3.00000000
3.15283728 0.55933517 -0.62241894 5 4 7994 3.26200000 1203526419 1203526419 -11.00000000
8.15723896 1.44568229 0.72478718 83 5 7995 8.31600000 1203526421 1203526421 5.00000000
3.93499064 0.69667792 -0.63293386 6 6 7996 4.04600000 1203526424 1203526424 -9.00000000
8.15914154 1.44308209 1.01736534 97 7 7997 8.34800000 1203526426 1203526426 7.00000000
5.26822329 0.93082619 -0.65687579 9 8 7998 5.39000000 1203526428 1203526428 -7.00000000
7.89140558 1.39288795 -0.70108080 21 10 7999 8.04400000 1203526433 1203526433 -5.00000000
8.13344860 1.43268275 -0.43281835 17 12 8001 8.27000000 1203526438 1203526438 -3.00000000
8.13993168 1.43089533 -0.14426160 12 14 8003 8.26600000 1203526442 1203526442 -1.00000000
8.20434666 1.44221878 2.23205543 49 15 8003 8.62400000 1203526445 1203526445 15.00000000
2.22096801 0.38722152 -0.60408366 4 0 8011 2.33400000 1203526465 1203526465 -15.00000000
8.15004921 1.41947985 0.14440121 18 1 8012 8.27400000 1203526468 1203526468 1.00000000
2.61490011 0.45496237 -0.61276668 11 2 8013 2.72400000 1203526470 1203526470 -13.00000000
8.14848518 1.41627705 0.43344638 100 3 8014 8.28200000 1203526472 1203526472 3.00000000
3.13542795 0.54496443 -0.61860275 5 4 8014 3.24200000 1203526474 1203526474 -11.00000000
8.15438366 1.41583598 0.72408992 83 5 8015 8.30800000 1203526477 1203526477 5.00000000
3.94323730 0.68395072 -0.63387245 6 6 8016 4.05200000 1203526479 1203526479 -9.00000000
8.15630531 1.41323698 1.01639032 97 7 8017 8.34000000 1203526481 1203526481 7.00000000
5.26752853 0.91175383 -0.65638828 9 8 8018 5.38600000 1203526484 1203526484 -7.00000000
7.87462378 1.36159921 -0.69916338 17 10 8019 8.02200000 1203526488 1203526488 -5.00000000
8.13840008 1.40428305 -0.43281835 17 12 8021 8.27000000 1203526493 1203526493 -3.00000000
8.24628162 1.42141593 1.93187964 5 13 8022 8.58800000 1203526495 1203526495 13.00000000
8.12714005 1.39941895 -0.14394745 14 14 8023 8.24800000 1203526498 1203526498 -1.00000000
8.20196247 1.41082871 2.22998500 49 15 8024 8.61600000 1203526500 1203526500 15.00000000
2.21856356 0.37842900 -0.60304838 4 0 8032 2.33000000 1203526521 1203526521 -15.00000000
8.14336967 1.38758361 0.14419179 15 1 8033 8.26200000 1203526523 1203526523 1.00000000
2.61270785 0.44472122 -0.61186689 12 2 8034 2.72000000 1203526525 1203526525 -13.00000000
8.15559006 1.38673663 0.43355107 100 3 8035 8.28400000 1203526527 1203526527 3.00000000
3.14514613 0.53478527 -0.62012923 5 4 8035 3.25000000 1203526530 1203526530 -11.00000000
8.14380360 1.38327003 0.72269541 83 5 8036 8.29200000 1203526532 1203526532 5.00000000
3.94377017 0.66916299 -0.63355958 6 6 8037 4.05000000 1203526534 1203526534 -9.00000000
8.17121601 1.38499177 1.01760900 99 7 8038 8.35000000 1203526537 1203526537 7.00000000
5.27670670 0.89343542 -0.65711951 9 8 8039 5.39200000 1203526539 1203526539 -7.00000000
8.24832344 1.39658034 1.32499993 5 9 8039 8.47000000 1203526541 1203526541 9.00000000
7.94831848 1.34435749 -0.70526427 17 10 8040 8.09200000 1203526544 1203526544 -5.00000000
8.14546204 1.37477732 -0.43292302 17 12 8042 8.27200000 1203526548 1203526548 -3.00000000
8.13221455 1.36962211 -0.14394745 12 14 8044 8.24800000 1203526553 1203526553 -1.00000000
8.19731236 1.38058567 2.22739673 51 15 8044 8.60600000 1203526555 1203526555 15.00000000
2.21796560 0.37036428 -0.60253072 4 0 8052 2.32800000 1203526576 1203526576 -15.00000000
8.13830090 1.35750437 0.14401726 18 1 8053 8.25200000 1203526578 1203526578 1.00000000
2.60463309 0.43399701 -0.60961735 9 2 8054 2.71000000 1203526580 1203526580 -13.00000000
8.15841103 1.35793185 0.43344638 100 3 8055 8.28200000 1203526583 1203526583 3.00000000
3.15474010 0.52509272 -0.62165570 5 4 8055 3.25800000 1203526585 1203526585 -11.00000000
8.13875580 1.35320055 0.72182387 79 5 8056 8.28200000 1203526587 1203526587 5.00000000
3.93438983 0.65345073 -0.63168240 6 6 8057 4.03800000 1203526590 1203526590 -9.00000000
8.15250111 1.35256171 1.01468420 100 7 8058 8.32600000 1203526592 1203526592 7.00000000
5.28958511 0.87663364 -0.65833819 9 8 8059 5.40200000 1203526594 1203526594 -7.00000000
8.12200737 1.34458959 -0.72025508 17 10 8060 8.26400000 1203526599 1203526599 -5.00000000
8.14035797 1.34470832 -0.43239966 17 12 8062 8.26200000 1203526603 1203526603 -3.00000000
8.13300037 1.34057653 -0.14387764 12 14 8064 8.24400000 1203526608 1203526608 -1.00000000
8.20612907 1.35115945 2.22843194 56 15 8065 8.61000000 1203526610 1203526610 15.00000000
2.23246336 0.36557987 -0.60615420 4 0 8070 2.34200000 1203526631 1203526631 -15.00000000
8.13265800 1.33031642 0.14384273 18 1 8071 8.24200000 1203526633 1203526633 1.00000000
2.60213709 0.42518368 -0.60871756 7 2 8072 2.70600000 1203526636 1203526636 -13.00000000
8.15869427 1.33165133 0.43323705 100 3 8073 8.27800000 1203526638 1203526638 3.00000000
3.15637422 0.51517928 -0.62165570 5 4 8073 3.25800000 1203526640 1203526640 -11.00000000
8.14296627 1.32762527 0.72182387 76 5 8074 8.28200000 1203526643 1203526643 5.00000000
3.94422197 0.64235735 -0.63293386 6 6 8075 4.04600000 1203526645 1203526645 -9.00000000
8.14103508 1.32439327 1.01273429 99 7 8076 8.31000000 1203526647 1203526647 7.00000000
5.28055668 0.85810119 -0.65687579 9 8 8077 5.39000000 1203526650 1203526650 -7.00000000
8.12619209 1.31906700 -0.72025508 17 10 8078 8.26400000 1203526654 1203526654 -5.00000000
8.13074207 1.31689286 -0.43166697 17 12 8080 8.24800000 1203526659 1203526659 -3.00000000
8.14309406 1.31597650 -0.14398235 14 14 8082 8.25000000 1203526663 1203526663 -1.00000000
8.19865990 1.32495630 2.22532606 54 15 8082 8.59800000 1203526666 1203526666 15.00000000
2.23754096 0.35839599 -0.60718948 4 0 8090 2.34600000 1203526686 1203526686 -15.00000000
8.14120197 1.30255187 0.14391254 15 1 8091 8.24600000 1203526689 1203526689 1.00000000
2.59783244 0.41517532 -0.60736787 7 2 8092 2.70000000 1203526691 1203526691 -13.00000000
8.14159775 1.29970074 0.43208566 100 3 8093 8.25600000 1203526693 1203526693 3.00000000
3.14652109 0.50230139 -0.61936599 5 4 8093 3.24600000 1203526696 1203526696 -11.00000000
8.14951897 1.29950666 0.72199816 83 5 8094 8.28400000 1203526698 1203526698 5.00000000
3.94058800 0.62765336 -0.63199526 6 6 8095 4.04000000 1203526700 1203526700 -9.00000000
8.15345001 1.29721522 1.01370919 99 7 8096 8.31800000 1203526703 1203526703 7.00000000
5.26783562 0.83717090 -0.65492582 9 8 8097 5.37400000 1203526705 1203526705 -7.00000000
7.98119736 1.26695347 -0.70700741 17 10 8098 8.11200000 1203526709 1203526709 -5.00000000
8.12739849 1.28725338 -0.43124828 17 12 8100 8.24000000 1203526714 1203526714 -3.00000000
8.13776207 1.28598309 -0.14380783 14 14 8102 8.24000000 1203526719 1203526719 -1.00000000
8.21109390 1.29610264 2.22739673 60 15 8103 8.60600000 1203526721 1203526721 15.00000000
2.22935700 0.34831077 -0.60460126 4 0 8112 2.33600000 1203526742 1203526742 -15.00000000
8.13823986 1.27004910 0.14377293 15 1 8113 8.23800000 1203526744 1203526744 1.00000000
2.60325837 0.40579763 -0.60826766 7 2 8114 2.70400000 1203526746 1203526746 -13.00000000
8.15047550 1.26904428 0.43229499 99 3 8115 8.26000000 1203526749 1203526749 3.00000000
3.14260697 0.48930982 -0.61822116 5 4 8115 3.24000000 1203526751 1203526751 -11.00000000
8.14460468 1.26667440 0.72112662 79 5 8116 8.27400000 1203526753 1203526753 5.00000000
3.95663261 0.61464059 -0.63418531 6 6 8117 4.05400000 1203526756 1203526756 -9.00000000
8.15837097 1.26589882 1.01370919 99 7 8118 8.31800000 1203526758 1203526758 7.00000000
5.27101135 0.81693769 -0.65492582 9 8 8119 5.37400000 1203526760 1203526760 -7.00000000
7.87771177 1.21953428 -0.69742024 30 10 8120 8.00200000 1203526765 1203526765 -5.00000000
8.14412403 1.25786626 -0.43187630 17 12 8122 8.25200000 1203526769 1203526769 -3.00000000
8.13078117 1.25289965 -0.14359841 12 14 8124 8.22800000 1203526774 1203526774 -1.00000000
8.19669533 1.26305664 2.22222042 58 15 8124 8.58600000 1203526776 1203526776 15.00000000
2.22483015 0.33965209 -0.60304838 4 0 8132 2.33000000 1203526797 1203526797 -15.00000000
8.13669300 1.24072921 0.14366820 12 1 8133 8.23200000 1203526799 1203526799 1.00000000
2.61236525 0.39788178 -0.61006725 7 2 8134 2.71200000 1203526802 1203526802 -13.00000000
8.14498234 1.23908424 0.43177164 97 3 8135 8.25000000 1203526804 1203526804 3.00000000
3.15400052 0.47981343 -0.62012923 5 4 8135 3.25000000 1203526806 1203526806 -11.00000000
8.13124847 1.23554289 0.71955782 83 5 8136 8.25600000 1203526809 1203526809 5.00000000
3.93922400 0.59786153 -0.63105661 4 6 8137 4.03400000 1203526811 1203526811 -9.00000000
8.16273975 1.23741305 1.01370919 99 7 8138 8.31800000 1203526813 1203526813 7.00000000
5.27775621 0.79912782 -0.65541333 9 8 8139 5.37800000 1203526815 1203526815 -7.00000000
7.87601089 1.19113469 -0.69689733 34 10 8140 7.99600000 1203526820 1203526820 -5.00000000
8.14451599 1.22883427 -0.43166697 17 12 8142 8.24800000 1203526825 1203526825 -3.00000000
8.13906002 1.22510564 -0.14366820 12 14 8144 8.23200000 1203526829 1203526829 -1.00000000
8.18980789 1.23128247 2.21911454 58 15 8145 8.57400000 1203526832 1203526832 15.00000000
2.22970748 0.33323202 -0.60408366 4 0 8150 2.33400000 1203526852 1203526852 -15.00000000
8.12670612 1.21309435 0.14342387 15 1 8151 8.21800000 1203526855 1203526855 1.00000000
2.60974741 0.38909811 -0.60916746 7 2 8152 2.70800000 1203526857 1203526857 -13.00000000
8.15476131 1.21437240 0.43208566 91 3 8153 8.25600000 1203526859 1203526859 3.00000000
3.15549231 0.46990249 -0.62012923 5 4 8153 3.25000000 1203526862 1203526862 -11.00000000
