# .PCD v0.7 - Point Cloud Data file format
VERSION 0.7
FIELDS x y z intensity laser_id azimuth distance_m adjustedtime timestamp vertical_angle
SIZE 4 4 4 1 1 2 8 8 4 8
TYPE F F F U U U F U U F
COUNT 1 1 1 1 1 1 1 1 1 1
WIDTH 539
HEIGHT 1
VIEWPOINT 0 0 0 1 0 0 0
POINTS 539
DATA ascii
1.91065586 1.25745451 -0.61288351 4 0 5665 2.36800000 1203720002 1203720002 -15.00000000
8.23936558 5.42048979 0.17215054 13 1 5666 9.86400000 1203720004 1203720004 1.00000000
2.25670028 1.48406708 -0.62356430 3 2 5667 2.77200000 1203720007 1203720007 -13.00000000
2.70194650 1.77619755 -0.62852484 8 4 5668 3.29400000 1203720011 1203720011 -11.00000000
8.28368759 5.44343519 0.86719966 85 5 5669 9.95000000 1203720014 1203720014 5.00000000
3.41599011 2.24388599 -0.64732581 6 6 5670 4.13800000 1203720016 1203720016 -9.00000000
8.34152699 5.47727537 1.22527432 2 7 5671 10.05400000 1203720018 1203720018 7.00000000
3.77046371 2.47484803 -0.55377430 4 8 5672 4.54400000 1203720021 1203720021 -7.00000000
3.79974961 2.49312186 -0.39760450 5 10 5673 4.56200000 1203720025 1203720025 -5.00000000
8.68435287 5.69587851 2.01875925 40 11 5674 10.58000000 1203720027 1203720027 11.00000000
8.23281097 5.39766741 -0.51592785 12 12 5675 9.85800000 1203720030 1203720030 -3.00000000
8.29288483 5.43498421 2.28910184 58 13 5676 10.17600000 1203720032 1203720032 13.00000000
8.22968483 5.39151144 -0.17173168 12 14 5677 9.84000000 1203720034 1203720034 -1.00000000
6.28030109 4.11284590 2.01154160 9 15 5678 7.77200000 1203720037 1203720037 15.00000000
1.90878141 1.24621868 -0.61081296 4 0 5686 2.36000000 1203720057 1203720057 -15.00000000
8.24075699 5.37823248 0.17176658 13 1 5687 9.84200000 1203720060 1203720060 1.00000000
2.27191734 1.48217463 -0.62626374 3 2 5688 2.78400000 1203720062 1203720062 -13.00000000
8.26343632 5.39097786 0.51707923 89 3 5688 9.88000000 1203720064 1203720064 3.00000000
2.71666074 1.77164459 -0.63043290 11 4 5689 3.30400000 1203720067 1203720067 -11.00000000
8.25851822 5.38366032 0.86249322 69 5 5690 9.89600000 1203720069 1203720069 5.00000000
3.41095138 2.22272301 -0.64482284 9 6 5691 4.12200000 1203720071 1203720071 -9.00000000
8.34491253 5.43583059 1.22283697 2 7 5692 10.03400000 1203720073 1203720073 7.00000000
4.59296846 2.99069285 -0.67296249 4 8 5693 5.52200000 1203720076 1203720076 -7.00000000
7.07670164 4.60620689 -0.73873210 13 10 5694 8.47600000 1203720080 1203720080 -5.00000000
8.68871498 5.65330362 2.01494288 43 11 5695 10.56000000 1203720083 1203720083 11.00000000
8.24416733 5.36201143 -0.51540452 12 12 5696 9.84800000 1203720085 1203720085 -3.00000000
8.31274891 5.40455246 2.28910184 75 13 5697 10.17600000 1203720087 1203720087 13.00000000
8.23597717 5.35259438 -0.17145245 12 14 5698 9.82400000 1203720090 1203720090 -1.00000000
7.39447737 4.80570030 2.36301780 36 15 5698 9.13000000 1203720092 1203720092 15.00000000
1.91960502 1.24375010 -0.61288351 4 0 5706 2.36800000 1203720113 1203720113 -15.00000000
8.23598289 5.33421516 0.17127791 13 1 5707 9.81400000 1203720115 1203720115 1.00000000
2.26726222 1.46788061 -0.62356430 3 2 5708 2.77200000 1203720117 1203720117 -13.00000000
8.26376247 5.35016012 0.51592785 99 3 5708 9.85800000 1203720120 1203720120 3.00000000
2.72447658 1.76321757 -0.63081455 9 4 5709 3.30600000 1203720122 1203720122 -11.00000000
8.25049496 5.33748436 0.85970426 81 5 5710 9.86400000 1203720124 1203720124 5.00000000
3.41205430 2.20651221 -0.64357138 6 6 5711 4.11400000 1203720126 1203720126 -9.00000000
8.35383415 5.40020227 1.22137451 2 7 5712 10.02200000 1203720129 1203720129 7.00000000
4.60838223 2.97787428 -0.67369372 6 8 5713 5.52800000 1203720131 1203720131 -7.00000000
7.06930685 4.56634188 -0.73629171 13 10 5714 8.44800000 1203720136 1203720136 -5.00000000
8.68530464 5.60803032 2.00960040 43 11 5715 10.53200000 1203720138 1203720138 11.00000000
8.24605370 5.32237005 -0.51435781 12 12 5716 9.82800000 1203720140 1203720140 -3.00000000
8.31518936 5.36493778 2.28460288 82 13 5717 10.15600000 1203720143 1203720143 13.00000000
8.23780537 5.31297445 -0.17110339 12 14 5718 9.80400000 1203720145 1203720145 -1.00000000
7.42340708 4.78589344 2.36664128 40 15 5719 9.14400000 1203720147 1203720147 15.00000000
1.93000126 1.24189484 -0.61495405 4 0 5724 2.37600000 1203720168 1203720168 -15.00000000
8.23251820 5.29533339 0.17085905 13 1 5725 9.79000000 1203720170 1203720170 1.00000000
2.26530600 1.45653486 -0.62176472 3 2 5726 2.76400000 1203720173 1203720173 -13.00000000
8.25625610 5.30652905 0.51435781 100 3 5727 9.82800000 1203720175 1203720175 3.00000000
2.73330545 1.75677264 -0.63157779 9 4 5727 3.31000000 1203720177 1203720177 -11.00000000
8.25548840 5.30399990 0.85848409 81 5 5728 9.85000000 1203720179 1203720179 5.00000000
3.42229366 2.19791722 -0.64419711 6 6 5729 4.11800000 1203720182 1203720182 -9.00000000
8.33400726 5.35033798 1.21601236 2 7 5730 9.97800000 1203720184 1203720184 7.00000000
4.60936117 2.95802140 -0.67247504 4 8 5731 5.51800000 1203720186 1203720186 -7.00000000
7.09703350 4.55271673 -0.73768622 13 10 5732 8.46400000 1203720191 1203720191 -5.00000000
8.69626999 5.57647800 2.00807381 43 11 5733 10.52400000 1203720193 1203720193 11.00000000
8.22910404 5.27488184 -0.51226431 12 12 5734 9.78800000 1203720196 1203720196 -3.00000000
8.29754543 5.31671000 2.27515507 75 13 5735 10.11400000 1203720198 1203720198 13.00000000
8.24435329 5.28059673 -0.17089397 12 14 5736 9.79200000 1203720200 1203720200 -1.00000000
7.43594742 4.76280451 2.36612368 45 15 5736 9.14200000 1203720203 1203720203 15.00000000
1.93432450 1.23515022 -0.61495405 4 0 5744 2.37600000 1203720223 1203720223 -15.00000000
8.23746681 5.25795698 0.17057982 13 1 5745 9.77400000 1203720226 1203720226 1.00000000
2.27037644 1.44861853 -0.62176472 3 2 5746 2.76400000 1203720228 1203720228 -13.00000000
8.23094749 5.24975300 0.51163632 91 3 5747 9.77600000 1203720230 1203720230 3.00000000
2.72783446 1.73983085 -0.62890643 6 4 5747 3.29600000 1203720232 1203720232 -11.00000000
8.25715256 5.26443958 0.85674095 85 5 5748 9.83000000 1203720235 1203720235 5.00000000
3.42827916 2.18489599 -0.64388424 6 6 5749 4.11600000 1203720237 1203720237 -9.00000000
8.34761047 5.31801414 1.21528113 2 7 5750 9.97200000 1203720239 1203720239 7.00000000
4.61463547 2.93871474 -0.67174381 6 8 5751 5.51200000 1203720242 1203720242 -7.00000000
7.11456299 4.52898598 -0.73786050 13 10 5752 8.46600000 1203720246 1203720246 -5.00000000
8.71402550 5.54503441 2.00769234 37 11 5753 10.52200000 1203720249 1203720249 11.00000000
8.22724438 5.23326111 -0.51100826 17 12 5754 9.76400000 1203720251 1203720251 -3.00000000
8.29467583 5.27412081 2.26930618 72 13 5755 10.08800000 1203720253 1203720253 13.00000000
8.23404503 5.23355103 -0.17030059 16 14 5756 9.75800000 1203720256 1203720256 -1.00000000
7.45498466 4.73655462 2.36664128 45 15 5757 9.14400000 1203720258 1203720258 15.00000000
1.93536055 1.22632265 -0.61391878 4 0 5764 2.37200000 1203720279 1203720279 -15.00000000
8.23887730 5.21847057 0.17023078 13 1 5765 9.75400000 1203720281 1203720281 1.00000000
2.29846978 1.45527911 -0.62806332 3 2 5766 2.79200000 1203720283 1203720283 -13.00000000
8.25428581 5.22419405 0.51195031 99 3 5767 9.78200000 1203720285 1203720285 3.00000000
2.73057318 1.72819853 -0.62814319 5 4 5767 3.29200000 1203720288 1203720288 -11.00000000
8.25190639 5.22067118 0.85430062 81 5 5768 9.80200000 1203720290 1203720290 5.00000000
3.43588495 2.17291570 -0.64388424 6 6 5769 4.11600000 1203720292 1203720292 -9.00000000
8.32920837 5.26550722 1.20991886 2 7 5770 9.92800000 1203720295 1203720295 7.00000000
4.63661194 2.93001199 -0.67344999 4 8 5771 5.52600000 1203720297 1203720297 -7.00000000
7.11516857 4.49454737 -0.73629171 13 10 5772 8.44800000 1203720302 1203720302 -5.00000000
8.73498821 5.51563120 2.00807381 28 11 5773 10.52400000 1203720304 1203720304 11.00000000
8.22350502 5.19065189 -0.50964755 17 12 5774 9.73800000 1203720306 1203720306 -3.00000000
8.29985046 5.23681545 2.26570702 70 13 5775 10.07200000 1203720309 1203720309 13.00000000
8.22858429 5.18984222 -0.16981192 16 14 5776 9.73000000 1203720311 1203720311 -1.00000000
7.46738291 4.70974541 2.36560607 42 15 5776 9.14000000 1203720313 1203720313 15.00000000
1.92818129 1.21236145 -0.61029530 4 0 5784 2.35800000 1203720334 1203720334 -15.00000000
8.23164749 5.17371845 0.16970719 13 1 5785 9.72400000 1203720336 1203720336 1.00000000
2.29363489 1.44102681 -0.62536395 3 2 5786 2.78000000 1203720338 1203720338 -13.00000000
8.25724888 5.18578911 0.51100826 89 3 5787 9.76400000 1203720341 1203720341 3.00000000
2.74490190 1.72387719 -0.63005131 5 4 5787 3.30200000 1203720343 1203720343 -11.00000000
8.24139404 5.17382622 0.85133731 81 5 5788 9.76800000 1203720345 1203720345 5.00000000
3.44846869 2.16405916 -0.64482284 6 6 5789 4.12200000 1203720348 1203720348 -9.00000000
4.65017509 2.91591835 -0.67393744 4 8 5791 5.53000000 1203720352 1203720352 -7.00000000
7.13081408 4.46968317 -0.73629171 13 10 5792 8.44800000 1203720357 1203720357 -5.00000000
8.22972488 5.15449381 -0.50891483 17 12 5794 9.72400000 1203720361 1203720361 -3.00000000
8.30486584 5.19953871 2.26210785 70 13 5795 10.05600000 1203720364 1203720364 13.00000000
8.22969913 5.15047884 -0.16946286 14 14 5796 9.71000000 1203720366 1203720366 -1.00000000
7.47804356 4.67824650 2.36353540 45 15 5797 9.13200000 1203720368 1203720368 15.00000000
1.94059658 1.21073639 -0.61288351 4 0 5804 2.36800000 1203720389 1203720389 -15.00000000
8.22759914 5.13119650 0.16925344 16 1 5805 9.69800000 1203720391 1203720391 1.00000000
2.28872895 1.42682612 -0.62266451 3 2 5806 2.76800000 1203720394 1203720394 -13.00000000
8.25495911 5.14425850 0.50975221 89 3 5807 9.74000000 1203720396 1203720396 3.00000000
2.74923658 1.71324682 -0.62966967 5 4 5807 3.30000000 1203720398 1203720398 -11.00000000
8.24756622 5.13765287 0.85011709 77 5 5808 9.75400000 1203720401 1203720401 5.00000000
3.45264792 2.14992023 -0.64419711 4 6 5809 4.11800000 1203720403 1203720403 -9.00000000
4.64684153 2.89127898 -0.67198753 4 8 5811 5.51400000 1203720408 1203720408 -7.00000000
7.14298916 4.44266033 -0.73594308 13 10 5812 8.44400000 1203720412 1203720412 -5.00000000
8.21713352 5.10675907 -0.50703073 17 12 5814 9.68800000 1203720417 1203720417 -3.00000000
8.30972290 5.16229105 2.25850868 70 13 5815 10.04000000 1203720419 1203720419 13.00000000
8.23403740 5.11328125 -0.16918363 14 14 5816 9.69400000 1203720421 1203720421 -1.00000000
7.49351597 4.65342236 2.36353540 42 15 5816 9.13200000 1203720424 1203720424 15.00000000
1.94481111 1.20395505 -0.61288351 4 0 5824 2.36800000 1203720444 1203720444 -15.00000000
8.22845554 5.09192276 0.16890439 13 1 5825 9.67800000 1203720447 1203720447 1.00000000
2.29701018 1.42087865 -0.62356430 3 2 5826 2.77200000 1203720449 1203720449 -13.00000000
8.24908352 5.10070658 0.50828683 81 3 5827 9.71200000 1203720451 1203720451 3.00000000
2.76020956 1.70673728 -0.63081455 5 4 5827 3.30600000 1203720454 1203720454 -11.00000000
8.24680710 5.09730911 0.84819967 81 5 5828 9.73200000 1203720456 1203720456 5.00000000
3.46013141 2.13785505 -0.64419711 4 6 5829 4.11800000 1203720458 1203720458 -9.00000000
4.66704035 2.88129759 -0.67344999 4 8 5831 5.52600000 1203720463 1203720463 -7.00000000
7.15845346 4.41769981 -0.73594308 13 10 5832 8.44400000 1203720467 1203720467 -5.00000000
8.21450901 5.06546497 -0.50577468 12 12 5834 9.66400000 1203720472 1203720472 -3.00000000
8.30612564 5.11995983 2.25265980 74 13 5835 10.01400000 1203720474 1203720474 13.00000000
8.22459602 5.06772375 -0.16862515 16 14 5836 9.66200000 1203720477 1203720477 -1.00000000
7.51381111 4.62795258 2.36457086 42 15 5837 9.13600000 1203720479 1203720479 15.00000000
1.96196032 1.20559049 -0.61702460 4 0 5843 2.38400000 1203720500 1203720500 -15.00000000
8.22484875 5.05204868 0.16848554 13 1 5844 9.65400000 1203720502 1203720502 1.00000000
2.29838800 1.41121435 -0.62266451 3 2 5845 2.76800000 1203720504 1203720504 -13.00000000
8.24722862 5.06183147 0.50713539 99 3 5846 9.69000000 1203720507 1203720507 3.00000000
2.75581479 1.69141293 -0.62852484 5 4 5846 3.29400000 1203720509 1203720509 -11.00000000
8.25517368 5.06472445 0.84732813 77 5 5847 9.72200000 1203720511 1203720511 5.00000000
3.47056961 2.12843466 -0.64482284 6 6 5848 4.12200000 1203720514 1203720514 -9.00000000
4.66472149 2.85854483 -0.67174381 4 8 5850 5.51200000 1203720518 1203720518 -7.00000000
7.17985964 4.39809990 -0.73664033 13 10 5851 8.45200000 1203720523 1203720523 -5.00000000
8.21422672 5.02777004 -0.50472796 12 12 5853 9.64400000 1203720527 1203720527 -3.00000000
8.29147530 5.07306385 2.24411178 78 13 5854 9.97600000 1203720530 1203720530 13.00000000
8.22600269 5.03103209 -0.16831101 16 14 5855 9.64400000 1203720532 1203720532 -1.00000000
7.53655338 4.60936403 2.36715889 45 15 5855 9.14600000 1203720534 1203720534 15.00000000
1.95131159 1.18968368 -0.61236584 4 0 5863 2.36600000 1203720555 1203720555 -15.00000000
8.22194290 5.01081991 0.16806668 13 1 5864 9.63000000 1203720557 1203720557 1.00000000
2.30995703 1.40723825 -0.62446415 3 2 5865 2.77600000 1203720560 1203720560 -13.00000000
8.24608326 5.02158546 0.50598401 89 3 5866 9.66800000 1203720562 1203720562 3.00000000
2.75667167 1.67871976 -0.62737995 5 4 5866 3.28800000 1203720564 1203720564 -11.00000000
8.24897575 5.02137375 0.84488779 81 5 5867 9.69400000 1203720567 1203720567 5.00000000
3.48135328 2.11836076 -0.64544863 6 6 5868 4.12600000 1203720569 1203720569 -9.00000000
4.68824053 2.85049486 -0.67369372 4 8 5870 5.52800000 1203720573 1203720573 -7.00000000
6.66906595 4.05326176 -0.68277806 4 10 5871 7.83400000 1203720578 1203720578 -5.00000000
8.22319126 4.99388313 -0.50420463 17 12 5873 9.63400000 1203720583 1203720583 -3.00000000
8.29580688 5.03600025 2.24051261 78 13 5874 9.96000000 1203720585 1203720585 13.00000000
8.21958065 4.98776388 -0.16782235 12 14 5875 9.61600000 1203720587 1203720587 -1.00000000
7.54844189 4.57870436 2.36560607 45 15 5876 9.14000000 1203720590 1203720590 15.00000000
1.95049357 1.17986548 -0.61081296 4 0 5883 2.36000000 1203720610 1203720610 -15.00000000
8.22569370 4.97381163 0.16778743 13 1 5884 9.61400000 1203720613 1203720613 1.00000000
2.32152605 1.40319860 -0.62626374 3 2 5885 2.78400000 1203720615 1203720615 -13.00000000
8.24817657 4.98347521 0.50504196 76 3 5886 9.65000000 1203720617 1203720617 3.00000000
2.76419497 1.67010212 -0.62776160 5 4 5886 3.29000000 1203720620 1203720620 -11.00000000
8.24257660 4.97812843 0.84244740 85 5 5887 9.66600000 1203720622 1203720622 5.00000000
3.46843338 2.09394431 -0.64169419 6 6 5888 4.10200000 1203720624 1203720624 -9.00000000
4.68626356 2.82693505 -0.67198753 4 8 5890 5.51400000 1203720629 1203720629 -7.00000000
6.69170475 4.03510189 -0.68364966 8 10 5891 7.84400000 1203720633 1203720633 -5.00000000
8.35499573 5.03607893 1.89625978 3 11 5892 9.93800000 1203720636 1203720636 11.00000000
8.23201942 4.95999432 -0.50368124 17 12 5893 9.62400000 1203720638 1203720638 -3.00000000
8.29664135 4.99695730 2.23601341 82 13 5894 9.94000000 1203720640 1203720640 13.00000000
8.21809578 4.94769621 -0.16743839 14 14 5895 9.59400000 1203720643 1203720643 -1.00000000
7.55696344 4.54966211 2.36353540 42 15 5895 9.13200000 1203720645 1203720645 15.00000000
1.95460010 1.17304981 -0.61081296 4 0 5903 2.36000000 1203720666 1203720666 -15.00000000
8.21556854 4.92860889 0.16722895 13 1 5904 9.58200000 1203720668 1203720668 1.00000000
2.30969739 1.38506424 -0.62176472 3 2 5905 2.76400000 1203720670 1203720670 -13.00000000
8.23297310 4.93514252 0.50305319 49 3 5906 9.61200000 1203720673 1203720673 3.00000000
2.78011131 1.66649950 -0.63005131 5 4 5906 3.30200000 1203720675 1203720675 -11.00000000
8.24281311 4.93908548 0.84070432 85 5 5907 9.64600000 1203720677 1203720677 5.00000000
3.48927855 2.08994484 -0.64419711 4 6 5908 4.11800000 1203720679 1203720679 -9.00000000
4.71313620 2.82075381 -0.67442495 6 8 5910 5.53400000 1203720684 1203720684 -7.00000000
8.35127163 4.99813318 1.54150522 2 9 5910 9.85400000 1203720686 1203720686 9.00000000
6.68523169 3.99944425 -0.68155789 8 10 5911 7.82000000 1203720689 1203720689 -5.00000000
8.33882523 4.98673105 1.88862741 3 11 5912 9.89800000 1203720691 1203720691 11.00000000
8.22699642 4.91790676 -0.50232053 17 12 5913 9.59800000 1203720693 1203720693 -3.00000000
8.29228687 4.95497179 2.23016477 75 13 5914 9.91400000 1203720696 1203720696 13.00000000
8.22158241 4.91077614 -0.16715916 16 14 5915 9.57800000 1203720698 1203720698 -1.00000000
6.90275717 4.12303782 2.15440965 13 15 5915 8.32400000 1203720700 1203720700 15.00000000
1.96366262 1.16918480 -0.61236584 4 0 5923 2.36600000 1203720721 1203720721 -15.00000000
8.22241306 4.89376497 0.16701953 13 1 5924 9.57000000 1203720723 1203720723 1.00000000
2.30446935 1.37101519 -0.61906528 3 2 5925 2.75200000 1203720726 1203720726 -13.00000000
8.22611713 4.89208174 0.50158781 34 3 5926 9.58400000 1203720728 1203720728 3.00000000
2.78928638 1.65879190 -0.63081455 5 4 5926 3.30600000 1203720730 1203720730 -11.00000000
8.24287701 4.90010166 0.83896118 85 5 5927 9.62600000 1203720732 1203720732 5.00000000
3.49655271 2.07775211 -0.64419711 4 6 5928 4.11800000 1203720735 1203720735 -9.00000000
4.71271276 2.79820395 -0.67296249 4 8 5930 5.52200000 1203720739 1203720739 -7.00000000
6.68887186 3.96998262 -0.68051201 17 10 5931 7.80800000 1203720744 1203720744 -5.00000000
8.33591938 4.94557190 1.88404799 3 11 5932 9.87400000 1203720746 1203720746 11.00000000
8.21834469 4.87387753 -0.50075042 12 12 5933 9.56800000 1203720749 1203720749 -3.00000000
8.29109287 4.91506481 2.22521591 75 13 5934 9.89200000 1203720751 1203720751 13.00000000
8.22835255 4.87593079 -0.16694972 14 14 5935 9.56600000 1203720753 1203720753 -1.00000000
7.59685183 4.50171852 2.36612368 33 15 5935 9.14200000 1203720755 1203720755 15.00000000
1.97272193 1.16527081 -0.61391878 4 0 5943 2.37200000 1203720776 1203720776 -15.00000000
8.22566986 4.85689974 0.16674030 13 1 5944 9.55400000 1203720779 1203720779 1.00000000
2.32937980 1.37484908 -0.62446415 3 2 5945 2.77600000 1203720781 1203720781 -13.00000000
8.22766209 4.85420322 0.50064576 23 3 5946 9.56600000 1203720783 1203720783 3.00000000
2.78153253 1.64106452 -0.62776160 5 4 5946 3.29000000 1203720785 1203720785 -11.00000000
8.25649929 4.86927462 0.83861256 85 5 5947 9.62200000 1203720788 1203720788 5.00000000
3.51739764 2.07355976 -0.64670008 4 6 5948 4.13400000 1203720790 1203720790 -9.00000000
8.30491352 4.89392042 1.18359506 9 7 5949 9.71200000 1203720792 1203720792 7.00000000
4.71047831 2.77468395 -0.67125636 6 8 5950 5.50800000 1203720795 1203720795 -7.00000000
8.32944489 4.90250254 1.87870538 3 11 5952 9.84600000 1203720802 1203720802 11.00000000
8.20948601 4.82996893 -0.49918035 17 12 5953 9.53800000 1203720804 1203720804 -3.00000000
8.28636169 4.87325096 2.21936703 74 13 5954 9.86600000 1203720806 1203720806 13.00000000
8.22463608 4.83501816 -0.16653086 14 14 5955 9.54200000 1203720808 1203720808 -1.00000000
7.61996269 4.47775936 2.36819434 42 15 5956 9.15000000 1203720811 1203720811 15.00000000
1.96324253 1.15090656 -0.60977769 4 0 5962 2.35600000 1203720832 1203720832 -15.00000000
8.22447777 4.81948566 0.16639124 13 1 5963 9.53400000 1203720834 1203720834 1.00000000
2.33056331 1.36514711 -0.62356430 3 2 5964 2.77200000 1203720836 1203720836 -13.00000000
8.23164845 4.81982851 0.49991307 21 3 5965 9.55200000 1203720838 1203720838 3.00000000
2.78695917 1.63183165 -0.62776160 5 4 5965 3.29000000 1203720841 1203720841 -11.00000000
8.24336910 4.82475901 0.83564925 85 5 5966 9.58800000 1203720843 1203720843 5.00000000
3.52766442 2.06387925 -0.64732581 4 6 5967 4.13800000 1203720845 1203720845 -9.00000000
8.35022736 4.88338995 1.18773866 13 7 5968 9.74600000 1203720848 1203720848 7.00000000
4.71965361 2.75904822 -0.67125636 6 8 5969 5.50800000 1203720850 1203720850 -7.00000000
8.21510887 4.79667616 -0.49855232 17 12 5972 9.52600000 1203720859 1203720859 -3.00000000
8.29406071 4.84083414 2.21711755 70 13 5973 9.85600000 1203720861 1203720861 13.00000000
8.21298790 4.79159451 -0.16597238 14 14 5974 9.51000000 1203720864 1203720864 -1.00000000
7.62731743 4.44990444 2.36612368 45 15 5974 9.14200000 1203720866 1203720866 15.00000000
1.96891797 1.14501774 -0.61029530 4 0 5982 2.35800000 1203720887 1203720887 -15.00000000
8.21358967 4.77466774 0.16583277 13 1 5983 9.50200000 1203720889 1203720889 1.00000000
2.33868408 1.35896182 -0.62446415 3 2 5984 2.77600000 1203720891 1203720891 -13.00000000
8.23633385 4.78404331 0.49918035 18 3 5985 9.53800000 1203720894 1203720894 3.00000000
2.79433584 1.62307942 -0.62814319 5 4 5985 3.29200000 1203720896 1203720896 -11.00000000
8.22914600 4.77794790 0.83251166 77 5 5986 9.55200000 1203720898 1203720898 5.00000000
3.51434541 2.03965402 -0.64357138 4 6 5987 4.11400000 1203720901 1203720901 -9.00000000
4.73955917 2.74853182 -0.67271876 6 8 5989 5.52000000 1203720905 1203720905 -7.00000000
6.71905470 3.89489985 -0.67946619 100 10 5990 7.79600000 1203720910 1203720910 -5.00000000
8.22143269 4.76196480 -0.49792430 17 12 5992 9.51400000 1203720914 1203720914 -3.00000000
8.29404354 4.80208874 2.21261859 72 13 5993 9.83600000 1203720917 1203720917 13.00000000
8.22101021 4.75788832 -0.16579786 16 14 5994 9.50000000 1203720919 1203720919 -1.00000000
7.63110018 4.41647911 2.36250019 45 15 5994 9.12800000 1203720921 1203720921 15.00000000
1.97624958 1.14006865 -0.61133057 4 0 6002 2.36200000 1203720942 1203720942 -15.00000000
8.21288300 4.73597813 0.16548371 16 1 6003 9.48200000 1203720944 1203720944 1.00000000
2.33666015 1.34689724 -0.62266451 3 2 6004 2.76800000 1203720947 1203720947 -13.00000000
8.23484898 4.74673033 0.49813363 13 3 6004 9.51800000 1203720949 1203720949 3.00000000
2.80168557 1.61429560 -0.62852484 5 4 6005 3.29400000 1203720951 1203720951 -11.00000000
8.23023510 4.74024391 0.83094287 77 5 6006 9.53400000 1203720954 1203720954 5.00000000
3.50774837 2.01948929 -0.64106846 4 6 6007 4.09800000 1203720956 1203720956 -9.00000000
4.74568319 2.72999120 -0.67223132 6 8 6009 5.51600000 1203720960 1203720960 -7.00000000
8.21202850 4.71831226 -0.49635422 17 12 6012 9.48400000 1203720970 1203720970 -3.00000000
8.29554653 4.76437283 2.20856953 74 13 6013 9.81800000 1203720972 1203720972 13.00000000
8.22542858 4.72219324 -0.16555353 16 14 6014 9.48600000 1203720974 1203720974 -1.00000000
7.65819788 4.39654779 2.36612368 45 15 6014 9.14200000 1203720977 1203720977 15.00000000
1.98692405 1.13700128 -0.61340111 4 0 6022 2.37000000 1203720997 1203720997 -15.00000000
8.22068596 4.70231676 0.16530919 16 1 6023 9.47200000 1203721000 1203721000 1.00000000
2.33458066 1.33486331 -0.62086493 3 2 6024 2.76000000 1203721002 1203721002 -13.00000000
8.23831940 4.70858717 0.49729624 13 3 6025 9.50200000 1203721004 1203721004 3.00000000
2.81071234 1.60645449 -0.62928808 5 4 6025 3.29800000 1203721007 1203721007 -11.00000000
8.23462200 4.70456791 0.82972264 77 5 6026 9.52000000 1203721009 1203721009 5.00000000
3.52849913 2.01506972 -0.64357138 4 6 6027 4.11400000 1203721011 1203721011 -9.00000000
8.23023415 4.69825125 1.16360843 20 7 6028 9.54800000 1203721013 1203721013 7.00000000
4.76380444 2.71832824 -0.67344999 6 8 6029 5.52600000 1203721016 1203721016 -7.00000000
6.68724012 3.81433439 -0.67353958 25 10 6030 7.72800000 1203721020 1203721020 -5.00000000
8.21283150 4.68071795 -0.49541217 17 12 6032 9.46600000 1203721025 1203721025 -3.00000000
8.29011440 4.72284698 2.20272064 75 13 6033 9.79200000 1203721027 1203721027 13.00000000
8.22101021 4.68157768 -0.16513467 14 14 6034 9.46200000 1203721030 1203721030 -1.00000000
7.66754484 4.36462641 2.36405325 45 15 6035 9.13400000 1203721032 1203721032 15.00000000
1.98880649 1.12979937 -0.61288351 4 0 6040 2.36800000 1203721053 1203721053 -15.00000000
8.22150707 4.66856813 0.16502996 16 1 6041 9.45600000 1203721055 1203721055 1.00000000
2.34215212 1.32944643 -0.62176472 3 2 6042 2.76400000 1203721057 1203721057 -13.00000000
8.22098827 4.66637659 0.49541217 13 3 6042 9.46600000 1203721060 1203721060 3.00000000
2.80037737 1.58889687 -0.62585348 5 4 6043 3.28000000 1203721062 1203721062 -11.00000000
8.23723030 4.67179441 0.82850248 77 5 6044 9.50600000 1203721064 1203721064 5.00000000
3.53824902 2.00592303 -0.64419711 4 6 6045 4.11800000 1203721066 1203721066 -9.00000000
8.24149990 4.67041445 1.16312099 38 7 6046 9.54400000 1203721069 1203721069 7.00000000
4.74641228 2.68867278 -0.66979390 4 8 6047 5.49600000 1203721071 1203721071 -7.00000000
6.69572258 3.79134369 -0.67319095 42 10 6048 7.72400000 1203721076 1203721076 -5.00000000
8.21011257 4.64505816 -0.49436545 17 12 6050 9.44600000 1203721080 1203721080 -3.00000000
8.27437878 4.67951202 2.19462252 78 13 6051 9.75600000 1203721083 1203721083 13.00000000
8.23045444 4.65277529 -0.16502996 12 14 6052 9.45600000 1203721085 1203721085 -1.00000000
7.68550634 4.34470940 2.36560607 45 15 6052 9.14000000 1203721087 1203721087 15.00000000
1.99273813 1.12285018 -0.61288351 4 0 6060 2.36800000 1203721108 1203721108 -15.00000000
8.22032928 4.63002777 0.16468091 16 1 6061 9.43600000 1203721110 1203721110 1.00000000
2.35357094 1.32508695 -0.62356430 3 2 6062 2.77200000 1203721112 1203721112 -13.00000000
8.22678471 4.63177252 0.49478412 13 3 6062 9.45400000 1203721115 1203721115 3.00000000
2.80761766 1.58007503 -0.62623513 5 4 6063 3.28200000 1203721117 1203721117 -11.00000000
8.23438644 4.63226700 0.82658505 85 5 6064 9.48400000 1203721119 1203721119 5.00000000
3.56589127 2.00517869 -0.64795154 4 6 6065 4.14200000 1203721122 1203721122 -9.00000000
8.25429153 4.63967228 1.16263354 78 7 6066 9.54000000 1203721124 1203721124 7.00000000
4.77134466 2.68083954 -0.67198753 4 8 6067 5.51400000 1203721126 1203721126 -7.00000000
6.68459606 3.75428915 -0.67075062 100 10 6068 7.69600000 1203721131 1203721131 -5.00000000
8.21060085 4.60757446 -0.49342340 17 12 6070 9.42800000 1203721136 1203721136 -3.00000000
8.27706528 4.64297342 2.19102335 78 13 6071 9.74000000 1203721138 1203721138 13.00000000
8.21176147 4.60445738 -0.16433185 12 14 6072 9.41600000 1203721140 1203721140 -1.00000000
7.69894028 4.31691074 2.36508846 45 15 6072 9.13800000 1203721142 1203721142 15.00000000
1.98691475 1.10953915 -0.60977769 4 0 6082 2.35600000 1203721163 1203721163 -15.00000000
8.21185589 4.58380985 0.16415733 16 1 6083 9.40600000 1203721165 1203721165 1.00000000
2.35523796 1.31414104 -0.62266451 3 2 6084 2.76800000 1203721168 1203721168 -13.00000000
8.23310184 4.59190083 0.49405143 10 3 6085 9.44000000 1203721170 1203721170 3.00000000
2.82052231 1.57310808 -0.62776160 5 4 6085 3.29000000 1203721172 1203721172 -11.00000000
8.22948933 4.58800316 0.82431901 89 5 6086 9.45800000 1203721175 1203721175 5.00000000
3.55630922 1.98185587 -0.64482284 4 6 6087 4.12200000 1203721177 1203721177 -9.00000000
8.25123501 4.59635162 1.15970862 96 7 6088 9.51600000 1203721179 1203721179 7.00000000
4.79374361 2.66925931 -0.67369372 4 8 6089 5.52800000 1203721182 1203721182 -7.00000000
8.23172379 4.57795572 -0.49363273 17 12 6092 9.43200000 1203721191 1203721191 -3.00000000
8.26928329 4.59695482 2.18427467 75 13 6093 9.71000000 1203721193 1203721193 13.00000000
8.21714497 4.56609344 -0.16408752 14 14 6094 9.40200000 1203721195 1203721195 -1.00000000
7.71114111 4.28315639 2.36353540 45 15 6095 9.13200000 1203721198 1203721198 15.00000000
1.99415553 1.10446870 -0.61081296 4 0 6102 2.36000000 1203721218 1203721218 -15.00000000
8.20331383 4.54155731 0.16366866 16 1 6103 9.37800000 1203721221 1203721221 1.00000000
2.36322093 1.30779886 -0.62356430 3 2 6104 2.77200000 1203721223 1203721223 -13.00000000
8.23255634 4.55587006 0.49310938 13 3 6104 9.42200000 1203721225 1203721225 3.00000000
2.82427835 1.56230271 -0.62737995 5 4 6105 3.28800000 1203721228 1203721228 -11.00000000
8.22453117 4.54767942 0.82222730 77 5 6106 9.43400000 1203721230 1203721230 5.00000000
3.54937434 1.96178544 -0.64231992 4 6 6107 4.10600000 1203721232 1203721232 -9.00000000
8.23421574 4.54928207 1.15507770 92 7 6108 9.47800000 1203721235 1203721235 7.00000000
4.80303144 2.65250969 -0.67369372 4 8 6109 5.52800000 1203721237 1203721237 -7.00000000
6.69274950 3.69459629 -0.66883320 100 10 6110 7.67400000 1203721242 1203721242 -5.00000000
8.21617413 4.53183031 -0.49174863 17 12 6112 9.39600000 1203721246 1203721246 -3.00000000
8.28698635 4.56900263 2.18472457 75 13 6113 9.71200000 1203721248 1203721248 13.00000000
8.21727180 4.52869558 -0.16377339 16 14 6114 9.38400000 1203721251 1203721251 -1.00000000
7.72942924 4.25807762 2.36457086 45 15 6115 9.13600000 1203721253 1203721253 15.00000000
2.00138521 1.09936118 -0.61184824 4 0 6122 2.36400000 1203721274 1203721274 -15.00000000
8.20859909 4.50712013 0.16345924 16 1 6123 9.36600000 1203721276 1203721276 1.00000000
2.36435509 1.29766643 -0.62266451 3 2 6124 2.76800000 1203721278 1203721278 -13.00000000
8.22739792 4.51557350 0.49185333 15 3 6124 9.39800000 1203721281 1203721281 3.00000000
2.82971478 1.55243468 -0.62737995 4 4 6125 3.28800000 1203721283 1203721283 -11.00000000
8.22288609 4.50936270 0.82048416 81 5 6126 9.41400000 1203721285 1203721285 5.00000000
3.56312943 1.95318198 -0.64357138 4 6 6127 4.11400000 1203721288 1203721288 -9.00000000
8.22567368 4.50715733 1.15166533 92 7 6128 9.45000000 1203721290 1203721290 7.00000000
4.80877924 2.63382077 -0.67320627 4 8 6129 5.52400000 1203721292 1203721292 -7.00000000
8.20741177 4.48970366 -0.49028325 21 12 6132 9.36800000 1203721301 1203721301 -3.00000000
8.27894688 4.52695847 2.17842603 74 13 6133 9.68400000 1203721304 1203721304 13.00000000
8.22250175 4.49422979 -0.16356395 16 14 6134 9.37200000 1203721306 1203721306 -1.00000000
7.74763632 4.23292351 2.36560607 42 15 6135 9.14000000 1203721308 1203721308 15.00000000
2.01199627 1.09606504 -0.61391878 4 0 6142 2.37200000 1203721329 1203721329 -15.00000000
8.21901321 4.47557068 0.16335453 13 1 6143 9.36000000 1203721331 1203721331 1.00000000
2.35175419 1.28008890 -0.61816549 3 2 6144 2.74800000 1203721334 1203721334 -13.00000000
8.22907639 4.47918844 0.49101594 10 3 6144 9.38200000 1203721336 1203721336 3.00000000
2.82994294 1.53973269 -0.62623513 5 4 6145 3.28200000 1203721338 1203721338 -11.00000000
8.22982502 4.47587252 0.81961262 81 5 6146 9.40400000 1203721341 1203721341 5.00000000
3.57339668 1.94261944 -0.64419711 6 6 6147 4.11800000 1203721343 1203721343 -9.00000000
8.23437881 4.47462559 1.15069032 92 7 6148 9.44200000 1203721345 1203721345 7.00000000
4.79701138 2.60564876 -0.67028141 4 8 6149 5.50000000 1203721348 1203721348 -7.00000000
6.69736814 3.63637424 -0.66674143 29 10 6150 7.65000000 1203721352 1203721352 -5.00000000
8.20547771 4.45150328 -0.48923653 21 12 6152 9.34800000 1203721357 1203721357 -3.00000000
8.27585506 4.48781347 2.17347717 68 13 6153 9.66200000 1203721359 1203721359 13.00000000
8.21176815 4.45120621 -0.16304038 18 14 6154 9.34200000 1203721361 1203721361 -1.00000000
7.76406336 4.20677376 2.36612368 45 15 6155 9.14200000 1203721364 1203721364 15.00000000
2.00863242 1.08606350 -0.61184824 4 0 6160 2.36400000 1203721384 1203721384 -15.00000000
8.21368217 4.43926907 0.16297057 16 1 6161 9.33800000 1203721387 1203721387 1.00000000
2.36605120 1.27825201 -0.62086493 3 2 6162 2.76000000 1203721389 1203721389 -13.00000000
8.22729301 4.44476986 0.49007389 10 3 6162 9.36400000 1203721391 1203721391 3.00000000
2.83994842 1.53363323 -0.62737995 4 4 6163 3.28800000 1203721394 1203721394 -11.00000000
8.21579361 4.43485308 0.81682360 77 5 6164 9.37200000 1203721396 1203721396 5.00000000
3.59338951 1.93888783 -0.64670008 4 6 6165 4.13400000 1203721398 1203721398 -9.00000000
8.23441887 4.44119596 1.14874041 90 7 6166 9.42600000 1203721400 1203721400 7.00000000
4.81041527 2.59339166 -0.67101258 4 8 6167 5.50600000 1203721403 1203721403 -7.00000000
6.68771172 3.60397363 -0.66464967 12 10 6168 7.62600000 1203721407 1203721407 -5.00000000
8.21062946 4.42096853 -0.48871315 17 12 6170 9.33800000 1203721412 1203721412 -3.00000000
8.27618504 4.45440340 2.16987777 68 13 6171 9.64600000 1203721414 1203721414 13.00000000
8.19753551 4.41022778 -0.16248190 14 14 6172 9.31000000 1203721417 1203721417 -1.00000000
7.77140713 4.18097305 2.36457086 42 15 6172 9.13600000 1203721419 1203721419 15.00000000
2.00219584 1.07356799 -0.60874242 4 0 6180 2.35200000 1203721440 1203721440 -15.00000000
8.21150303 4.40112448 0.16262153 12 1 6181 9.31800000 1203721442 1203721442 1.00000000
2.37393427 1.27182567 -0.62176472 3 2 6182 2.76400000 1203721444 1203721444 -13.00000000
8.22691345 4.40753555 0.48913184 10 3 6182 9.34600000 1203721447 1203721447 3.00000000
2.83836174 1.52000332 -0.62585348 4 4 6183 3.28000000 1203721449 1203721449 -11.00000000
8.21190166 4.39580441 0.81490618 77 5 6184 9.35000000 1203721451 1203721451 5.00000000
3.58968544 1.92074108 -0.64482284 6 6 6185 4.12200000 1203721453 1203721453 -9.00000000
8.24286938 4.40868044 1.14776552 92 7 6186 9.41800000 1203721456 1203721456 7.00000000
4.82469082 2.57939219 -0.67174381 4 8 6187 5.51200000 1203721458 1203721458 -7.00000000
6.67565060 3.56746054 -0.66220933 17 10 6188 7.59800000 1203721463 1203721463 -5.00000000
8.21191692 4.38475513 -0.48787579 17 12 6190 9.32200000 1203721467 1203721467 -3.00000000
8.28480625 4.42181683 2.16807818 72 13 6191 9.63800000 1203721470 1203721470 13.00000000
8.20229435 4.37593842 -0.16227247 18 14 6192 9.29800000 1203721472 1203721472 -1.00000000
7.77986050 4.14882517 2.36250019 45 15 6193 9.12800000 1203721474 1203721474 15.00000000
2.01256728 1.07055163 -0.61081296 4 0 6199 2.36000000 1203721495 1203721495 -15.00000000
8.20486546 4.36260414 0.16220267 15 1 6200 9.29400000 1203721497 1203721497 1.00000000
2.37125564 1.26028812 -0.61996508 3 2 6201 2.75600000 1203721500 1203721500 -13.00000000
8.23519325 4.37504292 0.48871315 13 3 6202 9.33800000 1203721502 1203721502 3.00000000
2.84512043 1.51150370 -0.62623513 5 4 6202 3.28200000 1203721504 1203721504 -11.00000000
8.22115421 4.36574554 0.81438327 81 5 6203 9.34400000 1203721506 1203721506 5.00000000
3.56811833 1.89400804 -0.63981694 4 6 6204 4.09000000 1203721509 1203721509 -9.00000000
8.23640156 4.37015676 1.14484060 85 7 6205 9.39400000 1203721511 1203721511 7.00000000
4.84023237 2.56709933 -0.67271876 4 8 6206 5.52000000 1203721513 1203721513 -7.00000000
8.20170307 4.34441137 -0.48641038 17 12 6209 9.29400000 1203721523 1203721523 -3.00000000
8.28392410 4.38611221 2.16402912 74 13 6210 9.62000000 1203721525 1203721525 13.00000000
8.20438862 4.34216690 -0.16202815 16 14 6211 9.28400000 1203721527 1203721527 -1.00000000
7.79456329 4.12526703 2.36301780 45 15 6211 9.13000000 1203721530 1203721530 15.00000000
2.01970935 1.06532252 -0.61184824 4 0 6219 2.36400000 1203721550 1203721550 -15.00000000
8.20589256 4.32647610 0.16192342 15 1 6220 9.27800000 1203721553 1203721553 1.00000000
2.38081241 1.25472891 -0.62131482 4 2 6221 2.76200000 1203721555 1203721555 -13.00000000
8.22744274 4.33416891 0.48735243 13 3 6222 9.31200000 1203721557 1203721557 3.00000000
2.85211611 1.50247824 -0.62661672 5 4 6222 3.28400000 1203721559 1203721559 -11.00000000
8.22929192 4.33330822 0.81368601 81 5 6223 9.33600000 1203721562 1203721562 5.00000000
3.58519602 1.88706183 -0.64169419 6 6 6224 4.10200000 1203721564 1203721564 -9.00000000
8.22701073 4.32843971 1.14142823 92 7 6225 9.36600000 1203721566 1203721566 7.00000000
4.84213591 2.54649210 -0.67174381 4 8 6226 5.51200000 1203721569 1203721569 -7.00000000
8.19736767 4.30553961 -0.48525900 17 12 6229 9.27200000 1203721578 1203721578 -3.00000000
8.27675343 4.34539270 2.15818048 75 13 6230 9.59400000 1203721580 1203721580 13.00000000
8.21418381 4.31071424 -0.16192342 16 14 6231 9.27800000 1203721583 1203721583 -1.00000000
7.81134176 4.09756851 2.36353540 40 15 6232 9.13200000 1203721585 1203721585 15.00000000
2.02360034 1.05791271 -0.61184824 4 0 6240 2.36400000 1203721606 1203721606 -15.00000000
8.21106052 4.29081440 0.16171400 15 1 6241 9.26600000 1203721608 1203721608 1.00000000
2.38366771 1.24509215 -0.62086493 3 2 6242 2.76000000 1203721610 1203721610 -13.00000000
8.21848679 4.29104328 0.48588702 15 3 6243 9.28400000 1203721612 1203721612 3.00000000
2.85586357 1.49110591 -0.62623513 5 4 6243 3.28200000 1203721615 1203721615 -11.00000000
8.23805428 4.29942989 0.81298876 81 5 6244 9.32800000 1203721617 1203721617 5.00000000
3.60960221 1.88304532 -0.64482284 6 6 6245 4.12200000 1203721619 1203721619 -9.00000000
8.23401928 4.29366779 1.14020956 94 7 6246 9.35600000 1203721622 1203721622 7.00000000
4.85319710 2.52964520 -0.67198753 6 8 6247 5.51400000 1203721624 1203721624 -7.00000000
8.20246410 4.26993227 -0.48463094 17 12 6250 9.26000000 1203721633 1203721633 -3.00000000
8.27188015 4.30423355 2.15278149 82 13 6251 9.57000000 1203721636 1203721636 13.00000000
8.20863914 4.26950598 -0.16150457 14 14 6252 9.25400000 1203721638 1203721638 -1.00000000
7.82559729 4.07027674 2.36353540 42 15 6252 9.13200000 1203721640 1203721640 15.00000000
2.02042031 1.04728639 -0.60977769 4 0 6260 2.35600000 1203721661 1203721661 -15.00000000
8.21178436 4.25476646 0.16143475 12 1 6261 9.25000000 1203721663 1203721663 1.00000000
2.39146042 1.23855639 -0.62176472 3 2 6262 2.76400000 1203721665 1203721665 -13.00000000
8.22632027 4.25865602 0.48546833 15 3 6263 9.27600000 1203721668 1203721668 3.00000000
2.85756421 1.47932279 -0.62547189 5 4 6263 3.27800000 1203721670 1203721670 -11.00000000
8.22469902 4.25599718 0.81019980 82 5 6264 9.29600000 1203721672 1203721672 5.00000000
3.61264420 1.86861897 -0.64419711 6 6 6265 4.11800000 1203721675 1203721675 -9.00000000
8.24013996 4.26034117 1.13899088 90 7 6266 9.34600000 1203721677 1203721677 7.00000000
4.87257910 2.51815724 -0.67344999 6 8 6267 5.52600000 1203721679 1203721679 -7.00000000
8.31712246 4.29646397 1.48268580 2 9 6268 9.47800000 1203721682 1203721682 9.00000000
8.20489502 4.23486185 -0.48389825 17 12 6270 9.24600000 1203721688 1203721688 -3.00000000
8.26953602 4.26639843 2.14828253 80 13 6271 9.55000000 1203721691 1203721691 13.00000000
8.21282864 4.23532724 -0.16129515 14 14 6272 9.24200000 1203721693 1203721693 -1.00000000
7.83187723 4.03714132 2.36094737 45 15 6273 9.12200000 1203721695 1203721695 15.00000000
2.01375437 1.03492916 -0.60667187 4 0 6280 2.34400000 1203721716 1203721716 -15.00000000
8.19812679 4.21145630 0.16087629 12 1 6281 9.21800000 1203721718 1203721718 1.00000000
2.40096974 1.23287165 -0.62311441 4 2 6282 2.77000000 1203721721 1203721721 -13.00000000
8.23402786 4.22626686 0.48504964 15 3 6283 9.26800000 1203721723 1203721723 3.00000000
2.86620378 1.47113204 -0.62623513 5 4 6283 3.28200000 1203721725 1203721725 -11.00000000
8.22000599 4.21725750 0.80828238 86 5 6284 9.27400000 1203721728 1203721728 5.00000000
3.61562943 1.85419428 -0.64357138 6 6 6285 4.11400000 1203721730 1203721730 -9.00000000
8.24259567 4.22521305 1.13728476 96 7 6286 9.33200000 1203721732 1203721732 7.00000000
4.88133907 2.50113344 -0.67344999 6 8 6287 5.52600000 1203721735 1203721735 -7.00000000
6.67482758 3.41862249 -0.65610844 12 10 6288 7.52800000 1203721739 1203721739 -5.00000000
8.20895958 4.20073700 -0.48327023 17 12 6290 9.23400000 1203721744 1203721744 -3.00000000
8.27049828 4.23040676 2.14468336 80 13 6291 9.53400000 1203721746 1203721746 13.00000000
8.20441628 4.19479895 -0.16084138 16 14 6292 9.21600000 1203721748 1203721748 -1.00000000
7.83662128 4.00675058 2.35835910 45 15 6292 9.11200000 1203721751 1203721751 15.00000000
2.02423978 1.03140175 -0.60874242 4 0 6300 2.35200000 1203721771 1203721771 -15.00000000
8.19495869 4.17373848 0.16052723 12 1 6301 9.19800000 1203721774 1203721774 1.00000000
2.39483881 1.21917856 -0.62041503 4 2 6302 2.75800000 1203721776 1203721776 -13.00000000
8.22914982 4.18753529 0.48389825 13 3 6303 9.24600000 1203721778 1203721778 3.00000000
2.87307119 1.46200860 -0.62661672 5 4 6303 3.28400000 1203721781 1203721781 -11.00000000
8.21514225 4.17860222 0.80636495 78 5 6304 9.25200000 1203721783 1203721783 5.00000000
3.60447121 1.83260942 -0.64044273 6 6 6305 4.09400000 1203721785 1203721785 -9.00000000
8.23251820 4.18382454 1.13387239 100 7 6306 9.30400000 1203721788 1203721788 7.00000000
4.89711952 2.48767543 -0.67442495 6 8 6307 5.53400000 1203721790 1203721790 -7.00000000
6.66184950 3.38267350 -0.65366805 12 10 6308 7.50000000 1203721794 1203721794 -5.00000000
8.20041752 4.16030931 -0.48190948 17 12 6310 9.20800000 1203721799 1203721799 -3.00000000
8.26957321 4.19357920 2.14063430 75 13 6311 9.51600000 1203721801 1203721801 13.00000000
8.20117283 4.15709352 -0.16049233 18 14 6312 9.19600000 1203721804 1203721804 -1.00000000
7.85814762 3.98149347 2.36042976 45 15 6313 9.12000000 1203721806 1203721806 15.00000000
2.03472519 1.02781367 -0.61081296 4 0 6320 2.36000000 1203721827 1203721827 -15.00000000
8.19341183 4.13699532 0.16021310 12 1 6321 9.18000000 1203721829 1203721829 1.00000000
2.39212108 1.20729935 -0.61861539 4 2 6322 2.75000000 1203721831 1203721831 -13.00000000
8.21340275 4.14349174 0.48211882 15 3 6323 9.21200000 1203721834 1203721834 3.00000000
2.89217973 1.45904493 -0.62966967 5 4 6323 3.30000000 1203721836 1203721836 -11.00000000
8.21900463 4.14451838 0.80531907 78 5 6324 9.24000000 1203721838 1203721838 5.00000000
3.61790204 1.82357275 -0.64169419 6 6 6325 4.10200000 1203721841 1203721841 -9.00000000
8.22402668 4.14345074 1.13070381 99 7 6326 9.27800000 1203721843 1203721843 7.00000000
4.87740564 2.45628023 -0.67052513 6 8 6327 5.50200000 1203721845 1203721845 -7.00000000
6.68785381 3.36656547 -0.65506256 8 10 6328 7.51600000 1203721850 1203721850 -5.00000000
8.20240021 4.12537766 -0.48117679 17 12 6330 9.19400000 1203721854 1203721854 -3.00000000
8.26674938 4.15593433 2.13613510 74 13 6331 9.49600000 1203721857 1203721857 13.00000000
8.21563339 4.12844086 -0.16049233 16 14 6332 9.19600000 1203721859 1203721859 -1.00000000
7.87303352 3.95628047 2.36094737 45 15 6332 9.12200000 1203721861 1203721861 15.00000000
2.04521012 1.02416492 -0.61288351 4 0 6340 2.36800000 1203721882 1203721882 -15.00000000
8.19707394 4.10299969 0.16000366 12 1 6341 9.16800000 1203721884 1203721884 1.00000000
8.19280243 4.09907389 -2.11498976 8 2 6342 9.40200000 1203721887 1203721887 -13.00000000
8.21531200 4.10854292 0.48138613 13 3 6343 9.19800000 1203721889 1203721889 3.00000000
2.87794018 1.43928087 -0.62547189 5 4 6343 3.27800000 1203721891 1203721891 -11.00000000
8.21560001 4.10689449 0.80357593 78 5 6344 9.22000000 1203721894 1203721894 5.00000000
3.63308072 1.81534755 -0.64325851 6 6 6345 4.11200000 1203721896 1203721896 -9.00000000
8.21535301 4.10318756 1.12753522 97 7 6346 9.25200000 1203721898 1203721898 7.00000000
4.88239813 2.43746662 -0.67003763 6 8 6347 5.49800000 1203721900 1203721900 -7.00000000
8.33741379 4.16051579 1.47580278 2 9 6348 9.43400000 1203721903 1203721903 9.00000000
6.72808838 3.35743403 -0.65785152 8 10 6348 7.54800000 1203721905 1203721905 -5.00000000
8.20066357 4.08869982 -0.48023474 17 12 6350 9.17600000 1203721910 1203721910 -3.00000000
8.26202106 4.11749125 2.13118625 68 13 6351 9.47400000 1203721912 1203721912 13.00000000
8.20314598 4.08636284 -0.15996876 18 14 6352 9.16600000 1203721914 1203721914 -1.00000000
7.89266920 3.92998099 2.36250019 45 15 6353 9.12800000 1203721917 1203721917 15.00000000
2.04167414 1.01393998 -0.61081296 4 0 6359 2.36000000 1203721937 1203721937 -15.00000000
8.20884323 4.07490540 0.15996876 12 1 6360 9.16600000 1203721940 1203721940 1.00000000
8.20460510 4.07101679 -2.11453986 8 2 6361 9.40000000 1203721942 1203721942 -13.00000000
8.21457672 4.07417774 0.48054874 10 3 6362 9.18200000 1203721944 1203721944 3.00000000
2.88269711 1.42972934 -0.62547189 5 4 6362 3.27800000 1203721947 1203721947 -11.00000000
8.21132278 4.07077885 0.80183285 78 5 6363 9.20000000 1203721949 1203721949 5.00000000
3.64085078 1.80416691 -0.64357138 4 6 6364 4.11400000 1203721951 1203721951 -9.00000000
8.22535706 4.07415962 1.12704766 97 7 6365 9.24800000 1203721953 1203721953 7.00000000
4.89757013 2.42478561 -0.67101258 6 8 6366 5.50600000 1203721956 1203721956 -7.00000000
6.78918409 3.35984802 -0.66273224 4 10 6367 7.60400000 1203721960 1203721960 -5.00000000
8.20880604 4.05882740 -0.47992072 17 12 6369 9.17000000 1203721965 1203721965 -3.00000000
8.26165295 4.08316326 2.12758708 68 13 6370 9.45800000 1203721967 1203721967 13.00000000
8.19872284 4.05028105 -0.15961970 18 14 6371 9.14600000 1203721970 1203721970 -1.00000000
7.89631653 3.90088797 2.35991216 45 15 6371 9.11800000 1203721972 1203721972 15.00000000
2.04173446 1.00510061 -0.60977769 4 0 6379 2.35600000 1203721993 1203721993 -15.00000000
8.20328140 4.03651476 0.15958481 12 1 6380 9.14400000 1203721995 1203721995 1.00000000
8.20302773 4.03461170 -2.11049080 8 2 6381 9.38200000 1203721997 1203721997 -13.00000000
8.21440887 4.03842926 0.47971138 13 3 6382 9.16600000 1203722000 1203722000 3.00000000
2.89119411 1.42139041 -0.62623513 5 4 6382 3.28200000 1203722002 1203722002 -11.00000000
8.20938969 4.03418255 0.80026400 75 5 6383 9.18200000 1203722004 1203722004 5.00000000
3.63648796 1.78622162 -0.64169419 4 6 6384 4.10200000 1203722006 1203722006 -9.00000000
8.22883606 4.04017353 1.12558520 95 7 6385 9.23600000 1203722009 1203722009 7.00000000
4.92382479 2.41642094 -0.67344999 9 8 6386 5.52600000 1203722011 1203722011 -7.00000000
7.53962946 3.69852281 -0.73472291 13 10 6387 8.43000000 1203722016 1203722016 -5.00000000
8.20140266 4.01960087 -0.47866467 17 12 6389 9.14600000 1203722020 1203722020 -3.00000000
8.27235603 4.05258512 2.12668729 68 13 6390 9.45400000 1203722023 1203722023 13.00000000
8.20024014 4.01548147 -0.15937537 18 14 6391 9.13200000 1203722025 1203722025 -1.00000000
7.90467978 3.87075210 2.35835910 45 15 6391 9.11200000 1203722027 1203722027 15.00000000
2.04870296 0.99966186 -0.61081296 4 0 6399 2.36000000 1203722048 1203722048 -15.00000000
8.19575310 3.99733591 0.15916595 18 1 6400 9.12000000 1203722050 1203722050 1.00000000
8.19779301 3.99655962 -2.10554194 8 2 6401 9.36000000 1203722053 1203722053 -13.00000000
8.22127438 4.00623178 0.47929269 13 3 6402 9.15800000 1203722055 1203722055 3.00000000
2.89613795 1.41128969 -0.62623513 5 4 6402 3.28200000 1203722057 1203722057 -11.00000000
8.20909119 3.99852204 0.79886955 78 5 6403 9.16600000 1203722059 1203722059 5.00000000
3.65335727 1.77870524 -0.64357138 4 6 6404 4.11400000 1203722062 1203722062 -9.00000000
8.22503948 4.00273848 1.12314785 90 7 6405 9.21600000 1203722064 1203722064 7.00000000
4.93223000 2.39921880 -0.67344999 6 8 6406 5.52600000 1203722066 1203722066 -7.00000000
8.30164719 4.03643608 1.46203649 2 9 6407 9.34600000 1203722069 1203722069 9.00000000
7.56324482 3.67740941 -0.73576880 13 10 6407 8.44200000 1203722071 1203722071 -5.00000000
8.20101166 3.98396635 -0.47782728 17 12 6409 9.13000000 1203722076 1203722076 -3.00000000
8.27943993 4.02027988 2.12488770 70 13 6410 9.44600000 1203722078 1203722078 13.00000000
8.19621658 3.97810125 -0.15902632 16 14 6411 9.11200000 1203722080 1203722080 -1.00000000
7.93030882 3.84904075 2.36198258 45 15 6411 9.12600000 1203722082 1203722082 15.00000000
2.04522347 0.98914003 -0.60874242 4 0 6419 2.35200000 1203722103 1203722103 -15.00000000
8.20065498 3.96435142 0.15899143 21 1 6420 9.11000000 1203722106 1203722106 1.00000000
8.17660046 3.95096278 -2.09654379 8 2 6421 9.32000000 1203722108 1203722108 -13.00000000
8.21722412 3.96882319 0.47824597 10 3 6422 9.13800000 1203722110 1203722110 3.00000000
2.90811801 1.40458703 -0.62776160 5 4 6422 3.29000000 1203722112 1203722112 -11.00000000
8.21402740 3.96551156 0.79799795 75 5 6423 9.15600000 1203722115 1203722115 5.00000000
3.64531136 1.75907373 -0.64106846 6 6 6424 4.09800000 1203722117 1203722117 -9.00000000
8.21750641 3.96365452 1.12022305 92 7 6425 9.19200000 1203722119 1203722119 7.00000000
4.92626953 2.37509060 -0.67150009 6 8 6426 5.51000000 1203722122 1203722122 -7.00000000
7.57065058 3.64839149 -0.73524582 13 10 6427 8.43600000 1203722126 1203722126 -5.00000000
8.18787575 3.94231844 -0.47625721 17 12 6429 9.10000000 1203722131 1203722131 -3.00000000
8.27235126 3.98121357 2.11948872 75 13 6430 9.42200000 1203722133 1203722133 13.00000000
8.20464706 3.94686627 -0.15892161 18 14 6431 9.10600000 1203722135 1203722135 -1.00000000
