# .PCD v0.7 - Point Cloud Data file format
VERSION 0.7
FIELDS x y z intensity laser_id azimuth distance_m adjustedtime timestamp vertical_angle
SIZE 4 4 4 1 1 2 8 8 4 8
TYPE F F F U U U F U U F
COUNT 1 1 1 1 1 1 1 1 1 1
WIDTH 542
HEIGHT 1
VIEWPOINT 0 0 0 1 0 0 0
POINTS 542
DATA ascii
2.97810221 2.58700013 -0.62479925 8 6 4902 3.99400000 1632316721 1632316721 -9.00000000
3.02168131 2.62393117 0.49137720 7 7 4903 4.03200000 1632316724 1632316724 7.00000000
2.99815392 2.60258293 -0.48747736 8 8 4904 4.00000000 1632316726 1632316726 -7.00000000
3.01377153 2.61521769 0.63199526 8 9 4905 4.04000000 1632316728 1632316728 9.00000000
2.98856354 2.59334326 -0.34618261 8 10 4905 3.97200000 1632316731 1632316731 -5.00000000
3.01649284 2.61665654 0.77621096 60 11 4906 4.06800000 1632316733 1632316733 11.00000000
2.99073958 2.59340191 -0.20745973 8 12 4907 3.96400000 1632316735 1632316735 -3.00000000
3.01571393 2.61413646 0.92139953 58 13 4908 4.09600000 1632316737 1632316737 13.00000000
2.99982762 2.59944868 -0.06928606 9 14 4909 3.97000000 1632316740 1632316740 -1.00000000
3.01384616 2.61067533 1.06840503 72 15 4910 4.12800000 1632316742 1632316742 15.00000000
1.73654830 1.50053573 -0.61495405 4 0 4917 2.37600000 1632316763 1632316763 -15.00000000
2.99331403 2.58558321 0.06904172 6 1 4918 3.95600000 1632316765 1632316765 1.00000000
2.04577565 1.76648927 -0.62401420 3 2 4919 2.77400000 1632316767 1632316767 -13.00000000
3.00825810 2.59757495 0.20829710 6 3 4919 3.98000000 1632316770 1632316770 3.00000000
2.48636889 2.14617610 -0.63844693 4 4 4920 3.34600000 1632316772 1632316772 -11.00000000
3.01540375 2.60190845 0.34844866 6 5 4921 3.99800000 1632316774 1632316774 5.00000000
2.97215629 2.56368661 -0.62167054 8 6 4922 3.97400000 1632316777 1632316777 -9.00000000
3.02480865 2.60818219 0.49040225 7 7 4923 4.02400000 1632316779 1632316779 7.00000000
2.97113395 2.56099629 -0.48162764 16 8 4924 3.95200000 1632316781 1632316781 -7.00000000
3.02242732 2.60520935 0.63199526 8 9 4924 4.04000000 1632316784 1632316784 9.00000000
2.99156022 2.57769322 -0.34548536 6 10 4925 3.96400000 1632316786 1632316786 -5.00000000
3.01668334 2.59842324 0.77392131 62 11 4926 4.05600000 1632316788 1632316788 11.00000000
2.96496320 2.55297303 -0.20505227 5 12 4927 3.91800000 1632316790 1632316790 -3.00000000
3.01005077 2.59088087 0.91690052 56 13 4928 4.07600000 1632316793 1632316793 13.00000000
2.99675655 2.57852745 -0.06900682 4 14 4929 3.95400000 1632316795 1632316795 -1.00000000
3.02294064 2.60013914 1.06840503 72 15 4930 4.12800000 1632316797 1632316797 15.00000000
1.74324167 1.49572289 -0.61547166 4 0 4937 2.37800000 1632316818 1632316818 -15.00000000
2.98258901 2.55819440 0.06858796 11 1 4938 3.93000000 1632316820 1632316820 1.00000000
2.06376457 1.76948500 -0.62761343 3 2 4939 2.79000000 1632316823 1632316823 -13.00000000
2.97788477 2.55325770 0.20557563 6 3 4939 3.92800000 1632316825 1632316825 3.00000000
2.48788261 2.13237333 -0.63692045 4 4 4940 3.33800000 1632316827 1632316827 -11.00000000
3.01085091 2.57969999 0.34687987 10 5 4941 3.98000000 1632316830 1632316830 5.00000000
2.97808647 2.55072618 -0.62104481 8 6 4942 3.97000000 1632316832 1632316832 -9.00000000
3.00373650 2.57178664 0.48552746 9 7 4943 3.98400000 1632316834 1632316834 7.00000000
2.96044970 2.53382921 -0.47845903 24 8 4944 3.92600000 1632316837 1632316837 -7.00000000
3.01799607 2.58308291 0.62917942 8 9 4944 4.02200000 1632316839 1632316839 9.00000000
2.98237324 2.55169177 -0.34339362 34 10 4945 3.94000000 1632316841 1632316841 -5.00000000
3.02275109 2.58532524 0.77315807 64 11 4946 4.05200000 1632316843 1632316843 11.00000000
2.97233868 2.54130983 -0.20494761 21 12 4947 3.91600000 1632316846 1632316846 -3.00000000
3.01018810 2.57276130 0.91420108 56 13 4948 4.06400000 1632316848 1632316848 13.00000000
2.97685242 2.54337072 -0.06834362 21 14 4949 3.91600000 1632316850 1632316850 -1.00000000
3.02318454 2.58204365 1.06529915 72 15 4950 4.11600000 1632316853 1632316853 15.00000000
1.74257004 1.48461735 -0.61340111 4 0 4957 2.37000000 1632316873 1632316873 -15.00000000
2.99606776 2.55165744 0.06869267 22 1 4958 3.93600000 1632316876 1632316876 1.00000000
2.07289624 1.76479697 -0.62851322 3 2 4959 2.79400000 1632316878 1632316878 -13.00000000
2.99894524 2.55320525 0.20641302 27 3 4959 3.94400000 1632316880 1632316880 3.00000000
2.49381590 2.12240362 -0.63653880 5 4 4960 3.33600000 1632316883 1632316883 -11.00000000
3.01376724 2.56401014 0.34618261 19 5 4961 3.97200000 1632316885 1632316885 5.00000000
2.98697209 2.54031515 -0.62104481 8 6 4962 3.97000000 1632316887 1632316887 -9.00000000
3.00967050 2.55871439 0.48503998 17 7 4963 3.98000000 1632316889 1632316889 7.00000000
3.00893164 2.55718160 0.62542498 7 9 4964 3.99800000 1632316894 1632316894 9.00000000
3.02577138 2.56967473 0.77163160 68 11 4966 4.04400000 1632316899 1632316899 11.00000000
3.01320720 2.55719423 0.91240150 57 13 4968 4.05600000 1632316903 1632316903 13.00000000
3.01405263 2.55700707 1.05908751 68 15 4969 4.09200000 1632316908 1632316908 15.00000000
1.74036729 1.47228706 -0.61081296 4 0 4977 2.36000000 1632316929 1632316929 -15.00000000
2.08499670 1.76258278 -0.63031286 3 2 4979 2.80200000 1632316933 1632316933 -13.00000000
2.50570774 2.11748719 -0.63768369 5 4 4980 3.34200000 1632316938 1632316938 -11.00000000
2.97469211 2.51203036 -0.61666465 8 6 4982 3.94200000 1632316942 1632316942 -9.00000000
2.97654963 2.51181960 -0.47821531 7 8 4984 3.92400000 1632316947 1632316947 -7.00000000
3.01331067 2.54284096 0.62448639 9 9 4984 3.99200000 1632316949 1632316949 9.00000000
2.95747328 2.49483800 -0.33851290 4 10 4985 3.88400000 1632316952 1632316952 -5.00000000
3.02571774 2.55150318 0.76934189 40 11 4986 4.03200000 1632316954 1632316954 11.00000000
2.98084521 2.51277351 -0.20431957 1 12 4987 3.90400000 1632316956 1632316956 -3.00000000
3.01019335 2.53661466 0.90880227 21 13 4988 4.04000000 1632316959 1632316959 13.00000000
2.97924185 2.50964355 -0.06799457 1 14 4989 3.89600000 1632316961 1632316961 -1.00000000
3.01749325 2.54096532 1.05701697 32 15 4990 4.08400000 1632316963 1632316963 15.00000000
1.74523997 1.46650767 -0.61081296 4 0 4996 2.36000000 1632316984 1632316984 -15.00000000
2.97508717 2.49905038 0.06782005 4 1 4997 3.88600000 1632316986 1632316986 1.00000000
2.07590652 1.74312747 -0.62581384 3 2 4998 2.78200000 1632316989 1632316989 -13.00000000
2.99680996 2.51551342 0.20505227 3 3 4999 3.91800000 1632316991 1632316991 3.00000000
2.51121211 2.10790420 -0.63730204 5 4 4999 3.34000000 1632316993 1632316993 -11.00000000
2.99146724 2.51013899 0.34165052 4 5 5000 3.92000000 1632316995 1632316995 5.00000000
2.97846556 2.49834347 -0.61572605 10 6 5001 3.93600000 1632316998 1632316998 -9.00000000
3.01180625 2.52541447 0.48260260 4 7 5002 3.96000000 1632317000 1632317000 7.00000000
2.98486280 2.50193524 -0.47821531 5 8 5003 3.92400000 1632317002 1632317002 -7.00000000
3.02475405 2.53537250 0.62511212 11 9 5003 3.99600000 1632317005 1632317005 9.00000000
2.97947454 2.49653339 -0.34008172 10 10 5004 3.90200000 1632317007 1632317007 -5.00000000
3.02964711 2.53767371 0.76819700 12 11 5005 4.02600000 1632317009 1632317009 11.00000000
2.98150492 2.49646378 -0.20379621 12 12 5006 3.89400000 1632317012 1632317012 -3.00000000
3.02606034 2.53287244 0.91105175 10 13 5007 4.05000000 1632317014 1632317014 13.00000000
2.98448062 2.49718356 -0.06792477 11 14 5008 3.89200000 1632317016 1632317016 -1.00000000
3.02694273 2.53271270 1.05753458 12 15 5008 4.08600000 1632317019 1632317019 15.00000000
1.75924850 1.46783257 -0.61391878 4 0 5016 2.37200000 1632317039 1632317039 -15.00000000
2.98993516 2.49377346 0.06795967 4 1 5017 3.89400000 1632317042 1632317042 1.00000000
2.07599139 1.73087895 -0.62401420 3 2 5018 2.77400000 1632317044 1632317044 -13.00000000
3.01631212 2.51398849 0.20578498 6 3 5019 3.93200000 1632317046 1632317046 3.00000000
2.51553845 2.09661150 -0.63653880 5 4 5019 3.33600000 1632317048 1632317048 -11.00000000
3.00327253 2.50223231 0.34199914 4 5 5020 3.92400000 1632317051 1632317051 5.00000000
2.99931121 2.49804521 -0.61822903 8 6 5021 3.95200000 1632317053 1632317053 -9.00000000
3.01907754 2.51361585 0.48235887 4 7 5022 3.95800000 1632317055 1632317055 7.00000000
2.99968123 2.49658036 -0.47919026 1 8 5023 3.93200000 1632317058 1632317058 -7.00000000
3.03402638 2.52426910 0.62511212 13 9 5024 3.99600000 1632317060 1632317060 9.00000000
3.01114511 2.50523210 -0.34269637 2 10 5024 3.93200000 1632317062 1632317062 -5.00000000
3.03546786 2.52457213 0.76743376 10 11 5025 4.02200000 1632317065 1632317065 11.00000000
3.03937936 2.52603102 0.91240150 9 13 5027 4.05600000 1632317069 1632317069 13.00000000
3.03470826 2.52125335 -0.06886720 1 14 5028 3.94600000 1632317072 1632317072 -1.00000000
3.04660845 2.53024125 1.06115806 8 15 5029 4.10000000 1632317074 1632317074 15.00000000
1.77328742 1.46907735 -0.61702460 4 0 5036 2.38400000 1632317095 1632317095 -15.00000000
3.02942419 2.50883055 0.06865776 1 1 5037 3.93400000 1632317097 1632317097 1.00000000
2.08202076 1.72362185 -0.62401420 3 2 5038 2.77400000 1632317099 1632317099 -13.00000000
2.99891138 2.48179698 0.20400555 1 3 5039 3.89800000 1632317101 1632317101 3.00000000
2.51225424 2.07905626 -0.63386750 4 4 5039 3.32200000 1632317104 1632317104 -11.00000000
3.05036783 2.52348375 0.34635693 1 5 5040 3.97400000 1632317106 1632317106 5.00000000
3.01866865 2.49637246 -0.62041909 10 6 5041 3.96600000 1632317108 1632317108 -9.00000000
3.04160333 2.51444530 0.48455250 4 7 5042 3.97600000 1632317111 1632317111 7.00000000
3.01449847 2.49115252 -0.48016521 18 8 5043 3.94000000 1632317113 1632317113 -7.00000000
3.05760765 2.52677751 0.62824082 8 9 5043 4.01600000 1632317115 1632317115 9.00000000
3.01372743 2.48963046 -0.34199914 6 10 5044 3.92400000 1632317118 1632317118 -5.00000000
3.06394124 2.53021216 0.77239484 8 11 5045 4.04800000 1632317120 1632317120 11.00000000
3.00040102 2.47685981 -0.20390089 5 12 5046 3.89600000 1632317122 1632317122 -3.00000000
3.05569363 2.52160788 0.91465098 9 13 5047 4.06600000 1632317125 1632317125 13.00000000
3.02343726 2.49410248 -0.06841344 13 14 5048 3.92000000 1632317127 1632317127 -1.00000000
3.06392360 2.52750039 1.06426394 8 15 5048 4.11200000 1632317129 1632317129 15.00000000
1.76348519 1.45060599 -0.61184824 4 0 5056 2.36400000 1632317150 1632317150 -15.00000000
3.04279685 2.50205088 0.06876248 17 1 5057 3.94000000 1632317152 1632317152 1.00000000
2.10307884 1.72871816 -0.62851322 3 2 5058 2.79400000 1632317154 1632317154 -13.00000000
3.04459119 2.50174546 0.20651768 16 3 5059 3.94600000 1632317157 1632317157 3.00000000
2.52101302 2.07152057 -0.63424909 5 4 5059 3.32400000 1632317159 1632317159 -11.00000000
3.05453897 2.50902653 0.34583399 13 5 5060 3.96800000 1632317161 1632317161 5.00000000
3.05026412 2.50462365 -0.62511212 8 6 5061 3.99600000 1632317164 1632317164 -9.00000000
3.06263685 2.51388836 0.48650241 6 7 5062 3.99200000 1632317166 1632317166 7.00000000
3.04005647 2.49446583 -0.48284635 9 8 5063 3.96200000 1632317168 1632317168 -7.00000000
3.07295752 2.52056503 0.62949228 8 9 5064 4.02400000 1632317171 1632317171 9.00000000
3.04088521 2.49425793 -0.34409088 29 10 5064 3.94800000 1632317173 1632317173 -5.00000000
3.08186364 2.52697062 0.77468455 8 11 5065 4.06000000 1632317175 1632317175 11.00000000
3.03528810 2.48789501 -0.20568031 17 12 5066 3.93000000 1632317177 1632317177 -3.00000000
3.07502866 2.51957178 0.91780031 8 13 5067 4.08000000 1632317180 1632317180 13.00000000
3.03831291 2.48860192 -0.06855305 17 14 5068 3.92800000 1632317182 1632317182 -1.00000000
3.07914567 2.52114916 1.06633449 8 15 5069 4.12000000 1632317184 1632317184 15.00000000
1.77102530 1.44750381 -0.61288351 4 0 5074 2.36800000 1632317205 1632317205 -15.00000000
3.05528808 2.49627495 0.06886720 8 1 5075 3.94600000 1632317207 1632317207 1.00000000
2.10548067 1.71963727 -0.62761343 3 2 5076 2.79000000 1632317210 1632317210 -13.00000000
3.05862403 2.49722075 0.20693637 14 3 5077 3.95400000 1632317212 1632317212 3.00000000
2.53359151 2.06855679 -0.63577557 5 4 5077 3.33200000 1632317214 1632317214 -11.00000000
3.05160141 2.49059963 0.34461382 6 5 5078 3.95400000 1632317217 1632317217 5.00000000
3.06270933 2.49877501 -0.62605071 9 6 5079 4.00200000 1632317219 1632317219 -9.00000000
3.09205604 2.52181935 0.48991477 7 7 5080 4.02000000 1632317221 1632317221 7.00000000
3.07711053 2.50873590 -0.48747736 8 8 5081 4.00000000 1632317224 1632317224 -7.00000000
3.09113979 2.52017379 0.63168240 8 9 5081 4.03800000 1632317226 1632317226 9.00000000
3.06878376 2.50105572 -0.34635693 6 10 5082 3.97400000 1632317228 1632317228 -5.00000000
3.10044169 2.52595639 0.77735585 8 11 5083 4.07400000 1632317230 1632317230 11.00000000
3.08025646 2.50861716 -0.20819244 5 12 5084 3.97800000 1632317233 1632317233 -3.00000000
3.09199643 2.51728082 0.92049974 8 13 5085 4.09200000 1632317235 1632317235 13.00000000
3.08023763 2.50681376 -0.06932096 6 14 5086 3.97200000 1632317237 1632317237 -1.00000000
3.09710097 2.52053785 1.06995797 8 15 5086 4.13400000 1632317240 1632317240 15.00000000
1.77006698 1.43644369 -0.61081296 4 0 5094 2.36000000 1632317260 1632317260 -15.00000000
3.08727741 2.50449181 0.06939077 8 1 5095 3.97600000 1632317263 1632317263 1.00000000
2.10238910 1.70491266 -0.62491405 3 2 5096 2.77800000 1632317265 1632317265 -13.00000000
3.09369802 2.50791049 0.20871580 6 3 5097 3.98800000 1632317267 1632317267 3.00000000
2.54689717 2.06464553 -0.63730204 5 4 5097 3.34000000 1632317270 1632317270 -11.00000000
3.09897518 2.51129222 0.34897161 6 5 5098 4.00400000 1632317272 1632317272 5.00000000
3.08369255 2.49801612 -0.62855369 11 6 5099 4.01800000 1632317274 1632317274 -9.00000000
3.11472440 2.52225399 0.49210840 7 7 5100 4.03800000 1632317277 1632317277 7.00000000
3.09819245 2.50797153 -0.48942727 8 8 5101 4.01600000 1632317279 1632317279 -7.00000000
3.11264062 2.51876831 0.63418531 8 9 5102 4.05400000 1632317281 1632317281 9.00000000
3.08988595 2.50035477 -0.34775141 8 10 5102 3.99000000 1632317283 1632317283 -5.00000000
3.10924006 2.51511836 0.77735585 8 11 5103 4.07400000 1632317286 1632317286 11.00000000
3.10141873 2.50789642 -0.20902981 7 12 5104 3.99400000 1632317288 1632317288 -3.00000000
3.12198186 2.52362323 0.92679834 8 13 5105 4.12000000 1632317290 1632317290 13.00000000
3.09985685 2.50484419 -0.06956529 6 14 5106 3.98600000 1632317293 1632317293 -1.00000000
3.11984372 2.52009487 1.07461667 8 15 5107 4.15200000 1632317295 1632317295 15.00000000
1.78434694 1.43721735 -0.61391878 4 0 5115 2.37200000 1632317316 1632317316 -15.00000000
3.10422373 2.49943018 0.06956529 8 1 5116 3.98600000 1632317318 1632317318 1.00000000
2.10558748 1.69475174 -0.62401420 3 2 5117 2.77400000 1632317320 1632317320 -13.00000000
3.12309837 2.51283097 0.21007653 7 3 5118 4.01400000 1632317323 1632317323 3.00000000
2.55597687 2.05652761 -0.63768369 5 4 5118 3.34200000 1632317325 1632317325 -11.00000000
3.13299894 2.51989627 0.35176057 6 5 5119 4.03600000 1632317327 1632317327 5.00000000
3.10206437 2.49412370 -0.63043088 9 6 5120 4.03000000 1632317330 1632317330 -9.00000000
3.13168430 2.51703906 0.49332711 7 7 5121 4.04800000 1632317332 1632317332 7.00000000
3.11819625 2.50530243 -0.49113345 8 8 5122 4.03000000 1632317334 1632317334 -7.00000000
3.13989282 2.52273464 0.63793975 8 9 5122 4.07800000 1632317336 1632317336 9.00000000
3.11767006 2.50398469 -0.34984314 9 10 5123 4.01400000 1632317339 1632317339 -5.00000000
3.13221550 2.51476765 0.78079039 8 11 5124 4.09200000 1632317341 1632317341 11.00000000
3.11682034 2.50151277 -0.20944850 7 12 5125 4.00200000 1632317343 1632317343 -3.00000000
3.13729048 2.51704168 0.92859793 8 13 5126 4.12800000 1632317346 1632317346 13.00000000
3.13085628 2.51098132 -0.07005396 7 14 5127 4.01400000 1632317348 1632317348 -1.00000000
3.14519906 2.52248454 1.08031070 8 15 5127 4.17400000 1632317350 1632317350 15.00000000
1.79086161 1.43218660 -0.61443639 4 0 5135 2.37400000 1632317371 1632317371 -15.00000000
3.12854886 2.50106573 0.06991434 8 1 5136 4.00600000 1632317373 1632317373 1.00000000
2.10844588 1.68495846 -0.62311441 3 2 5137 2.77000000 1632317376 1632317376 -13.00000000
3.13965321 2.50814700 0.21059988 8 3 5138 4.02400000 1632317378 1632317378 3.00000000
2.55393648 2.04024076 -0.63539398 5 4 5138 3.33000000 1632317380 1632317380 -11.00000000
3.15734482 2.52137756 0.35350370 6 5 5139 4.05600000 1632317383 1632317383 5.00000000
3.12464571 2.49437189 -0.63324672 9 6 5140 4.04800000 1632317385 1632317385 -9.00000000
3.15286422 2.51599765 0.49527702 7 7 5141 4.06400000 1632317387 1632317387 7.00000000
3.13623333 2.50183010 -0.49259588 10 8 5142 4.04200000 1632317389 1632317389 -7.00000000
3.15066242 2.51244092 0.63825262 8 9 5143 4.08000000 1632317392 1632317392 9.00000000
3.14820004 2.51047730 -0.35228351 9 10 5143 4.04200000 1632317394 1632317394 -5.00000000
3.15939665 2.51850390 0.78536981 8 11 5144 4.11600000 1632317396 1632317396 11.00000000
3.13959122 2.50182009 -0.21039054 7 12 5145 4.02000000 1632317399 1632317399 -3.00000000
3.15672731 2.51457429 0.93174726 8 13 5146 4.14200000 1632317401 1632317401 13.00000000
3.15055227 2.50875711 -0.07029829 7 14 5147 4.02800000 1632317403 1632317403 -1.00000000
3.16198063 2.51695561 1.08289886 8 15 5148 4.18400000 1632317406 1632317406 15.00000000
1.79131114 1.42232275 -0.61288351 4 0 5155 2.36800000 1632317426 1632317426 -15.00000000
3.15762186 2.50629139 0.07036810 8 1 5156 4.03200000 1632317429 1632317429 1.00000000
2.12652707 1.68727839 -0.62671363 3 2 5157 2.78600000 1632317431 1632317431 -13.00000000
3.16403723 2.50958371 0.21164660 8 3 5158 4.04400000 1632317433 1632317433 3.00000000
2.55489016 2.02643347 -0.63386750 5 4 5158 3.32200000 1632317436 1632317436 -11.00000000
3.17237163 2.51529241 0.35420093 6 5 5159 4.06400000 1632317438 1632317438 5.00000000
3.14571834 2.49326563 -0.63574964 11 6 5160 4.06400000 1632317440 1632317440 -9.00000000
3.17563081 2.51607156 0.49747065 7 7 5161 4.08200000 1632317442 1632317442 7.00000000
3.15739632 2.50072742 -0.49454579 10 8 5162 4.05800000 1632317445 1632317445 -7.00000000
3.16981626 2.51056433 0.64044273 8 9 5162 4.09400000 1632317447 1632317447 9.00000000
3.16163039 2.50318313 -0.35280645 9 10 5163 4.04800000 1632317449 1632317449 -5.00000000
3.18818140 2.52329946 0.79033089 8 11 5164 4.14200000 1632317452 1632317452 11.00000000
3.16396809 2.50323772 -0.21143727 7 12 5165 4.04000000 1632317454 1632317454 -3.00000000
3.17771339 2.51321077 0.93534648 8 13 5166 4.15800000 1632317456 1632317456 13.00000000
3.17183971 2.50766587 -0.07057753 7 14 5167 4.04400000 1632317459 1632317459 -1.00000000
3.19455671 2.52562594 1.09118104 8 15 5167 4.21600000 1632317461 1632317461 15.00000000
1.78716242 1.40888524 -0.60977769 4 0 5175 2.35600000 1632317482 1632317482 -15.00000000
3.16792178 2.49649167 0.07040301 7 1 5176 4.03400000 1632317484 1632317484 1.00000000
2.13852715 1.68466878 -0.62851322 3 2 5177 2.79400000 1632317486 1632317486 -13.00000000
3.19003844 2.51211619 0.21279800 7 3 5178 4.06600000 1632317489 1632317489 3.00000000
2.55886340 2.01507354 -0.63310426 5 4 5178 3.31800000 1632317491 1632317491 -11.00000000
3.18895984 2.51036525 0.35507250 6 5 5179 4.07400000 1632317493 1632317493 5.00000000
3.16526890 2.49082112 -0.63793975 9 6 5180 4.07800000 1632317495 1632317495 -9.00000000
3.20935750 2.52460837 0.50137049 7 7 5181 4.11400000 1632317498 1632317498 7.00000000
3.18795204 2.50686955 -0.49795812 10 8 5182 4.08600000 1632317500 1632317500 -7.00000000
3.19874668 2.51535797 0.64450997 8 9 5182 4.12000000 1632317502 1632317502 9.00000000
3.17348146 2.49459434 -0.35315508 9 10 5183 4.05200000 1632317505 1632317505 -5.00000000
3.20468831 2.51822042 0.79223895 8 11 5184 4.15200000 1632317507 1632317507 11.00000000
3.19310522 2.50821710 -0.21279800 7 12 5185 4.06600000 1632317509 1632317509 -3.00000000
3.20945716 2.52015591 0.94209504 8 13 5186 4.18800000 1632317512 1632317512 13.00000000
3.19315767 2.50645638 -0.07085677 7 14 5187 4.06000000 1632317514 1632317514 -1.00000000
3.19727492 2.50968814 1.08911049 8 15 5187 4.20800000 1632317516 1632317516 15.00000000
1.79511201 1.40501964 -0.61081296 4 0 5195 2.36000000 1632317537 1632317537 -15.00000000
3.19551587 2.50020528 0.07082187 7 1 5196 4.05800000 1632317539 1632317539 1.00000000
2.13518476 1.66999030 -0.62581384 3 2 5197 2.78200000 1632317542 1632317542 -13.00000000
3.21452212 2.51326752 0.21384472 7 3 5198 4.08600000 1632317544 1632317544 3.00000000
2.57670808 2.01459384 -0.63577557 5 4 5198 3.33200000 1632317546 1632317546 -11.00000000
3.21340132 2.51148772 0.35681561 6 5 5199 4.09400000 1632317548 1632317548 5.00000000
3.18017077 2.48462176 -0.63919121 9 6 5200 4.08600000 1632317551 1632317551 -9.00000000
3.22127938 2.51583409 0.50185794 7 7 5201 4.11800000 1632317553 1632317553 7.00000000
3.21076560 2.50672054 -0.50015181 10 8 5202 4.10400000 1632317555 1632317555 -7.00000000
3.22351718 2.51577067 0.64763868 8 9 5203 4.14000000 1632317558 1632317558 9.00000000
3.19787669 2.49575973 -0.35489818 9 10 5203 4.07200000 1632317560 1632317560 -5.00000000
3.22274661 2.51426435 0.79452866 8 11 5204 4.16400000 1632317562 1632317562 11.00000000
3.20341587 2.49828386 -0.21290267 7 12 5205 4.06800000 1632317565 1632317565 -3.00000000
3.23360348 2.52091908 0.94659406 9 13 5206 4.20800000 1632317567 1632317567 13.00000000
3.21292830 2.50389934 -0.07110111 7 14 5207 4.07400000 1632317569 1632317569 -1.00000000
3.23039627 2.51751256 1.09739280 8 15 5207 4.24000000 1632317571 1632317571 15.00000000
1.80610728 1.40348649 -0.61288351 4 0 5215 2.36800000 1632317592 1632317592 -15.00000000
3.22001600 2.50130296 0.07117091 7 1 5216 4.07800000 1632317595 1632317595 1.00000000
2.13484430 1.65774608 -0.62401420 3 2 5217 2.77400000 1632317597 1632317597 -13.00000000
3.23905277 2.51427817 0.21489143 7 3 5218 4.10600000 1632317599 1632317599 3.00000000
2.58217382 2.00438333 -0.63539398 5 4 5218 3.33000000 1632317601 1632317601 -11.00000000
3.24261165 2.51613402 0.35908166 6 5 5219 4.12000000 1632317604 1632317604 5.00000000
3.20443273 2.48561287 -0.64231992 9 6 5220 4.10600000 1632317606 1632317606 -9.00000000
3.24259162 2.51430559 0.50380784 7 7 5221 4.13400000 1632317608 1632317608 7.00000000
3.22890997 2.50279450 -0.50161421 10 8 5222 4.11600000 1632317611 1632317611 -7.00000000
3.24789405 2.51660204 0.65076739 8 9 5223 4.16000000 1632317613 1632317613 9.00000000
3.22231841 2.49678516 -0.35664129 9 10 5223 4.09200000 1632317615 1632317615 -5.00000000
3.24236822 2.51141500 0.79719996 8 11 5224 4.17800000 1632317618 1632317618 11.00000000
3.22001314 2.49320054 -0.21342602 7 12 5225 4.07800000 1632317620 1632317620 -3.00000000
3.25625277 2.52035141 0.95064318 8 13 5226 4.22600000 1632317622 1632317622 13.00000000
3.24062777 2.50735331 -0.07151996 7 14 5227 4.09800000 1632317624 1632317624 -1.00000000
3.26405144 2.52456617 1.10567498 8 15 5228 4.27200000 1632317627 1632317627 15.00000000
1.81381011 1.39985013 -0.61391878 4 0 5234 2.37200000 1632317648 1632317648 -15.00000000
3.24412560 2.50282598 0.07151996 7 1 5235 4.09800000 1632317650 1632317650 1.00000000
2.14650249 1.65541792 -0.62581384 3 2 5236 2.78200000 1632317652 1632317652 -13.00000000
3.25053620 2.50596213 0.21510078 7 3 5237 4.11000000 1632317654 1632317654 3.00000000
2.58880639 1.99580956 -0.63539398 5 4 5237 3.33000000 1632317657 1632317657 -11.00000000
3.26987505 2.51996160 0.36117339 6 5 5238 4.14400000 1632317659 1632317659 5.00000000
3.21735239 2.47858953 -0.64325851 9 6 5239 4.11200000 1632317661 1632317661 -9.00000000
3.26978493 2.51807332 0.50673270 7 7 5240 4.15800000 1632317664 1632317664 7.00000000
3.24505663 2.49812794 -0.50283289 8 8 5241 4.12600000 1632317666 1632317666 -7.00000000
3.27344179 2.51906991 0.65420896 8 9 5242 4.18200000 1632317668 1632317668 9.00000000
3.25742269 2.50674224 -0.35960460 9 10 5242 4.12600000 1632317671 1632317671 -5.00000000
3.26468325 2.51142263 0.80063456 8 11 5243 4.19600000 1632317673 1632317673 11.00000000
3.24726224 2.49711895 -0.21468209 7 12 5244 4.10200000 1632317675 1632317675 -3.00000000
3.26922774 2.51310253 0.95199287 9 13 5245 4.23200000 1632317677 1632317677 13.00000000
3.25685263 2.50268531 -0.07169449 7 14 5246 4.10800000 1632317680 1632317680 -1.00000000
3.28422117 2.52371621 1.10981607 8 15 5246 4.28800000 1632317682 1632317682 15.00000000
1.81868553 1.39351022 -0.61391878 4 0 5254 2.37200000 1632317703 1632317703 -15.00000000
3.27665520 2.50972605 0.07204353 7 1 5255 4.12800000 1632317705 1632317705 1.00000000
2.15845704 1.65265393 -0.62761343 3 2 5256 2.79000000 1632317707 1632317707 -13.00000000
3.28305387 2.51280928 0.21667086 7 3 5257 4.14000000 1632317710 1632317710 3.00000000
2.58328509 1.97721481 -0.63234103 6 4 5257 3.31400000 1632317712 1632317712 -11.00000000
3.28498101 2.51337504 0.36187065 6 5 5258 4.15200000 1632317714 1632317714 5.00000000
3.24010611 2.47814441 -0.64607435 9 6 5259 4.13000000 1632317717 1632317717 -9.00000000
3.30063248 2.52352405 0.51014507 7 7 5260 4.18600000 1632317719 1632317719 7.00000000
3.26952887 2.49883938 -0.50527030 8 8 5261 4.14600000 1632317721 1632317721 -7.00000000
3.28378487 2.50882721 0.65452182 8 9 5262 4.18400000 1632317724 1632317724 9.00000000
3.26931953 2.49777579 -0.35995322 9 10 5262 4.13000000 1632317726 1632317726 -5.00000000
3.29839420 2.51907730 0.80674040 8 11 5263 4.22800000 1632317728 1632317728 11.00000000
3.26548409 2.49304056 -0.21531013 7 12 5264 4.11400000 1632317730 1632317730 -3.00000000
3.29966807 2.51822710 0.95829147 8 13 5265 4.26000000 1632317733 1632317733 13.00000000
3.26874852 2.49372745 -0.07176430 7 14 5266 4.11200000 1632317735 1632317735 -1.00000000
3.30376196 2.52043915 1.11343956 8 15 5266 4.30200000 1632317737 1632317737 15.00000000
1.81407237 1.38045239 -0.61081296 4 0 5273 2.36000000 1632317758 1632317758 -15.00000000
3.28814292 2.50126767 0.07211334 7 1 5274 4.13200000 1632317760 1632317760 1.00000000
2.16702795 1.64784622 -0.62851322 3 2 5275 2.79400000 1632317763 1632317763 -13.00000000
3.30206084 2.51094532 0.21740356 7 3 5275 4.15400000 1632317765 1632317765 3.00000000
2.60233140 1.97814202 -0.63539398 5 4 5276 3.33000000 1632317767 1632317767 -11.00000000
3.30598855 2.51211119 0.36326513 7 5 5277 4.16800000 1632317770 1632317770 5.00000000
3.25617146 2.47336054 -0.64763868 9 6 5278 4.14000000 1632317772 1632317772 -9.00000000
3.32004952 2.52096820 0.51185125 7 7 5279 4.20000000 1632317774 1632317774 7.00000000
3.30309629 2.50718665 -0.50917011 8 8 5280 4.17800000 1632317776 1632317776 -7.00000000
3.31053162 2.51283026 0.65827620 8 9 5280 4.20800000 1632317779 1632317779 9.00000000
3.28869486 2.49535084 -0.36117339 9 10 5281 4.14400000 1632317781 1632317781 -5.00000000
3.32393575 2.52117634 0.81093824 8 11 5282 4.25000000 1632317783 1632317783 11.00000000
3.29601431 2.49909210 -0.21677554 7 12 5283 4.14200000 1632317786 1632317786 -3.00000000
3.32508421 2.52021956 0.96324039 8 13 5284 4.28200000 1632317788 1632317788 13.00000000
3.29772043 2.49857330 -0.07221806 7 14 5285 4.13800000 1632317790 1632317790 -1.00000000
3.32749987 2.52113605 1.11861587 8 15 5285 4.32200000 1632317793 1632317793 15.00000000
1.82504570 1.37876964 -0.61288351 4 0 5293 2.36800000 1632317813 1632317813 -15.00000000
3.30323696 2.49459529 0.07225296 7 1 5294 4.14000000 1632317816 1632317816 1.00000000
2.16965604 1.63792360 -0.62761343 3 2 5295 2.79000000 1632317818 1632317818 -13.00000000
3.33196688 2.51446605 0.21876429 7 3 5296 4.18000000 1632317820 1632317820 3.00000000
2.60608625 1.96668088 -0.63463074 6 4 5296 3.32600000 1632317823 1632317823 -11.00000000
3.32746172 2.51015496 0.36465964 7 5 5297 4.18400000 1632317825 1632317825 5.00000000
3.26163077 2.45960069 -0.64701295 9 6 5298 4.13600000 1632317827 1632317827 -9.00000000
3.34468055 2.52131295 0.51428860 7 7 5299 4.22000000 1632317829 1632317829 7.00000000
3.32768154 2.50758791 -0.51160753 8 8 5300 4.19800000 1632317832 1632317832 -7.00000000
3.33707547 2.51375365 0.66171777 8 9 5301 4.23000000 1632317834 1632317834 9.00000000
3.31489062 2.49704242 -0.36309081 9 10 5301 4.16600000 1632317836 1632317836 -5.00000000
3.34526277 2.51900601 0.81399119 8 11 5302 4.26600000 1632317839 1632317839 11.00000000
3.32386637 2.50198531 -0.21803160 7 12 5303 4.16600000 1632317841 1632317841 -3.00000000
3.34320426 2.51562762 0.96593982 8 13 5304 4.29400000 1632317843 1632317843 13.00000000
3.32559896 2.50147152 -0.07263692 7 14 5305 4.16200000 1632317846 1632317846 -1.00000000
3.34598231 2.51588917 1.12172174 8 15 5306 4.33400000 1632317848 1632317848 15.00000000
1.83936107 1.37902439 -0.61598933 4 0 5314 2.38000000 1632317869 1632317869 -15.00000000
3.33155990 2.49686265 0.07267182 7 1 5315 4.16400000 1632317871 1632317871 1.00000000
2.16628718 1.62294984 -0.62491405 4 2 5316 2.77800000 1632317873 1632317873 -13.00000000
3.34711742 2.50761008 0.21918298 7 3 5316 4.18800000 1632317876 1632317876 3.00000000
2.61327696 1.95711589 -0.63463074 5 4 5317 3.32600000 1632317878 1632317878 -11.00000000
3.35099411 2.50868869 0.36622843 7 5 5318 4.20200000 1632317880 1632317880 5.00000000
3.27378678 2.44999671 -0.64763868 11 6 5319 4.14000000 1632317882 1632317882 -9.00000000
3.36343646 2.51617193 0.51575106 7 7 5320 4.23200000 1632317885 1632317885 7.00000000
3.34638834 2.50250745 -0.51306993 8 8 5321 4.21000000 1632317887 1632317887 -7.00000000
3.36999869 2.51924706 0.66641080 8 9 5322 4.26000000 1632317889 1632317889 9.00000000
3.34955311 2.50396276 -0.36587980 9 10 5322 4.19800000 1632317892 1632317892 -5.00000000
3.36705422 2.51612973 0.81704414 8 11 5323 4.28200000 1632317894 1632317894 11.00000000
3.34901524 2.50173879 -0.21907832 8 12 5324 4.18600000 1632317896 1632317896 -3.00000000
3.36957765 2.51618314 0.97088873 8 13 5325 4.31600000 1632317899 1632317899 13.00000000
3.35557699 2.50481606 -0.07309068 7 14 5326 4.18800000 1632317901 1632317901 -1.00000000
3.37177324 2.51690602 1.12741578 8 15 5326 4.35600000 1632317903 1632317903 15.00000000
1.84416354 1.37259543 -0.61598933 4 0 5334 2.38000000 1632317924 1632317924 -15.00000000
3.36592484 2.50431681 0.07323030 7 1 5335 4.19600000 1632317926 1632317926 1.00000000
2.17193913 1.61537826 -0.62491405 3 2 5336 2.77800000 1632317928 1632317928 -13.00000000
3.36546588 2.50306273 0.21981102 7 3 5336 4.20000000 1632317931 1632317931 3.00000000
2.61851716 1.94681060 -0.63424909 5 4 5337 3.32400000 1632317933 1632317933 -11.00000000
3.38051915 2.51242638 0.36849448 7 5 5338 4.22800000 1632317935 1632317935 5.00000000
3.28549027 2.44091034 -0.64826441 9 6 5339 4.14400000 1632317938 1632317938 -9.00000000
3.39132285 2.51861858 0.51867592 7 7 5340 4.25600000 1632317940 1632317940 7.00000000
3.36147881 2.49554443 -0.51404488 8 8 5341 4.21800000 1632317942 1632317942 -7.00000000
3.38353086 2.51099968 0.66734940 8 9 5342 4.26600000 1632317945 1632317945 9.00000000
3.37587261 2.50531626 -0.36779723 9 10 5342 4.22000000 1632317947 1632317947 -5.00000000
3.38685393 2.51254916 0.81971544 8 11 5343 4.29600000 1632317949 1632317949 11.00000000
3.37216592 2.50074077 -0.22002035 8 12 5344 4.20400000 1632317952 1632317952 -3.00000000
3.38460231 2.50904775 0.97268838 8 13 5345 4.32400000 1632317954 1632317954 13.00000000
3.38036656 2.50499368 -0.07343972 7 14 5346 4.20800000 1632317956 1632317956 -1.00000000
3.39916372 2.51892328 1.13362741 8 15 5346 4.38000000 1632317958 1632317958 15.00000000
1.84404445 1.36302745 -0.61443639 4 0 5353 2.37400000 1632317979 1632317979 -15.00000000
3.39029408 2.50502467 0.07357935 7 1 5354 4.21600000 1632317981 1632317981 1.00000000
2.17728400 1.60816693 -0.62491405 3 2 5355 2.77800000 1632317984 1632317984 -13.00000000
3.39346361 2.50553584 0.22106709 7 3 5356 4.22400000 1632317986 1632317986 3.00000000
2.62179995 1.93578434 -0.63348585 9 4 5356 3.32000000 1632317988 1632317988 -11.00000000
3.40005326 2.50948453 0.36971465 7 5 5357 4.24200000 1632317991 1632317991 5.00000000
3.30151439 2.43586564 -0.64982879 9 6 5358 4.15400000 1632317993 1632317993 -9.00000000
3.41243696 2.51678491 0.52062583 7 7 5359 4.27200000 1632317995 1632317995 7.00000000
3.38890934 2.49851942 -0.51696974 8 8 5360 4.24200000 1632317998 1632317998 -7.00000000
3.40253234 2.50856328 0.66953951 8 9 5360 4.28000000 1632318000 1632318000 9.00000000
3.39378500 2.50119996 -0.36884311 9 10 5361 4.23200000 1632318002 1632318002 -5.00000000
3.41729569 2.51760697 0.82505810 8 11 5362 4.32400000 1632318005 1632318005 11.00000000
3.39652228 2.50138807 -0.22106709 8 12 5363 4.22400000 1632318007 1632318007 -3.00000000
3.41487479 2.51398468 0.97898698 8 13 5364 4.35200000 1632318009 1632318009 13.00000000
3.39992881 2.50206685 -0.07368406 7 14 5365 4.22200000 1632318011 1632318011 -1.00000000
3.41260409 2.51047683 1.13518035 8 15 5366 4.38600000 1632318014 1632318014 15.00000000
1.83944583 1.34972513 -0.61133057 3 0 5373 2.36200000 1632318034 1632318034 -15.00000000
3.40224242 2.49554062 0.07364915 7 1 5374 4.22000000 1632318037 1632318037 1.00000000
2.19231367 1.60747087 -0.62761343 3 2 5375 2.79000000 1632318039 1632318039 -13.00000000
3.42269254 2.50962186 0.22242782 7 3 5375 4.25000000 1632318041 1632318041 3.00000000
2.63012457 1.92778134 -0.63386750 5 4 5376 3.32200000 1632318044 1632318044 -11.00000000
3.42164969 2.50702119 0.37110916 7 5 5377 4.25800000 1632318046 1632318046 5.00000000
3.31955886 2.43132973 -0.65170598 9 6 5378 4.16600000 1632318048 1632318048 -9.00000000
3.43881989 2.51775765 0.52330697 7 7 5379 4.29400000 1632318051 1632318051 7.00000000
3.41202712 2.49722648 -0.51916343 8 8 5380 4.26000000 1632318053 1632318053 -7.00000000
3.43561769 2.51357126 0.67423254 8 9 5381 4.31000000 1632318055 1632318055 9.00000000
3.40088725 2.48816180 -0.36866879 9 10 5381 4.23000000 1632318058 1632318058 -5.00000000
3.44032502 2.51609373 0.82849264 8 11 5382 4.34200000 1632318060 1632318060 11.00000000
3.41974401 2.50012541 -0.22200912 8 12 5383 4.24200000 1632318062 1632318062 -3.00000000
3.44722962 2.51929688 0.98573554 9 13 5384 4.38200000 1632318064 1632318064 13.00000000
3.42317438 2.50080037 -0.07399821 7 14 5385 4.24000000 1632318067 1632318067 -1.00000000
3.43538761 2.50880337 1.13983905 8 15 5386 4.40400000 1632318069 1632318069 15.00000000
1.84883058 1.34670830 -0.61288351 4 0 5393 2.36800000 1632318090 1632318090 -15.00000000
3.42871475 2.49659729 0.07403311 7 1 5394 4.24200000 1632318092 1632318092 1.00000000
2.20106244 1.60210204 -0.62851322 3 2 5395 2.79400000 1632318094 1632318094 -13.00000000
3.45242405 2.51293898 0.22378854 7 3 5395 4.27600000 1632318097 1632318097 3.00000000
2.64318776 1.92320907 -0.63539398 5 4 5396 3.33000000 1632318099 1632318099 -11.00000000
3.45293760 2.51146936 0.37354952 7 5 5397 4.28600000 1632318101 1632318101 5.00000000
3.30885315 2.40578771 -0.64795154 9 6 5398 4.14200000 1632318104 1632318104 -9.00000000
3.46203947 2.51624227 0.52550060 7 7 5399 4.31200000 1632318106 1632318106 7.00000000
3.43517709 2.49580216 -0.52135706 8 8 5400 4.27800000 1632318108 1632318108 -7.00000000
3.46311164 2.51609778 0.67798698 8 9 5400 4.33400000 1632318111 1632318111 9.00000000
3.42567277 2.48798347 -0.37041190 9 10 5401 4.25000000 1632318113 1632318113 -5.00000000
3.45703053 2.50983644 0.83040076 8 11 5402 4.35200000 1632318115 1632318115 11.00000000
3.43814874 2.49521184 -0.22263716 8 12 5403 4.25400000 1632318117 1632318117 -3.00000000
3.46704435 2.51525879 0.98888481 8 13 5404 4.39600000 1632318120 1632318120 13.00000000
3.45130849 2.50292373 -0.07441706 7 14 5405 4.26400000 1632318122 1632318122 -1.00000000
3.46758556 2.51380444 1.14760363 8 15 5406 4.43400000 1632318124 1632318124 15.00000000
1.85038936 1.33798254 -0.61184824 3 0 5413 2.36400000 1632318145 1632318145 -15.00000000
3.45361519 2.49632788 0.07438216 7 1 5414 4.26200000 1632318147 1632318147 1.00000000
2.19084597 1.58299613 -0.62401420 3 2 5415 2.77400000 1632318150 1632318150 -13.00000000
3.47088814 2.50789094 0.22441658 7 3 5415 4.28800000 1632318152 1632318152 3.00000000
2.64511037 1.91052234 -0.63424909 5 4 5416 3.32400000 1632318154 1632318154 -11.00000000
3.47945213 2.51223040 0.37546694 7 5 5417 4.30800000 1632318157 1632318157 5.00000000
3.32043409 2.39653516 -0.64857727 9 6 5418 4.14600000 1632318159 1632318159 -9.00000000
3.48207068 2.51227260 0.52720678 7 7 5419 4.32600000 1632318161 1632318161 7.00000000
3.45996857 2.49540806 -0.52379441 8 8 5420 4.29800000 1632318164 1632318164 -7.00000000
3.48308825 2.51208258 0.68017703 8 9 5420 4.34800000 1632318166 1632318166 9.00000000
3.45696259 2.49232316 -0.37285227 9 10 5421 4.27800000 1632318168 1632318168 -5.00000000
3.48647571 2.51267600 0.83536178 8 11 5422 4.37800000 1632318170 1632318170 11.00000000
3.45656085 2.49020004 -0.22326519 8 12 5423 4.26600000 1632318173 1632318173 -3.00000000
3.49477911 2.51680708 0.99428368 9 13 5424 4.42000000 1632318175 1632318175 13.00000000
3.47625351 2.50254440 -0.07476611 7 14 5425 4.28400000 1632318177 1632318177 -1.00000000
3.50456381 2.52199650 1.15692115 8 15 5426 4.47000000 1632318180 1632318180 15.00000000
1.87341177 1.34568727 -0.61805987 4 0 5431 2.38800000 1632318200 1632318200 -15.00000000
3.48093247 2.49946189 0.07480101 7 1 5432 4.28600000 1632318203 1632318203 1.00000000
2.19897437 1.57837820 -0.62491405 3 2 5433 2.77800000 1632318205 1632318205 -13.00000000
3.49497533 2.50862074 0.22546330 7 3 5433 4.30800000 1632318207 1632318207 3.00000000
2.64312363 1.89648044 -0.63234103 5 4 5434 3.31400000 1632318210 1632318210 -11.00000000
3.50837421 2.51638317 0.37773299 7 5 5435 4.33400000 1632318212 1632318212 5.00000000
3.34400058 2.39760208 -0.65170598 9 6 5436 4.16600000 1632318214 1632318214 -9.00000000
3.50608063 2.51288509 0.52964419 7 7 5437 4.34600000 1632318216 1632318216 7.00000000
3.48070049 2.49377489 -0.52574432 8 8 5438 4.31400000 1632318219 1632318219 -7.00000000
3.50862670 2.51378298 0.68361861 8 9 5438 4.37000000 1632318221 1632318221 9.00000000
3.49069238 2.50001192 -0.37564126 10 10 5439 4.31000000 1632318223 1632318223 -5.00000000
3.51031566 2.51313925 0.83917797 8 11 5440 4.39800000 1632318226 1632318226 11.00000000
3.48548126 2.49443936 -0.22462593 8 12 5441 4.29200000 1632318228 1632318228 -3.00000000
3.50583863 2.50808334 0.99518347 9 13 5442 4.42400000 1632318230 1632318230 13.00000000
3.49711061 2.50091672 -0.07504535 7 14 5443 4.30000000 1632318233 1632318233 -1.00000000
3.52145958 2.51832962 1.16002691 8 15 5443 4.48200000 1632318235 1632318235 15.00000000
1.85922241 1.32568085 -0.61184824 4 0 5451 2.36400000 1632318256 1632318256 -15.00000000
3.51243353 2.50354505 0.07528968 7 1 5452 4.31400000 1632318258 1632318258 1.00000000
2.21081901 1.57521594 -0.62671363 3 2 5453 2.78600000 1632318260 1632318260 -13.00000000
3.51672363 2.50567746 0.22630067 7 3 5453 4.32400000 1632318263 1632318263 3.00000000
2.64812851 1.88610363 -0.63195938 5 4 5454 3.31200000 1632318265 1632318265 -11.00000000
3.52200580 2.50758791 0.37825593 7 5 5455 4.34000000 1632318267 1632318267 5.00000000
3.34591174 2.38133311 -0.65045452 9 6 5456 4.15800000 1632318269 1632318269 -9.00000000
3.53424096 2.51444054 0.53256905 7 7 5457 4.37000000 1632318272 1632318272 7.00000000
3.50556111 2.49311471 -0.52818173 8 8 5458 4.33400000 1632318274 1632318274 -7.00000000
3.53347778 2.51296878 0.68674731 8 9 5458 4.39000000 1632318276 1632318276 9.00000000
3.50914097 2.49473858 -0.37668711 10 10 5459 4.32200000 1632318279 1632318279 -5.00000000
3.54627180 2.52020431 0.84566545 8 11 5460 4.43200000 1632318281 1632318281 11.00000000
3.50556469 2.49035454 -0.22535862 8 12 5461 4.30600000 1632318283 1632318283 -3.00000000
3.54158282 2.51501179 1.00283182 8 13 5462 4.45800000 1632318286 1632318286 13.00000000
3.50418854 2.48753691 -0.07501044 7 14 5463 4.29800000 1632318288 1632318288 -1.00000000
3.54011893 2.51211381 1.16313279 8 15 5464 4.49400000 1632318290 1632318290 15.00000000
1.86068487 1.31695080 -0.61081296 4 0 5471 2.36000000 1632318311 1632318311 -15.00000000
3.53094578 2.49819899 0.07549911 7 1 5472 4.32600000 1632318313 1632318313 1.00000000
2.21630406 1.56748915 -0.62671363 3 2 5473 2.78600000 1632318316 1632318316 -13.00000000
3.54871559 2.50891304 0.22776608 7 3 5474 4.35200000 1632318318 1632318318 3.00000000
2.65790224 1.87911522 -0.63272262 5 4 5474 3.31600000 1632318320 1632318320 -11.00000000
3.54538107 2.50562763 0.37982473 7 5 5475 4.35800000 1632318322 1632318322 5.00000000
3.34129691 2.36052084 -0.64795154 9 6 5476 4.14200000 1632318325 1632318325 -9.00000000
3.57056212 2.52155542 0.53671259 7 7 5477 4.40400000 1632318327 1632318327 7.00000000
3.54343319 2.50146985 -0.53256905 8 8 5478 4.37000000 1632318329 1632318329 -7.00000000
3.55352473 2.50859404 0.68893737 8 9 5478 4.40400000 1632318332 1632318332 9.00000000
3.52759504 2.48936677 -0.37773299 10 10 5479 4.33400000 1632318334 1632318334 -5.00000000
3.57750702 2.52365375 0.85100812 9 11 5480 4.46000000 1632318336 1632318336 11.00000000
3.54361677 2.49882054 -0.22724272 8 12 5481 4.34200000 1632318339 1632318339 -3.00000000
3.56626821 2.51386166 1.00733078 8 13 5482 4.47800000 1632318341 1632318341 13.00000000
3.54881263 2.50063014 -0.07577835 7 14 5483 4.34200000 1632318343 1632318343 -1.00000000
3.56738019 2.51371360 1.16934443 8 15 5483 4.51800000 1632318346 1632318346 15.00000000
1.87159348 1.31489003 -0.61288351 4 0 5491 2.36800000 1632318366 1632318366 -15.00000000
3.55109978 2.49390340 0.07574344 7 1 5492 4.34000000 1632318369 1632318369 1.00000000
2.21857214 1.55750394 -0.62581384 3 2 5493 2.78200000 1632318371 1632318371 -13.00000000
3.57707000 2.51027799 0.22902215 7 3 5494 4.37600000 1632318373 1632318373 3.00000000
2.66444540 1.86982596 -0.63272262 5 4 5494 3.31600000 1632318375 1632318375 -11.00000000
3.56715441 2.50239038 0.38121921 7 5 5495 4.37400000 1632318378 1632318378 5.00000000
3.34628153 2.34657478 -0.64732581 9 6 5496 4.13800000 1632318380 1632318380 -9.00000000
3.57934237 2.50907636 0.53671259 7 7 5497 4.40400000 1632318382 1632318382 7.00000000
3.57165170 2.50275588 -0.53549391 8 8 5498 4.39400000 1632318385 1632318385 -7.00000000
3.58211040 2.50915265 0.69269180 8 9 5499 4.42800000 1632318387 1632318387 9.00000000
3.55910921 2.49304104 -0.38017336 10 10 5499 4.36200000 1632318389 1632318389 -5.00000000
3.59272742 2.51565480 0.85253459 9 11 5500 4.46800000 1632318392 1632318392 11.00000000
3.56377149 2.49445295 -0.22797543 8 12 5501 4.35600000 1632318394 1632318394 -3.00000000
3.59737539 2.51703835 1.01362944 8 13 5502 4.50600000 1632318396 1632318396 13.00000000
3.57554507 2.50083447 -0.07616230 7 14 5503 4.36400000 1632318399 1632318399 -1.00000000
3.59240198 2.51169109 1.17452085 8 15 5504 4.53800000 1632318401 1632318401 15.00000000
1.87934113 1.31055892 -0.61391878 4 0 5511 2.37200000 1632318422 1632318422 -15.00000000
3.58603072 2.49978924 0.07630192 7 1 5512 4.37200000 1632318424 1632318424 1.00000000
2.21440244 1.54306543 -0.62311441 3 2 5513 2.77000000 1632318426 1632318426 -13.00000000
3.59400487 2.50348425 0.22954550 7 3 5514 4.38600000 1632318428 1632318428 3.00000000
2.67417789 1.86275816 -0.63348585 5 4 5514 3.32000000 1632318431 1632318431 -11.00000000
3.59712338 2.50472403 0.38348526 7 5 5515 4.40000000 1632318433 1632318433 5.00000000
3.35120964 2.33262277 -0.64670008 9 6 5516 4.13400000 1632318435 1632318435 -9.00000000
3.60111451 2.50563717 0.53866249 7 7 5517 4.42000000 1632318438 1632318438 7.00000000
3.58362556 2.49254012 -0.53598136 8 8 5518 4.39800000 1632318440 1632318440 -7.00000000
3.61798000 2.51643515 0.69801056 8 9 5518 4.46200000 1632318442 1632318442 9.00000000
3.59396362 2.49880004 -0.38296235 10 10 5519 4.39400000 1632318445 1632318445 -5.00000000
3.61599588 2.51318264 0.85596913 9 11 5520 4.48600000 1632318447 1632318447 11.00000000
3.59378028 2.49681234 -0.22933616 8 12 5521 4.38200000 1632318449 1632318449 -3.00000000
3.61734366 2.51224709 1.01677871 9 13 5522 4.52000000 1632318452 1632318452 13.00000000
3.59903646 2.49860191 -0.07647645 7 14 5523 4.38200000 1632318454 1632318454 -1.00000000
3.61975431 2.51298499 1.18073249 8 15 5523 4.56200000 1632318456 1632318456 15.00000000
1.88390434 1.30399084 -0.61391878 4 0 5531 2.37200000 1632318477 1632318477 -15.00000000
3.61446786 2.50091004 0.07672078 7 1 5532 4.39600000 1632318479 1632318479 1.00000000
2.22618604 1.53976047 -0.62491405 3 2 5533 2.77800000 1632318481 1632318481 -13.00000000
3.61586452 2.50001049 0.23038287 7 3 5534 4.40200000 1632318484 1632318484 3.00000000
2.68066382 1.85341227 -0.63348585 5 4 5534 3.32000000 1632318486 1632318486 -11.00000000
3.62715173 2.50687885 0.38575131 7 5 5535 4.42600000 1632318488 1632318488 5.00000000
3.36258197 2.32315636 -0.64732581 9 6 5536 4.13800000 1632318491 1632318491 -9.00000000
3.62617302 2.50433230 0.54109991 7 7 5537 4.44000000 1632318493 1632318493 7.00000000
3.60210586 2.48678255 -0.53744382 8 8 5538 4.41000000 1632318495 1632318495 -7.00000000
3.63205647 2.50652361 0.69894922 8 9 5539 4.46800000 1632318498 1632318498 9.00000000
3.61742234 2.49642444 -0.38453114 10 10 5539 4.41200000 1632318500 1632318500 -5.00000000
3.64898682 2.51726747 0.86169344 9 11 5540 4.51600000 1632318502 1632318502 11.00000000
3.61727190 2.49445701 -0.23027821 8 12 5541 4.40000000 1632318504 1632318504 -3.00000000
3.63571787 2.50624108 1.01947820 8 13 5542 4.53200000 1632318507 1632318507 13.00000000
3.63078904 2.50190878 -0.07696512 7 14 5543 4.41000000 1632318509 1632318509 -1.00000000
3.64962292 2.51394749 1.18746173 8 15 5544 4.58800000 1632318511 1632318511 15.00000000
1.88548613 1.29488993 -0.61288351 4 0 5552 2.36800000 1632318532 1632318532 -15.00000000
3.64339304 2.50122690 0.07713964 7 1 5553 4.42000000 1632318534 1632318534 1.00000000
2.23181462 1.53159070 -0.62491405 4 2 5554 2.77800000 1632318537 1632318537 -13.00000000
3.64476705 2.50029874 0.23163894 7 3 5555 4.42600000 1632318539 1632318539 3.00000000
2.67448735 1.83468997 -0.63043290 6 4 5555 3.30400000 1632318541 1632318541 -11.00000000
3.65110397 2.50370884 0.38732013 7 5 5556 4.44400000 1632318544 1632318544 5.00000000
3.38247943 2.31863427 -0.64951593 6 6 5557 4.15200000 1632318546 1632318546 -9.00000000
3.66152787 2.50897837 0.54499972 7 7 5558 4.47200000 1632318548 1632318548 7.00000000
3.63412452 2.48926878 -0.54085612 8 8 5559 4.43800000 1632318551 1632318551 -7.00000000
3.65708089 2.50499320 0.70207787 8 9 5559 4.48800000 1632318553 1632318553 9.00000000
3.64298749 2.49440551 -0.38627425 10 10 5560 4.43200000 1632318555 1632318555 -5.00000000
3.67600965 2.51607418 0.86589122 9 11 5561 4.53800000 1632318557 1632318557 11.00000000
3.64946723 2.49697161 -0.23174362 8 12 5562 4.42800000 1632318560 1632318560 -3.00000000
3.66739821 2.50830054 1.02577686 9 13 5563 4.56000000 1632318562 1632318562 13.00000000
3.64983916 2.49535608 -0.07717454 7 14 5564 4.42200000 1632318564 1632318564 -1.00000000
3.66953921 2.50882483 1.19108522 8 15 5564 4.60200000 1632318567 1632318567 15.00000000
1.88999462 1.28830040 -0.61288351 4 0 5572 2.36800000 1632318587 1632318587 -15.00000000
3.66201711 2.49524999 0.07734907 7 1 5573 4.43200000 1632318590 1632318590 1.00000000
2.25003219 1.53256726 -0.62851322 3 2 5574 2.79400000 1632318592 1632318592 -13.00000000
3.67328334 2.50104952 0.23289500 7 3 5575 4.45000000 1632318594 1632318594 3.00000000
2.69061232 1.83197272 -0.63272262 5 4 5575 3.31600000 1632318597 1632318597 -11.00000000
3.66970396 2.49767518 0.38836598 7 5 5576 4.45600000 1632318599 1632318599 5.00000000
3.37911987 2.29903483 -0.64732581 6 6 5577 4.13800000 1632318601 1632318601 -9.00000000
3.68339515 2.50511289 0.54694963 7 7 5578 4.48800000 1632318604 1632318604 7.00000000
3.66905761 2.49442530 -0.54475594 8 8 5579 4.47000000 1632318606 1632318606 -7.00000000
3.68257546 2.50267577 0.70520657 8 9 5580 4.50800000 1632318608 1632318608 9.00000000
3.65661597 2.48503351 -0.38679719 10 10 5580 4.43800000 1632318610 1632318610 -5.00000000
3.70263362 2.51536274 0.87008899 9 11 5581 4.56000000 1632318613 1632318613 11.00000000
3.67468405 2.49543786 -0.23279034 8 12 5582 4.44800000 1632318615 1632318615 -3.00000000
