# .PCD v0.7 - Point Cloud Data file format
VERSION 0.7
FIELDS x y z intensity laser_id azimuth distance_m adjustedtime timestamp vertical_angle
SIZE 4 4 4 1 1 2 8 8 4 8
TYPE F F F U U U F U U F
COUNT 1 1 1 1 1 1 1 1 1 1
WIDTH 539
HEIGHT 1
VIEWPOINT 0 0 0 1 0 0 0
POINTS 539
DATA ascii
8.16666985 2.09228706 0.44182014 68 3 7563 8.44200000 1630924193 1630924193 3.00000000
3.08667088 0.79079992 -0.61936599 5 4 7563 3.24600000 1630924196 1630924196 -11.00000000
8.17607403 2.09317589 0.73838347 76 5 7564 8.47200000 1630924198 1630924198 5.00000000
3.88681531 0.99434984 -0.63543677 6 6 7565 4.06200000 1630924200 1630924200 -9.00000000
8.18147564 2.09151578 1.03686440 100 7 7566 8.50800000 1630924203 1630924203 7.00000000
5.23530054 1.33738112 -0.66345668 9 8 7567 5.44400000 1630924205 1630924205 -7.00000000
6.64665890 1.69668329 -0.60015446 44 10 7568 6.88600000 1630924210 1630924210 -5.00000000
8.15567207 2.07885480 -0.44108742 17 12 7570 8.42800000 1630924214 1630924214 -3.00000000
8.15859509 2.07656717 -0.14694926 14 14 7572 8.42000000 1630924219 1630924219 -1.00000000
8.22253132 2.09284067 2.27346659 51 15 7572 8.78400000 1630924221 1630924221 15.00000000
2.18184066 0.55209059 -0.60304838 4 0 7580 2.33000000 1630924242 1630924242 -15.00000000
8.15796947 2.06276870 0.14687945 12 1 7581 8.41600000 1630924244 1630924244 1.00000000
2.57331347 0.65019274 -0.61276668 9 2 7582 2.72400000 1630924246 1630924246 -13.00000000
8.17779636 2.06474519 0.44202948 94 3 7583 8.44600000 1630924249 1630924249 3.00000000
3.10273719 0.78338480 -0.62203735 5 4 7583 3.26000000 1630924251 1630924251 -11.00000000
8.16594410 2.06023669 0.73681468 90 5 7584 8.45400000 1630924253 1630924253 5.00000000
3.89600873 0.98222500 -0.63637543 6 6 7585 4.06800000 1630924256 1630924256 -9.00000000
8.18102646 2.06100464 1.03588939 100 7 7586 8.50000000 1630924258 1630924258 7.00000000
5.23993731 1.31909835 -0.66345668 9 8 7587 5.44400000 1630924260 1630924260 -7.00000000
6.63321924 1.66861117 -0.59841132 40 10 7588 6.86600000 1630924265 1630924265 -5.00000000
8.16675282 2.05134654 -0.44129679 17 12 7590 8.43200000 1630924269 1630924269 -3.00000000
8.15803528 2.04612970 -0.14680964 12 14 7592 8.41200000 1630924274 1630924274 -1.00000000
8.22229195 2.06224585 2.27139592 54 15 7592 8.77600000 1630924276 1630924276 15.00000000
2.19125247 0.54634058 -0.60511893 4 0 7600 2.33800000 1630924297 1630924297 -15.00000000
8.15735912 2.03234577 0.14673984 12 1 7601 8.40800000 1630924299 1630924299 1.00000000
2.57745838 0.64167702 -0.61321658 7 2 7602 2.72600000 1630924302 1630924302 -13.00000000
8.18072224 2.03665018 0.44182014 100 3 7602 8.44200000 1630924304 1630924304 3.00000000
3.09783196 0.77065367 -0.62051088 5 4 7603 3.25200000 1630924306 1630924306 -11.00000000
8.16341877 2.02931643 0.73594308 90 5 7604 8.44400000 1630924309 1630924309 5.00000000
3.89749646 0.96814317 -0.63606256 6 6 7605 4.06600000 1630924311 1630924311 -9.00000000
8.17853737 2.03004384 1.03467071 99 7 7606 8.49000000 1630924313 1630924313 7.00000000
5.24065638 1.29984379 -0.66296923 9 8 7607 5.44000000 1630924315 1630924315 -7.00000000
6.62546635 1.64209163 -0.59719115 32 10 7608 6.85200000 1630924320 1630924320 -5.00000000
8.17580318 2.02330661 -0.44140145 12 12 7610 8.43400000 1630924325 1630924325 -3.00000000
8.16318703 2.01716065 -0.14677474 12 14 7612 8.41000000 1630924329 1630924329 -1.00000000
8.21443653 2.02982473 2.26725483 56 15 7612 8.76000000 1630924332 1630924332 15.00000000
2.18939400 0.53776675 -0.60408366 4 0 7620 2.33400000 1630924352 1630924352 -15.00000000
8.14886665 2.00004578 0.14646059 12 1 7621 8.39200000 1630924355 1630924355 1.00000000
2.57400465 0.63128358 -0.61186689 9 2 7622 2.72000000 1630924357 1630924357 -13.00000000
8.17455292 2.00332499 0.44108742 100 3 7623 8.42800000 1630924359 1630924359 3.00000000
3.10813046 0.76170468 -0.62203735 5 4 7623 3.26000000 1630924362 1630924362 -11.00000000
8.15884113 1.99796498 0.73489720 90 5 7624 8.43200000 1630924364 1630924364 5.00000000
3.89317727 0.95265442 -0.63481104 6 6 7625 4.05800000 1630924366 1630924366 -9.00000000
8.17400455 1.99865413 1.03320825 99 7 7626 8.47800000 1630924368 1630924368 7.00000000
5.25673199 1.28436947 -0.66443163 9 8 7627 5.45200000 1630924371 1630924371 -7.00000000
8.16341114 1.99002516 -0.44035473 12 12 7630 8.41400000 1630924380 1630924380 -3.00000000
8.15852070 1.98581612 -0.14656530 14 14 7632 8.39800000 1630924385 1630924385 -1.00000000
8.20868111 1.99650788 2.26363134 49 15 7633 8.74600000 1630924387 1630924387 15.00000000
2.19313550 0.53057534 -0.60460126 4 0 7640 2.33600000 1630924408 1630924408 -15.00000000
8.15579891 1.97158861 0.14646059 12 1 7641 8.39200000 1630924410 1630924410 1.00000000
2.56861544 0.62046450 -0.61006725 9 2 7642 2.71200000 1630924412 1630924412 -13.00000000
8.16561985 1.97245443 0.44025007 100 3 7642 8.41200000 1630924415 1630924415 3.00000000
3.11077046 0.75085068 -0.62203735 5 4 7643 3.26000000 1630924417 1630924417 -11.00000000
8.16189194 1.96853888 0.73454863 76 5 7644 8.42800000 1630924419 1630924419 5.00000000
3.89839935 0.93952167 -0.63512391 6 6 7645 4.06000000 1630924421 1630924421 -9.00000000
8.16163158 1.96546173 1.03077090 100 7 7646 8.45800000 1630924424 1630924424 7.00000000
5.24960327 1.26322567 -0.66296923 9 8 7647 5.44000000 1630924426 1630924426 -7.00000000
6.64064312 1.59672916 -0.59753978 16 10 7648 6.85600000 1630924431 1630924431 -5.00000000
8.15088749 1.95685494 -0.43930802 17 12 7650 8.39400000 1630924435 1630924435 -3.00000000
8.15762424 1.95546091 -0.14642569 14 14 7652 8.39000000 1630924440 1630924440 -1.00000000
8.21149921 1.96837533 2.26259613 47 15 7652 8.74200000 1630924442 1630924442 15.00000000
2.20624971 0.52560282 -0.60770714 4 0 7660 2.34800000 1630924463 1630924463 -15.00000000
8.15290451 1.94079220 0.14628607 12 1 7661 8.38200000 1630924465 1630924465 1.00000000
2.57266164 0.61194551 -0.61051714 7 2 7662 2.71400000 1630924467 1630924467 -13.00000000
8.15885353 1.94070375 0.43951735 99 3 7662 8.39800000 1630924470 1630924470 3.00000000
3.10764241 0.73862553 -0.62089247 5 4 7663 3.25400000 1630924472 1630924472 -11.00000000
8.15902138 1.93773472 0.73367703 76 5 7664 8.41800000 1630924474 1630924474 5.00000000
3.89781094 0.92499578 -0.63449818 6 6 7665 4.05600000 1630924477 1630924477 -9.00000000
8.16844273 1.93696034 1.03077090 100 7 7666 8.45800000 1630924479 1630924479 7.00000000
5.24625397 1.24306273 -0.66199428 9 8 7667 5.43200000 1630924481 1630924481 -7.00000000
6.63454342 1.57078505 -0.59649390 16 10 7668 6.84400000 1630924486 1630924486 -5.00000000
8.15572453 1.92793155 -0.43920335 17 12 7670 8.39200000 1630924491 1630924491 -3.00000000
8.14493847 1.92238009 -0.14607663 16 14 7672 8.37000000 1630924495 1630924495 -1.00000000
8.22020054 1.94014359 2.26311374 56 15 7672 8.74400000 1630924497 1630924497 15.00000000
2.19105387 0.51431054 -0.60304838 4 0 7679 2.33000000 1630924518 1630924518 -15.00000000
8.15734863 1.91328883 0.14625117 18 1 7680 8.38000000 1630924520 1630924520 1.00000000
2.58226609 0.60518956 -0.61231679 7 2 7681 2.72200000 1630924523 1630924523 -13.00000000
8.16363430 1.91175687 0.43941268 100 3 7682 8.39600000 1630924525 1630924525 3.00000000
3.10242844 0.72652560 -0.61936599 5 4 7682 3.24600000 1630924527 1630924527 -11.00000000
8.15182209 1.90749013 0.73245686 76 5 7683 8.40400000 1630924530 1630924530 5.00000000
3.91047454 0.91431379 -0.63606256 6 6 7684 4.06600000 1630924532 1630924532 -9.00000000
8.17095470 1.90895903 1.03028345 100 7 7685 8.45400000 1630924534 1630924534 7.00000000
5.26001310 1.22791505 -0.66321295 9 8 7686 5.44200000 1630924537 1630924537 -7.00000000
6.63583517 1.54787028 -0.59614527 32 10 7687 6.84000000 1630924541 1630924541 -5.00000000
8.16012764 1.90042257 -0.43909869 17 12 7689 8.39000000 1630924546 1630924546 -3.00000000
8.23933125 1.91735244 1.95302510 2 13 7690 8.68200000 1630924548 1630924548 13.00000000
8.14152908 1.89309537 -0.14590211 16 14 7691 8.36000000 1630924550 1630924550 -1.00000000
8.20434189 1.90619147 2.25690198 54 15 7692 8.72000000 1630924553 1630924553 15.00000000
2.18718910 0.50535446 -0.60149544 4 0 7699 2.32400000 1630924573 1630924573 -15.00000000
8.15228653 1.88210368 0.14604174 15 1 7700 8.36800000 1630924576 1630924576 1.00000000
2.59195828 0.59792423 -0.61411637 7 2 7701 2.73000000 1630924578 1630924578 -13.00000000
8.16603661 1.88377690 0.43920335 100 3 7701 8.39200000 1630924580 1630924580 3.00000000
3.11451101 0.71789652 -0.62127411 13 4 7702 3.25600000 1630924583 1630924583 -11.00000000
8.14678192 1.87634027 0.73141098 79 5 7703 8.39200000 1630924585 1630924585 5.00000000
3.89824176 0.89711392 -0.63355958 6 6 7704 4.05000000 1630924587 1630924587 -9.00000000
8.17563438 1.87998056 1.03003967 95 7 7705 8.45200000 1630924590 1630924590 7.00000000
5.26233244 1.20910215 -0.66296923 9 8 7706 5.44000000 1630924592 1630924592 -7.00000000
6.63148832 1.52246845 -0.59527373 20 10 7707 6.83000000 1630924597 1630924597 -5.00000000
8.16865826 1.87237310 -0.43920335 17 12 7709 8.39200000 1630924601 1630924601 -3.00000000
8.24977303 1.88945019 1.95392489 3 13 7710 8.68600000 1630924603 1630924603 13.00000000
8.14029121 1.86288023 -0.14576250 18 14 7711 8.35200000 1630924606 1630924606 -1.00000000
8.20341301 1.87581885 2.25483155 51 15 7712 8.71200000 1630924608 1630924608 15.00000000
2.20221353 0.50033063 -0.60511893 4 0 7720 2.33800000 1630924629 1630924629 -15.00000000
8.14157963 1.84822726 0.14572759 18 1 7721 8.35000000 1630924631 1630924631 1.00000000
2.58272958 0.58583379 -0.61141694 7 2 7722 2.71800000 1630924633 1630924633 -13.00000000
8.17093849 1.85339236 0.43909869 100 3 7722 8.39000000 1630924636 1630924636 3.00000000
3.11520672 0.70604247 -0.62089247 16 4 7723 3.25400000 1630924638 1630924638 -11.00000000
8.14777470 1.84514809 0.73088807 83 5 7724 8.38600000 1630924640 1630924640 5.00000000
3.90535688 0.88369209 -0.63418531 6 6 7725 4.05400000 1630924643 1630924643 -9.00000000
8.17085266 1.84737611 1.02857721 95 7 7726 8.44000000 1630924645 1630924645 7.00000000
5.27060127 1.19068146 -0.66345668 9 8 7727 5.44400000 1630924647 1630924647 -7.00000000
6.63119364 1.49683642 -0.59475076 16 10 7728 6.82400000 1630924652 1630924652 -5.00000000
8.15013695 1.83671272 -0.43784261 21 12 7730 8.36600000 1630924656 1630924656 -3.00000000
8.25093937 1.85791636 1.95257521 3 13 7731 8.68000000 1630924659 1630924659 13.00000000
8.15291691 1.83434892 -0.14586721 16 14 7732 8.35800000 1630924661 1630924661 -1.00000000
8.20457840 1.84446812 2.25327849 49 15 7733 8.70600000 1630924663 1630924663 15.00000000
2.20394659 0.49264044 -0.60511893 4 0 7740 2.33800000 1630924684 1630924684 -15.00000000
8.14993286 1.82023251 0.14576250 18 1 7741 8.35200000 1630924686 1630924686 1.00000000
2.57715106 0.57511699 -0.60961735 7 2 7742 2.71000000 1630924689 1630924689 -13.00000000
8.17150974 1.82355416 0.43878466 100 3 7742 8.38400000 1630924691 1630924691 3.00000000
3.14064670 0.70029128 -0.62547189 9 4 7743 3.27800000 1630924693 1630924693 -11.00000000
8.15416527 1.81669581 0.73088807 83 5 7744 8.38600000 1630924696 1630924696 5.00000000
3.90456152 0.86919600 -0.63355958 6 6 7745 4.05000000 1630924698 1630924698 -9.00000000
8.16174889 1.81539524 1.02662730 97 7 7746 8.42400000 1630924700 1630924700 7.00000000
5.26309872 1.16969240 -0.66199428 9 8 7747 5.43200000 1630924703 1630924703 -7.00000000
6.63637829 1.47368014 -0.59475076 12 10 7748 6.82400000 1630924707 1630924707 -5.00000000
8.14869881 1.80652308 -0.43742391 17 12 7750 8.35800000 1630924712 1630924712 -3.00000000
8.25547123 1.82868242 1.95212519 4 13 7751 8.67800000 1630924714 1630924714 13.00000000
8.14755535 1.80328596 -0.14565778 16 14 7752 8.34600000 1630924716 1630924716 -1.00000000
8.20908070 1.81540036 2.25276089 51 15 7753 8.70400000 1630924719 1630924719 15.00000000
2.20934153 0.48615950 -0.60615420 4 0 7759 2.34200000 1630924739 1630924739 -15.00000000
8.14811230 1.79147863 0.14562288 21 1 7760 8.34400000 1630924742 1630924742 1.00000000
2.58094740 0.56698585 -0.61006725 9 2 7761 2.71200000 1630924744 1630924744 -13.00000000
8.15800476 1.79216099 0.43773794 100 3 7761 8.36400000 1630924746 1630924746 3.00000000
3.13719869 0.68860996 -0.62432700 5 4 7762 3.27200000 1630924749 1630924749 -11.00000000
8.15819931 1.78921878 0.73071373 76 5 7763 8.38400000 1630924751 1630924751 5.00000000
3.89970398 0.85455185 -0.63230813 6 6 7764 4.04200000 1630924753 1630924753 -9.00000000
8.16384602 1.78747070 1.02613986 95 7 7765 8.42000000 1630924755 1630924755 7.00000000
5.25531340 1.14968753 -0.66053182 9 8 7766 5.42000000 1630924758 1630924758 -7.00000000
6.63344288 1.44996321 -0.59405357 8 10 7767 6.81600000 1630924762 1630924762 -5.00000000
8.15074253 1.77863944 -0.43721458 17 12 7769 8.35400000 1630924767 1630924767 -3.00000000
8.25387478 1.79963565 1.95032561 3 13 7770 8.67000000 1630924769 1630924769 13.00000000
8.14958286 1.77540648 -0.14558798 16 14 7771 8.34200000 1630924772 1630924772 -1.00000000
8.21474361 1.78960192 2.25276089 54 15 7771 8.70400000 1630924774 1630924774 15.00000000
2.20724869 0.47762734 -0.60511893 4 0 7779 2.33800000 1630924795 1630924795 -15.00000000
8.16018009 1.76429331 0.14572759 18 1 7780 8.35000000 1630924797 1630924797 1.00000000
2.59243464 0.56003064 -0.61231679 7 2 7781 2.72200000 1630924799 1630924799 -13.00000000
8.15835381 1.76240814 0.43742391 100 3 7781 8.35800000 1630924802 1630924802 3.00000000
3.12231183 0.67392695 -0.62089247 5 4 7782 3.25400000 1630924804 1630924804 -11.00000000
8.14881420 1.75737023 0.72931927 76 5 7783 8.36800000 1630924806 1630924806 5.00000000
3.91424966 0.84343076 -0.63418531 6 6 7784 4.05400000 1630924808 1630924808 -9.00000000
8.17003632 1.75896275 1.02613986 97 7 7785 8.42000000 1630924811 1630924811 7.00000000
5.25541306 1.13050103 -0.66004437 9 8 7786 5.41600000 1630924813 1630924813 -7.00000000
6.64625549 1.42847395 -0.59475076 12 10 7787 6.82400000 1630924818 1630924818 -5.00000000
8.14908981 1.74850118 -0.43679589 17 12 7789 8.34600000 1630924822 1630924822 -3.00000000
8.24867344 1.76836228 1.94762623 4 13 7790 8.65800000 1630924825 1630924825 13.00000000
8.13031101 1.74150348 -0.14513421 14 14 7791 8.31600000 1630924827 1630924827 -1.00000000
8.20991325 1.75705552 2.24965525 51 15 7792 8.69200000 1630924829 1630924829 15.00000000
2.19937301 0.46829364 -0.60253072 4 0 7798 2.32800000 1630924850 1630924850 -15.00000000
8.15816212 1.73555911 0.14558798 18 1 7799 8.34200000 1630924852 1630924852 1.00000000
2.59046531 0.55062038 -0.61141694 7 2 7800 2.71800000 1630924855 1630924855 -13.00000000
8.16054916 1.73308969 0.43721458 100 3 7801 8.35400000 1630924857 1630924857 3.00000000
3.12837029 0.66438496 -0.62165570 5 4 7801 3.25800000 1630924859 1630924859 -11.00000000
8.13705540 1.72661614 0.72775048 76 5 7802 8.35000000 1630924861 1630924861 5.00000000
3.91702485 0.83044600 -0.63418531 6 6 7803 4.05400000 1630924864 1630924864 -9.00000000
8.16805553 1.73021472 1.02516496 92 7 7804 8.41200000 1630924866 1630924866 7.00000000
5.27855349 1.11717761 -0.66248173 9 8 7805 5.43600000 1630924868 1630924868 -7.00000000
6.62366581 1.40065551 -0.59231043 12 10 7806 6.79600000 1630924873 1630924873 -5.00000000
8.15679741 1.72188079 -0.43690056 17 12 7808 8.34800000 1630924878 1630924878 -3.00000000
8.24686527 1.73939037 1.94582665 4 13 7809 8.65000000 1630924880 1630924880 13.00000000
8.13995457 1.71535754 -0.14520402 16 14 7810 8.32000000 1630924882 1630924882 -1.00000000
8.20026970 1.72806787 2.24551415 51 15 7810 8.67600000 1630924885 1630924885 15.00000000
2.19721246 0.45982212 -0.60149544 4 0 7818 2.32400000 1630924905 1630924905 -15.00000000
8.14655399 1.70338774 0.14527383 15 1 7819 8.32400000 1630924908 1630924908 1.00000000
2.59237146 0.54157466 -0.61141694 7 2 7820 2.71800000 1630924910 1630924910 -13.00000000
8.16654873 1.70459342 0.43721458 100 3 7821 8.35400000 1630924912 1630924912 3.00000000
3.12874866 0.65305972 -0.62127411 5 4 7821 3.25600000 1630924914 1630924914 -11.00000000
8.14303303 1.69820201 0.72775048 76 5 7822 8.35000000 1630924917 1630924917 5.00000000
3.92183375 0.81717092 -0.63449818 6 6 7823 4.05600000 1630924919 1630924919 -9.00000000
8.17015934 1.70088315 1.02467740 95 7 7824 8.40800000 1630924921 1630924921 7.00000000
5.27076006 1.09631968 -0.66101933 9 8 7825 5.42400000 1630924924 1630924924 -7.00000000
6.65582466 1.38320160 -0.59475076 12 10 7826 6.82400000 1630924928 1630924928 -5.00000000
8.13929081 1.68852937 -0.43564451 17 12 7828 8.32400000 1630924933 1630924933 -3.00000000
8.25861073 1.71177936 1.94717634 3 13 7829 8.65600000 1630924935 1630924935 13.00000000
8.14197636 1.68612230 -0.14513421 16 14 7830 8.31600000 1630924938 1630924938 -1.00000000
8.20087337 1.69682646 2.24396110 47 15 7831 8.67000000 1630924940 1630924940 15.00000000
2.21212935 0.45448732 -0.60511893 4 0 7839 2.33800000 1630924961 1630924961 -15.00000000
8.14882469 1.67271352 0.14520402 15 1 7840 8.32000000 1630924963 1630924963 1.00000000
2.58670306 0.53050339 -0.60961735 7 2 7841 2.71000000 1630924965 1630924965 -13.00000000
8.16491508 1.67304647 0.43679589 100 3 7842 8.34600000 1630924967 1630924967 3.00000000
3.14266086 0.64395249 -0.62356383 5 4 7842 3.26800000 1630924970 1630924970 -11.00000000
8.14334679 1.66714609 0.72722751 76 5 7843 8.34400000 1630924972 1630924972 5.00000000
3.91512585 0.80081189 -0.63293386 9 6 7844 4.04600000 1630924974 1630924974 -9.00000000
8.16077900 1.66774702 1.02272749 92 7 7845 8.39200000 1630924977 1630924977 7.00000000
5.26890802 1.07580268 -0.66028810 9 8 7846 5.41800000 1630924979 1630924979 -7.00000000
8.09960842 1.65230095 -0.72321838 17 10 7847 8.29800000 1630924984 1630924984 -5.00000000
8.12585449 1.65470076 -0.43459779 17 12 7849 8.30400000 1630924988 1630924988 -3.00000000
8.25528145 1.67955589 1.94492686 3 13 7850 8.64600000 1630924991 1630924991 13.00000000
8.14614201 1.65587080 -0.14509931 16 14 7851 8.31400000 1630924993 1630924993 -1.00000000
8.20296001 1.66742015 2.24292588 47 15 7851 8.66600000 1630924995 1630924995 15.00000000
2.21938348 0.44790930 -0.60667187 4 0 7859 2.34400000 1630925016 1630925016 -15.00000000
8.15657425 1.64465392 0.14523892 18 1 7860 8.32200000 1630925018 1630925018 1.00000000
2.58853912 0.52147090 -0.60961735 7 2 7861 2.71000000 1630925020 1630925020 -13.00000000
8.15504169 1.64138269 0.43595850 99 3 7862 8.33000000 1630925023 1630925023 3.00000000
3.14104033 0.63220388 -0.62280059 5 4 7862 3.26400000 1630925025 1630925025 -11.00000000
8.15302372 1.63949585 0.72757614 76 5 7863 8.34800000 1630925027 1630925027 5.00000000
3.91983414 0.78752977 -0.63324672 6 6 7864 4.04800000 1630925030 1630925030 -9.00000000
8.16655064 1.63925040 1.02272749 92 7 7865 8.39200000 1630925032 1630925032 7.00000000
5.25511408 1.05389118 -0.65809447 6 8 7866 5.40000000 1630925034 1630925034 -7.00000000
8.12095547 1.62714934 -0.72461283 17 10 7867 8.31400000 1630925039 1630925039 -5.00000000
8.13549805 1.62710953 -0.43480712 17 12 7869 8.30800000 1630925043 1630925043 -3.00000000
8.24389458 1.64729273 1.94087768 3 13 7870 8.62800000 1630925046 1630925046 13.00000000
8.14010715 1.62507641 -0.14488988 16 14 7871 8.30200000 1630925048 1630925048 -1.00000000
8.21280479 1.63809931 2.24396110 47 15 7872 8.67000000 1630925050 1630925050 15.00000000
2.20569706 0.43753996 -0.60253072 4 0 7878 2.32800000 1630925071 1630925071 -15.00000000
8.15021420 1.61526418 0.14502950 12 1 7879 8.31000000 1630925073 1630925073 1.00000000
2.59407735 0.51364118 -0.61051714 7 2 7880 2.71400000 1630925076 1630925076 -13.00000000
8.15064335 1.61239254 0.43543515 97 3 7881 8.32000000 1630925078 1630925078 3.00000000
3.12771201 0.61873639 -0.61974764 5 4 7881 3.24800000 1630925080 1630925080 -11.00000000
8.15059662 1.61090517 0.72687888 76 5 7882 8.34000000 1630925083 1630925083 5.00000000
3.92242408 0.77452683 -0.63324672 9 6 7883 4.04800000 1630925085 1630925085 -9.00000000
8.17583656 1.61292851 1.02321506 92 7 7884 8.39600000 1630925087 1630925087 7.00000000
5.27026606 1.03876209 -0.65955687 9 8 7885 5.41200000 1630925090 1630925090 -7.00000000
8.04811287 1.58481264 -0.71764040 17 10 7886 8.23400000 1630925094 1630925094 -5.00000000
8.14084816 1.60012221 -0.43480712 17 12 7888 8.30800000 1630925099 1630925099 -3.00000000
8.24166298 1.61844397 1.93907809 2 13 7889 8.62000000 1630925101 1630925101 13.00000000
8.13171482 1.59537899 -0.14464554 14 14 7890 8.28800000 1630925103 1630925103 -1.00000000
8.20653629 1.61005843 2.24085522 47 15 7890 8.65800000 1630925106 1630925106 15.00000000
2.19962597 0.42836085 -0.60046017 4 0 7898 2.32000000 1630925126 1630925126 -15.00000000
8.14206219 1.58413136 0.14478517 15 1 7899 8.29600000 1630925129 1630925129 1.00000000
2.59585452 0.50458300 -0.61051714 7 2 7900 2.71400000 1630925131 1630925131 -13.00000000
8.16210365 1.58507395 0.43574917 100 3 7901 8.32600000 1630925133 1630925133 3.00000000
3.13563442 0.60893768 -0.62089247 5 4 7901 3.25400000 1630925136 1630925136 -11.00000000
8.13661098 1.57864964 0.72513580 76 5 7902 8.32000000 1630925138 1630925138 5.00000000
3.92898226 0.76158208 -0.63387245 9 6 7903 4.05200000 1630925140 1630925140 -9.00000000
8.17362213 1.58287001 1.02224004 92 7 7904 8.38800000 1630925143 1630925143 7.00000000
5.27385950 1.02035904 -0.65955687 9 8 7905 5.41200000 1630925145 1630925145 -7.00000000
7.85015297 1.51738560 -0.69951200 21 10 7906 8.02600000 1630925149 1630925149 -5.00000000
8.14442348 1.57131732 -0.43470246 17 12 7908 8.30600000 1630925154 1630925154 -3.00000000
8.25300312 1.59077179 1.94042778 1 13 7909 8.62600000 1630925156 1630925156 13.00000000
8.13527107 1.56660616 -0.14461064 16 14 7910 8.28600000 1630925159 1630925159 -1.00000000
8.20100021 1.57777941 2.23774958 47 15 7911 8.64600000 1630925161 1630925161 15.00000000
2.20680046 0.42176810 -0.60201311 4 0 7918 2.32600000 1630925182 1630925182 -15.00000000
8.13379288 1.55307531 0.14454083 12 1 7919 8.28200000 1630925184 1630925184 1.00000000
2.60142851 0.49624902 -0.61141694 7 2 7920 2.71800000 1630925186 1630925186 -13.00000000
8.16758728 1.55657327 0.43574917 99 3 7921 8.32600000 1630925189 1630925189 3.00000000
3.14545512 0.59945869 -0.62241894 5 4 7921 3.26200000 1630925191 1630925191 -11.00000000
8.14598656 1.55098331 0.72548443 79 5 7922 8.32400000 1630925193 1630925193 5.00000000
3.93161678 0.74786276 -0.63387245 6 6 7923 4.05200000 1630925196 1630925196 -9.00000000
8.16739559 1.55210555 1.02077758 92 7 7924 8.37600000 1630925198 1630925198 7.00000000
5.28519011 1.00342476 -0.66053182 9 8 7925 5.42000000 1630925200 1630925200 -7.00000000
7.86127424 1.49108803 -0.70003492 17 10 7926 8.03200000 1630925205 1630925205 -5.00000000
8.14593410 1.54213536 -0.43449309 21 12 7928 8.30200000 1630925209 1630925209 -3.00000000
8.15051460 1.54005563 -0.14478517 18 14 7930 8.29600000 1630925214 1630925214 -1.00000000
8.20618725 1.55057514 2.23774958 47 15 7930 8.64600000 1630925216 1630925216 15.00000000
2.20825911 0.41406235 -0.60201311 4 0 7938 2.32600000 1630925237 1630925237 -15.00000000
8.14506149 1.52577817 0.14464554 18 1 7939 8.28800000 1630925239 1630925239 1.00000000
2.59165192 0.48501447 -0.60871756 7 2 7940 2.70600000 1630925242 1630925242 -13.00000000
8.16119099 1.52585125 0.43512115 99 3 7941 8.31400000 1630925244 1630925244 3.00000000
3.15717745 0.59027940 -0.62432700 5 4 7941 3.27200000 1630925246 1630925246 -11.00000000
8.14939213 1.52217329 0.72531009 76 5 7942 8.32200000 1630925249 1630925249 5.00000000
3.92643595 0.73268485 -0.63262099 9 6 7943 4.04400000 1630925251 1630925251 -9.00000000
8.16105556 1.52140367 1.01931524 92 7 7944 8.36400000 1630925253 1630925253 7.00000000
5.27304840 0.98206222 -0.65858191 9 8 7945 5.40400000 1630925255 1630925255 -7.00000000
7.86839008 1.46400249 -0.70020926 21 10 7946 8.03400000 1630925260 1630925260 -5.00000000
8.13162994 1.51004481 -0.43344638 25 12 7948 8.28200000 1630925265 1630925265 -3.00000000
8.14797592 1.51013803 -0.14464554 14 14 7950 8.28800000 1630925269 1630925269 -1.00000000
8.21181488 1.52048755 2.23774958 47 15 7951 8.64600000 1630925272 1630925272 15.00000000
2.21729112 0.40774918 -0.60408366 4 0 7958 2.33400000 1630925292 1630925292 -15.00000000
8.14837074 1.49697602 0.14461064 15 1 7959 8.28600000 1630925295 1630925295 1.00000000
2.59716272 0.47666854 -0.60961735 7 2 7960 2.71000000 1630925297 1630925297 -13.00000000
8.15075207 1.49447238 0.43428376 100 3 7961 8.29800000 1630925299 1630925299 3.00000000
3.13604593 0.57500637 -0.61974764 5 4 7961 3.24800000 1630925302 1630925302 -11.00000000
8.15073681 1.49299932 0.72496146 76 5 7962 8.31800000 1630925304 1630925304 5.00000000
3.93091273 0.71933013 -0.63293386 9 6 7963 4.04600000 1630925306 1630925306 -9.00000000
8.16241074 1.49219310 1.01882768 90 7 7964 8.36000000 1630925308 1630925308 7.00000000
5.26863337 0.96222329 -0.65760696 9 8 7965 5.39600000 1630925311 1630925311 -7.00000000
7.87737226 1.43724298 -0.70055789 21 10 7966 8.03800000 1630925315 1630925315 -5.00000000
8.13685226 1.48165095 -0.43344638 17 12 7968 8.28200000 1630925320 1630925320 -3.00000000
8.13942528 1.47918415 -0.14440121 12 14 7970 8.27400000 1630925325 1630925325 -1.00000000
8.20920944 1.49186623 2.23567891 47 15 7970 8.63800000 1630925327 1630925327 15.00000000
2.20919490 0.39829305 -0.60149544 4 0 7978 2.32400000 1630925348 1630925348 -15.00000000
8.14764214 1.46746039 0.14450592 15 1 7979 8.28000000 1630925350 1630925350 1.00000000
2.60456443 0.46863511 -0.61096704 9 2 7980 2.71600000 1630925352 1630925352 -13.00000000
8.15591908 1.46601188 0.43428376 99 3 7981 8.29800000 1630925355 1630925355 3.00000000
3.14189863 0.56475067 -0.62051088 5 4 7981 3.25200000 1630925357 1630925357 -11.00000000
8.14805412 1.46313024 0.72426420 76 5 7982 8.31000000 1630925359 1630925359 5.00000000
3.94506574 0.70769703 -0.63481104 9 6 7983 4.05800000 1630925361 1630925361 -9.00000000
8.17147732 1.46439219 1.01931524 95 7 7984 8.36400000 1630925364 1630925364 7.00000000
5.26414394 0.94242716 -0.65663201 9 8 7985 5.38800000 1630925366 1630925366 -7.00000000
7.87645769 1.40868473 -0.70003492 21 10 7986 8.03200000 1630925371 1630925371 -5.00000000
8.14393997 1.45358992 -0.43355107 17 12 7988 8.28400000 1630925375 1630925375 -3.00000000
8.13272667 1.44865918 -0.14419179 12 14 7990 8.26200000 1630925380 1630925380 -1.00000000
8.19915199 1.46049130 2.23153782 47 15 7990 8.62200000 1630925382 1630925382 15.00000000
2.20669889 0.39029199 -0.60046017 4 0 7997 2.32000000 1630925403 1630925403 -15.00000000
8.15049458 1.44008589 0.14447102 21 1 7998 8.27800000 1630925405 1630925405 1.00000000
2.60994244 0.46067297 -0.61186689 10 2 7999 2.72000000 1630925408 1630925408 -13.00000000
8.16073513 1.43895781 0.43428376 99 3 8000 8.29800000 1630925410 1630925410 3.00000000
3.14375424 0.55432868 -0.62051088 5 4 8000 3.25200000 1630925412 1630925412 -11.00000000
8.13912582 1.43368292 0.72304404 76 5 8001 8.29600000 1630925414 1630925414 5.00000000
3.93766356 0.69289917 -0.63324672 6 6 8002 4.04800000 1630925417 1630925417 -9.00000000
8.17628860 1.43728650 1.01931524 90 7 8003 8.36400000 1630925419 1630925419 7.00000000
5.27897120 0.92702550 -0.65809447 6 8 8004 5.40000000 1630925421 1630925421 -7.00000000
7.86734867 1.38014793 -0.69881475 26 10 8005 8.01800000 1630925426 1630925426 -5.00000000
8.15265083 1.42726445 -0.43376040 17 12 8007 8.28800000 1630925431 1630925431 -3.00000000
8.13748550 1.42168212 -0.14419179 14 14 8009 8.26200000 1630925435 1630925435 -1.00000000
8.19253159 1.43129909 2.22843194 49 15 8009 8.61000000 1630925437 1630925437 15.00000000
2.21756530 0.38423589 -0.60304838 4 0 8017 2.33000000 1630925458 1630925458 -15.00000000
8.13773823 1.40855706 0.14415687 15 1 8018 8.26000000 1630925461 1630925461 1.00000000
2.60577393 0.45056367 -0.61051714 12 2 8019 2.71400000 1630925463 1630925463 -13.00000000
8.16177273 1.40978289 0.43407443 100 3 8020 8.29400000 1630925465 1630925465 3.00000000
3.14953923 0.54401988 -0.62127411 5 4 8020 3.25600000 1630925467 1630925467 -11.00000000
8.14408112 1.40526330 0.72304404 76 5 8021 8.29600000 1630925470 1630925470 5.00000000
3.91669798 0.67512333 -0.62949228 6 6 8022 4.02400000 1630925472 1630925472 -9.00000000
8.16364956 1.40570545 1.01712155 99 7 8023 8.34600000 1630925474 1630925474 7.00000000
5.28608751 0.90926582 -0.65858191 9 8 8024 5.40400000 1630925477 1630925477 -7.00000000
7.88193655 1.35436440 -0.69968629 17 10 8025 8.02800000 1630925481 1630925481 -5.00000000
8.25064945 1.41623831 1.62721908 3 11 8026 8.52800000 1630925484 1630925484 11.00000000
8.13592911 1.39508462 -0.43260902 17 12 8027 8.26600000 1630925486 1630925486 -3.00000000
8.25544834 1.41409576 1.93367922 3 13 8028 8.59600000 1630925488 1630925488 13.00000000
8.14239883 1.39326835 -0.14419179 14 14 8029 8.26200000 1630925490 1630925490 -1.00000000
8.19581795 1.40093684 2.22791433 51 15 8030 8.60800000 1630925493 1630925493 15.00000000
2.22079754 0.37681597 -0.60356599 4 0 8037 2.33200000 1630925514 1630925514 -15.00000000
8.13866234 1.37947404 0.14408706 18 1 8038 8.25600000 1630925516 1630925516 1.00000000
2.59772372 0.43983847 -0.60826766 10 2 8039 2.70400000 1630925518 1630925518 -13.00000000
8.16270542 1.38061821 0.43386507 99 3 8040 8.29000000 1630925520 1630925520 3.00000000
3.15141892 0.53302264 -0.62127411 5 4 8040 3.25600000 1630925523 1630925523 -11.00000000
8.14893723 1.37682664 0.72304404 79 5 8041 8.29600000 1630925525 1630925525 5.00000000
3.92682219 0.66276240 -0.63074374 6 6 8042 4.03200000 1630925527 1630925527 -9.00000000
8.15676212 1.37522030 1.01565909 99 7 8043 8.33400000 1630925530 1630925530 7.00000000
5.28335667 0.88981932 -0.65785074 9 8 8044 5.39800000 1630925532 1630925532 -7.00000000
8.02807999 1.35064292 -0.71223670 17 10 8045 8.17200000 1630925537 1630925537 -5.00000000
8.12893105 1.36469245 -0.43198100 17 12 8047 8.25400000 1630925541 1630925541 -3.00000000
8.14326763 1.36417687 -0.14412197 12 14 8049 8.25800000 1630925546 1630925546 -1.00000000
8.20422935 1.37438917 2.22894955 51 15 8049 8.61200000 1630925548 1630925548 15.00000000
2.22400522 0.36937815 -0.60408366 4 0 8057 2.33400000 1630925569 1630925569 -15.00000000
8.14342785 1.35105646 0.14408706 18 1 8058 8.25600000 1630925571 1630925571 1.00000000
2.59539819 0.43013081 -0.60736787 7 2 8059 2.70000000 1630925573 1630925573 -13.00000000
8.15368176 1.34983325 0.43313238 100 3 8060 8.27600000 1630925576 1630925576 3.00000000
3.14551282 0.52073628 -0.61974764 5 4 8060 3.24800000 1630925578 1630925578 -11.00000000
8.15369320 1.34837306 0.72304404 76 5 8061 8.29600000 1630925580 1630925580 5.00000000
3.94860125 0.65227067 -0.63387245 9 6 8062 4.05200000 1630925583 1630925583 -9.00000000
8.15955353 1.34641635 1.01541531 97 7 8063 8.33200000 1630925585 1630925585 7.00000000
5.27663708 0.86975729 -0.65663201 9 8 8064 5.38800000 1630925587 1630925587 -7.00000000
8.12514400 1.33782506 -0.72042936 17 10 8065 8.26600000 1630925592 1630925592 -5.00000000
8.13955784 1.33728027 -0.43229499 21 12 8067 8.26000000 1630925596 1630925596 -3.00000000
8.14008713 1.33444917 -0.14398235 14 14 8069 8.25000000 1630925601 1630925601 -1.00000000
8.20325756 1.34480512 2.22739673 49 15 8069 8.60600000 1630925603 1630925603 15.00000000
2.21193314 0.35944363 -0.60046017 4 0 8077 2.32000000 1630925624 1630925624 -15.00000000
8.14414692 1.32198155 0.14401726 15 1 8078 8.25200000 1630925626 1630925626 1.00000000
2.60842562 0.42293996 -0.61006725 9 2 8079 2.71200000 1630925629 1630925629 -13.00000000
8.15219879 1.32182825 0.43281835 99 3 8079 8.27000000 1630925631 1630925631 3.00000000
3.14731121 0.50975323 -0.61974764 5 4 8080 3.24800000 1630925633 1630925633 -11.00000000
8.14654922 1.31799400 0.72199816 79 5 8081 8.28400000 1630925636 1630925636 5.00000000
3.94695401 0.63785326 -0.63324672 6 6 8082 4.04800000 1630925638 1630925638 -9.00000000
8.16420364 1.31792593 1.01541531 97 7 8083 8.33200000 1630925640 1630925640 7.00000000
5.27572155 0.85070109 -0.65614456 9 8 8084 5.38400000 1630925642 1630925642 -7.00000000
8.10812664 1.30596972 -0.71851194 17 10 8085 8.24400000 1630925647 1630925647 -5.00000000
8.13234425 1.30695820 -0.43166697 17 12 8087 8.24800000 1630925652 1630925652 -3.00000000
8.13877201 1.30507708 -0.14387764 14 14 8089 8.24400000 1630925656 1630925656 -1.00000000
8.19264221 1.31371534 2.22325563 49 15 8089 8.59000000 1630925659 1630925659 15.00000000
2.21508217 0.35202357 -0.60097784 4 0 8097 2.32200000 1630925679 1630925679 -15.00000000
8.14476204 1.29291809 0.14394745 15 1 8098 8.24800000 1630925682 1630925682 1.00000000
2.60988593 0.41383228 -0.61006725 7 2 8099 2.71200000 1630925684 1630925684 -13.00000000
8.15698814 1.29194009 0.43281835 100 3 8100 8.27000000 1630925686 1630925686 3.00000000
3.15682793 0.49999240 -0.62127411 5 4 8100 3.25600000 1630925689 1630925689 -11.00000000
8.14322853 1.28830385 0.72130090 76 5 8101 8.27600000 1630925691 1630925691 5.00000000
3.94720531 0.62376356 -0.63293386 6 6 8102 4.04600000 1630925693 1630925693 -9.00000000
8.17071533 1.28972912 1.01565909 99 7 8103 8.33400000 1630925695 1630925695 7.00000000
5.27081537 0.83104354 -0.65516961 9 8 8104 5.37600000 1630925698 1630925698 -7.00000000
7.91385460 1.24635303 -0.70090646 17 10 8105 8.04200000 1630925702 1630925702 -5.00000000
8.14869499 1.28042328 -0.43229499 17 12 8107 8.26000000 1630925707 1630925707 -3.00000000
8.12747383 1.27418172 -0.14359841 14 14 8109 8.22800000 1630925712 1630925712 -1.00000000
8.18785954 1.28218460 2.22066736 56 15 8110 8.58000000 1630925714 1630925714 15.00000000
2.22196412 0.34556678 -0.60253072 4 0 8116 2.32800000 1630925735 1630925735 -15.00000000
8.13319683 1.26344633 0.14366820 12 1 8117 8.23200000 1630925737 1630925737 1.00000000
2.60546684 0.40427890 -0.60871756 7 2 8118 2.70600000 1630925739 1630925739 -13.00000000
8.15705967 1.26569533 0.43260902 100 3 8118 8.26600000 1630925742 1630925742 3.00000000
3.14488792 0.48741642 -0.61860275 5 4 8119 3.24200000 1630925744 1630925744 -11.00000000
8.14548683 1.26098800 0.72112662 83 5 8120 8.27400000 1630925746 1630925746 5.00000000
3.93558693 0.60855770 -0.63074374 4 6 8121 4.03200000 1630925748 1630925748 -9.00000000
8.15532875 1.25959682 1.01322174 99 7 8122 8.31400000 1630925751 1630925751 7.00000000
5.28923750 0.81598163 -0.65711951 9 8 8123 5.39200000 1630925753 1630925753 -7.00000000
7.87462330 1.21342742 -0.69707161 29 10 8124 7.99800000 1630925758 1630925758 -5.00000000
8.13907814 1.25126982 -0.43156230 17 12 8126 8.24600000 1630925762 1630925762 -3.00000000
8.13758373 1.24813259 -0.14370312 12 14 8128 8.23400000 1630925767 1630925767 -1.00000000
8.19184685 1.25645530 2.22066736 58 15 8128 8.58000000 1630925769 1630925769 15.00000000
2.22697663 0.33838901 -0.60356599 4 0 8136 2.33200000 1630925790 1630925790 -15.00000000
8.14348888 1.23594868 0.14377293 15 1 8137 8.23800000 1630925792 1630925792 1.00000000
2.60300875 0.39459750 -0.60781777 7 2 8138 2.70200000 1630925794 1630925794 -13.00000000
8.14760494 1.23511863 0.43187630 97 3 8138 8.25200000 1630925797 1630925797 3.00000000
3.16209912 0.47878706 -0.62165570 5 4 8139 3.25800000 1630925799 1630925799 -11.00000000
8.15180969 1.23284519 0.72130090 90 5 8140 8.27600000 1630925801 1630925801 5.00000000
3.94159365 0.59540635 -0.63136947 6 6 8141 4.03600000 1630925804 1630925804 -9.00000000
8.14789867 1.22934484 1.01175928 99 7 8142 8.30200000 1630925806 1630925806 7.00000000
5.28420162 0.79633051 -0.65614456 9 8 8143 5.38400000 1630925808 1630925808 -7.00000000
7.89457226 1.18830490 -0.69846612 30 10 8144 8.01400000 1630925813 1630925813 -5.00000000
8.12957096 1.22077537 -0.43082958 17 12 8146 8.23200000 1630925818 1630925818 -3.00000000
8.14189148 1.21971941 -0.14370312 14 14 8148 8.23400000 1630925822 1630925822 -1.00000000
8.20000362 1.22842526 2.22170258 56 15 8148 8.58400000 1630925824 1630925824 15.00000000
2.22999740 0.33128610 -0.60408366 4 0 8155 2.33400000 1630925845 1630925845 -15.00000000
8.14358616 1.20835006 0.14370312 21 1 8156 8.23400000 1630925847 1630925847 1.00000000
2.60815835 0.38653484 -0.60871756 7 2 8157 2.70600000 1630925850 1630925850 -13.00000000
8.14396381 1.20550084 0.43145761 97 3 8158 8.24400000 1630925852 1630925852 3.00000000
3.15007496 0.46628621 -0.61898440 5 4 8158 3.24400000 1630925854 1630925854 -11.00000000
8.14402676 1.20405769 0.72025508 90 5 8159 8.26400000 1630925857 1630925857 5.00000000
3.95527148 0.58406365 -0.63324672 4 6 8160 4.04800000 1630925859 1630925859 -9.00000000
8.14996719 1.20202899 1.01151550 97 7 8161 8.30000000 1630925861 1630925861 7.00000000
5.27503014 0.77706730 -0.65468210 9 8 8162 5.37200000 1630925864 1630925864 -7.00000000
7.89846945 1.16211903 -0.69846612 17 10 8163 8.01400000 1630925868 1630925868 -5.00000000
8.13555050 1.19410002 -0.43093425 17 12 8165 8.23400000 1630925873 1630925873 -3.00000000
8.13401985 1.19097507 -0.14349368 12 14 8167 8.22200000 1630925877 1630925877 -1.00000000
8.19277287 1.19811714 2.21859694 54 15 8168 8.57200000 1630925880 1630925880 15.00000000
2.22158098 0.32211390 -0.60149544 4 0 8175 2.32400000 1630925900 1630925900 -15.00000000
8.14379597 1.17934310 0.14363331 18 1 8176 8.23000000 1630925903 1630925903 1.00000000
2.61142039 0.37770724 -0.60916746 9 2 8177 2.70800000 1630925905 1630925905 -13.00000000
8.14198685 1.17763019 0.43114361 89 3 8177 8.23800000 1630925907 1630925907 3.00000000
3.15168333 0.45528755 -0.61898440 5 4 8178 3.24400000 1630925910 1630925910 -11.00000000
8.13634872 1.17391527 0.71920919 79 5 8179 8.25200000 1630925912 1630925912 5.00000000
3.94555497 0.56856316 -0.63136947 6 6 8180 4.03600000 1630925914 1630925914 -9.00000000
8.15214825 1.17329025 1.01127183 99 7 8181 8.29800000 1630925917 1630925917 7.00000000
5.28164005 0.75921416 -0.65516961 9 8 8182 5.37600000 1630925919 1630925919 -7.00000000
7.89853382 1.13397491 -0.69811749 17 10 8183 8.01000000 1630925924 1630925924 -5.00000000
8.13769150 1.16541123 -0.43082958 17 12 8185 8.23200000 1630925928 1630925928 -3.00000000
8.12624931 1.16087794 -0.14328426 14 14 8187 8.21000000 1630925933 1630925933 -1.00000000
8.18925476 1.16842020 2.21652627 56 15 8188 8.56400000 1630925935 1630925935 15.00000000
2.22088838 0.31331143 -0.60097784 4 0 8197 2.32200000 1630925956 1630925956 -15.00000000
8.13440418 1.14611161 0.14338897 15 1 8198 8.21600000 1630925958 1630925958 1.00000000
2.61285138 0.36767736 -0.60916746 9 2 8199 2.70800000 1630925960 1630925960 -13.00000000
8.15633678 1.14775014 0.43166697 94 3 8199 8.24800000 1630925963 1630925963 3.00000000
3.15340829 0.44318262 -0.61898440 5 4 8200 3.24400000 1630925965 1630925965 -11.00000000
8.13487720 1.14183462 0.71868628 83 5 8201 8.24600000 1630925967 1630925967 5.00000000
3.93401527 0.55148953 -0.62917942 9 6 8202 4.02200000 1630925970 1630925970 -9.00000000
8.16445732 1.14308059 1.01224673 99 7 8203 8.30600000 1630925972 1630925972 7.00000000
5.28844833 0.73947835 -0.65565705 9 8 8204 5.38000000 1630925974 1630925974 -7.00000000
8.23425102 1.15138698 1.31686532 7 9 8204 8.41800000 1630925977 1630925977 9.00000000
7.88507032 1.10115826 -0.69654870 17 10 8205 7.99200000 1630925979 1630925979 -5.00000000
8.23467445 1.14851570 1.61615217 3 11 8206 8.47000000 1630925981 1630925981 11.00000000
8.14606285 1.13470733 -0.43103895 17 12 8207 8.23600000 1630925983 1630925983 -3.00000000
8.12668610 1.12911654 -0.14321445 14 14 8209 8.20600000 1630925988 1630925988 -1.00000000
8.18602753 1.13590515 2.21445584 58 15 8210 8.55600000 1630925990 1630925990 15.00000000
2.22388244 0.30582035 -0.60149544 4 0 8217 2.32400000 1630926011 1630926011 -15.00000000
8.13439274 1.11716604 0.14331916 15 1 8218 8.21200000 1630926013 1630926013 1.00000000
2.61025763 0.35802495 -0.60826766 9 2 8219 2.70400000 1630926016 1630926016 -13.00000000
8.17216587 1.12090063 0.43229499 84 3 8219 8.26000000 1630926018 1630926018 3.00000000
3.15882611 0.43270537 -0.61974764 5 4 8220 3.24800000 1630926020 1630926020 -11.00000000
8.13289070 1.11262143 0.71816331 79 5 8221 8.24000000 1630926023 1630926023 5.00000000
3.93591642 0.53775388 -0.62917942 9 6 8222 4.02200000 1630926025 1630926025 -9.00000000
8.15659618 1.11296403 1.01078439 100 7 8223 8.29400000 1630926027 1630926027 7.00000000
5.29886484 0.72208583 -0.65663201 9 8 8224 5.38800000 1630926030 1630926030 -7.00000000
7.88689184 1.07335889 -0.69637436 17 10 8225 7.99000000 1630926034 1630926034 -5.00000000
8.13414097 1.10411620 -0.43020156 17 12 8227 8.22000000 1630926039 1630926039 -3.00000000
8.13255882 1.10101056 -0.14324935 14 14 8229 8.20800000 1630926043 1630926043 -1.00000000
8.18228436 1.10628831 2.21238518 58 15 8230 8.54800000 1630926046 1630926046 15.00000000
2.23445797 0.29972818 -0.60408366 4 0 8236 2.33400000 1630926066 1630926066 -15.00000000
8.12616062 1.08859217 0.14310974 15 1 8237 8.20000000 1630926069 1630926069 1.00000000
2.60370445 0.34833342 -0.60646802 9 2 8238 2.69600000 1630926071 1630926071 -13.00000000
8.15010357 1.09035170 0.43093425 60 3 8238 8.23400000 1630926073 1630926073 3.00000000
3.15829778 0.42196795 -0.61936599 5 4 8239 3.24600000 1630926076 1630926076 -11.00000000
8.14838505 1.08722675 0.71920919 90 5 8240 8.25200000 1630926078 1630926078 5.00000000
3.96117496 0.52782995 -0.63293386 9 6 8241 4.04600000 1630926080 1630926080 -9.00000000
8.14056492 1.08329117 1.00834692 97 7 8242 8.27400000 1630926082 1630926082 7.00000000
5.30516577 0.70503324 -0.65711951 9 8 8243 5.39200000 1630926085 1630926085 -7.00000000
7.88053274 1.04588842 -0.69550282 29 10 8244 7.98000000 1630926089 1630926089 -5.00000000
8.12983799 1.07608807 -0.42978287 17 12 8246 8.21200000 1630926094 1630926094 -3.00000000
8.13616562 1.07403588 -0.14324935 14 14 8248 8.20800000 1630926099 1630926099 -1.00000000
8.18571949 1.08057749 2.21238518 54 15 8248 8.54800000 1630926101 1630926101 15.00000000
2.22591257 0.29067591 -0.60149544 4 0 8256 2.32400000 1630926122 1630926122 -15.00000000
8.13387680 1.06073713 0.14317954 21 1 8257 8.20400000 1630926124 1630926124 1.00000000
2.60103965 0.33873934 -0.60556823 9 2 8258 2.69200000 1630926126 1630926126 -13.00000000
8.13207340 1.05905867 0.42978287 57 3 8258 8.21200000 1630926129 1630926129 3.00000000
3.14417672 0.40891528 -0.61631304 5 4 8259 3.23000000 1630926131 1630926131 -11.00000000
8.15213108 1.05877686 0.71920919 90 5 8260 8.25200000 1630926133 1630926133 5.00000000
3.96691108 0.51450777 -0.63355958 9 6 8261 4.05000000 1630926135 1630926135 -9.00000000
8.15413952 1.05614364 1.00956559 100 7 8262 8.28400000 1630926138 1630926138 7.00000000
5.28790760 0.68396407 -0.65468210 9 8 8263 5.37200000 1630926140 1630926140 -7.00000000
7.91575098 1.02245760 -0.69829184 30 10 8264 8.01200000 1630926145 1630926145 -5.00000000
8.12958336 1.04719281 -0.42957354 17 12 8266 8.20800000 1630926149 1630926149 -3.00000000
8.12796497 1.04410017 -0.14303993 14 14 8268 8.19600000 1630926154 1630926154 -1.00000000
8.19728947 1.05155122 2.21445584 54 15 8269 8.55600000 1630926156 1630926156 15.00000000
2.23074651 0.28339118 -0.60253072 4 0 8276 2.32800000 1630926177 1630926177 -15.00000000
8.14546490 1.03334486 0.14331916 18 1 8277 8.21200000 1630926179 1630926179 1.00000000
2.61767244 0.33161730 -0.60916746 9 2 8278 2.70800000 1630926182 1630926182 -13.00000000
8.13986397 1.02974737 0.42999223 49 3 8279 8.21600000 1630926184 1630926184 3.00000000
3.13389850 0.39645916 -0.61402333 6 4 8279 3.21800000 1630926186 1630926186 -11.00000000
8.13601017 1.02781713 0.71746606 79 5 8280 8.23200000 1630926188 1630926188 5.00000000
3.98044205 0.50214100 -0.63543677 6 6 8281 4.06200000 1630926191 1630926191 -9.00000000
8.15777683 1.02767396 1.00956559 100 7 8282 8.28400000 1630926193 1630926193 7.00000000
5.29026318 0.66550165 -0.65468210 9 8 8283 5.37200000 1630926195 1630926195 -7.00000000
8.12091064 1.02015018 -0.71607161 17 10 8284 8.21600000 1630926200 1630926200 -5.00000000
8.13913441 1.01955354 -0.42988753 17 12 8286 8.21400000 1630926205 1630926205 -3.00000000
8.12362289 1.01473045 -0.14290030 14 14 8288 8.18800000 1630926209 1630926209 -1.00000000
8.18539619 1.02244675 2.21031475 60 15 8288 8.54000000 1630926212 1630926212 15.00000000
2.22405314 0.27465561 -0.60046017 4 0 8296 2.32000000 1630926232 1630926232 -15.00000000
8.13512993 1.00319242 0.14307483 12 1 8297 8.19800000 1630926235 1630926235 1.00000000
2.61881399 0.32247791 -0.60916746 10 2 8298 2.70800000 1630926237 1630926237 -13.00000000
8.14340878 1.00132763 0.42999223 47 3 8299 8.21600000 1630926239 1630926239 3.00000000
3.13916039 0.38599658 -0.61478657 5 4 8299 3.22200000 1630926241 1630926241 -11.00000000
8.12768269 0.99795395 0.71642023 79 5 8300 8.22000000 1630926244 1630926244 5.00000000
3.97628856 0.48752239 -0.63449818 6 6 8301 4.05600000 1630926246 1630926246 -9.00000000
8.15737343 0.99870926 1.00907815 100 7 8302 8.28000000 1630926248 1630926248 7.00000000
5.29255390 0.64703113 -0.65468210 6 8 8303 5.37200000 1630926251 1630926251 -7.00000000
8.10662270 0.98962379 -0.71450275 17 10 8304 8.19800000 1630926255 1630926255 -5.00000000
8.13867855 0.99065381 -0.42967820 17 12 8306 8.21000000 1630926260 1630926260 -3.00000000
8.13108540 0.98684943 -0.14297011 14 14 8308 8.19200000 1630926265 1630926265 -1.00000000
8.17374611 0.99057949 2.20617366 54 15 8309 8.52400000 1630926267 1630926267 15.00000000
2.23257709 0.26859018 -0.60253072 4 0 8314 2.32800000 1630926288 1630926288 -15.00000000
8.12235832 0.97572219 0.14279559 15 1 8315 8.18200000 1630926290 1630926290 1.00000000
2.61594439 0.31378490 -0.60826766 9 2 8316 2.70400000 1630926292 1630926292 -13.00000000
8.14254856 0.97526443 0.42978287 39 3 8317 8.21200000 1630926294 1630926294 3.00000000
3.15010428 0.37730014 -0.61669469 8 4 8317 3.23200000 1630926297 1630926297 -11.00000000
8.13869095 0.97336161 0.71711743 90 5 8318 8.22800000 1630926299 1630926299 5.00000000
3.96799326 0.47385696 -0.63293386 6 6 8319 4.04600000 1630926301 1630926301 -9.00000000
8.15258598 0.97213703 1.00810325 99 7 8320 8.27200000 1630926304 1630926304 7.00000000
5.29456043 0.63040090 -0.65468210 6 8 8321 5.37200000 1630926306 1630926306 -7.00000000
8.10573483 0.96368080 -0.71415418 17 10 8322 8.19400000 1630926311 1630926311 -5.00000000
8.13580036 0.96437526 -0.42936417 17 12 8324 8.20400000 1630926315 1630926315 -3.00000000
8.13017368 0.96083069 -0.14290030 14 14 8326 8.18800000 1630926320 1630926320 -1.00000000
8.17664909 0.96632314 2.20617366 54 15 8326 8.52400000 1630926322 1630926322 15.00000000
2.23350096 0.26079538 -0.60253072 4 0 8334 2.32800000 1630926343 1630926343 -15.00000000
8.11776924 0.94643766 0.14265597 15 1 8335 8.17400000 1630926345 1630926345 1.00000000
2.61508822 0.30442628 -0.60781777 7 2 8336 2.70200000 1630926347 1630926347 -13.00000000
8.14788628 0.94706625 0.42988753 28 3 8337 8.21400000 1630926350 1630926350 3.00000000
3.14360142 0.36539522 -0.61516821 8 4 8337 3.22400000 1630926352 1630926352 -11.00000000
8.13610172 0.94425726 0.71659452 83 5 8338 8.22200000 1630926354 1630926354 5.00000000
3.97943425 0.46114013 -0.63449818 6 6 8339 4.05600000 1630926357 1630926357 -9.00000000
8.14212608 0.94207615 1.00639701 97 7 8340 8.25800000 1630926359 1630926359 7.00000000
5.28095293 0.61009306 -0.65273219 9 8 8341 5.35600000 1630926361 1630926361 -7.00000000
8.10311127 0.93469572 -0.71363121 17 10 8342 8.18800000 1630926366 1630926366 -5.00000000
8.13117981 0.93505746 -0.42894551 17 12 8344 8.19600000 1630926370 1630926370 -3.00000000
8.13745213 0.93290073 -0.14297011 14 14 8346 8.19200000 1630926375 1630926375 -1.00000000
8.18781376 0.93722653 2.20824409 56 15 8347 8.53200000 1630926377 1630926377 15.00000000
2.24212027 0.25347552 -0.60460126 4 0 8355 2.33600000 1630926398 1630926398 -15.00000000
8.12515831 0.91712672 0.14272578 15 1 8356 8.17800000 1630926400 1630926400 1.00000000
2.61424994 0.29462123 -0.60736787 6 2 8357 2.70000000 1630926403 1630926403 -13.00000000
8.13542557 0.91540980 0.42905018 26 3 8358 8.19800000 1630926405 1630926405 3.00000000
3.14296865 0.35365137 -0.61478657 6 4 8358 3.22200000 1630926407 1630926407 -11.00000000
8.14346790 0.91487551 0.71694314 83 5 8359 8.22600000 1630926410 1630926410 5.00000000
3.98306084 0.44677186 -0.63481104 9 6 8360 4.05800000 1630926412 1630926412 -9.00000000
