# .PCD v0.7 - Point Cloud Data file format
VERSION 0.7
FIELDS x y z intensity laser_id azimuth distance_m adjustedtime timestamp vertical_angle
SIZE 4 4 4 1 1 2 8 8 4 8
TYPE F F F U U U F U U F
COUNT 1 1 1 1 1 1 1 1 1 1
WIDTH 524
HEIGHT 1
VIEWPOINT 0 0 0 1 0 0 0
POINTS 524
DATA ascii
-6.86312628 8.09844971 -0.55633122 4 12 31972 10.63000000 1632091846 1632091846 -3.00000000
-6.04000664 7.12969589 2.15728068 15 13 31973 9.59000000 1632091848 1632091848 13.00000000
-6.18868065 7.30777788 2.56593204 42 15 31974 9.91400000 1632091853 1632091853 15.00000000
-1.35734415 1.60733759 -0.56370789 4 0 31982 2.17800000 1632091874 1632091874 -15.00000000
-1.58983922 1.88398695 -0.56912619 4 2 31984 2.53000000 1632091878 1632091878 -13.00000000
-1.87478101 2.22243476 -0.56517625 3 4 31985 2.96200000 1632091883 1632091883 -11.00000000
-2.30190539 2.73069739 -0.56566703 1 6 31987 3.61600000 1632091887 1632091887 -9.00000000
-2.97090769 3.52681661 -0.56620497 2 8 31989 4.64600000 1632091892 1632091892 -7.00000000
-4.13493776 4.91039658 -0.56163162 7 10 31990 6.44400000 1632091897 1632091897 -5.00000000
-6.02193928 7.15381622 1.81764650 21 11 31991 9.52600000 1632091899 1632091899 11.00000000
-6.83995962 8.12847042 -0.55674988 4 12 31992 10.63800000 1632091901 1632091901 -3.00000000
-6.00002909 7.13284016 2.15188169 15 13 31993 9.56600000 1632091904 1632091904 13.00000000
-6.15070105 7.31455040 2.56075573 45 15 31994 9.89400000 1632091908 1632091908 15.00000000
-1.35945559 1.62071049 -0.56681371 4 0 32001 2.19000000 1632091929 1632091929 -15.00000000
-1.57732368 1.88178134 -0.56687665 4 2 32003 2.52000000 1632091934 1632091934 -13.00000000
-1.86361802 2.22412515 -0.56403136 3 4 32004 2.95600000 1632091938 1632091938 -11.00000000
-2.29156923 2.73680115 -0.56535417 1 6 32006 3.61400000 1632091943 1632091943 -9.00000000
-2.96556520 3.54426146 -0.56742364 2 8 32008 4.65600000 1632091947 1632091947 -7.00000000
-4.14547586 4.95617533 -0.56529212 7 10 32009 6.48600000 1632091952 1632091952 -5.00000000
-6.80272007 8.13884830 -0.55591255 4 12 32011 10.62200000 1632091957 1632091957 -3.00000000
-5.96509743 7.13923883 2.14783263 10 13 32012 9.54800000 1632091959 1632091959 13.00000000
-6.12393427 7.33194113 2.55972028 40 15 32013 9.89000000 1632091963 1632091963 15.00000000
-1.35626268 1.62841487 -0.56784898 4 0 32021 2.19400000 1632091984 1632091984 -15.00000000
-1.56451237 1.87978649 -0.56462717 4 2 32023 2.51000000 1632091989 1632091989 -13.00000000
-1.86086559 2.23665357 -0.56555784 3 4 32024 2.96400000 1632091993 1632091993 -11.00000000
-2.28452778 2.74782157 -0.56597990 1 6 32026 3.61800000 1632091998 1632091998 -9.00000000
-2.94936967 3.55001092 -0.56669247 2 8 32028 4.65000000 1632092003 1632092003 -7.00000000
-4.14469814 4.99054098 -0.56755817 4 10 32029 6.51200000 1632092007 1632092007 -5.00000000
-6.01950598 7.25052977 1.83176637 12 11 32030 9.60000000 1632092010 1632092010 11.00000000
-6.78064632 8.17022896 -0.55643588 4 12 32031 10.63200000 1632092012 1632092012 -3.00000000
-5.98617840 7.21550989 2.16447902 13 13 32032 9.62200000 1632092014 1632092014 13.00000000
-6.05263329 7.30079699 2.54108548 47 15 32034 9.81800000 1632092019 1632092019 15.00000000
-1.35274696 1.63635278 -0.56888425 4 0 32042 2.19800000 1632092040 1632092040 -15.00000000
-1.56133544 1.89001536 -0.56597686 4 2 32044 2.51600000 1632092044 1632092044 -13.00000000
-1.85265541 2.24345899 -0.56555784 2 4 32045 2.96400000 1632092049 1632092049 -11.00000000
-2.27192664 2.75312901 -0.56535417 1 6 32047 3.61400000 1632092053 1632092053 -9.00000000
-2.93886447 3.56386018 -0.56717992 2 8 32049 4.65400000 1632092058 1632092058 -7.00000000
-4.13525057 5.01645994 -0.56877840 4 10 32050 6.52600000 1632092063 1632092063 -5.00000000
-6.76335382 8.21044254 -0.55748260 8 12 32052 10.65200000 1632092067 1632092067 -3.00000000
-7.02131224 8.52662563 2.55004525 30 13 32053 11.33600000 1632092069 1632092069 13.00000000
-6.08113384 7.38750696 2.56386137 42 15 32054 9.90600000 1632092074 1632092074 15.00000000
-1.34457541 1.63807833 -0.56784898 4 0 32062 2.19400000 1632092095 1632092095 -15.00000000
-1.56337965 1.90600097 -0.56912619 4 2 32064 2.53000000 1632092099 1632092099 -13.00000000
-1.84730256 2.25294852 -0.56632107 3 4 32065 2.96800000 1632092104 1632092104 -11.00000000
-2.27482224 2.77632260 -0.56848282 1 6 32067 3.63400000 1632092109 1632092109 -9.00000000
-2.94149733 3.59252810 -0.57010478 2 8 32069 4.67800000 1632092113 1632092113 -7.00000000
-4.11266661 5.02469683 -0.56808114 4 10 32070 6.51800000 1632092118 1632092118 -5.00000000
-6.74729776 8.24946022 -0.55852932 8 12 32072 10.67200000 1632092122 1632092122 -3.00000000
-6.99397326 8.55410004 2.55094504 55 13 32073 11.34000000 1632092125 1632092125 13.00000000
-6.04919672 7.40121031 2.56127334 40 15 32074 9.89600000 1632092129 1632092129 15.00000000
-1.33152640 1.63377678 -0.56474316 5 0 32082 2.18200000 1632092150 1632092150 -15.00000000
-1.56040871 1.91597962 -0.57047588 4 2 32084 2.53600000 1632092155 1632092155 -13.00000000
-1.83942711 2.25938320 -0.56632107 3 4 32085 2.96800000 1632092159 1632092159 -11.00000000
-2.26511717 2.78424621 -0.56848282 1 6 32087 3.63400000 1632092164 1632092164 -9.00000000
-2.90890360 3.57812905 -0.56620497 2 8 32089 4.64600000 1632092168 1632092168 -7.00000000
-4.08881950 5.03129148 -0.56720960 8 10 32090 6.50800000 1632092173 1632092173 -5.00000000
-6.72853327 8.28536606 -0.55936670 8 12 32092 10.68800000 1632092178 1632092178 -3.00000000
-6.97021246 8.58602619 2.55319452 60 13 32093 11.35000000 1632092180 1632092180 13.00000000
-6.01967287 7.41778088 2.55972028 42 15 32094 9.89000000 1632092185 1632092185 15.00000000
-1.33432198 1.64892697 -0.56836665 5 0 32102 2.19600000 1632092205 1632092205 -15.00000000
-1.55371118 1.92141473 -0.57047588 4 2 32104 2.53600000 1632092210 1632092210 -13.00000000
-1.84387100 2.28105831 -0.57013726 2 4 32105 2.98800000 1632092215 1632092215 -11.00000000
-2.25662589 2.79367280 -0.56879574 1 6 32107 3.63600000 1632092219 1632092219 -9.00000000
-2.90387702 3.59752917 -0.56766742 2 8 32109 4.65800000 1632092224 1632092224 -7.00000000
-4.08624601 5.06413984 -0.56930131 8 10 32110 6.53200000 1632092228 1632092228 -5.00000000
-6.71210766 8.32435036 -0.56041342 8 12 32112 10.70800000 1632092233 1632092233 -3.00000000
-6.93775320 8.60726929 2.55229473 57 13 32113 11.34600000 1632092235 1632092235 13.00000000
-5.99244499 7.43979406 2.55972028 40 15 32115 9.89000000 1632092240 1632092240 15.00000000
-1.32613802 1.65056264 -0.56733137 5 0 32122 2.19200000 1632092261 1632092261 -15.00000000
-1.53967464 1.91770899 -0.56777644 4 2 32124 2.52400000 1632092265 1632092265 -13.00000000
-1.83835506 2.29054308 -0.57090050 3 4 32125 2.99200000 1632092270 1632092270 -11.00000000
-2.24068093 2.79382777 -0.56723136 1 6 32127 3.62600000 1632092274 1632092274 -9.00000000
-2.89875007 3.61693788 -0.56912982 2 8 32129 4.67000000 1632092279 1632092279 -7.00000000
-4.07352686 5.08459234 -0.56999856 4 10 32130 6.54000000 1632092284 1632092284 -5.00000000
-6.70173311 8.37111664 -0.56198353 4 12 32132 10.73800000 1632092288 1632092288 -3.00000000
-6.90036011 8.62230587 2.54959536 60 13 32133 11.33400000 1632092291 1632092291 13.00000000
-5.97136116 7.46415043 2.56127334 45 15 32134 9.89600000 1632092295 1632092295 15.00000000
-1.32277787 1.65820205 -0.56836665 4 0 32142 2.19600000 1632092316 1632092316 -15.00000000
-1.54025948 1.93221486 -0.57047588 4 2 32144 2.53600000 1632092320 1632092320 -13.00000000
-1.81811345 2.28159213 -0.56708431 3 4 32145 2.97200000 1632092325 1632092325 -11.00000000
-2.23460650 2.80626822 -0.56816995 1 6 32147 3.63200000 1632092330 1632092330 -9.00000000
-2.88239908 3.62237430 -0.56839859 2 8 32149 4.66400000 1632092334 1632092334 -7.00000000
-4.07559824 5.12372923 -0.57278752 8 10 32150 6.57200000 1632092339 1632092339 -5.00000000
-6.67868519 8.40227699 -0.56250685 4 12 32152 10.74800000 1632092344 1632092344 -3.00000000
-6.86537123 8.64023685 2.54779553 57 13 32153 11.32600000 1632092346 1632092346 13.00000000
-5.94887495 7.48948717 2.56282616 40 15 32154 9.90200000 1632092350 1632092350 15.00000000
-1.30858552 1.65220857 -0.56474316 4 0 32162 2.18200000 1632092371 1632092371 -15.00000000
-1.53713357 1.94216371 -0.57182556 4 2 32164 2.54200000 1632092376 1632092376 -13.00000000
-1.81257439 2.29100394 -0.56784755 3 4 32165 2.97600000 1632092380 1632092380 -11.00000000
-2.22969770 2.82024956 -0.56942147 1 6 32167 3.64000000 1632092385 1632092385 -9.00000000
-2.87589002 3.64020181 -0.56961733 2 8 32169 4.67400000 1632092390 1632092390 -7.00000000
-4.06139278 5.14261484 -0.57331049 4 10 32170 6.57800000 1632092394 1632092394 -5.00000000
-6.66416311 8.44435215 -0.56376290 4 12 32172 10.77200000 1632092399 1632092399 -3.00000000
-6.83758354 8.66720867 2.54869556 56 13 32173 11.33000000 1632092401 1632092401 13.00000000
-5.91181660 7.49910355 2.55868506 45 15 32175 9.88600000 1632092406 1632092406 15.00000000
-1.30281031 1.65676630 -0.56474316 4 0 32182 2.18200000 1632092426 1632092426 -15.00000000
-1.53636503 1.95517886 -0.57407510 4 2 32184 2.55200000 1632092431 1632092431 -13.00000000
-1.81184268 2.30658054 -0.57013726 3 4 32185 2.98800000 1632092436 1632092436 -11.00000000
-2.22715759 2.83733869 -0.57129866 1 6 32187 3.65200000 1632092440 1632092440 -9.00000000
-2.86071539 3.64709449 -0.56912982 2 8 32189 4.67000000 1632092445 1632092445 -7.00000000
-4.03604031 5.14735317 -0.57226461 8 10 32190 6.56600000 1632092450 1632092450 -5.00000000
-6.65558720 8.49428940 -0.56554234 4 12 32192 10.80600000 1632092454 1632092454 -3.00000000
-6.80969095 8.69409180 2.54959536 60 13 32193 11.33400000 1632092456 1632092456 13.00000000
-5.88560390 7.51969385 2.55868506 40 15 32195 9.88600000 1632092461 1632092461 15.00000000
-1.29345262 1.65673566 -0.56319022 4 0 32202 2.17600000 1632092482 1632092482 -15.00000000
-1.52353740 1.95284748 -0.57182556 4 2 32204 2.54200000 1632092486 1632092486 -13.00000000
-1.79895079 2.30669832 -0.56861079 3 4 32205 2.98000000 1632092491 1632092491 -11.00000000
-2.20874023 2.83418894 -0.56910861 1 6 32207 3.63800000 1632092496 1632092496 -9.00000000
-2.85284591 3.66332293 -0.57010478 2 8 32209 4.67800000 1632092500 1632092500 -7.00000000
-4.01804829 5.16141033 -0.57226461 8 10 32210 6.56600000 1632092505 1632092505 -5.00000000
-6.61731148 8.50643539 -0.56480962 4 12 32212 10.79200000 1632092509 1632092509 -3.00000000
-6.77690887 8.71473217 2.54869556 59 13 32213 11.33000000 1632092512 1632092512 13.00000000
-5.85813379 7.53866720 2.55816746 40 15 32215 9.88400000 1632092516 1632092516 15.00000000
-1.30186391 1.67956305 -0.56940192 3 0 32222 2.20000000 1632092537 1632092537 -15.00000000
-1.51074481 1.95045054 -0.56957608 4 2 32224 2.53200000 1632092542 1632092542 -13.00000000
-1.80050349 2.32538247 -0.57166374 2 4 32225 2.99600000 1632092546 1632092546 -11.00000000
-2.19520712 2.83719444 -0.56816995 1 6 32227 3.63200000 1632092551 1632092551 -9.00000000
-2.84004116 3.67325878 -0.57010478 2 8 32229 4.67800000 1632092556 1632092556 -7.00000000
-4.00975418 5.18801594 -0.57365912 8 10 32230 6.58200000 1632092560 1632092560 -5.00000000
-6.61565733 8.56583881 -0.56721711 4 12 32232 10.83800000 1632092565 1632092565 -3.00000000
-6.74168348 8.73216534 2.54689574 57 13 32233 11.32200000 1632092567 1632092567 13.00000000
-5.83296347 7.56059933 2.55868506 40 15 32235 9.88600000 1632092572 1632092572 15.00000000
-1.29599321 1.68409717 -0.56940192 4 0 32242 2.20000000 1632092592 1632092592 -15.00000000
-1.50630307 1.95880175 -0.57047588 4 2 32244 2.53600000 1632092597 1632092597 -13.00000000
-1.79476845 2.33476639 -0.57242697 4 4 32245 3.00000000 1632092602 1632092602 -11.00000000
-2.21657729 2.88557005 -0.57630455 1 6 32247 3.68400000 1632092606 1632092606 -9.00000000
-2.82720184 3.68315005 -0.57010478 2 8 32249 4.67800000 1632092611 1632092611 -7.00000000
-3.98919463 5.19881964 -0.57331049 4 10 32250 6.57800000 1632092615 1632092615 -5.00000000
-6.58936262 8.59363365 -0.56753111 4 12 32252 10.84400000 1632092620 1632092620 -3.00000000
-6.70641947 8.74945831 2.54509616 59 13 32253 11.31400000 1632092622 1632092622 13.00000000
-5.80785942 7.57990074 2.55868506 42 15 32254 9.88600000 1632092627 1632092627 15.00000000
-1.29127944 1.69014585 -0.56991953 4 0 32262 2.20200000 1632092648 1632092648 -15.00000000
-1.51128173 1.97953713 -0.57497489 4 2 32264 2.55600000 1632092652 1632092652 -13.00000000
-1.78184342 2.33477426 -0.57090050 2 4 32265 2.99200000 1632092657 1632092657 -11.00000000
-2.19571018 2.87915325 -0.57348877 1 6 32267 3.66600000 1632092661 1632092661 -9.00000000
-2.82756352 3.71036410 -0.57278591 2 8 32269 4.70000000 1632092666 1632092666 -7.00000000
-3.97102308 5.21271276 -0.57331049 4 10 32270 6.57800000 1632092671 1632092671 -5.00000000
-6.58110094 8.64518833 -0.56941521 4 12 32272 10.88000000 1632092675 1632092675 -3.00000000
-6.67819786 8.77591610 2.54599595 57 13 32273 11.31800000 1632092678 1632092678 13.00000000
-5.77769995 7.59806108 2.55764985 42 15 32275 9.88200000 1632092682 1632092682 15.00000000
-1.27982903 1.68672371 -0.56733137 4 0 32281 2.19200000 1632092703 1632092703 -15.00000000
-1.49764478 1.97522080 -0.57227546 4 2 32283 2.54400000 1632092708 1632092708 -13.00000000
-1.77171946 2.33754086 -0.57013726 2 4 32284 2.98800000 1632092712 1632092712 -11.00000000
-2.17660928 2.87382102 -0.57098579 1 6 32286 3.65000000 1632092717 1632092717 -9.00000000
-2.83201551 3.74188018 -0.57619828 2 8 32288 4.72800000 1632092721 1632092721 -7.00000000
-3.95251322 5.22426367 -0.57313615 4 10 32289 6.57600000 1632092726 1632092726 -5.00000000
-6.55119181 8.66537094 -0.56931055 4 12 32291 10.87800000 1632092731 1632092731 -3.00000000
-6.65610886 8.80734158 2.54869556 57 13 32292 11.33000000 1632092733 1632092733 13.00000000
-5.74914360 7.61000919 2.55557919 42 15 32293 9.87400000 1632092738 1632092738 15.00000000
-1.27974522 1.69889605 -0.56991953 4 0 32301 2.20200000 1632092758 1632092758 -15.00000000
-1.48722494 1.97576559 -0.57092577 4 2 32303 2.53800000 1632092763 1632092763 -13.00000000
-1.76827073 2.34998608 -0.57166374 3 4 32304 2.99600000 1632092767 1632092767 -11.00000000
-2.15944147 2.87192822 -0.56910861 1 6 32306 3.63800000 1632092772 1632092772 -9.00000000
-2.80701232 3.73587275 -0.57376087 2 8 32308 4.70800000 1632092777 1632092777 -7.00000000
-3.93664598 5.24121475 -0.57348478 4 10 32309 6.58000000 1632092781 1632092781 -5.00000000
-6.52090406 8.68818665 -0.56931055 4 12 32311 10.87800000 1632092786 1632092786 -3.00000000
-6.62532473 8.83052254 2.54869556 60 13 32312 11.33000000 1632092788 1632092788 13.00000000
-5.72584820 7.63721228 2.55764985 42 15 32314 9.88200000 1632092793 1632092793 15.00000000
-1.27873337 1.70931816 -0.57199007 4 0 32320 2.21000000 1632092814 1632092814 -15.00000000
-1.48183167 1.98224747 -0.57137567 4 2 32322 2.54000000 1632092818 1632092818 -13.00000000
-1.76516902 2.36212778 -0.57319021 4 4 32323 3.00400000 1632092823 1632092823 -11.00000000
-2.15817952 2.89015269 -0.57129866 1 6 32325 3.65200000 1632092827 1632092827 -9.00000000
-2.80291843 3.75629735 -0.57546705 2 8 32327 4.72200000 1632092832 1632092832 -7.00000000
-3.93949533 5.28139019 -0.57644808 4 10 32328 6.61400000 1632092837 1632092837 -5.00000000
-6.49802494 8.71776962 -0.56983387 4 12 32330 10.88800000 1632092841 1632092841 -3.00000000
-6.58669043 8.83994293 2.54509616 55 13 32331 11.31400000 1632092844 1632092844 13.00000000
-5.69836521 7.65051508 2.55609679 40 15 32332 9.87600000 1632092848 1632092848 15.00000000
-1.27045524 1.71066952 -0.57095480 4 0 32340 2.20600000 1632092869 1632092869 -15.00000000
-1.47722590 1.99053764 -0.57227546 4 2 32342 2.54400000 1632092873 1632092873 -13.00000000
-1.75691295 2.36827493 -0.57319021 4 4 32343 3.00400000 1632092878 1632092878 -11.00000000
-2.14807773 2.89766860 -0.57129866 1 6 32345 3.65200000 1632092883 1632092883 -9.00000000
-2.78033662 3.75329757 -0.57351714 2 8 32347 4.70600000 1632092887 1632092887 -7.00000000
-3.93289256 5.31112099 -0.57819122 4 10 32348 6.63400000 1632092892 1632092892 -5.00000000
-6.51982737 8.81104088 -0.57443947 4 12 32350 10.97600000 1632092896 1632092896 -3.00000000
-6.55811119 8.86601448 2.54599595 57 13 32351 11.31800000 1632092899 1632092899 13.00000000
-5.67373133 7.67600965 2.55764985 40 15 32353 9.88200000 1632092903 1632092903 15.00000000
-1.25959229 1.70909393 -0.56888425 4 0 32361 2.19800000 1632092924 1632092924 -15.00000000
-1.47338712 2.00064611 -0.57362521 4 2 32363 2.55000000 1632092929 1632092929 -13.00000000
-1.74123740 2.36521220 -0.57090050 3 4 32364 2.99200000 1632092933 1632092933 -11.00000000
-2.15500140 2.92939019 -0.57599169 1 6 32366 3.68200000 1632092938 1632092938 -9.00000000
-2.77244020 3.77146006 -0.57473582 2 8 32368 4.71600000 1632092943 1632092943 -7.00000000
-3.89452314 5.29981184 -0.57540220 4 10 32369 6.60200000 1632092947 1632092947 -5.00000000
-6.48512554 8.83165836 -0.57423013 4 12 32371 10.97200000 1632092952 1632092952 -3.00000000
-6.52095890 8.88370800 2.54419637 56 13 32372 11.31000000 1632092954 1632092954 13.00000000
-5.64690208 7.69576788 2.55764985 42 15 32373 9.88200000 1632092959 1632092959 15.00000000
-1.25133741 1.71036196 -0.56784898 4 0 32381 2.19400000 1632092979 1632092979 -15.00000000
-1.46984494 2.01049638 -0.57497489 4 2 32383 2.55600000 1632092984 1632092984 -13.00000000
-1.73760426 2.37761617 -0.57242697 2 4 32384 3.00000000 1632092989 1632092989 -11.00000000
-2.14592767 2.93848991 -0.57630455 1 6 32386 3.68400000 1632092993 1632092993 -9.00000000
-2.76510930 3.78913236 -0.57595450 2 8 32388 4.72600000 1632092998 1632092998 -7.00000000
-3.88304472 5.32303190 -0.57644808 4 10 32389 6.61400000 1632093002 1632093002 -5.00000000
-6.46131659 8.86392593 -0.57485813 4 12 32391 10.98400000 1632093007 1632093007 -3.00000000
-6.50138569 8.92216587 2.54869556 59 13 32392 11.33000000 1632093009 1632093009 13.00000000
-5.61183500 7.70704317 2.55454397 40 15 32394 9.87000000 1632093014 1632093014 15.00000000
-1.24990046 1.72097194 -0.56991953 4 0 32401 2.20200000 1632093035 1632093035 -15.00000000
-1.45595038 2.00615191 -0.57227546 4 2 32403 2.54400000 1632093039 1632093039 -13.00000000
-1.72929430 2.38366699 -0.57242697 4 4 32404 3.00000000 1632093044 1632093044 -11.00000000
-2.12986016 2.93796611 -0.57474023 1 6 32406 3.67400000 1632093049 1632093049 -9.00000000
-2.74138474 3.78429270 -0.57376087 2 8 32408 4.70800000 1632093053 1632093053 -7.00000000
-3.86677742 5.33978128 -0.57679671 4 10 32409 6.61800000 1632093058 1632093058 -5.00000000
-6.44906998 8.91231537 -0.57653290 4 12 32411 11.01600000 1632093062 1632093062 -3.00000000
-6.46791744 8.94164753 2.54779553 57 13 32412 11.32600000 1632093065 1632093065 13.00000000
-5.58171892 7.71934843 2.55247331 45 15 32413 9.86200000 1632093069 1632093069 15.00000000
-1.25066423 1.73472679 -0.57302535 4 0 32421 2.21400000 1632093090 1632093090 -15.00000000
-1.44324315 2.00331616 -0.57002598 4 2 32423 2.53400000 1632093095 1632093095 -13.00000000
-1.72555244 2.39606142 -0.57395345 4 4 32424 3.00800000 1632093099 1632093099 -11.00000000
-2.11497641 2.93896937 -0.57348877 1 6 32426 3.66600000 1632093104 1632093104 -9.00000000
-2.73511219 3.80350900 -0.57522333 2 8 32428 4.72000000 1632093108 1632093108 -7.00000000
-3.86090660 5.37104177 -0.57871413 4 10 32429 6.64000000 1632093113 1632093113 -5.00000000
-6.43073797 8.95261574 -0.57768428 4 12 32431 11.03800000 1632093118 1632093118 -3.00000000
-6.43211937 8.95783806 2.54599595 57 13 32432 11.31800000 1632093120 1632093120 13.00000000
-5.56127214 7.75074196 2.55609679 40 15 32434 9.87600000 1632093125 1632093125 15.00000000
-1.24490476 1.73886454 -0.57302535 4 0 32440 2.21400000 1632093145 1632093145 -15.00000000
-1.44112742 2.01443076 -0.57182556 4 2 32442 2.54200000 1632093150 1632093150 -13.00000000
-1.70846117 2.38899493 -0.57090050 3 4 32443 2.99200000 1632093155 1632093155 -11.00000000
-2.10407043 2.94435954 -0.57317591 1 6 32445 3.66400000 1632093159 1632093159 -9.00000000
-2.74555612 3.84486771 -0.58009809 2 8 32447 4.76000000 1632093164 1632093164 -7.00000000
-3.84770465 5.39030218 -0.57941139 4 10 32448 6.64800000 1632093168 1632093168 -5.00000000
-6.40565395 8.98039627 -0.57810295 4 12 32450 11.04600000 1632093173 1632093173 -3.00000000
-6.39332819 8.96642494 2.54239678 59 13 32451 11.30200000 1632093175 1632093175 13.00000000
-5.53913736 7.77132082 2.55713224 38 15 32452 9.88000000 1632093180 1632093180 15.00000000
-1.23658919 1.74005008 -0.57199007 4 0 32460 2.21000000 1632093201 1632093201 -15.00000000
-1.43972850 2.02739334 -0.57407510 4 2 32462 2.55200000 1632093205 1632093205 -13.00000000
-1.71147597 2.41095304 -0.57471669 4 4 32463 3.01200000 1632093210 1632093210 -11.00000000
-2.10749459 2.97102046 -0.57693028 1 6 32465 3.68800000 1632093214 1632093214 -9.00000000
-2.71375108 3.82851601 -0.57619828 2 8 32467 4.72800000 1632093219 1632093219 -7.00000000
-3.83347297 5.41020298 -0.58010864 4 10 32468 6.65600000 1632093224 1632093224 -5.00000000
-6.39965868 9.03856182 -0.58040577 4 12 32470 11.09000000 1632093228 1632093228 -3.00000000
-6.36199045 8.98868752 2.54239678 57 13 32471 11.30200000 1632093231 1632093231 13.00000000
-4.83581114 6.83491898 2.24344349 38 15 32472 8.66800000 1632093235 1632093235 15.00000000
-1.22301519 1.73309231 -0.56836665 4 0 32479 2.19600000 1632093256 1632093256 -15.00000000
-1.43748975 2.03852677 -0.57587469 4 2 32481 2.56000000 1632093261 1632093261 -13.00000000
-1.70347154 2.41661525 -0.57471669 2 4 32482 3.01200000 1632093265 1632093265 -11.00000000
-2.10445595 2.98768258 -0.57880753 1 6 32484 3.70000000 1632093270 1632093270 -9.00000000
-2.71018100 3.85048056 -0.57814819 2 8 32486 4.74400000 1632093274 1632093274 -7.00000000
-3.80175328 5.40333176 -0.57801688 4 10 32487 6.63200000 1632093279 1632093279 -5.00000000
-6.36735296 9.05646610 -0.58019644 4 12 32489 11.08600000 1632093284 1632093284 -3.00000000
-6.33662987 9.01611233 2.54419637 57 13 32490 11.31000000 1632093286 1632093286 13.00000000
-4.81089830 6.84775591 2.24240828 40 15 32491 8.66400000 1632093290 1632093290 15.00000000
-1.22249985 1.74526238 -0.57095480 4 0 32499 2.20600000 1632093311 1632093311 -15.00000000
-1.42254281 2.03235674 -0.57272536 3 2 32501 2.54600000 1632093316 1632093316 -13.00000000
-1.69277453 2.41932964 -0.57395345 2 4 32502 3.00800000 1632093320 1632093320 -11.00000000
-2.07590389 2.96910739 -0.57380164 1 6 32504 3.66800000 1632093325 1632093325 -9.00000000
-2.69672370 3.85991740 -0.57814819 2 8 32506 4.74400000 1632093330 1632093330 -7.00000000
-3.78857303 5.42473650 -0.57888842 4 10 32507 6.64200000 1632093334 1632093334 -5.00000000
-6.33455801 9.07699966 -0.58009171 8 12 32509 11.08400000 1632093339 1632093339 -3.00000000
-6.30511951 9.03817654 2.54419637 57 13 32510 11.31000000 1632093341 1632093341 13.00000000
-4.79018641 6.87168169 2.24447870 40 15 32512 8.67200000 1632093346 1632093346 15.00000000
-1.22050512 1.75607669 -0.57302535 4 0 32520 2.21400000 1632093367 1632093367 -15.00000000
-1.41174948 2.03275514 -0.57137567 4 2 32522 2.54000000 1632093371 1632093371 -13.00000000
-1.68837440 2.43196845 -0.57547992 2 4 32523 3.01600000 1632093376 1632093376 -11.00000000
-2.06275558 2.97344995 -0.57317591 1 6 32525 3.66400000 1632093380 1632093380 -9.00000000
-2.68482018 3.87303829 -0.57863563 2 8 32527 4.74800000 1632093385 1632093385 -7.00000000
-3.78341722 5.45987511 -0.58115447 4 10 32528 6.66800000 1632093390 1632093390 -5.00000000
-6.30806875 9.11000824 -0.58071977 8 12 32530 11.09600000 1632093394 1632093394 -3.00000000
-6.26751375 9.05481625 2.54239678 55 13 32531 11.30200000 1632093396 1632093396 13.00000000
-4.76287317 6.88359499 2.24292588 40 15 32532 8.66600000 1632093401 1632093401 15.00000000
-1.21656179 1.76350665 -0.57406062 4 0 32540 2.21800000 1632093422 1632093422 -15.00000000
-1.41349339 2.05050635 -0.57497489 4 2 32542 2.55600000 1632093426 1632093426 -13.00000000
-1.67764699 2.43461394 -0.57471669 2 4 32543 3.01200000 1632093431 1632093431 -11.00000000
-2.06804776 3.00340986 -0.57755607 1 6 32545 3.69200000 1632093436 1632093436 -9.00000000
-2.67803574 3.89219880 -0.58009809 6 8 32547 4.76000000 1632093440 1632093440 -7.00000000
-3.77336812 5.48618126 -0.58254898 8 10 32548 6.68400000 1632093445 1632093445 -5.00000000
-6.28980541 9.15172386 -0.58197582 8 12 32550 11.12000000 1632093449 1632093449 -3.00000000
-6.23145437 9.07021332 2.54059720 55 13 32551 11.29400000 1632093452 1632093452 13.00000000
-4.74209690 6.90495586 2.24447870 40 15 32552 8.67200000 1632093456 1632093456 15.00000000
-1.20415688 1.75796843 -0.57095480 4 0 32559 2.20600000 1632093477 1632093477 -15.00000000
-1.40888727 2.05839872 -0.57587469 4 2 32561 2.56000000 1632093482 1632093482 -13.00000000
-1.66512978 2.43368268 -0.57319021 4 4 32562 3.00400000 1632093486 1632093486 -11.00000000
-2.06030655 3.01351261 -0.57818180 1 6 32564 3.69600000 1632093491 1632093491 -9.00000000
-2.67071295 3.90925360 -0.58131677 8 8 32566 4.77000000 1632093495 1632093495 -7.00000000
-3.75178385 5.49372816 -0.58202606 4 10 32567 6.67800000 1632093500 1632093500 -5.00000000
-6.27968693 9.20222664 -0.58385992 8 12 32569 11.15600000 1632093505 1632093505 -3.00000000
-6.20134258 9.09082794 2.54059720 55 13 32570 11.29400000 1632093507 1632093507 13.00000000
-4.71590805 6.91585493 2.24292588 42 15 32571 8.66600000 1632093512 1632093512 15.00000000
-1.20018530 1.76535618 -0.57199007 4 0 32579 2.21000000 1632093532 1632093532 -15.00000000
-1.40278864 2.06491590 -0.57632458 4 2 32581 2.56200000 1632093537 1632093537 -13.00000000
-1.66765404 2.45572186 -0.57700640 2 4 32582 3.02400000 1632093542 1632093542 -11.00000000
-2.04977489 3.02068615 -0.57818180 1 6 32584 3.69600000 1632093546 1632093546 -9.00000000
-2.65148044 3.91033721 -0.58009809 6 8 32586 4.76000000 1632093551 1632093551 -7.00000000
-3.73817348 5.51503706 -0.58289760 8 10 32587 6.68800000 1632093555 1632093555 -5.00000000
-6.25088739 9.22905159 -0.58417392 4 12 32589 11.16200000 1632093560 1632093560 -3.00000000
-6.17175674 9.11564636 2.54149699 59 13 32590 11.29800000 1632093562 1632093562 13.00000000
-4.69269323 6.93629360 2.24396110 40 15 32592 8.67000000 1632093567 1632093567 15.00000000
-1.19617689 1.77273762 -0.57302535 4 0 32599 2.21400000 1632093588 1632093588 -15.00000000
-1.39884055 2.07464743 -0.57767433 4 2 32601 2.56800000 1632093592 1632093592 -13.00000000
-1.66126633 2.46478415 -0.57776964 4 4 32602 3.02800000 1632093597 1632093597 -11.00000000
-2.03701115 3.02454591 -0.57755607 1 6 32604 3.69200000 1632093601 1632093601 -9.00000000
-2.64113975 3.92450953 -0.58082926 2 8 32606 4.76600000 1632093606 1632093606 -7.00000000
-3.72668457 5.53962374 -0.58411777 8 10 32607 6.70200000 1632093611 1632093611 -5.00000000
-6.22977638 9.26739025 -0.58522063 8 12 32609 11.18200000 1632093615 1632093615 -3.00000000
-6.14859486 9.15007401 2.54509616 55 13 32610 11.31400000 1632093618 1632093618 13.00000000
-4.66535711 6.94540215 2.24189067 42 15 32611 8.66200000 1632093622 1632093622 15.00000000
-1.19428146 1.78332293 -0.57509589 4 0 32619 2.22200000 1632093643 1632093643 -15.00000000
-1.38400364 2.06818056 -0.57452500 4 2 32621 2.55400000 1632093647 1632093647 -13.00000000
-1.64828622 2.46404076 -0.57624316 2 4 32622 3.02000000 1632093652 1632093652 -11.00000000
-2.03741860 3.04806066 -0.58068472 1 6 32624 3.71200000 1632093657 1632093657 -9.00000000
-2.63293743 3.94195843 -0.58204800 2 8 32626 4.77600000 1632093661 1632093661 -7.00000000
-3.71506929 5.56419754 -0.58533800 8 10 32627 6.71600000 1632093666 1632093666 -5.00000000
-6.21623278 9.31732464 -0.58700007 8 12 32629 11.21600000 1632093671 1632093671 -3.00000000
-6.11229277 9.16499615 2.54329658 56 13 32630 11.30600000 1632093673 1632093673 13.00000000
-4.64108467 6.96164513 2.24189067 40 15 32631 8.66200000 1632093677 1632093677 15.00000000
-1.19232655 1.79391646 -0.57716650 4 0 32639 2.23000000 1632093698 1632093698 -15.00000000
-1.38108838 2.07949233 -0.57632458 4 2 32641 2.56200000 1632093703 1632093703 -13.00000000
-1.64184678 2.47305059 -0.57700640 2 4 32642 3.02400000 1632093707 1632093707 -11.00000000
-2.03113461 3.06173849 -0.58193618 2 6 32644 3.72000000 1632093712 1632093712 -9.00000000
-2.60929012 3.93623400 -0.57985431 2 8 32646 4.75800000 1632093717 1632093717 -7.00000000
-3.69232225 5.57214928 -0.58481503 4 10 32647 6.71000000 1632093721 1632093721 -5.00000000
-6.18477392 9.34063148 -0.58710474 8 12 32649 11.21800000 1632093726 1632093726 -3.00000000
-6.07596111 9.17977619 2.54149699 55 13 32650 11.29800000 1632093728 1632093728 13.00000000
-4.61980057 6.98505402 2.24396110 42 15 32652 8.67000000 1632093733 1632093733 15.00000000
-1.17967498 1.78839183 -0.57406062 4 0 32659 2.21800000 1632093753 1632093753 -15.00000000
-1.37382114 2.08430076 -0.57632458 4 2 32661 2.56200000 1632093758 1632093758 -13.00000000
-1.62240267 2.46237254 -0.57319021 4 4 32662 3.00400000 1632093763 1632093763 -11.00000000
-2.02369356 3.07375956 -0.58287483 2 6 32664 3.72600000 1632093767 1632093767 -9.00000000
-2.59226108 3.94034290 -0.57912314 2 8 32666 4.75200000 1632093772 1632093772 -7.00000000
-3.68489146 5.60331535 -0.58673245 4 10 32667 6.73200000 1632093777 1632093777 -5.00000000
-6.16529322 9.38219357 -0.58836085 8 12 32669 11.24200000 1632093781 1632093781 -3.00000000
-6.05030012 9.21070194 2.54419637 57 13 32670 11.31000000 1632093783 1632093783 13.00000000
-4.58902979 6.99144745 2.24085522 42 15 32672 8.65800000 1632093788 1632093788 15.00000000
-1.17162120 1.78906167 -0.57302535 4 0 32678 2.21400000 1632093809 1632093809 -15.00000000
-1.37650537 2.10352063 -0.58037370 4 2 32680 2.58000000 1632093813 1632093813 -13.00000000
-1.61637759 2.47102499 -0.57395345 4 4 32681 3.00800000 1632093818 1632093818 -11.00000000
-1.99943936 3.05895805 -0.57880753 1 6 32683 3.70000000 1632093823 1632093823 -9.00000000
-2.59003544 3.96553755 -0.58156049 2 8 32685 4.77200000 1632093827 1632093827 -7.00000000
-3.67500377 5.62885046 -0.58812696 4 10 32686 6.74800000 1632093832 1632093832 -5.00000000
-6.15269899 9.43102360 -0.59014022 8 12 32688 11.27600000 1632093836 1632093836 -3.00000000
-6.01759434 9.22745037 2.54329658 55 13 32689 11.30600000 1632093839 1632093839 13.00000000
-4.56160116 7.00015259 2.23878479 45 15 32691 8.65000000 1632093843 1632093843 15.00000000
-1.16326368 1.78990078 -0.57199007 4 0 32698 2.21000000 1632093864 1632093864 -15.00000000
-1.36490893 2.10177541 -0.57857412 4 2 32700 2.57200000 1632093869 1632093869 -13.00000000
-1.61843204 2.49311924 -0.57776964 4 4 32701 3.02800000 1632093873 1632093873 -11.00000000
-1.98444939 3.05928969 -0.57755607 1 6 32703 3.69200000 1632093878 1632093878 -9.00000000
-2.57617736 3.97455430 -0.58156049 2 8 32705 4.77200000 1632093883 1632093883 -7.00000000
-3.65099955 5.63495588 -0.58742970 4 10 32706 6.74000000 1632093887 1632093887 -5.00000000
-6.11865568 9.45076656 -0.59003556 8 12 32708 11.27400000 1632093892 1632093892 -3.00000000
-5.98534775 9.24839973 2.54329658 59 13 32709 11.30600000 1632093894 1632093894 13.00000000
-4.54028559 7.02089930 2.24033761 45 15 32711 8.65600000 1632093899 1632093899 15.00000000
-1.16329110 1.80369139 -0.57509589 4 0 32718 2.22200000 1632093919 1632093919 -15.00000000
-1.35545266 2.10325098 -0.57767433 4 2 32720 2.56800000 1632093924 1632093924 -13.00000000
-1.61609888 2.50865602 -0.58005935 4 4 32721 3.04000000 1632093929 1632093929 -11.00000000
-1.98017359 3.07616401 -0.57943326 1 6 32723 3.70400000 1632093933 1632093933 -9.00000000
-2.56443572 3.98686171 -0.58204800 2 8 32725 4.77600000 1632093938 1632093938 -7.00000000
-3.65501332 5.68453503 -0.59126455 4 10 32726 6.78400000 1632093942 1632093942 -5.00000000
-6.08562899 9.47206688 -0.59003556 8 12 32728 11.27400000 1632093947 1632093947 -3.00000000
-5.95724058 9.27579498 2.54509616 56 13 32729 11.31400000 1632093949 1632093949 13.00000000
-4.51280403 7.02941418 2.23826718 45 15 32730 8.64800000 1632093954 1632093954 15.00000000
-1.15698791 1.80774105 -0.57509589 4 0 32738 2.22200000 1632093975 1632093975 -15.00000000
-1.33865345 2.09319401 -0.57362521 3 2 32740 2.55000000 1632093979 1632093979 -13.00000000
-1.60098743 2.50435734 -0.57776964 4 4 32741 3.02800000 1632093984 1632093984 -11.00000000
-1.98005784 3.09970474 -0.58256197 2 6 32743 3.72400000 1632093988 1632093988 -9.00000000
-2.53768659 3.97570968 -0.57912314 2 8 32745 4.75200000 1632093993 1632093993 -7.00000000
-3.61478639 5.66534615 -0.58795261 4 10 32746 6.74600000 1632093998 1632093998 -5.00000000
-6.07722378 9.53198624 -0.59244305 8 12 32748 11.32000000 1632094002 1632094002 -3.00000000
-5.91854191 9.28667259 2.54239678 60 13 32749 11.30200000 1632094005 1632094005 13.00000000
-4.49116039 7.05242538 2.24033761 45 15 32751 8.65600000 1632094009 1632094009 15.00000000
-1.14652789 1.80524564 -0.57302535 4 0 32758 2.21400000 1632094030 1632094030 -15.00000000
-1.34386885 2.11759853 -0.57902402 3 2 32760 2.57400000 1632094035 1632094035 -13.00000000
-1.58802915 2.50329924 -0.57624316 4 4 32761 3.02000000 1632094039 1632094039 -11.00000000
-1.96393776 3.09825540 -0.58099759 1 6 32763 3.71400000 1632094044 1632094044 -9.00000000
-2.53441548 4.00131369 -0.58156049 2 8 32765 4.77200000 1632094048 1632094048 -7.00000000
-3.60671258 5.69644642 -0.58987010 4 10 32766 6.76800000 1632094053 1632094053 -5.00000000
-6.04818535 9.55989265 -0.59286171 8 12 32768 11.32800000 1632094058 1632094058 -3.00000000
-5.89233875 9.31715775 2.54509616 57 13 32769 11.31400000 1632094060 1632094060 13.00000000
-4.46361971 7.06074810 2.23826718 45 15 32770 8.64800000 1632094065 1632094065 15.00000000
-1.14227939 1.81250548 -0.57406062 4 0 32778 2.21800000 1632094085 1632094085 -15.00000000
-1.33958423 2.12722373 -0.58037370 4 2 32780 2.58000000 1632094090 1632094090 -13.00000000
-1.58137310 2.51215029 -0.57700640 4 4 32781 3.02400000 1632094094 1632094094 -11.00000000
-1.94890392 3.09840345 -0.57974613 1 6 32783 3.70600000 1632094099 1632094099 -9.00000000
-2.53522158 4.03366566 -0.58497286 2 8 32785 4.80000000 1632094104 1632094104 -7.00000000
-3.60694504 5.74105549 -0.59318197 4 10 32786 6.80600000 1632094108 1632094108 -5.00000000
-6.02752113 9.60124588 -0.59411776 8 12 32788 11.35200000 1632094113 1632094113 -3.00000000
-5.86185169 9.34097004 2.54599595 59 13 32789 11.31800000 1632094115 1632094115 13.00000000
-4.43155289 7.06724072 2.23516130 47 15 32791 8.63600000 1632094120 1632094120 15.00000000
-1.13421345 1.81300795 -0.57302535 4 0 32797 2.21400000 1632094141 1632094141 -15.00000000
-1.32735789 2.12339187 -0.57812423 3 2 32799 2.57000000 1632094145 1632094145 -13.00000000
-1.57095313 2.51405048 -0.57624316 4 4 32800 3.02000000 1632094150 1632094150 -11.00000000
-1.93757224 3.10317373 -0.57943326 1 6 32802 3.70400000 1632094154 1632094154 -9.00000000
-2.52183151 4.04205036 -0.58497286 2 8 32804 4.80000000 1632094159 1632094159 -7.00000000
-3.56363750 5.71410227 -0.58917284 4 10 32805 6.76000000 1632094164 1632094164 -5.00000000
-6.01360655 9.64999676 -0.59589720 8 12 32807 11.38600000 1632094168 1632094168 -3.00000000
-5.83702564 9.37028217 2.54869556 60 13 32808 11.33000000 1632094171 1632094171 13.00000000
-4.41137123 7.08440733 2.23619652 45 15 32809 8.64000000 1632094175 1632094175 15.00000000
-1.13399112 1.82680404 -0.57613117 4 0 32817 2.22600000 1632094196 1632094196 -15.00000000
-1.31788337 2.12470031 -0.57722443 4 2 32819 2.56600000 1632094200 1632094200 -13.00000000
-1.57458246 2.53954148 -0.58082259 4 4 32820 3.04400000 1632094205 1632094205 -11.00000000
-1.92360735 3.10488057 -0.57849467 1 6 32822 3.69800000 1632094210 1632094210 -9.00000000
-2.50143743 4.04070187 -0.58351040 2 8 32824 4.78800000 1632094214 1632094214 -7.00000000
-3.55834770 5.75022602 -0.59161317 4 10 32825 6.78800000 1632094219 1632094219 -5.00000000
-5.99879217 9.70150661 -0.59778130 4 12 32827 11.42200000 1632094223 1632094223 -3.00000000
-5.79813433 9.38065338 2.54599595 59 13 32828 11.31800000 1632094226 1632094226 13.00000000
-4.38740587 7.10381556 2.23723173 47 15 32830 8.64400000 1632094230 1632094230 15.00000000
-1.12760746 1.83075130 -0.57613117 4 0 32837 2.22600000 1632094251 1632094251 -15.00000000
-1.31148016 2.13094711 -0.57767433 4 2 32839 2.56800000 1632094256 1632094256 -13.00000000
-1.56159329 2.53833365 -0.57929611 4 4 32840 3.03600000 1632094260 1632094260 -11.00000000
-1.92620587 3.13345313 -0.58256197 2 6 32842 3.72400000 1632094265 1632094265 -9.00000000
-2.49770737 4.06632376 -0.58594781 2 8 32844 4.80800000 1632094270 1632094270 -7.00000000
-3.53199911 5.75242472 -0.59056729 4 10 32845 6.77600000 1632094274 1632094274 -5.00000000
-5.97324657 9.73600674 -0.59861869 4 12 32847 11.43800000 1632094279 1632094279 -3.00000000
-5.76331663 9.39751339 2.54509616 60 13 32848 11.31400000 1632094281 1632094281 13.00000000
-4.36584425 7.12161970 2.23826718 45 15 32849 8.64800000 1632094286 1632094286 15.00000000
-1.11718059 1.82808256 -0.57406062 4 0 32857 2.21800000 1632094306 1632094306 -15.00000000
-1.30708063 2.14050174 -0.57902402 3 2 32859 2.57400000 1632094311 1632094311 -13.00000000
-1.54863191 2.53706622 -0.57776964 4 4 32860 3.02800000 1632094316 1632094316 -11.00000000
-1.91834211 3.14521718 -0.58350056 2 6 32862 3.73000000 1632094320 1632094320 -9.00000000
-2.48349810 4.07501745 -0.58594781 2 8 32864 4.80800000 1632094325 1632094325 -7.00000000
-3.52226353 5.78173351 -0.59231043 4 10 32865 6.79600000 1632094329 1632094329 -5.00000000
-5.94441795 9.76532745 -0.59914201 4 12 32867 11.44800000 1632094334 1632094334 -3.00000000
-5.73047829 9.41757393 2.54509616 60 13 32868 11.31400000 1632094336 1632094336 13.00000000
-4.33168364 7.12436819 2.23412609 47 15 32870 8.63200000 1632094341 1632094341 15.00000000
-1.11079264 1.83197117 -0.57406062 4 0 32877 2.21800000 1632094362 1632094362 -15.00000000
-1.30364013 2.15171790 -0.58082360 3 2 32879 2.58200000 1632094366 1632094366 -13.00000000
-1.54180050 2.54581523 -0.57853287 4 4 32880 3.03200000 1632094371 1632094371 -11.00000000
-1.90632880 3.15020418 -0.58318770 2 6 32882 3.72800000 1632094376 1632094376 -9.00000000
-2.46925831 4.08366156 -0.58594781 2 8 32884 4.80800000 1632094380 1632094380 -7.00000000
-3.49175382 5.77694225 -0.59056729 4 10 32885 6.77600000 1632094385 1632094385 -5.00000000
-5.94127083 9.83730793 -0.60228217 4 12 32887 11.50800000 1632094389 1632094389 -3.00000000
-5.69958448 9.44085598 2.54599595 57 13 32888 11.31800000 1632094392 1632094392 13.00000000
-4.30504036 7.13373137 2.23257303 47 15 32889 8.62600000 1632094396 1632094396 15.00000000
-1.10638273 1.83914816 -0.57509589 4 0 32897 2.22200000 1632094417 1632094417 -15.00000000
-1.29210544 2.14957452 -0.57902402 3 2 32899 2.57400000 1632094422 1632094422 -13.00000000
-1.53492689 2.55454731 -0.57929611 4 4 32900 3.03600000 1632094426 1632094426 -11.00000000
-1.89532101 3.15683937 -0.58318770 2 6 32902 3.72800000 1632094431 1632094431 -9.00000000
-2.46724319 4.11268330 -0.58887267 2 8 32904 4.83200000 1632094435 1632094435 -7.00000000
-3.50435662 5.84377432 -0.59614527 4 10 32905 6.84000000 1632094440 1632094440 -5.00000000
-5.90278959 9.85113335 -0.60186350 8 12 32907 11.50000000 1632094445 1632094445 -3.00000000
-5.66659498 9.46069431 2.54599595 59 13 32908 11.31800000 1632094447 1632094447 13.00000000
-4.27489662 7.14283133 2.23050261 47 15 32910 8.61800000 1632094452 1632094452 15.00000000
-1.10423923 1.84944165 -0.57716650 4 0 32916 2.23000000 1632094472 1632094472 -15.00000000
-1.28397167 2.15217400 -0.57857412 4 2 32918 2.57200000 1632094477 1632094477 -13.00000000
-1.53046942 2.56636786 -0.58082259 4 4 32919 3.04400000 1632094482 1632094482 -11.00000000
-1.88281977 3.15971327 -0.58256197 2 6 32921 3.72400000 1632094486 1632094486 -9.00000000
-2.46984053 4.14813280 -0.59277248 2 8 32923 4.86400000 1632094491 1632094491 -7.00000000
-3.49922466 5.87933207 -0.59858567 4 10 32924 6.86800000 1632094495 1632094495 -5.00000000
-5.85988092 9.85348797 -0.60081679 8 12 32926 11.48000000 1632094500 1632094500 -3.00000000
-5.62921619 9.46938229 2.54329658 59 13 32927 11.30600000 1632094502 1632094502 13.00000000
-4.25737000 7.16453028 2.23309064 47 15 32928 8.62800000 1632094507 1632094507 15.00000000
-1.10368407 1.86325777 -0.58027232 4 0 32936 2.24200000 1632094528 1632094528 -15.00000000
-1.27942908 2.16167378 -0.57992381 4 2 32938 2.57800000 1632094532 1632094532 -13.00000000
-1.51750314 2.56493592 -0.57929611 4 4 32939 3.03600000 1632094537 1632094537 -11.00000000
-1.87479460 3.17136765 -0.58350056 2 6 32941 3.73000000 1632094541 1632094541 -9.00000000
-2.46140337 4.16698408 -0.59423494 2 8 32943 4.87600000 1632094546 1632094546 -7.00000000
-3.46551132 5.86920738 -0.59631962 4 10 32944 6.84200000 1632094551 1632094551 -5.00000000
-5.85285187 9.92032719 -0.60364294 8 12 32946 11.53400000 1632094555 1632094555 -3.00000000
-5.59216785 9.48225975 2.54149699 59 13 32947 11.29800000 1632094558 1632094558 13.00000000
-4.23331642 7.18101168 2.23360825 47 15 32948 8.63000000 1632094562 1632094562 15.00000000
-1.08966696 1.85358429 -0.57613117 4 0 32955 2.22600000 1632094583 1632094583 -15.00000000
-1.27027965 2.16254401 -0.57902402 4 2 32957 2.57400000 1632094588 1632094588 -13.00000000
-1.51097727 2.57333994 -0.58005935 2 4 32958 3.04000000 1632094592 1632094592 -11.00000000
-1.86226845 3.17415953 -0.58287483 2 6 32960 3.72600000 1632094597 1632094597 -9.00000000
-2.42347741 4.13402271 -0.58838516 2 8 32962 4.82800000 1632094601 1632094601 -7.00000000
-3.45912457 5.90301418 -0.59858567 4 10 32963 6.86800000 1632094606 1632094606 -5.00000000
-5.83304214 9.96208763 -0.60500365 4 12 32965 11.56000000 1632094611 1632094611 -3.00000000
-5.56266117 9.50411606 2.54239678 57 13 32966 11.30200000 1632094613 1632094613 13.00000000
-4.19874859 7.17666864 2.22791433 45 15 32967 8.60800000 1632094617 1632094617 15.00000000
-1.08319008 1.85737669 -0.57613117 4 0 32975 2.22600000 1632094638 1632094638 -15.00000000
-1.26861000 2.17706752 -0.58172345 3 2 32977 2.58600000 1632094643 1632094643 -13.00000000
-1.50593805 2.58538437 -0.58158582 2 4 32978 3.04800000 1632094647 1632094647 -11.00000000
-1.85018349 3.17893362 -0.58256197 2 6 32980 3.72400000 1632094652 1632094652 -9.00000000
-2.42300344 4.16648149 -0.59179753 2 8 32982 4.85600000 1632094657 1632094657 -7.00000000
-3.44250321 5.92194271 -0.59928286 4 10 32983 6.87600000 1632094661 1632094661 -5.00000000
-5.81929874 10.01865673 -0.60720176 4 12 32985 11.60200000 1632094666 1632094666 -3.00000000
-5.52749491 9.52010441 2.54149699 60 13 32986 11.29800000 1632094668 1632094668 13.00000000
-4.16756964 7.18365431 2.22532606 47 15 32988 8.59800000 1632094673 1632094673 15.00000000
-1.07669997 1.86114645 -0.57613117 4 0 32995 2.22600000 1632094694 1632094694 -15.00000000
-1.25905240 2.17810822 -0.58082360 3 2 32997 2.58200000 1632094698 1632094698 -13.00000000
-1.49297535 2.58382583 -0.58005935 2 4 32998 3.04000000 1632094703 1632094703 -11.00000000
-1.84500182 3.19563699 -0.58443916 2 6 33000 3.73600000 1632094707 1632094707 -9.00000000
-2.40447712 4.16803598 -0.59082258 2 8 33002 4.84800000 1632094712 1632094712 -7.00000000
-3.41384840 5.92011547 -0.59788841 4 10 33003 6.86000000 1632094717 1632094717 -5.00000000
-5.79027414 10.04929161 -0.60782981 4 12 33005 11.61400000 1632094721 1632094721 -3.00000000
-4.80757284 8.34713459 2.22386622 44 13 33006 9.88600000 1632094723 1632094723 13.00000000
-4.13890553 7.18906403 2.22273803 47 15 33007 8.58800000 1632094728 1632094728 15.00000000
-1.07211995 1.86824453 -0.57716650 4 0 33015 2.23000000 1632094749 1632094749 -15.00000000
-1.24950302 2.17910862 -0.57992381 3 2 33017 2.57800000 1632094753 1632094753 -13.00000000
-1.49370980 2.60605454 -0.58387554 2 4 33018 3.06000000 1632094758 1632094758 -11.00000000
-1.83776259 3.20891428 -0.58569062 2 6 33020 3.74400000 1632094763 1632094763 -9.00000000
-2.39385700 4.18329525 -0.59179753 2 8 33022 4.85600000 1632094767 1632094767 -7.00000000
-3.40503383 5.95274925 -0.59998012 4 10 33023 6.88400000 1632094772 1632094772 -5.00000000
-5.74326754 10.04863453 -0.60657376 4 12 33025 11.59000000 1632094776 1632094776 -3.00000000
-4.77647305 8.36048126 2.22296643 60 13 33026 9.88200000 1632094779 1632094779 13.00000000
-4.11570168 7.20682287 2.22377324 45 15 33027 8.59200000 1632094783 1632094783 15.00000000
-1.06750333 1.87533343 -0.57820177 4 0 33035 2.23400000 1632094804 1632094804 -15.00000000
-1.24188888 2.18345690 -0.57992381 3 2 33037 2.57800000 1632094809 1632094809 -13.00000000
-1.48266327 2.60783935 -0.58311230 2 4 33038 3.05600000 1632094813 1632094813 -11.00000000
-1.83240449 3.22561526 -0.58756787 2 6 33040 3.75600000 1632094818 1632094818 -9.00000000
-2.37532043 4.18472052 -0.59082258 2 8 33042 4.84800000 1632094822 1632094822 -7.00000000
-3.39013338 5.97499609 -0.60102600 4 10 33043 6.89600000 1632094827 1632094827 -5.00000000
-5.73475170 10.11553192 -0.60939986 4 12 33045 11.64400000 1632094832 1632094832 -3.00000000
-4.74341726 8.37032223 2.22116661 57 13 33046 9.87400000 1632094834 1632094834 13.00000000
-4.09432888 7.22786903 2.22584391 45 15 33047 8.60000000 1632094839 1632094839 15.00000000
-1.05905104 1.87568378 -0.57716650 4 0 33055 2.23000000 1632094859 1632094859 -15.00000000
-1.23904729 2.19626498 -0.58217335 4 2 33057 2.58800000 1632094864 1632094864 -13.00000000
-1.47162235 2.60957861 -0.58234906 2 4 33058 3.05200000 1632094869 1632094869 -11.00000000
-1.81531549 3.22166610 -0.58569062 2 6 33060 3.74400000 1632094873 1632094873 -9.00000000
-2.36654186 4.20336533 -0.59228504 2 8 33062 4.86000000 1632094878 1632094878 -7.00000000
-3.36730170 5.98332071 -0.60067737 4 10 33063 6.89200000 1632094882 1632094882 -5.00000000
-5.71115398 10.15637970 -0.61065596 4 12 33065 11.66800000 1632094887 1632094887 -3.00000000
-4.71608019 8.39022636 2.22206640 59 13 33066 9.87800000 1632094889 1632094889 13.00000000
-4.05456591 7.21924543 2.21859694 40 15 33068 8.57200000 1632094894 1632094894 15.00000000
-1.04715991 1.86907315 -0.57406062 4 0 33074 2.21800000 1632094915 1632094915 -15.00000000
-1.23461306 2.20546317 -0.58352304 3 2 33076 2.59400000 1632094919 1632094919 -13.00000000
-1.45912588 2.60759139 -0.58082259 2 4 33077 3.04400000 1632094924 1632094924 -11.00000000
-1.81040621 3.23801327 -0.58756787 2 6 33079 3.75600000 1632094928 1632094928 -9.00000000
-2.36227131 4.22851992 -0.59472239 2 8 33081 4.88000000 1632094933 1632094933 -7.00000000
-3.34161353 5.98401737 -0.59963149 4 10 33082 6.88000000 1632094938 1632094938 -5.00000000
-5.68620157 10.19095993 -0.61159796 4 12 33084 11.68600000 1632094942 1632094942 -3.00000000
-4.68823147 8.40581894 2.22206640 57 13 33085 9.87800000 1632094945 1632094945 13.00000000
-3.99800062 7.17120361 2.19996190 20 15 33086 8.50000000 1632094949 1632094949 15.00000000
-1.04344428 1.87778306 -0.57561356 4 0 33094 2.22400000 1632094970 1632094970 -15.00000000
-1.22123134 2.19953680 -0.58082360 4 2 33096 2.58200000 1632094974 1632094974 -13.00000000
-1.45573103 2.62296844 -0.58311230 2 4 33097 3.05600000 1632094979 1632094979 -11.00000000
-1.78951252 3.22703767 -0.58443916 2 6 33099 3.73600000 1632094984 1632094984 -9.00000000
-2.34749675 4.23673964 -0.59472239 2 8 33101 4.88000000 1632094988 1632094988 -7.00000000
-3.32263565 5.99913120 -0.59998012 4 10 33102 6.88400000 1632094993 1632094993 -5.00000000
-5.63415337 10.18103790 -0.60981858 4 12 33104 11.65200000 1632094998 1632094998 -3.00000000
-4.66074753 8.42554283 2.22296643 56 13 33105 9.88200000 1632095000 1632095000 13.00000000
-3.91405106 7.07860661 2.16735077 15 15 33106 8.37400000 1632095004 1632095004 15.00000000
-1.03902197 1.88685250 -0.57716650 4 0 33116 2.23000000 1632095025 1632095025 -15.00000000
-1.21277666 2.20420980 -0.58082360 3 2 33118 2.58200000 1632095030 1632095030 -13.00000000
-1.44564879 2.62853861 -0.58311230 2 4 33119 3.05600000 1632095034 1632095034 -11.00000000
-1.78662181 3.25119710 -0.58756787 2 6 33121 3.75600000 1632095039 1632095039 -9.00000000
-2.33694410 4.25616264 -0.59618485 2 8 33123 4.89200000 1632095044 1632095044 -7.00000000
-3.32258320 6.05376339 -0.60416359 4 10 33124 6.93200000 1632095048 1632095048 -5.00000000
