# .PCD v0.7 - Point Cloud Data file format
VERSION 0.7
FIELDS x y z intensity laser_id azimuth distance_m adjustedtime timestamp vertical_angle
SIZE 4 4 4 1 1 2 8 8 4 8
TYPE F F F U U U F U U F
COUNT 1 1 1 1 1 1 1 1 1 1
WIDTH 527
HEIGHT 1
VIEWPOINT 0 0 0 1 0 0 0
POINTS 527
DATA ascii
-5.22362423 0.35977489 -0.45809057 6 10 27394 5.25600000 1631379241 1631379241 -5.00000000
-7.64717913 0.52937829 -0.40173081 32 12 27396 7.67600000 1631379245 1631379245 -3.00000000
-10.11583424 0.70381975 2.71708226 40 15 27398 10.49800000 1631379252 1631379252 15.00000000
-1.96168959 0.13923918 -0.52695560 4 0 27406 2.03600000 1631379273 1631379273 -15.00000000
-2.23342776 0.15931049 -0.51693749 4 2 27408 2.29800000 1631379278 1631379278 -13.00000000
-2.61818624 0.18721461 -0.51022327 3 4 27409 2.67400000 1631379282 1631379282 -11.00000000
-3.17611814 0.22822417 -0.50434470 3 6 27411 3.22400000 1631379287 1631379287 -9.00000000
-3.96581459 0.28636038 -0.48820859 6 8 27413 4.00600000 1631379291 1631379291 -7.00000000
-5.20842648 0.37699968 -0.45687041 6 10 27414 5.24200000 1631379296 1631379296 -5.00000000
-7.64528465 0.55606866 -0.40173081 36 12 27416 7.67600000 1631379301 1631379301 -3.00000000
-10.12872982 0.74025285 2.72122335 45 15 27418 10.51400000 1631379307 1631379307 15.00000000
-1.94000006 0.14450738 -0.52126157 4 0 27426 2.01400000 1631379328 1631379328 -15.00000000
-2.23674464 0.16739652 -0.51783735 4 2 27428 2.30200000 1631379333 1631379333 -13.00000000
-2.61555910 0.19620579 -0.50984162 3 4 27429 2.67200000 1631379337 1631379337 -11.00000000
-3.16742301 0.23871568 -0.50309324 4 6 27431 3.21600000 1631379342 1631379342 -9.00000000
-3.96677041 0.30035177 -0.48845232 6 8 27433 4.00800000 1631379347 1631379347 -7.00000000
-5.19317198 0.39412275 -0.45565021 6 10 27434 5.22800000 1631379351 1631379351 -5.00000000
-7.65524578 0.58366334 -0.40235883 52 12 27436 7.68800000 1631379356 1631379356 -3.00000000
-10.11439133 0.77648425 2.71811771 42 15 27439 10.50200000 1631379363 1631379363 15.00000000
-1.93177974 0.15067744 -0.51919103 4 0 27446 2.00600000 1631379384 1631379384 -15.00000000
-2.23031831 0.17474654 -0.51648760 4 2 27448 2.29600000 1631379388 1631379388 -13.00000000
-2.62855887 0.20641045 -0.51251298 3 4 27449 2.68600000 1631379393 1631379393 -11.00000000
-3.16263175 0.24945994 -0.50246751 3 6 27451 3.21200000 1631379397 1631379397 -9.00000000
-3.97757101 0.31513727 -0.48991477 6 8 27453 4.02000000 1631379402 1631379402 -7.00000000
-5.19970894 0.41287875 -0.45634747 6 10 27454 5.23600000 1631379407 1631379407 -5.00000000
-7.65117073 0.61022282 -0.40225416 24 12 27456 7.68600000 1631379411 1631379411 -3.00000000
-10.10790920 0.80971199 2.71708226 42 15 27458 10.49800000 1631379418 1631379418 15.00000000
-1.93509293 0.15773360 -0.52022630 4 0 27466 2.01000000 1631379439 1631379439 -15.00000000
-2.23552155 0.18300773 -0.51783735 4 2 27468 2.30200000 1631379443 1631379443 -13.00000000
-2.62390900 0.21526353 -0.51174974 3 4 27469 2.68200000 1631379448 1631379448 -11.00000000
-3.18142891 0.26212010 -0.50559622 3 6 27471 3.23200000 1631379453 1631379453 -9.00000000
-3.96259856 0.32787383 -0.48820859 4 8 27473 4.00600000 1631379457 1631379457 -7.00000000
-5.20617867 0.43168515 -0.45704472 6 10 27474 5.24400000 1631379462 1631379462 -5.00000000
-7.64899397 0.63692665 -0.40225416 24 12 27476 7.68600000 1631379466 1631379466 -3.00000000
-10.10309601 0.84482932 2.71656466 45 15 27478 10.49600000 1631379473 1631379473 15.00000000
-1.94607997 0.16546938 -0.52333212 4 0 27486 2.02200000 1631379494 1631379494 -15.00000000
-2.22904420 0.19031271 -0.51648760 4 2 27488 2.29600000 1631379499 1631379499 -13.00000000
-2.63096595 0.22509079 -0.51327622 3 4 27489 2.69000000 1631379503 1631379503 -11.00000000
-3.15687704 0.27119488 -0.50184178 3 6 27491 3.20800000 1631379508 1631379508 -9.00000000
-3.97131872 0.34255686 -0.48942727 6 8 27493 4.01600000 1631379512 1631379512 -7.00000000
-5.20861006 0.45019862 -0.45739335 6 10 27494 5.24800000 1631379517 1631379517 -5.00000000
-7.65070391 0.66396809 -0.40246350 36 12 27496 7.69000000 1631379522 1631379522 -3.00000000
-10.11740685 0.88159984 2.72122335 45 15 27498 10.51400000 1631379529 1631379529 15.00000000
-1.95126355 0.17277263 -0.52488500 4 0 27506 2.02800000 1631379549 1631379549 -15.00000000
-2.23613048 0.19878258 -0.51828724 4 2 27508 2.30400000 1631379554 1631379554 -13.00000000
-2.63016415 0.23427320 -0.51327622 3 4 27509 2.69000000 1631379559 1631379559 -11.00000000
-5.60423279 0.50016445 0.49225563 5 5 27510 5.64800000 1631379561 1631379561 5.00000000
-3.15984607 0.28256464 -0.50246751 3 6 27511 3.21200000 1631379563 1631379563 -9.00000000
-3.95823574 0.35535228 -0.48796484 6 8 27513 4.00400000 1631379568 1631379568 -7.00000000
-5.22486591 0.46998379 -0.45896214 6 10 27514 5.26600000 1631379572 1631379572 -5.00000000
-7.64237213 0.69013113 -0.40214950 36 12 27516 7.68400000 1631379577 1631379577 -3.00000000
-7.62954617 0.69165790 -0.13372034 2 14 27518 7.66200000 1631379582 1631379582 -1.00000000
-10.11026001 0.91832656 2.72018814 42 15 27519 10.51000000 1631379584 1631379584 15.00000000
-1.94487739 0.17905144 -0.52333212 4 0 27526 2.02200000 1631379605 1631379605 -15.00000000
-2.23930407 0.20694558 -0.51918703 4 2 27528 2.30800000 1631379609 1631379609 -13.00000000
-2.60782647 0.24146169 -0.50907838 3 4 27529 2.66800000 1631379614 1631379614 -11.00000000
-5.56475925 0.51622707 0.48894373 8 5 27530 5.61000000 1631379616 1631379616 5.00000000
-3.17850947 0.29542094 -0.50559622 3 6 27531 3.23200000 1631379618 1631379618 -9.00000000
-3.96092439 0.36953571 -0.48845232 6 8 27533 4.00800000 1631379623 1631379623 -7.00000000
-5.21922636 0.48784828 -0.45861351 3 10 27534 5.26200000 1631379628 1631379628 -5.00000000
-7.13533640 0.67197502 -0.12509885 2 14 27538 7.16800000 1631379637 1631379637 -1.00000000
-10.10715866 0.95184833 2.72018814 47 15 27538 10.51000000 1631379639 1631379639 15.00000000
-1.93270206 0.18473634 -0.52022630 4 0 27546 2.01000000 1631379660 1631379660 -15.00000000
-7.05265760 0.67536688 0.12366775 3 1 27547 7.08600000 1631379662 1631379662 1.00000000
-2.23662806 0.21457486 -0.51873714 4 2 27548 2.30600000 1631379664 1631379664 -13.00000000
-2.61283064 0.25112674 -0.51022327 3 4 27549 2.67400000 1631379669 1631379669 -11.00000000
-5.54904079 0.53431183 0.48772353 11 5 27550 5.59600000 1631379671 1631379671 5.00000000
-3.16566157 0.30537617 -0.50371897 3 6 27551 3.22000000 1631379674 1631379674 -9.00000000
-3.96751380 0.38412488 -0.48942727 6 8 27553 4.01600000 1631379678 1631379678 -7.00000000
-5.21550846 0.50587147 -0.45843920 6 10 27554 5.26000000 1631379683 1631379683 -5.00000000
-7.32129765 0.71269947 -0.38550666 3 12 27556 7.36600000 1631379688 1631379688 -3.00000000
-6.78664875 0.66304505 -0.11902541 2 14 27558 6.82000000 1631379692 1631379692 -1.00000000
-10.10377502 0.98712313 2.72018814 42 15 27558 10.51000000 1631379694 1631379694 15.00000000
-1.94165754 0.19243425 -0.52281445 4 0 27566 2.02000000 1631379715 1631379715 -15.00000000
-5.91998768 0.58776289 0.10384182 2 1 27567 5.95000000 1631379717 1631379717 1.00000000
-2.22616959 0.22141647 -0.51648760 4 2 27568 2.29600000 1631379720 1631379720 -13.00000000
-6.38955021 0.63663560 0.33652020 2 3 27569 6.43000000 1631379722 1631379722 3.00000000
-2.62756681 0.26180285 -0.51327622 3 4 27569 2.69000000 1631379724 1631379724 -11.00000000
-5.53722906 0.55268896 0.48685199 11 5 27570 5.58600000 1631379727 1631379727 5.00000000
-3.15671396 0.31563839 -0.50246751 3 6 27571 3.21200000 1631379729 1631379729 -9.00000000
-3.96614861 0.39797175 -0.48942727 6 8 27573 4.01600000 1631379734 1631379734 -7.00000000
-5.20974588 0.52367538 -0.45809057 6 10 27574 5.25600000 1631379738 1631379738 -5.00000000
-7.27306032 0.73364097 -0.38309920 3 12 27576 7.32000000 1631379743 1631379743 -3.00000000
-6.32073307 0.63980758 -0.11089259 6 14 27578 6.35400000 1631379747 1631379747 -1.00000000
-10.10008907 1.02414870 2.72018814 47 15 27579 10.51000000 1631379750 1631379750 15.00000000
-1.95634806 0.20078863 -0.52695560 4 0 27586 2.03600000 1631379770 1631379770 -15.00000000
-5.62150764 0.57795161 0.09864100 2 1 27587 5.65200000 1631379773 1631379773 1.00000000
-2.22538328 0.22918591 -0.51648760 4 2 27588 2.29600000 1631379775 1631379775 -13.00000000
-5.86290169 0.60380363 0.30888683 4 3 27588 5.90200000 1631379777 1631379777 3.00000000
-2.62468386 0.27077171 -0.51289457 3 4 27589 2.68800000 1631379780 1631379780 -11.00000000
-5.53724813 0.57221889 0.48702630 14 5 27590 5.58800000 1631379782 1631379782 5.00000000
-3.15952277 0.32706225 -0.50309324 3 6 27591 3.21600000 1631379784 1631379784 -9.00000000
-3.96868420 0.41222394 -0.48991477 6 8 27593 4.02000000 1631379789 1631379789 -7.00000000
-5.11078358 0.53175443 -0.44954932 3 10 27594 5.15800000 1631379794 1631379794 -5.00000000
-5.14493942 0.53712368 -0.27110025 2 12 27596 5.18000000 1631379798 1631379798 -3.00000000
-5.14903879 0.53936863 -0.09036856 2 14 27598 5.17800000 1631379803 1631379803 -1.00000000
-10.04649830 1.05415678 2.70672965 45 15 27599 10.45800000 1631379805 1631379805 15.00000000
-1.94983590 0.20734482 -0.52540267 4 0 27607 2.03000000 1631379826 1631379826 -15.00000000
-5.16200876 0.54983717 0.09061290 9 1 27608 5.19200000 1631379828 1631379828 1.00000000
-2.22840381 0.23775430 -0.51738745 4 2 27609 2.30000000 1631379830 1631379830 -13.00000000
-5.49125528 0.58587658 0.28941783 4 3 27609 5.53000000 1631379833 1631379833 3.00000000
-2.63343453 0.28143296 -0.51480269 3 4 27610 2.69800000 1631379835 1631379835 -11.00000000
-5.52917004 0.59187388 0.48650336 20 5 27611 5.58200000 1631379837 1631379837 5.00000000
-3.16223097 0.33906147 -0.50371897 3 6 27612 3.22000000 1631379840 1631379840 -9.00000000
-3.96517301 0.42655480 -0.48967102 4 8 27614 4.01800000 1631379844 1631379844 -7.00000000
-4.80769968 0.51803869 -0.42305398 2 10 27615 4.85400000 1631379849 1631379849 -5.00000000
-4.97613859 0.53794551 -0.26230782 2 12 27617 5.01200000 1631379853 1631379853 -3.00000000
-4.96810389 0.53883147 -0.08722713 2 14 27619 4.99800000 1631379858 1631379858 -1.00000000
-10.09442234 1.09660518 2.72070575 47 15 27620 10.51200000 1631379860 1631379860 15.00000000
-1.93565822 0.21267286 -0.52177918 4 0 27627 2.01600000 1631379881 1631379881 -15.00000000
-4.91358376 0.54072869 0.08628470 2 1 27628 4.94400000 1631379883 1631379883 1.00000000
-2.23530817 0.24638544 -0.51918703 4 2 27629 2.30800000 1631379886 1631379886 -13.00000000
-4.96507454 0.54727221 0.26178446 2 3 27629 5.00200000 1631379888 1631379888 3.00000000
-2.61292219 0.28846928 -0.51098651 3 4 27630 2.67800000 1631379890 1631379890 -11.00000000
-5.51716900 0.61007583 0.48563179 31 5 27631 5.57200000 1631379893 1631379893 5.00000000
-3.17673516 0.35183728 -0.50622195 3 6 27632 3.23600000 1631379895 1631379895 -9.00000000
-3.96366000 0.44039324 -0.48967102 4 8 27634 4.01800000 1631379900 1631379900 -7.00000000
-4.75041771 0.52864742 -0.41817325 2 10 27635 4.79800000 1631379904 1631379904 -5.00000000
-4.66855145 0.52118689 -0.24618834 2 12 27637 4.70400000 1631379909 1631379909 -3.00000000
-4.66810179 0.52278656 -0.08199140 1 14 27639 4.69800000 1631379913 1631379913 -1.00000000
-10.08093357 1.13075793 2.71811771 47 15 27640 10.50200000 1631379916 1631379916 15.00000000
-1.94265902 0.21962091 -0.52384973 4 0 27645 2.02400000 1631379936 1631379936 -15.00000000
-4.59592772 0.52038985 0.08073483 6 1 27646 4.62600000 1631379939 1631379939 1.00000000
-2.23452330 0.25340664 -0.51918703 4 2 27647 2.30800000 1631379941 1631379941 -13.00000000
-4.81052113 0.54553837 0.25372472 6 3 27647 4.84800000 1631379943 1631379943 3.00000000
-2.61980581 0.29756287 -0.51251298 3 4 27648 2.68600000 1631379946 1631379946 -11.00000000
-3.15991259 0.36002657 -0.50371897 3 6 27650 3.22000000 1631379950 1631379950 -9.00000000
-3.97211814 0.45397028 -0.49088973 4 8 27652 4.02800000 1631379955 1631379955 -7.00000000
-4.72102070 0.54039651 -0.41573289 5 10 27653 4.77000000 1631379959 1631379959 -5.00000000
-4.59942722 0.52810484 -0.24262950 4 12 27655 4.63600000 1631379964 1631379964 -3.00000000
-4.60683966 0.53058523 -0.08094426 1 14 27657 4.63800000 1631379969 1631379969 -1.00000000
-10.07561493 1.16044259 2.71759987 42 15 27657 10.50000000 1631379971 1631379971 15.00000000
-1.93996167 0.22617701 -0.52333212 4 0 27665 2.02200000 1631379992 1631379992 -15.00000000
-4.56230402 0.53271878 0.08017635 8 1 27666 4.59400000 1631379994 1631379994 1.00000000
-2.23362494 0.26120505 -0.51918703 4 2 27667 2.30800000 1631379996 1631379996 -13.00000000
-4.74709177 0.55513543 0.25047988 6 3 27667 4.78600000 1631379999 1631379999 3.00000000
-2.62265110 0.30716261 -0.51327622 3 4 27668 2.69000000 1631380001 1631380001 -11.00000000
-3.15471292 0.37059361 -0.50309324 3 6 27670 3.21600000 1631380005 1631380005 -9.00000000
-3.97248077 0.46806508 -0.49113345 4 8 27672 4.03000000 1631380010 1631380010 -7.00000000
-4.72504187 0.55757314 -0.41625583 8 10 27673 4.77600000 1631380015 1631380015 -5.00000000
-4.59557247 0.54392183 -0.24252482 4 12 27675 4.63400000 1631380019 1631380019 -3.00000000
-4.50964355 0.53534776 -0.07926883 5 14 27677 4.54200000 1631380024 1631380024 -1.00000000
-10.06937599 1.19713569 2.71708226 47 15 27678 10.49800000 1631380026 1631380026 15.00000000
-1.94875073 0.23409942 -0.52592027 4 0 27685 2.03200000 1631380047 1631380047 -15.00000000
-4.54056311 0.54625243 0.07982731 6 1 27686 4.57400000 1631380049 1631380049 1.00000000
-2.22109103 0.26760164 -0.51648760 4 2 27687 2.29600000 1631380052 1631380052 -13.00000000
-4.70735073 0.56798482 0.24849112 4 3 27688 4.74800000 1631380054 1631380054 3.00000000
-2.61766458 0.31584516 -0.51251298 3 4 27688 2.68600000 1631380056 1631380056 -11.00000000
-5.37422848 0.64940143 0.47360429 2 5 27689 5.43400000 1631380058 1631380058 5.00000000
-3.14947796 0.38112870 -0.50246751 3 6 27690 3.21200000 1631380061 1631380061 -9.00000000
-3.95505762 0.48001543 -0.48918355 4 8 27692 4.01400000 1631380065 1631380065 -7.00000000
-4.72702217 0.57454401 -0.41660446 5 10 27693 4.78000000 1631380070 1631380070 -5.00000000
-4.60950661 0.56189346 -0.24336220 4 12 27695 4.65000000 1631380075 1631380075 -3.00000000
-4.47995853 0.54768878 -0.07878016 5 14 27697 4.51400000 1631380079 1631380079 -1.00000000
-10.06918621 1.23098922 2.71811771 45 15 27697 10.50200000 1631380082 1631380082 15.00000000
-1.95559061 0.24184883 -0.52799088 4 0 27705 2.04000000 1631380102 1631380102 -15.00000000
-4.53069019 0.56111550 0.07968768 4 1 27706 4.56600000 1631380105 1631380105 1.00000000
-2.23561502 0.27727190 -0.52008682 4 2 27707 2.31200000 1631380107 1631380107 -13.00000000
-4.63200426 0.57530475 0.24461827 4 3 27708 4.67400000 1631380109 1631380109 3.00000000
-2.61264968 0.32449663 -0.51174974 3 4 27708 2.68200000 1631380111 1631380111 -11.00000000
-5.28691149 0.65758258 0.46610892 2 5 27709 5.34800000 1631380114 1631380114 5.00000000
-3.16773057 0.39456171 -0.50559622 3 6 27710 3.23200000 1631380116 1631380116 -9.00000000
-3.94941831 0.49332613 -0.48869607 4 8 27712 4.01000000 1631380121 1631380121 -7.00000000
-4.72103405 0.59054631 -0.41625583 8 10 27713 4.77600000 1631380125 1631380125 -5.00000000
-4.43437004 0.55783248 -0.07801226 1 14 27717 4.47000000 1631380135 1631380135 -1.00000000
-10.06460667 1.26788640 2.71811771 45 15 27718 10.50200000 1631380137 1631380137 15.00000000
-1.94515252 0.24745466 -0.52540267 4 0 27725 2.03000000 1631380158 1631380158 -15.00000000
-4.45729208 0.56782973 0.07843111 4 1 27726 4.49400000 1631380160 1631380160 1.00000000
-2.23849964 0.28556716 -0.52098662 4 2 27727 2.31600000 1631380162 1631380162 -13.00000000
-4.57647657 0.58463651 0.24179211 3 3 27728 4.62000000 1631380164 1631380164 3.00000000
-2.61150098 0.33361450 -0.51174974 3 4 27728 2.68200000 1631380167 1631380167 -11.00000000
-5.23320055 0.66946012 0.46157682 7 5 27729 5.29600000 1631380169 1631380169 5.00000000
-3.17221212 0.40636975 -0.50653481 1 6 27730 3.23800000 1631380171 1631380171 -9.00000000
-3.97129917 0.51014423 -0.49162093 4 8 27732 4.03400000 1631380176 1631380176 -7.00000000
-4.70708704 0.60549700 -0.41520995 5 10 27733 4.76400000 1631380181 1631380181 -5.00000000
-4.41653013 0.57125580 -0.07773302 1 14 27737 4.45400000 1631380190 1631380190 -1.00000000
-10.06034660 1.30125487 2.71811771 45 15 27737 10.50200000 1631380192 1631380192 15.00000000
-1.94044578 0.25374201 -0.52436739 5 0 27745 2.02600000 1631380213 1631380213 -15.00000000
-4.38588619 0.57429814 0.07720944 3 1 27746 4.42400000 1631380215 1631380215 1.00000000
-2.24521780 0.29439265 -0.52278626 4 2 27747 2.32400000 1631380217 1631380217 -13.00000000
-4.51301956 0.59254771 0.23854730 1 3 27748 4.55800000 1631380220 1631380220 3.00000000
-2.61032057 0.34272829 -0.51174974 3 4 27748 2.68200000 1631380222 1631380222 -11.00000000
-5.14984083 0.67707503 0.45443004 7 5 27749 5.21400000 1631380224 1631380224 5.00000000
-3.15706491 0.41563550 -0.50434470 3 6 27750 3.22400000 1631380227 1631380227 -9.00000000
-5.87270403 0.77419889 0.72731626 2 7 27751 5.96800000 1631380229 1631380229 7.00000000
-3.96162224 0.52296436 -0.49064597 4 8 27752 4.02600000 1631380231 1631380231 -7.00000000
-4.71679640 0.62349069 -0.41625583 8 10 27753 4.77600000 1631380236 1631380236 -5.00000000
-4.33125401 0.57560462 -0.07626702 1 14 27757 4.37000000 1631380245 1631380245 -1.00000000
-10.04210472 1.33633530 2.71449423 42 15 27758 10.48800000 1631380247 1631380247 15.00000000
-1.93763363 0.26025674 -0.52384973 4 0 27765 2.02400000 1631380268 1631380268 -15.00000000
-4.35610867 0.58587259 0.07672078 5 1 27766 4.39600000 1631380270 1631380270 1.00000000
-2.22486353 0.29962721 -0.51828724 4 2 27767 2.30400000 1631380273 1631380273 -13.00000000
-4.48717165 0.60509455 0.23729123 3 3 27768 4.53400000 1631380275 1631380275 3.00000000
-2.60716271 0.35157555 -0.51136810 3 4 27768 2.68000000 1631380277 1631380277 -11.00000000
-5.12375212 0.69184786 0.45233831 10 5 27769 5.19000000 1631380280 1631380280 5.00000000
-3.15559506 0.42665318 -0.50434470 3 6 27770 3.22400000 1631380282 1631380282 -9.00000000
-5.57489347 0.75474602 0.69075543 2 7 27771 5.66800000 1631380284 1631380284 7.00000000
-3.97354221 0.53865647 -0.49235216 6 8 27772 4.04000000 1631380287 1631380287 -7.00000000
-4.70274544 0.63834369 -0.41520995 5 10 27773 4.76400000 1631380291 1631380291 -5.00000000
-4.50028229 0.61246151 -0.23802392 2 12 27775 4.54800000 1631380296 1631380296 -3.00000000
-4.28364801 0.58450192 -0.07546420 3 14 27777 4.32400000 1631380300 1631380300 -1.00000000
-10.04336071 1.37041235 2.71604705 45 15 27777 10.49400000 1631380303 1631380303 15.00000000
-1.95010960 0.26886570 -0.52747321 4 0 27785 2.03800000 1631380323 1631380323 -15.00000000
-4.31441879 0.59560537 0.07602268 5 1 27786 4.35600000 1631380326 1631380326 1.00000000
-2.22380424 0.30739161 -0.51828724 4 2 27787 2.30400000 1631380328 1631380328 -13.00000000
-4.40589619 0.60980111 0.23310435 3 3 27788 4.45400000 1631380330 1631380330 3.00000000
-2.62147737 0.36282739 -0.51442105 3 4 27788 2.69600000 1631380333 1631380333 -11.00000000
-5.08183527 0.70425892 0.44885206 10 5 27789 5.15000000 1631380335 1631380335 5.00000000
-3.15408635 0.43766567 -0.50434470 3 6 27790 3.22400000 1631380337 1631380337 -9.00000000
-5.57025909 0.77392823 0.69051170 2 7 27791 5.66600000 1631380340 1631380340 7.00000000
-3.95197630 0.54978818 -0.48991477 6 8 27792 4.02000000 1631380342 1631380342 -7.00000000
-4.70838165 0.65585494 -0.41590720 5 10 27793 4.77200000 1631380346 1631380346 -5.00000000
-4.35569620 0.60827750 -0.23048756 2 12 27795 4.40400000 1631380351 1631380351 -3.00000000
-4.24791479 0.59473753 -0.07487082 5 14 27797 4.29000000 1631380356 1631380356 -1.00000000
-10.03827000 1.40721381 2.71604705 42 15 27798 10.49400000 1631380358 1631380358 15.00000000
-1.94915915 0.27567121 -0.52747321 5 0 27805 2.03800000 1631380379 1631380379 -15.00000000
-4.27667475 0.60561508 0.07539440 5 1 27806 4.32000000 1631380381 1631380381 1.00000000
-2.22657657 0.31569940 -0.51918703 4 2 27807 2.30800000 1631380383 1631380383 -13.00000000
-4.36419201 0.61956233 0.23101091 5 3 27808 4.41400000 1631380386 1631380386 3.00000000
-2.60464478 0.36976826 -0.51136810 3 4 27808 2.68000000 1631380388 1631380388 -11.00000000
-5.06553841 0.72003084 0.44763190 10 5 27809 5.13600000 1631380390 1631380390 5.00000000
-3.15645075 0.44922948 -0.50497043 3 6 27810 3.22800000 1631380393 1631380393 -9.00000000
-5.61272383 0.79980838 0.69611770 2 7 27811 5.71200000 1631380395 1631380395 7.00000000
-3.95396352 0.56414056 -0.49040225 6 8 27812 4.02400000 1631380397 1631380397 -7.00000000
-4.71395302 0.67341328 -0.41660446 5 10 27813 4.78000000 1631380402 1631380402 -5.00000000
-4.33575249 0.62092978 -0.22954550 2 12 27815 4.38600000 1631380406 1631380406 -3.00000000
-4.22403955 0.60643595 -0.07448687 5 14 27817 4.26800000 1631380411 1631380411 -1.00000000
-10.04502201 1.44214141 2.71915293 42 15 27817 10.50600000 1631380413 1631380413 15.00000000
-1.93862569 0.28108734 -0.52488500 4 0 27825 2.02800000 1631380434 1631380434 -15.00000000
-4.24089241 0.61565590 0.07480101 5 1 27826 4.28600000 1631380436 1631380436 1.00000000
-2.22931790 0.32403028 -0.52008682 4 2 27827 2.31200000 1631380439 1631380439 -13.00000000
-4.34026194 0.63162857 0.22985952 5 3 27828 4.39200000 1631380441 1631380441 3.00000000
-2.60139537 0.37857521 -0.51098651 3 4 27828 2.67800000 1631380443 1631380443 -11.00000000
-5.02947712 0.73282492 0.44466859 10 5 27829 5.10200000 1631380446 1631380446 5.00000000
-3.15486360 0.46024480 -0.50497043 3 6 27830 3.22800000 1631380448 1631380448 -9.00000000
-5.58632708 0.81595272 0.69319284 2 7 27831 5.68800000 1631380450 1631380450 7.00000000
-3.95197010 0.57793903 -0.49040225 6 8 27832 4.02400000 1631380452 1631380452 -7.00000000
-4.71157408 0.68986398 -0.41660446 5 10 27833 4.78000000 1631380457 1631380457 -5.00000000
-4.30786943 0.63229007 -0.22818477 4 12 27835 4.36000000 1631380462 1631380462 -3.00000000
-4.20606995 0.61884820 -0.07420763 5 14 27837 4.25200000 1631380466 1631380466 -1.00000000
-10.02437878 1.47669625 2.71501184 45 15 27838 10.49000000 1631380469 1631380469 15.00000000
-1.93381095 0.28728494 -0.52384973 5 0 27845 2.02400000 1631380489 1631380489 -15.00000000
-4.21696043 0.62721950 0.07441706 7 1 27846 4.26400000 1631380492 1631380492 1.00000000
-2.23588324 0.33295822 -0.52188647 4 2 27847 2.32000000 1631380494 1631380494 -13.00000000
-4.31630087 0.64353526 0.22870813 5 3 27848 4.37000000 1631380496 1631380496 3.00000000
-2.61170864 0.38939053 -0.51327622 3 4 27848 2.69000000 1631380499 1631380499 -11.00000000
-5.00521231 0.74714094 0.44275117 10 5 27849 5.08000000 1631380501 1631380501 5.00000000
-3.16105247 0.47242245 -0.50622195 3 6 27850 3.23600000 1631380503 1631380503 -9.00000000
-5.60307693 0.83838528 0.69563019 2 7 27851 5.70800000 1631380505 1631380505 7.00000000
-3.95385504 0.59231865 -0.49088973 6 8 27852 4.02800000 1631380508 1631380508 -7.00000000
-4.72884083 0.70926148 -0.41834757 5 10 27853 4.80000000 1631380512 1631380512 -5.00000000
-4.27996063 0.64346325 -0.22682403 4 12 27855 4.33400000 1631380517 1631380517 -3.00000000
-4.19399738 0.63203645 -0.07403311 7 14 27857 4.24200000 1631380522 1631380522 -1.00000000
-10.02133751 1.51021802 2.71552944 42 15 27857 10.49200000 1631380524 1631380524 15.00000000
-1.93279636 0.29403347 -0.52384973 4 0 27865 2.02400000 1631380545 1631380545 -15.00000000
-4.19497633 0.63892466 0.07406801 7 1 27866 4.24400000 1631380547 1631380547 1.00000000
-2.22700143 0.33958584 -0.52008682 4 2 27867 2.31200000 1631380549 1631380549 -13.00000000
-4.29823351 0.65618670 0.22787075 7 3 27868 4.35400000 1631380552 1631380552 3.00000000
-2.62585974 0.40087500 -0.51632917 3 4 27868 2.70600000 1631380554 1631380554 -11.00000000
-4.99075699 0.76280171 0.44170532 9 5 27869 5.06800000 1631380556 1631380556 5.00000000
-3.14376283 0.48106334 -0.50371897 3 6 27870 3.22000000 1631380558 1631380558 -9.00000000
-5.62366295 0.86154586 0.69855505 2 7 27871 5.73200000 1631380561 1631380561 7.00000000
-3.96353626 0.60792232 -0.49235216 6 8 27872 4.04000000 1631380563 1631380563 -7.00000000
-5.22063208 0.80166668 -0.46209976 9 10 27873 5.30200000 1631380568 1631380568 -5.00000000
-4.24413013 0.65323412 -0.22504461 6 12 27875 4.30000000 1631380572 1631380572 -3.00000000
-4.17793131 0.64453810 -0.07378878 8 14 27877 4.22800000 1631380577 1631380577 -1.00000000
-10.01791382 1.54548442 2.71604705 42 15 27877 10.49400000 1631380579 1631380579 15.00000000
-1.94512022 0.30285886 -0.52747321 5 0 27885 2.03800000 1631380600 1631380600 -15.00000000
-4.19667196 0.65417993 0.07413782 7 1 27886 4.24800000 1631380602 1631380602 1.00000000
-2.22195148 0.34675649 -0.51918703 4 2 27887 2.30800000 1631380605 1631380605 -13.00000000
-4.28407669 0.66933650 0.22724272 13 3 27888 4.34200000 1631380607 1631380607 3.00000000
-2.61668563 0.40882629 -0.51480269 3 4 27888 2.69800000 1631380609 1631380609 -11.00000000
-4.96837902 0.77713907 0.43996218 9 5 27889 5.04800000 1631380611 1631380611 5.00000000
-3.15377402 0.49386784 -0.50559622 3 6 27890 3.23200000 1631380614 1631380614 -9.00000000
-5.62062120 0.88117087 0.69855505 2 7 27891 5.73200000 1631380616 1631380616 7.00000000
-3.94374037 0.61898369 -0.49015850 4 8 27892 4.02200000 1631380618 1631380618 -7.00000000
-5.23551607 0.82266867 -0.46366856 9 10 27893 5.32000000 1631380623 1631380623 -5.00000000
-4.22209454 0.66493773 -0.22399789 8 12 27895 4.28000000 1631380628 1631380628 -3.00000000
-4.16775513 0.65787077 -0.07364915 15 14 27897 4.22000000 1631380632 1631380632 -1.00000000
-10.02009106 1.58164883 2.71811771 45 15 27897 10.50200000 1631380634 1631380634 15.00000000
-1.95168233 0.31086224 -0.52954376 5 0 27905 2.04600000 1631380655 1631380655 -15.00000000
-4.19633770 0.66913998 0.07417273 7 1 27906 4.25000000 1631380658 1631380658 1.00000000
-2.22457647 0.35512483 -0.52008682 4 2 27907 2.31200000 1631380660 1631380660 -13.00000000
-4.26988077 0.68239546 0.22661468 19 3 27908 4.33000000 1631380662 1631380662 3.00000000
-2.61136532 0.41733807 -0.51403946 3 4 27908 2.69400000 1631380664 1631380664 -11.00000000
-4.95383215 0.79258859 0.43891633 9 5 27909 5.03600000 1631380667 1631380667 5.00000000
-3.14422894 0.50362390 -0.50434470 3 6 27910 3.22400000 1631380669 1631380669 -9.00000000
-3.94547558 0.63337547 -0.49064597 4 8 27912 4.02600000 1631380674 1631380674 -7.00000000
-5.25425100 0.84441662 -0.46558598 9 10 27913 5.34200000 1631380678 1631380678 -5.00000000
-4.20988846 0.67808348 -0.22347453 8 12 27915 4.27000000 1631380683 1631380683 -3.00000000
-4.14174366 0.66859078 -0.07323030 17 14 27917 4.19600000 1631380687 1631380687 -1.00000000
-10.01422691 1.61836374 2.71811771 45 15 27918 10.50200000 1631380690 1631380690 15.00000000
-1.94682717 0.31671217 -0.52850848 4 0 27924 2.04200000 1631380711 1631380711 -15.00000000
-4.19804287 0.68369472 0.07424254 7 1 27925 4.25400000 1631380713 1631380713 1.00000000
-2.22338653 0.36249983 -0.52008682 4 2 27926 2.31200000 1631380715 1631380715 -13.00000000
-4.27153683 0.69719464 0.22682403 5 3 27927 4.33400000 1631380717 1631380717 3.00000000
-2.60027885 0.42441410 -0.51213133 3 4 27927 2.68400000 1631380720 1631380720 -11.00000000
-4.92954683 0.80547750 0.43699890 9 5 27928 5.01400000 1631380722 1631380722 5.00000000
-3.15813732 0.51659882 -0.50684768 3 6 27929 3.24000000 1631380724 1631380724 -9.00000000
-5.61449289 0.91940850 0.69855505 2 7 27930 5.73200000 1631380727 1631380727 7.00000000
-3.95902514 0.64902478 -0.49259588 4 8 27931 4.04200000 1631380729 1631380729 -7.00000000
-5.23765945 0.85957706 -0.46436581 9 10 27932 5.32800000 1631380734 1631380734 -5.00000000
-4.20564604 0.69171613 -0.22336987 8 12 27934 4.26800000 1631380738 1631380738 -3.00000000
-4.12569237 0.68004501 -0.07298596 21 14 27936 4.18200000 1631380743 1631380743 -1.00000000
-9.99765682 1.64793110 2.71501184 45 15 27936 10.49000000 1631380745 1631380745 15.00000000
-1.93808711 0.32223850 -0.52643794 4 0 27944 2.03400000 1631380766 1631380766 -15.00000000
-4.20746613 0.70031440 0.07445197 5 1 27945 4.26600000 1631380768 1631380768 1.00000000
-2.23748541 0.37282103 -0.52368605 4 2 27946 2.32800000 1631380770 1631380770 -13.00000000
-4.27892733 0.71374387 0.22734739 7 3 27947 4.34400000 1631380773 1631380773 3.00000000
-2.60846400 0.43510327 -0.51403946 3 4 27947 2.69400000 1631380775 1631380775 -11.00000000
-4.90508842 0.81907022 0.43508148 9 5 27948 4.99200000 1631380777 1631380777 5.00000000
-3.14852142 0.52631688 -0.50559622 3 6 27949 3.23200000 1631380780 1631380780 -9.00000000
-3.95086217 0.66185647 -0.49186468 6 8 27951 4.03600000 1631380784 1631380784 -7.00000000
-5.22873211 0.87686604 -0.46384287 9 10 27952 5.32200000 1631380789 1631380789 -5.00000000
-4.20123625 0.70606136 -0.22326519 12 12 27954 4.26600000 1631380793 1631380793 -3.00000000
-4.12526512 0.69477433 -0.07302087 31 14 27956 4.18400000 1631380798 1631380798 -1.00000000
-9.98231792 1.68121529 2.71242356 42 15 27956 10.48000000 1631380800 1631380800 15.00000000
-1.93695045 0.32900172 -0.52643794 4 0 27964 2.03400000 1631380822 1631380822 -15.00000000
-4.19711065 0.71365613 0.07431234 5 1 27965 4.25800000 1631380824 1631380824 1.00000000
-2.22464395 0.37866706 -0.52098662 4 2 27966 2.31600000 1631380827 1631380827 -13.00000000
-4.29622650 0.73128080 0.22839411 13 3 27966 4.36400000 1631380829 1631380829 3.00000000
-2.60499406 0.44387609 -0.51365781 3 4 27967 2.69200000 1631380831 1631380831 -11.00000000
-4.90809155 0.83719224 0.43560439 9 5 27968 4.99800000 1631380834 1631380834 5.00000000
-3.14666510 0.53730410 -0.50559622 3 6 27969 3.23200000 1631380836 1631380836 -9.00000000
-7.17330742 1.22615588 0.89354604 2 7 27970 7.33200000 1631380838 1631380838 7.00000000
-3.96613765 0.67865676 -0.49405831 6 8 27971 4.05400000 1631380840 1631380840 -7.00000000
-5.22956705 0.89578515 -0.46419150 9 10 27972 5.32600000 1631380845 1631380845 -5.00000000
-4.20071459 0.72105998 -0.22336987 24 12 27974 4.26800000 1631380850 1631380850 -3.00000000
-4.11493158 0.70781404 -0.07288125 35 14 27976 4.17600000 1631380854 1631380854 -1.00000000
-9.98019695 1.71670473 2.71345878 42 15 27976 10.48400000 1631380857 1631380857 15.00000000
-1.94150054 0.33675140 -0.52799088 4 0 27984 2.04000000 1631380877 1631380877 -15.00000000
-4.20641518 0.73035491 0.07452177 5 1 27985 4.27000000 1631380880 1631380880 1.00000000
-2.21178865 0.38442796 -0.51828724 4 2 27986 2.30400000 1631380882 1631380882 -13.00000000
-4.28171110 0.74496824 0.22776608 7 3 27987 4.35200000 1631380884 1631380884 3.00000000
-2.61309958 0.45464915 -0.51556593 3 4 27987 2.70200000 1631380887 1631380887 -11.00000000
-4.89925051 0.85329396 0.43508148 9 5 27988 4.99200000 1631380889 1631380889 5.00000000
-3.13114810 0.54590970 -0.50340611 3 6 27989 3.21800000 1631380891 1631380891 -9.00000000
-3.95592260 0.69113052 -0.49308336 4 8 27991 4.04600000 1631380896 1631380896 -7.00000000
-5.24799681 0.91780990 -0.46610892 9 10 27992 5.34800000 1631380900 1631380900 -5.00000000
-4.17062998 0.73089218 -0.22190446 24 12 27994 4.24000000 1631380905 1631380905 -3.00000000
-4.12228394 0.72390282 -0.07305577 42 14 27996 4.18600000 1631380910 1631380910 -1.00000000
-9.97003174 1.75260353 2.71242356 42 15 27997 10.48000000 1631380912 1631380912 15.00000000
-1.94602001 0.34453681 -0.52954376 4 0 28004 2.04600000 1631380933 1631380933 -15.00000000
-4.18808794 0.74224192 0.07424254 5 1 28005 4.25400000 1631380935 1631380935 1.00000000
-4.11578083 0.73016810 -0.96504003 5 2 28006 4.29000000 1631380937 1631380937 -13.00000000
-4.26151800 0.75602287 0.22682403 7 3 28006 4.33400000 1631380940 1631380940 3.00000000
-2.59796572 0.46136484 -0.51289457 3 4 28007 2.68800000 1631380942 1631380942 -11.00000000
-4.88839579 0.86899549 0.43438423 9 5 28008 4.98400000 1631380944 1631380944 5.00000000
-3.13700271 0.55822045 -0.50465757 3 6 28009 3.22600000 1631380946 1631380946 -9.00000000
-3.93394327 0.70145047 -0.49064597 4 8 28011 4.02600000 1631380951 1631380951 -7.00000000
-5.24672270 0.93647331 -0.46628323 9 10 28012 5.35000000 1631380956 1631380956 -5.00000000
-4.16018915 0.74403942 -0.22148576 24 12 28014 4.23200000 1631380960 1631380960 -3.00000000
-4.10595322 0.73581868 -0.07281144 50 14 28016 4.17200000 1631380965 1631380965 -1.00000000
-9.97557449 1.78770041 2.71552944 42 15 28016 10.49200000 1631380967 1631380967 15.00000000
-1.93530011 0.34961045 -0.52695560 4 0 28024 2.03600000 1631380988 1631380988 -15.00000000
-4.19727802 0.75899154 0.07445197 5 1 28025 4.26600000 1631380990 1631380990 1.00000000
-4.11320686 0.74453038 -0.96504003 5 2 28026 4.29000000 1631380992 1631380992 -13.00000000
-4.26867962 0.77267247 0.22734739 7 3 28026 4.34400000 1631380995 1631380995 3.00000000
-2.59827113 0.47078064 -0.51327622 3 4 28027 2.69000000 1631380997 1631380997 -11.00000000
-4.87553072 0.88427609 0.43351266 9 5 28028 4.97400000 1631380999 1631380999 5.00000000
-3.15252757 0.57234299 -0.50747341 3 6 28029 3.24400000 1631381002 1631381002 -9.00000000
-3.93928289 0.71659929 -0.49162093 4 8 28031 4.03400000 1631381006 1631381006 -7.00000000
-5.24146175 0.95442516 -0.46610892 9 10 28032 5.34800000 1631381011 1631381011 -5.00000000
-4.16542578 0.75999063 -0.22190446 24 12 28034 4.24000000 1631381016 1631381016 -3.00000000
-9.79219627 1.78837264 2.29809999 5 13 28035 10.21600000 1631381018 1631381018 13.00000000
-4.09942579 0.74942744 -0.07274163 70 14 28036 4.16800000 1631381020 1631381020 -1.00000000
-9.95407104 1.81973147 2.71138835 42 15 28036 10.47600000 1631381022 1631381022 15.00000000
-1.93026817 0.35566366 -0.52592027 4 0 28044 2.03200000 1631381043 1631381043 -15.00000000
-4.19460344 0.77363819 0.07445197 5 1 28045 4.26600000 1631381045 1631381045 1.00000000
-4.11441565 0.75959122 -0.96593982 5 2 28046 4.29400000 1631381048 1631381048 -13.00000000
-4.26778316 0.78867567 0.22745207 7 3 28047 4.34600000 1631381050 1631381050 3.00000000
-2.59661198 0.47984743 -0.51327622 3 4 28047 2.69000000 1631381052 1631381052 -11.00000000
-4.85478163 0.89802790 0.43194386 9 5 28048 4.95600000 1631381055 1631381055 5.00000000
-3.14662576 0.58262461 -0.50684768 3 6 28049 3.24000000 1631381057 1631381057 -9.00000000
-3.94846821 0.73251820 -0.49308336 4 8 28051 4.04600000 1631381062 1631381062 -7.00000000
-5.23026228 0.97126037 -0.46541166 9 10 28052 5.34000000 1631381066 1631381066 -5.00000000
-4.16863823 0.77562207 -0.22221847 24 12 28054 4.24600000 1631381071 1631381071 -3.00000000
-9.74183083 1.81433642 2.28775215 4 13 28055 10.17000000 1631381073 1631381073 13.00000000
-4.09285307 0.76299959 -0.07267182 71 14 28056 4.16400000 1631381075 1631381075 -1.00000000
-9.94163704 1.85513961 2.70983529 45 15 28057 10.47000000 1631381078 1631381078 15.00000000
-1.93850815 0.36418283 -0.52850848 5 0 28064 2.04200000 1631381098 1631381098 -15.00000000
-4.17025948 0.78421015 0.07406801 5 1 28065 4.24400000 1631381101 1631381101 1.00000000
-4.10599375 0.77286714 -0.96459013 5 2 28066 4.28800000 1631381103 1631381103 -13.00000000
-4.25533009 0.80097657 0.22692871 5 3 28066 4.33600000 1631381105 1631381105 3.00000000
-2.61421442 0.49254340 -0.51709241 3 4 28067 2.71000000 1631381108 1631381108 -11.00000000
-4.85553312 0.91570723 0.43229249 9 5 28068 4.96000000 1631381110 1631381110 5.00000000
-3.14069080 0.59287196 -0.50622195 3 6 28069 3.23600000 1631381112 1631381112 -9.00000000
-7.15081549 1.35116065 0.89354604 2 7 28070 7.33200000 1631381115 1631381115 7.00000000
-3.95563984 0.74814099 -0.49430206 6 8 28071 4.05600000 1631381117 1631381117 -7.00000000
-5.23271322 0.99062330 -0.46593460 9 10 28072 5.34600000 1631381122 1631381122 -5.00000000
-4.15413189 0.78793544 -0.22159044 30 12 28074 4.23400000 1631381126 1631381126 -3.00000000
-4.08820009 0.77690834 -0.07263692 75 14 28076 4.16200000 1631381131 1631381131 -1.00000000
-9.93889618 1.89055312 2.71087074 42 15 28077 10.47400000 1631381133 1631381133 15.00000000
-1.93912244 0.37131059 -0.52902615 4 0 28084 2.04400000 1631381154 1631381154 -15.00000000
-4.17928028 0.80102080 0.07427744 5 1 28085 4.25600000 1631381156 1631381156 1.00000000
-4.08796024 0.78425771 -0.96099091 5 2 28086 4.27200000 1631381158 1631381158 -13.00000000
-4.23289347 0.81206250 0.22588199 5 3 28086 4.31600000 1631381161 1631381161 3.00000000
-2.60862303 0.50092524 -0.51632917 3 4 28087 2.70600000 1631381163 1631381163 -11.00000000
-4.85230732 0.93265063 0.43229249 9 5 28088 4.96000000 1631381165 1631381165 5.00000000
-3.14248157 0.60457778 -0.50684768 3 6 28089 3.24000000 1631381168 1631381168 -9.00000000
-3.94715667 0.76081705 -0.49357083 6 8 28091 4.05000000 1631381172 1631381172 -7.00000000
-5.23117971 1.00926030 -0.46610892 9 10 28092 5.34800000 1631381177 1631381177 -5.00000000
-4.13174629 0.79864085 -0.22054371 30 12 28094 4.21400000 1631381181 1631381181 -3.00000000
-4.10509586 0.79497600 -0.07298596 82 14 28096 4.18200000 1631381186 1631381186 -1.00000000
-9.92844391 1.92449951 2.70983529 42 15 28097 10.47000000 1631381188 1631381188 15.00000000
-1.94350278 0.37918696 -0.53057903 4 0 28104 2.05000000 1631381209 1631381209 -15.00000000
-4.19215965 0.81867051 0.07455668 5 1 28105 4.27200000 1631381211 1631381211 1.00000000
-4.09476089 0.80039179 -0.96324039 5 2 28106 4.28200000 1631381214 1631381214 -13.00000000
-4.21043158 0.82300168 0.22483526 8 3 28106 4.29600000 1631381216 1631381216 3.00000000
-2.59529829 0.50776619 -0.51403946 3 4 28107 2.69400000 1631381218 1631381218 -11.00000000
-4.85684299 0.95111424 0.43298972 9 5 28108 4.96800000 1631381221 1631381221 5.00000000
-3.12872124 0.61326367 -0.50497043 3 6 28109 3.22800000 1631381223 1631381223 -9.00000000
-3.93473744 0.77267796 -0.49235216 6 8 28111 4.04000000 1631381228 1631381228 -7.00000000
-5.25108480 1.03212547 -0.46820065 9 10 28112 5.37200000 1631381232 1631381232 -5.00000000
-4.14265108 0.81575966 -0.22127642 32 12 28114 4.22800000 1631381237 1631381237 -3.00000000
-4.09444809 0.80775243 -0.07284635 89 14 28116 4.17400000 1631381241 1631381241 -1.00000000
-9.19388676 1.81543660 2.51106238 13 15 28117 9.70200000 1631381244 1631381244 15.00000000
-1.92890382 0.38333285 -0.52695560 4 0 28124 2.03600000 1631381264 1631381264 -15.00000000
-4.18143129 0.83173841 0.07441706 5 1 28125 4.26400000 1631381267 1631381267 1.00000000
-4.08238554 0.81277776 -0.96099091 8 2 28126 4.27200000 1631381269 1631381269 -13.00000000
-4.19969797 0.83613384 0.22441658 14 3 28126 4.28800000 1631381271 1631381271 3.00000000
-2.59350991 0.51682240 -0.51403946 3 4 28127 2.69400000 1631381274 1631381274 -11.00000000
-4.86130905 0.96962088 0.43368697 9 5 28128 4.97600000 1631381276 1631381276 5.00000000
-3.14593291 0.62804848 -0.50809914 3 6 28129 3.24800000 1631381278 1631381278 -9.00000000
-3.95148158 0.79030120 -0.49478954 6 8 28131 4.06000000 1631381283 1631381283 -7.00000000
-5.24549627 1.05005777 -0.46802634 9 10 28132 5.37000000 1631381287 1631381287 -5.00000000
-4.14761114 0.83178610 -0.22169511 26 12 28134 4.23600000 1631381292 1631381292 -3.00000000
-4.07591963 0.81888872 -0.07256711 98 14 28136 4.15800000 1631381297 1631381297 -1.00000000
-9.88859844 1.98670793 2.70258856 35 15 28136 10.44200000 1631381299 1631381299 15.00000000
-1.92755389 0.39006364 -0.52695560 4 0 28144 2.03600000 1631381320 1631381320 -15.00000000
-4.17654276 0.84593230 0.07438216 5 1 28145 4.26200000 1631381322 1631381322 1.00000000
-4.08907318 0.82895887 -0.96324039 6 2 28146 4.28200000 1631381324 1631381324 -13.00000000
-4.19871092 0.85118526 0.22452125 17 3 28146 4.29000000 1631381327 1631381327 3.00000000
-2.59361410 0.52626270 -0.51442105 3 4 28147 2.69600000 1631381329 1631381329 -11.00000000
-4.86961031 0.98896331 0.43473285 9 5 28148 4.98800000 1631381331 1631381331 5.00000000
-3.12436366 0.63509113 -0.50497043 3 6 28149 3.22800000 1631381333 1631381333 -9.00000000
-3.92924714 0.80012858 -0.49235216 6 8 28151 4.04000000 1631381338 1631381338 -7.00000000
-5.22813320 1.06557631 -0.46680614 9 10 28152 5.35600000 1631381343 1631381343 -5.00000000
-4.14468241 0.84625894 -0.22169511 20 12 28154 4.23600000 1631381347 1631381347 -3.00000000
-4.07303619 0.83311135 -0.07256711 99 14 28156 4.15800000 1631381352 1631381352 -1.00000000
-8.62077999 1.76488853 2.35784149 6 15 28157 9.11000000 1631381354 1631381354 15.00000000
-1.93564117 0.39873856 -0.52954376 5 0 28164 2.04600000 1631381375 1631381375 -15.00000000
-4.16573048 0.85889083 0.07424254 5 1 28165 4.25400000 1631381377 1631381377 1.00000000
-4.07852030 0.84165198 -0.96144080 5 2 28166 4.27400000 1631381380 1631381380 -13.00000000
-4.19556284 0.86656857 0.22452125 15 3 28167 4.29000000 1631381382 1631381382 3.00000000
-2.59368396 0.53571004 -0.51480269 3 4 28167 2.69800000 1631381384 1631381384 -11.00000000
-4.87588406 1.00797212 0.43560439 9 5 28168 4.99800000 1631381386 1631381386 5.00000000
-3.12212777 0.64599329 -0.50497043 3 6 28169 3.22800000 1631381389 1631381389 -9.00000000
-3.94975567 0.81867403 -0.49527702 6 8 28171 4.06400000 1631381393 1631381393 -7.00000000
-5.23608685 1.08624768 -0.46785203 9 10 28172 5.36800000 1631381398 1631381398 -5.00000000
-4.14170313 0.86072141 -0.22169511 14 12 28174 4.23600000 1631381403 1631381403 -3.00000000
-4.07010317 0.84732383 -0.07256711 99 14 28176 4.15800000 1631381407 1631381407 -1.00000000
-8.47870636 1.76511741 2.32057166 9 15 28176 8.96600000 1631381410 1631381410 15.00000000
-1.93423760 0.40549278 -0.52954376 4 0 28184 2.04600000 1631381430 1631381430 -15.00000000
-4.15879297 0.87260544 0.07417273 7 1 28185 4.25000000 1631381433 1631381433 1.00000000
-4.06792927 0.85428149 -0.95964122 5 2 28186 4.26600000 1631381435 1631381435 -13.00000000
-4.19055796 0.88079774 0.22441658 15 3 28187 4.28800000 1631381437 1631381437 3.00000000
-2.61293221 0.54920244 -0.51900047 3 4 28187 2.72000000 1631381439 1631381439 -11.00000000
-4.86648655 1.02375555 0.43508148 9 5 28188 4.99200000 1631381442 1631381442 5.00000000
-3.12371969 0.65770161 -0.50559622 3 6 28189 3.23200000 1631381444 1631381444 -9.00000000
-3.93521976 0.82999820 -0.49381459 6 8 28191 4.05200000 1631381449 1631381449 -7.00000000
-5.24006081 1.10616446 -0.46854928 9 10 28192 5.37600000 1631381453 1631381453 -5.00000000
-4.13281155 0.87393379 -0.22138110 10 12 28194 4.23000000 1631381458 1631381458 -3.00000000
-4.07103348 0.86235476 -0.07263692 99 14 28196 4.16200000 1631381463 1631381463 -1.00000000
-8.29264450 1.75811839 2.27139592 9 15 28197 8.77600000 1631381465 1631381465 15.00000000
-1.94407403 0.41499922 -0.53264958 5 0 28205 2.05800000 1631381486 1631381486 -15.00000000
-4.15556669 0.88784230 0.07417273 5 1 28206 4.25000000 1631381488 1631381488 1.00000000
-4.06858206 0.87000048 -0.96054101 5 2 28207 4.27000000 1631381490 1631381490 -13.00000000
-4.17167711 0.89280713 0.22357920 14 3 28208 4.27200000 1631381492 1631381492 3.00000000
-2.58786440 0.55384529 -0.51442105 3 4 28208 2.69600000 1631381495 1631381495 -11.00000000
-4.87244272 1.04367173 0.43595302 9 5 28209 5.00200000 1631381497 1631381497 5.00000000
-3.12128806 0.66914618 -0.50559622 3 6 28210 3.23200000 1631381499 1631381499 -9.00000000
-3.91662431 0.84108162 -0.49186468 6 8 28212 4.03600000 1631381504 1631381504 -7.00000000
-5.23597145 1.12536287 -0.46854928 9 10 28213 5.37600000 1631381509 1631381509 -5.00000000
-4.12567568 0.88823467 -0.22117175 8 12 28215 4.22600000 1631381513 1631381513 -3.00000000
-4.05611658 0.87474066 -0.07242749 100 14 28217 4.15000000 1631381518 1631381518 -1.00000000
-8.27701473 1.78501809 2.26880765 6 15 28217 8.76600000 1631381520 1631381520 15.00000000
-1.93128645 0.41932338 -0.52954376 5 0 28225 2.04600000 1631381541 1631381541 -15.00000000
-4.16025877 0.90404105 0.07431234 7 1 28226 4.25800000 1631381543 1631381543 1.00000000
-4.06742477 0.88461131 -0.96099091 5 2 28227 4.27200000 1631381545 1631381545 -13.00000000
-4.17243862 0.90821314 0.22378854 14 3 28228 4.27600000 1631381548 1631381548 3.00000000
-2.60318041 0.56663328 -0.51785558 3 4 28228 2.71400000 1631381550 1631381550 -11.00000000
-4.85514307 1.05770469 0.43473285 9 5 28229 4.98800000 1631381552 1631381552 5.00000000
-3.13051367 0.68256235 -0.50747341 3 6 28230 3.24400000 1631381555 1631381555 -9.00000000
-3.92142224 0.85644233 -0.49283963 6 8 28232 4.04400000 1631381559 1631381559 -7.00000000
-5.24369001 1.14618576 -0.46959513 10 10 28233 5.38800000 1631381564 1631381564 -5.00000000
-4.12645197 0.90348494 -0.22138110 8 12 28235 4.23000000 1631381568 1631381568 -3.00000000
-4.04327202 0.88675195 -0.07225296 100 14 28237 4.14000000 1631381573 1631381573 -1.00000000
-9.85921288 2.16408086 2.70465899 42 15 28238 10.45000000 1631381575 1631381575 15.00000000
-1.92611229 0.42489314 -0.52850848 4 0 28244 2.04200000 1631381596 1631381596 -15.00000000
-4.13771105 0.91352087 0.07396330 18 1 28245 4.23800000 1631381598 1631381598 1.00000000
-2.22251844 0.49109289 -0.52548563 4 2 28246 2.33600000 1631381601 1631381601 -13.00000000
-4.16355324 0.92075068 0.22347453 14 3 28247 4.27000000 1631381603 1631381603 3.00000000
-2.60320401 0.57568657 -0.51823723 3 4 28247 2.71600000 1631381605 1631381605 -11.00000000
-4.85160875 1.07379913 0.43473285 9 5 28248 4.98800000 1631381608 1631381608 5.00000000
-3.12437558 0.69208533 -0.50684768 3 6 28249 3.24000000 1631381610 1631381610 -9.00000000
-3.94181609 0.87460142 -0.49576449 6 8 28251 4.06800000 1631381615 1631381615 -7.00000000
-5.22429991 1.16011286 -0.46820065 9 10 28252 5.37200000 1631381619 1631381619 -5.00000000
-4.13318110 0.91933203 -0.22190446 8 12 28254 4.24000000 1631381624 1631381624 -3.00000000
-4.05787611 0.90406877 -0.07256711 100 14 28256 4.15800000 1631381628 1631381628 -1.00000000
-9.83350945 2.19084263 2.69948268 42 15 28256 10.43000000 1631381631 1631381631 15.00000000
-1.93027246 0.43288216 -0.53006142 4 0 28264 2.04800000 1631381651 1631381651 -15.00000000
-4.11303425 0.92314148 0.07357935 5 1 28265 4.21600000 1631381654 1631381654 1.00000000
-4.06701326 0.91355795 -0.96234059 9 2 28266 4.27800000 1631381656 1631381656 -13.00000000
-4.18369770 0.94053543 0.22473060 14 3 28267 4.29400000 1631381658 1631381658 3.00000000
-2.59543228 0.58347809 -0.51709241 3 4 28267 2.71000000 1631381661 1631381661 -11.00000000
-4.84199953 1.08941579 0.43420991 9 5 28268 4.98200000 1631381663 1631381663 5.00000000
-3.11423230 0.70125145 -0.50559622 3 6 28269 3.23200000 1631381665 1631381665 -9.00000000
-3.93486619 0.88748205 -0.49527702 6 8 28271 4.06400000 1631381670 1631381670 -7.00000000
-5.23187971 1.18097413 -0.46924651 9 10 28272 5.38400000 1631381674 1631381674 -5.00000000
-4.12605095 0.93287301 -0.22169511 8 12 28274 4.23600000 1631381679 1631381679 -3.00000000
-4.05469561 0.91822785 -0.07256711 100 14 28276 4.15800000 1631381684 1631381684 -1.00000000
-9.84802246 2.23199368 2.70569420 45 15 28277 10.45400000 1631381686 1631381686 15.00000000
-1.93063331 0.44004676 -0.53057903 4 0 28284 2.05000000 1631381707 1631381707 -15.00000000
-4.09029102 0.93304574 0.07323030 8 1 28285 4.19600000 1631381709 1631381709 1.00000000
-4.05240059 0.92514652 -0.95964122 13 2 28286 4.26600000 1631381711 1631381711 -13.00000000
-4.17065334 0.95290917 0.22420724 14 3 28287 4.28400000 1631381714 1631381714 3.00000000
-2.60103559 0.59428346 -0.51861882 3 4 28287 2.71800000 1631381716 1631381716 -11.00000000
-4.85176325 1.10941982 0.43543008 9 5 28288 4.99600000 1631381718 1631381718 5.00000000
-3.11754227 0.71343988 -0.50653481 3 6 28289 3.23800000 1631381721 1631381721 -9.00000000
-3.92400479 0.89943784 -0.49430206 4 8 28291 4.05600000 1631381725 1631381725 -7.00000000
-5.23937702 1.20190251 -0.47029239 10 10 28292 5.39600000 1631381730 1631381730 -5.00000000
-4.11887646 0.94637543 -0.22148576 8 12 28294 4.23200000 1631381734 1631381734 -3.00000000
-4.05146551 0.93237579 -0.07256711 100 14 28296 4.15800000 1631381739 1631381739 -1.00000000
-9.84809685 2.26637173 2.70776486 47 15 28296 10.46200000 1631381741 1631381741 15.00000000
-1.92908549 0.44678324 -0.53057903 4 0 28304 2.05000000 1631381762 1631381762 -15.00000000
-4.09480095 0.94912392 0.07336992 19 1 28305 4.20400000 1631381764 1631381764 1.00000000
