# .PCD v0.7 - Point Cloud Data file format
VERSION 0.7
FIELDS x y z intensity laser_id azimuth distance_m adjustedtime timestamp vertical_angle
SIZE 4 4 4 1 1 2 8 8 4 8
TYPE F F F U U U F U U F
COUNT 1 1 1 1 1 1 1 1 1 1
WIDTH 524
HEIGHT 1
VIEWPOINT 0 0 0 1 0 0 0
POINTS 524
DATA ascii
-4.64842176 3.91710877 -0.53182435 3 10 31012 6.10200000 1631089268 1631089268 -5.00000000
-7.38688898 6.22915745 -0.50640273 12 12 31014 9.67600000 1631089273 1631089273 -3.00000000
-8.64676285 7.29415607 2.61168170 62 13 31015 11.61000000 1631089275 1631089275 13.00000000
-7.42525244 6.26816320 2.60371971 42 15 31017 10.06000000 1631089280 1631089280 15.00000000
-1.58674467 1.34280312 -0.55697858 4 0 31024 2.15200000 1631089300 1631089300 -15.00000000
-1.84254408 1.56038082 -0.55742872 3 2 31026 2.47800000 1631089305 1631089305 -13.00000000
-2.15708637 1.82740128 -0.54952991 3 4 31027 2.88000000 1631089310 1631089310 -11.00000000
-2.67302799 2.26609063 -0.55502951 3 6 31029 3.54800000 1631089314 1631089314 -9.00000000
-3.19853878 2.71351814 -0.51501983 8 8 31031 4.22600000 1631089319 1631089319 -7.00000000
-4.61345339 3.91526222 -0.52938396 3 10 31032 6.07400000 1631089323 1631089323 -5.00000000
-7.40468121 6.28851891 -0.50912416 12 12 31034 9.72800000 1631089328 1631089328 -3.00000000
-8.62124825 7.32429457 2.61168170 64 13 31035 11.61000000 1631089330 1631089330 13.00000000
-7.40589762 6.29400301 2.60423732 45 15 31036 10.06200000 1631089335 1631089335 15.00000000
-1.58204770 1.34833372 -0.55697858 4 0 31044 2.15200000 1631089356 1631089356 -15.00000000
-1.84005153 1.56933212 -0.55832851 3 2 31046 2.48200000 1631089360 1631089360 -13.00000000
-2.15965557 1.84256530 -0.55181962 3 4 31047 2.89200000 1631089365 1631089365 -11.00000000
-2.65007854 2.26258111 -0.55190080 3 6 31049 3.52800000 1631089369 1631089369 -9.00000000
-3.18904734 2.72466660 -0.51501983 8 8 31051 4.22600000 1631089374 1631089374 -7.00000000
-4.62399149 3.95205402 -0.53217298 3 10 31052 6.10600000 1631089379 1631089379 -5.00000000
-7.40241671 6.33120394 -0.51048493 12 12 31054 9.75400000 1631089383 1631089383 -3.00000000
-8.59562969 7.35434389 2.61168170 60 13 31055 11.61000000 1631089386 1631089386 13.00000000
-7.37397432 6.31356621 2.60113144 47 15 31057 10.05000000 1631089390 1631089390 15.00000000
-1.57439971 1.35133147 -0.55594331 4 0 31064 2.14800000 1631089411 1631089411 -15.00000000
-1.83751893 1.57828510 -0.55922830 3 2 31066 2.48600000 1631089416 1631089416 -13.00000000
-2.15916705 1.85521054 -0.55334610 3 4 31067 2.90000000 1631089420 1631089420 -11.00000000
-2.63617325 2.26666641 -0.55064934 3 6 31069 3.52000000 1631089425 1631089425 -9.00000000
-3.17801237 2.73448706 -0.51477611 8 8 31071 4.22400000 1631089429 1631089429 -7.00000000
-4.59657764 3.95647287 -0.53060418 3 10 31072 6.08800000 1631089434 1631089434 -5.00000000
-7.40145779 6.37525320 -0.51195031 12 12 31074 9.78200000 1631089439 1631089439 -3.00000000
-8.56990528 7.38430309 2.61168170 59 13 31075 11.61000000 1631089441 1631089441 13.00000000
-7.35007095 6.33546162 2.60009623 45 15 31076 10.04600000 1631089446 1631089446 15.00000000
-1.56967306 1.35681891 -0.55594331 4 0 31084 2.14800000 1631089466 1631089466 -15.00000000
-1.82020772 1.57449043 -0.55562907 3 2 31086 2.47000000 1631089471 1631089471 -13.00000000
-2.15267801 1.86273611 -0.55334610 3 4 31087 2.90000000 1631089475 1631089475 -11.00000000
-2.64019156 2.28619933 -0.55315226 3 6 31089 3.53600000 1631089480 1631089480 -9.00000000
-3.17594886 2.75206351 -0.51599479 6 8 31091 4.23400000 1631089485 1631089485 -7.00000000
-4.60983801 3.99598432 -0.53374177 3 10 31092 6.12400000 1631089489 1631089489 -5.00000000
-7.41385937 6.43115139 -0.51435781 17 12 31094 9.82800000 1631089494 1631089494 -3.00000000
-8.53524685 7.40650940 2.60898232 60 13 31095 11.59800000 1631089496 1631089496 13.00000000
-7.32096624 6.35729218 2.59802556 45 15 31097 10.03800000 1631089501 1631089501 15.00000000
-1.57804120 1.37370563 -0.56060207 4 0 31104 2.16600000 1631089522 1631089522 -15.00000000
-1.81763935 1.58339465 -0.55652893 3 2 31106 2.47400000 1631089526 1631089526 -13.00000000
-2.15208316 1.87539828 -0.55487257 3 4 31107 2.90800000 1631089531 1631089531 -11.00000000
-2.63815045 2.30059457 -0.55440372 3 6 31109 3.54400000 1631089535 1631089535 -9.00000000
-3.18277526 2.77749038 -0.51867592 6 8 31111 4.25600000 1631089540 1631089540 -7.00000000
-4.61237144 4.02646446 -0.53565919 3 10 31112 6.14600000 1631089545 1631089545 -5.00000000
-7.41994381 6.48195744 -0.51634657 17 12 31114 9.86600000 1631089549 1631089549 -3.00000000
-8.50053692 7.42856407 2.60628295 60 13 31115 11.58600000 1631089552 1631089552 13.00000000
-7.30275345 6.38407707 2.59906077 45 15 31116 10.04200000 1631089556 1631089556 15.00000000
-1.56306779 1.37029111 -0.55697858 4 0 31124 2.15200000 1631089577 1631089577 -15.00000000
-1.81210124 1.58972979 -0.55652893 3 2 31126 2.47400000 1631089581 1631089581 -13.00000000
-2.13962126 1.87771916 -0.55334610 3 4 31127 2.90000000 1631089586 1631089586 -11.00000000
-2.62713528 2.30718231 -0.55377799 3 6 31129 3.54000000 1631089591 1631089591 -9.00000000
-3.18498945 2.79906678 -0.52062583 6 8 31131 4.27200000 1631089595 1631089595 -7.00000000
-4.60128117 4.04517078 -0.53600782 3 10 31132 6.15000000 1631089600 1631089600 -5.00000000
-7.39427328 6.50517988 -0.51613718 12 12 31134 9.86200000 1631089604 1631089604 -3.00000000
-8.46870232 7.45304155 2.60448337 55 13 31135 11.57800000 1631089607 1631089607 13.00000000
-7.27060699 6.40313959 2.59595513 47 15 31137 10.03000000 1631089611 1631089611 15.00000000
-1.54958582 1.36806750 -0.55387276 4 0 31144 2.14000000 1631089632 1631089632 -15.00000000
-1.80946183 1.59862602 -0.55742872 3 2 31146 2.47800000 1631089637 1631089637 -13.00000000
-2.12716937 1.87997591 -0.55181962 3 4 31147 2.89200000 1631089641 1631089641 -11.00000000
-2.61314678 2.31110406 -0.55252653 3 6 31149 3.53200000 1631089646 1631089646 -9.00000000
-3.19155121 2.82463908 -0.52330697 8 8 31151 4.29400000 1631089651 1631089651 -7.00000000
-4.57669067 4.05196285 -0.53478765 3 10 31152 6.13600000 1631089655 1631089655 -5.00000000
-7.36255169 6.52300453 -0.51550919 8 12 31154 9.85000000 1631089660 1631089660 -3.00000000
-8.43826008 7.47867966 2.60313368 52 13 31155 11.57200000 1631089662 1631089662 13.00000000
-7.23487806 6.41439867 2.59077859 47 15 31156 10.01000000 1631089667 1631089667 15.00000000
-1.55057585 1.37860274 -0.55594331 4 0 31164 2.14800000 1631089687 1631089687 -15.00000000
-1.80969417 1.61011386 -0.55922830 3 2 31166 2.48600000 1631089692 1631089692 -13.00000000
-2.12939334 1.89522111 -0.55410933 3 4 31167 2.90400000 1631089697 1631089697 -11.00000000
-2.61096406 2.32546687 -0.55377799 3 6 31169 3.54000000 1631089701 1631089701 -9.00000000
-3.18167186 2.83576250 -0.52330697 8 8 31171 4.29400000 1631089706 1631089706 -7.00000000
-4.58631277 4.08912849 -0.53757662 3 10 31172 6.16800000 1631089710 1631089710 -5.00000000
-7.33973694 6.54866457 -0.51550919 8 12 31174 9.85000000 1631089715 1631089715 -3.00000000
-8.40774155 7.50419617 2.60178399 45 13 31175 11.56600000 1631089717 1631089717 13.00000000
-7.21131945 6.44087267 2.59077859 45 15 31177 10.01000000 1631089722 1631089722 15.00000000
-1.54887474 1.38631380 -0.55697858 4 0 31183 2.15200000 1631089743 1631089743 -15.00000000
-1.80144179 1.61350584 -0.55832851 3 2 31185 2.48200000 1631089747 1631089747 -13.00000000
-2.12894559 1.90751243 -0.55563581 2 4 31186 2.91200000 1631089752 1631089752 -11.00000000
-2.59147215 2.32356262 -0.55127507 3 6 31188 3.52400000 1631089757 1631089757 -9.00000000
-3.16781807 2.84232068 -0.52257574 8 8 31190 4.28800000 1631089761 1631089761 -7.00000000
-4.57717562 4.10830688 -0.53809953 3 10 31191 6.17400000 1631089766 1631089766 -5.00000000
-7.30609369 6.56229115 -0.51467180 8 12 31193 9.83400000 1631089770 1631089770 -3.00000000
-8.37266350 7.52291870 2.59863448 45 13 31194 11.55200000 1631089773 1631089773 13.00000000
-7.19104910 6.46349573 2.59077859 42 15 31195 10.01000000 1631089777 1631089777 15.00000000
-1.54546106 1.39300537 -0.55749625 4 0 31203 2.15400000 1631089798 1631089798 -15.00000000
-1.79290450 1.61717367 -0.55742872 3 2 31205 2.47800000 1631089803 1631089803 -13.00000000
-2.11644363 1.90967143 -0.55410933 3 4 31206 2.90400000 1631089807 1631089807 -11.00000000
-2.60093951 2.34848046 -0.55502951 3 6 31208 3.54800000 1631089812 1631089812 -9.00000000
-3.16671467 2.86134624 -0.52403820 8 8 31210 4.30000000 1631089816 1631089816 -7.00000000
-4.56724119 4.12826729 -0.53862250 3 10 31211 6.18000000 1631089821 1631089821 -5.00000000
-7.28166103 6.58641434 -0.51456714 12 12 31213 9.83200000 1631089826 1631089826 -3.00000000
-8.33190250 7.53902435 2.59413552 43 13 31214 11.53200000 1631089828 1631089828 13.00000000
-7.16731119 6.48980904 2.59077859 47 15 31216 10.01000000 1631089833 1631089833 15.00000000
-1.53915870 1.39709318 -0.55697858 4 0 31223 2.15200000 1631089853 1631089853 -15.00000000
-1.79013348 1.62604284 -0.55832851 3 2 31225 2.48200000 1631089858 1631089858 -13.00000000
-2.10395288 1.91176641 -0.55258286 3 4 31226 2.89600000 1631089863 1631089863 -11.00000000
-2.59857178 2.36286092 -0.55628097 3 6 31228 3.55600000 1631089867 1631089867 -9.00000000
-3.18900847 2.90177464 -0.52940041 20 8 31230 4.34400000 1631089872 1631089872 -7.00000000
-4.55280304 4.14418507 -0.53862250 3 10 31231 6.18000000 1631089876 1631089876 -5.00000000
-7.27191448 6.62389660 -0.51550919 8 12 31233 9.85000000 1631089881 1631089881 -3.00000000
-8.30265522 7.56543684 2.59323573 42 13 31234 11.52800000 1631089883 1631089883 13.00000000
-7.13861179 6.50703382 2.58819056 47 15 31235 10.00000000 1631089888 1631089888 15.00000000
-1.52999485 1.39854705 -0.55542564 4 0 31243 2.14600000 1631089909 1631089909 -15.00000000
-1.79307413 1.64017344 -0.56102794 3 2 31245 2.49400000 1631089913 1631089913 -13.00000000
-2.10306025 1.92440033 -0.55410933 3 4 31246 2.90400000 1631089918 1631089918 -11.00000000
-2.59322190 2.37458539 -0.55690670 3 6 31248 3.56000000 1631089922 1631089922 -9.00000000
-3.19349575 2.92629957 -0.53183782 20 8 31250 4.36400000 1631089927 1631089927 -7.00000000
-4.53096581 4.15332031 -0.53775096 3 10 31251 6.17000000 1631089932 1631089932 -5.00000000
-7.28112888 6.67894220 -0.51781195 8 12 31253 9.89400000 1631089936 1631089936 -3.00000000
-8.27906799 7.59700775 2.59413552 43 13 31254 11.53200000 1631089939 1631089939 13.00000000
-7.09877682 6.51623583 2.58197880 45 15 31255 9.97600000 1631089943 1631089943 15.00000000
-1.52794647 1.40649593 -0.55646098 4 0 31263 2.15000000 1631089964 1631089964 -15.00000000
-1.78160465 1.64114118 -0.55922830 3 2 31265 2.48600000 1631089969 1631089969 -13.00000000
-2.09632993 1.93172967 -0.55410933 3 4 31266 2.90400000 1631089973 1631089973 -11.00000000
-2.56749082 2.36755347 -0.55315226 3 6 31268 3.53600000 1631089978 1631089978 -9.00000000
-3.19201469 2.94550657 -0.53330022 20 8 31270 4.37600000 1631089982 1631089982 -7.00000000
-4.53108072 4.18262529 -0.53949404 3 10 31271 6.19000000 1631089987 1631089987 -5.00000000
-7.26510620 6.71109343 -0.51833528 8 12 31273 9.90400000 1631089992 1631089992 -3.00000000
-8.25536156 7.62850571 2.59503531 42 13 31274 11.53600000 1631089994 1631089994 13.00000000
-7.08308077 6.54753208 2.58456707 45 15 31275 9.98600000 1631089998 1631089998 15.00000000
-1.52586102 1.41444755 -0.55749625 4 0 31283 2.15400000 1631090019 1631090019 -15.00000000
-1.77015042 1.64204895 -0.55742872 4 2 31285 2.47800000 1631090024 1631090024 -13.00000000
-2.10396528 1.95238972 -0.55792552 3 4 31286 2.92400000 1631090028 1631090028 -11.00000000
-2.58237123 2.39800811 -0.55815816 3 6 31288 3.56800000 1631090033 1631090033 -9.00000000
-3.18025947 2.95527935 -0.53305650 18 8 31290 4.37400000 1631090038 1631090038 -7.00000000
-4.51645279 4.19841623 -0.53949404 7 10 31291 6.19000000 1631090042 1631090042 -5.00000000
-7.24602270 6.74049377 -0.51864934 4 12 31293 9.91000000 1631090047 1631090047 -3.00000000
-8.21156311 7.64134550 2.58963656 40 13 31294 11.51200000 1631090049 1631090049 13.00000000
-7.05903530 6.57344913 2.58456707 45 15 31296 9.98600000 1631090054 1631090054 15.00000000
-1.52656317 1.42503822 -0.55956680 4 0 31303 2.16200000 1631090075 1631090075 -15.00000000
-1.76725590 1.65087843 -0.55832851 3 2 31305 2.48200000 1631090079 1631090079 -13.00000000
-2.08566189 1.94899845 -0.55487257 3 4 31306 2.90800000 1631090084 1631090084 -11.00000000
-2.56965637 2.40296006 -0.55721956 1 6 31308 3.56200000 1631090088 1631090088 -9.00000000
-3.17427254 2.97043180 -0.53378773 16 8 31310 4.38000000 1631090093 1631090093 -7.00000000
-4.51049757 4.22232580 -0.54053992 3 10 31311 6.20200000 1631090098 1631090098 -5.00000000
-7.25014448 6.79168940 -0.52063811 4 12 31313 9.94800000 1631090102 1631090102 -3.00000000
-8.17915154 7.66463232 2.58783698 39 13 31314 11.50400000 1631090104 1631090104 13.00000000
-7.03015089 6.59021568 2.58197880 45 15 31315 9.97600000 1631090109 1631090109 15.00000000
-1.51031899 1.41977286 -0.55542564 4 0 31323 2.14600000 1631090130 1631090130 -15.00000000
-1.77283776 1.66771924 -0.56192774 3 2 31325 2.49800000 1631090134 1631090134 -13.00000000
-2.07598639 1.95357609 -0.55410933 3 4 31326 2.90400000 1631090139 1631090139 -11.00000000
-2.56556702 2.41597795 -0.55815816 1 6 31328 3.56800000 1631090144 1631090144 -9.00000000
-3.16388440 2.98149395 -0.53378773 16 8 31330 4.38000000 1631090148 1631090148 -7.00000000
-4.49428129 4.23667765 -0.54036558 3 10 31331 6.20000000 1631090153 1631090153 -5.00000000
-7.25835514 6.84710693 -0.52294087 4 12 31333 9.99200000 1631090157 1631090157 -3.00000000
-8.14951324 7.69046116 2.58693719 43 13 31334 11.50000000 1631090160 1631090160 13.00000000
-7.00569916 6.61338902 2.58146119 42 15 31335 9.97400000 1631090164 1631090164 15.00000000
-1.50815976 1.42769229 -0.55646098 4 0 31343 2.15000000 1631090185 1631090185 -15.00000000
-1.76983500 1.67657781 -0.56282753 3 2 31345 2.50200000 1631090190 1631090190 -13.00000000
-2.08340478 1.97431493 -0.55792552 3 4 31346 2.92400000 1631090194 1631090194 -11.00000000
-2.54565120 2.41404462 -0.55565524 3 6 31348 3.55200000 1631090199 1631090199 -9.00000000
-3.15345788 2.99251986 -0.53378773 16 8 31350 4.38000000 1631090203 1631090203 -7.00000000
-4.47224045 4.24548149 -0.53949404 3 10 31351 6.19000000 1631090208 1631090208 -5.00000000
-7.23730612 6.87515306 -0.52315021 4 12 31353 9.99600000 1631090213 1631090213 -3.00000000
-8.12261868 7.71886158 2.58693719 42 13 31354 11.50000000 1631090215 1631090215 13.00000000
-6.96716976 6.62316179 2.57576704 45 15 31355 9.95200000 1631090220 1631090220 15.00000000
-1.50876009 1.43827999 -0.55853152 4 0 31363 2.15800000 1631090240 1631090240 -15.00000000
-1.75833166 1.67736495 -0.56102794 3 2 31365 2.49400000 1631090245 1631090245 -13.00000000
-2.07081914 1.97615373 -0.55639905 3 4 31366 2.91600000 1631090250 1631090250 -11.00000000
-2.54292345 2.42837286 -0.55690670 3 6 31368 3.56000000 1631090254 1631090254 -9.00000000
-3.15447402 3.01448083 -0.53573763 16 8 31370 4.39600000 1631090259 1631090259 -7.00000000
-4.45883369 4.26244307 -0.53966838 3 10 31371 6.19200000 1631090263 1631090263 -5.00000000
-7.22192287 6.90865755 -0.52377826 4 12 31373 10.00800000 1631090268 1631090268 -3.00000000
-8.09562492 7.74716759 2.58693719 41 13 31374 11.50000000 1631090270 1631090270 13.00000000
-6.94424295 6.64998960 2.57628489 42 15 31376 9.95400000 1631090275 1631090275 15.00000000
-1.50930500 1.44888914 -0.56060207 4 0 31383 2.16600000 1631090296 1631090296 -15.00000000
-1.74965513 1.68079245 -0.56012815 4 2 31385 2.49000000 1631090300 1631090300 -13.00000000
-2.07806444 1.99697363 -0.56021523 3 4 31386 2.93600000 1631090305 1631090305 -11.00000000
-2.54297447 2.44544983 -0.55878389 3 6 31388 3.57200000 1631090309 1631090309 -9.00000000
-3.14107156 3.02272081 -0.53525013 16 8 31390 4.39200000 1631090314 1631090314 -7.00000000
-4.47550631 4.30838060 -0.54350322 3 10 31391 6.23600000 1631090319 1631090319 -5.00000000
-7.22509289 6.96015215 -0.52576703 4 12 31393 10.04600000 1631090323 1631090323 -3.00000000
-8.06011391 7.76726627 2.58423781 43 13 31394 11.48800000 1631090326 1631090326 13.00000000
-6.92910671 6.67968464 2.57887292 45 15 31395 9.96400000 1631090330 1631090330 15.00000000
-1.50701606 1.45683420 -0.56163734 4 0 31403 2.17000000 1631090351 1631090351 -15.00000000
-1.74097621 1.68417978 -0.55922830 3 2 31405 2.48600000 1631090355 1631090355 -13.00000000
-2.05697274 1.99056256 -0.55639905 3 4 31406 2.91600000 1631090360 1631090360 -11.00000000
-2.53016567 2.45018911 -0.55784529 3 6 31408 3.56600000 1631090365 1631090365 -9.00000000
-3.12479901 3.02814078 -0.53427517 16 8 31410 4.38400000 1631090369 1631090369 -7.00000000
-4.45900917 4.32258987 -0.54332888 7 10 31411 6.23400000 1631090374 1631090374 -5.00000000
-7.19931984 6.98393965 -0.52566236 4 12 31413 10.04400000 1631090379 1631090379 -3.00000000
-8.01896667 7.78178263 2.57973862 41 13 31414 11.46800000 1631090381 1631090381 13.00000000
-6.90436220 6.70248556 2.57835531 45 15 31415 9.96200000 1631090385 1631090385 15.00000000
-1.49966240 1.45886731 -0.56060207 4 0 31421 2.16600000 1631090406 1631090406 -15.00000000
-1.73846936 1.69235957 -0.56012815 3 2 31423 2.49000000 1631090411 1631090411 -13.00000000
-2.04789591 1.99427545 -0.55563581 3 4 31424 2.91200000 1631090415 1631090415 -11.00000000
-2.52104092 2.45674706 -0.55753243 1 6 31426 3.56400000 1631090420 1631090420 -9.00000000
-3.12664008 3.04903007 -0.53622514 16 8 31428 4.40000000 1631090425 1631090425 -7.00000000
-4.45824337 4.34909868 -0.54489768 3 10 31429 6.25200000 1631090429 1631090429 -5.00000000
-7.20735645 7.03582096 -0.52786046 4 12 31431 10.08600000 1631090434 1631090434 -3.00000000
-7.99726868 7.80965948 2.58063841 42 13 31432 11.47200000 1631090436 1631090436 13.00000000
-6.87518930 6.71859360 2.57576704 45 15 31434 9.95200000 1631090441 1631090441 15.00000000
-1.48352075 1.45327818 -0.55646098 4 0 31441 2.15000000 1631090461 1631090461 -15.00000000
-1.73533452 1.70114601 -0.56102794 3 2 31443 2.49400000 1631090466 1631090466 -13.00000000
-2.05213618 2.01240849 -0.55868876 3 4 31444 2.92800000 1631090471 1631090471 -11.00000000
-2.51103997 2.46414852 -0.55721956 1 6 31446 3.56200000 1631090475 1631090475 -9.00000000
-3.12164330 3.06548905 -0.53720009 16 8 31448 4.40800000 1631090480 1631090480 -7.00000000
-4.43308544 4.35486031 -0.54367751 7 10 31449 6.23800000 1631090485 1631090485 -5.00000000
-7.18417740 7.06233644 -0.52796513 4 12 31451 10.08800000 1631090489 1631090489 -3.00000000
-7.96718025 7.83479500 2.57973862 43 13 31452 11.46800000 1631090491 1631090491 13.00000000
-6.84205675 6.73306608 2.57214355 40 15 31454 9.93800000 1631090496 1631090496 15.00000000
-1.48669052 1.46658790 -0.55956680 4 0 31461 2.16200000 1631090517 1631090517 -15.00000000
-1.72938585 1.70719314 -0.56102794 3 2 31463 2.49400000 1631090521 1631090521 -13.00000000
-2.04509902 2.01955962 -0.55868876 2 4 31464 2.92800000 1631090526 1631090526 -11.00000000
-2.49820805 2.46873331 -0.55628097 1 6 31466 3.55600000 1631090531 1631090531 -9.00000000
-3.11656976 3.08195019 -0.53817505 16 8 31468 4.41600000 1631090535 1631090535 -7.00000000
-4.42069006 4.37311077 -0.54402614 7 10 31469 6.24200000 1631090540 1631090540 -5.00000000
-7.17651415 7.10423231 -0.52922118 4 12 31471 10.11200000 1631090544 1631090544 -3.00000000
-7.94255257 7.86530018 2.58063841 41 13 31472 11.47200000 1631090547 1631090547 13.00000000
-6.82400084 6.76234770 2.57421422 42 15 31474 9.94600000 1631090551 1631090551 15.00000000
-1.48293269 1.47312999 -0.56008440 4 0 31481 2.16400000 1631090572 1631090572 -15.00000000
-1.71512377 1.70497608 -0.55832851 3 2 31483 2.48200000 1631090577 1631090577 -13.00000000
-2.05195785 2.04052949 -0.56250495 2 4 31484 2.94800000 1631090581 1631090581 -11.00000000
-2.51197863 2.49973273 -0.56128687 1 6 31486 3.58800000 1631090586 1631090586 -9.00000000
-3.10297942 3.09000874 -0.53768754 16 8 31488 4.41200000 1631090591 1631090591 -7.00000000
-4.41386747 4.39695215 -0.54507202 7 10 31489 6.25400000 1631090595 1631090595 -5.00000000
-7.17571831 7.15321064 -0.53100061 4 12 31491 10.14600000 1631090600 1631090600 -3.00000000
-7.90952969 7.88747263 2.57883883 39 13 31492 11.46400000 1631090602 1631090602 13.00000000
-6.79761934 6.78339767 2.57317901 45 15 31494 9.94200000 1631090607 1631090607 15.00000000
-1.48187888 1.48239625 -0.56163734 4 0 31501 2.17000000 1631090627 1631090627 -15.00000000
-1.71742535 1.71922481 -0.56102794 3 2 31503 2.49400000 1631090632 1631090632 -13.00000000
-2.01985192 2.02267408 -0.55563581 3 4 31504 2.91200000 1631090637 1631090637 -11.00000000
-2.50323772 2.50848603 -0.56128687 1 6 31506 3.58800000 1631090641 1631090641 -9.00000000
-3.09497786 3.10363269 -0.53817505 16 8 31508 4.41600000 1631090646 1631090646 -7.00000000
-4.41959143 4.43349791 -0.54768670 3 10 31509 6.28400000 1631090650 1631090650 -5.00000000
-7.16057205 7.18811989 -0.53173333 4 12 31511 10.16000000 1631090655 1631090655 -3.00000000
-7.86819839 7.90122557 2.57433987 50 13 31512 11.44400000 1631090657 1631090657 13.00000000
-6.78053951 6.81137848 2.57524943 42 15 31513 9.95000000 1631090662 1631090662 15.00000000
-1.47669530 1.48755991 -0.56163734 4 0 31521 2.17000000 1631090683 1631090683 -15.00000000
-1.71415854 1.72797620 -0.56192774 3 2 31523 2.49800000 1631090687 1631090687 -13.00000000
-2.01554394 2.03250051 -0.55639905 3 4 31524 2.91600000 1631090692 1631090692 -11.00000000
-2.49446630 2.51720858 -0.56128687 1 6 31526 3.58800000 1631090696 1631090696 -9.00000000
-3.08412528 3.11441731 -0.53817505 18 8 31528 4.41600000 1631090701 1631090701 -7.00000000
-4.39708042 4.44181871 -0.54681516 3 10 31529 6.27400000 1631090706 1631090706 -5.00000000
-7.20988178 7.28832531 -0.53728092 4 12 31531 10.26600000 1631090710 1631090710 -3.00000000
-7.84605074 7.93418503 2.57613945 40 13 31532 11.45200000 1631090713 1631090713 13.00000000
-6.74873924 6.82931423 2.57266140 45 15 31534 9.94000000 1631090717 1631090717 15.00000000
-1.46309733 1.48470628 -0.55853152 4 0 31542 2.15800000 1631090738 1631090738 -15.00000000
-1.71054840 1.73702431 -0.56282753 3 2 31544 2.50200000 1631090743 1631090743 -13.00000000
-2.01083565 2.04267240 -0.55716228 3 4 31545 2.92000000 1631090747 1631090747 -11.00000000
-2.48522353 2.52633452 -0.56128687 1 6 31547 3.58800000 1631090752 1631090752 -9.00000000
-3.09217215 3.14551902 -0.54158735 20 8 31549 4.44400000 1631090756 1631090756 -7.00000000
-4.37518501 4.45222044 -0.54611790 3 10 31550 6.26600000 1631090761 1631090761 -5.00000000
-7.20970917 7.34177780 -0.53926969 4 12 31552 10.30400000 1631090766 1631090766 -3.00000000
-7.81145716 7.95732641 2.57433987 50 13 31553 11.44400000 1631090768 1631090768 13.00000000
-6.71403456 6.84179926 2.56852031 45 15 31554 9.92400000 1631090773 1631090773 15.00000000
-1.46060812 1.49256587 -0.55956680 4 0 31562 2.16200000 1631090793 1631090793 -15.00000000
-1.69629967 1.73462498 -0.56012815 3 2 31564 2.49000000 1631090798 1631090798 -13.00000000
-2.01192737 2.05810237 -0.55945200 3 4 31565 2.93200000 1631090802 1631090802 -11.00000000
-2.47086835 2.52934194 -0.56003541 1 6 31567 3.58000000 1631090807 1631090807 -9.00000000
-3.09365344 3.16907787 -0.54378098 8 8 31569 4.46200000 1631090812 1631090812 -7.00000000
-4.37353230 4.48172522 -0.54786098 3 10 31570 6.28600000 1631090816 1631090816 -5.00000000
-7.18124866 7.36403990 -0.53906035 4 12 31572 10.30000000 1631090821 1631090821 -3.00000000
-7.78635406 7.98733616 2.57523966 50 13 31573 11.44800000 1631090823 1631090823 13.00000000
-6.69565344 6.87328053 2.57110834 45 15 31575 9.93400000 1631090828 1631090828 15.00000000
-1.46129918 1.50268698 -0.56163734 4 0 31580 2.17000000 1631090849 1631090849 -15.00000000
-1.69627416 1.74553573 -0.56192774 3 2 31582 2.49800000 1631090853 1631090853 -13.00000000
-2.01092362 2.07004571 -0.56097847 3 4 31583 2.94000000 1631090858 1631090858 -11.00000000
-2.46566176 2.53992653 -0.56066114 3 6 31585 3.58400000 1631090862 1631090862 -9.00000000
-3.16246748 3.25999618 -0.55767411 2 8 31587 4.57600000 1631090867 1631090867 -7.00000000
-4.36359215 4.49973392 -0.54838395 3 10 31588 6.29200000 1631090872 1631090872 -5.00000000
-7.13722944 7.36504984 -0.53749025 4 12 31590 10.27000000 1631090876 1631090876 -3.00000000
-7.75308704 8.00335979 2.57254028 50 13 31591 11.43600000 1631090879 1631090879 13.00000000
-6.68732595 6.90560675 2.57576704 45 15 31592 9.95200000 1631090883 1631090883 15.00000000
-1.46141291 1.51333737 -0.56370789 4 0 31600 2.17800000 1631090904 1631090904 -15.00000000
-1.68881762 1.75004387 -0.56147784 4 2 31602 2.49600000 1631090908 1631090908 -13.00000000
-2.01186395 2.08553028 -0.56326813 3 4 31603 2.95200000 1631090913 1631090913 -11.00000000
-2.46774840 2.55989528 -0.56316406 1 6 31605 3.60000000 1631090918 1631090918 -9.00000000
-3.16208649 3.28245234 -0.55962402 2 8 31607 4.59200000 1631090922 1631090922 -7.00000000
-4.34509420 4.51206779 -0.54803532 3 10 31608 6.28800000 1631090927 1631090927 -5.00000000
-7.11424732 7.39279652 -0.53769964 8 12 31610 10.27400000 1631090931 1631090931 -3.00000000
-7.72240114 8.02756596 2.57164049 48 13 31611 11.43200000 1631090934 1631090934 13.00000000
-6.65795422 6.92589235 2.57421422 40 15 31613 9.94600000 1631090938 1631090938 15.00000000
-1.45050895 1.51310527 -0.56163734 4 0 31621 2.17000000 1631090959 1631090959 -15.00000000
-1.69182849 1.76607263 -0.56462717 3 2 31623 2.51000000 1631090964 1631090964 -13.00000000
-1.99062788 2.07871056 -0.55945200 3 4 31624 2.93200000 1631090968 1631090968 -11.00000000
-2.46244669 2.57320428 -0.56410271 1 6 31626 3.60600000 1631090973 1631090973 -9.00000000
-3.13905883 3.28254247 -0.55767411 2 8 31628 4.57600000 1631090978 1631090978 -7.00000000
-4.35468626 4.55532646 -0.55134726 3 10 31629 6.32600000 1631090982 1631090982 -5.00000000
-7.25541687 7.59501362 -0.55046958 12 12 31631 10.51800000 1631090987 1631090987 -3.00000000
-7.68754339 8.05017853 2.56984091 48 13 31632 11.42400000 1631090989 1631090989 13.00000000
-6.63106966 6.94629622 2.57317901 42 15 31633 9.94200000 1631090994 1631090994 15.00000000
-1.43989038 1.51256239 -0.55956680 4 0 31641 2.16200000 1631091014 1631091014 -15.00000000
-1.68968296 1.77620316 -0.56597686 4 2 31643 2.51600000 1631091019 1631091019 -13.00000000
-1.97524226 2.07711053 -0.55716228 3 4 31644 2.92000000 1631091024 1631091024 -11.00000000
-2.45072794 2.57892036 -0.56347692 1 6 31646 3.60200000 1631091028 1631091028 -9.00000000
-3.14945269 3.31651115 -0.56157392 2 8 31648 4.60800000 1631091033 1631091033 -7.00000000
-4.33327150 4.56471968 -0.55065000 3 10 31649 6.31800000 1631091037 1631091037 -5.00000000
-7.27697134 7.67100859 -0.55413312 12 12 31651 10.58800000 1631091042 1631091042 -3.00000000
-7.66341877 8.08120632 2.57119060 51 13 31652 11.43000000 1631091044 1631091044 13.00000000
-6.60025024 6.96494436 2.57110834 40 15 31654 9.93400000 1631091049 1631091049 15.00000000
-1.43752134 1.52013612 -0.56060207 4 0 31660 2.16600000 1631091070 1631091070 -15.00000000
-1.67709124 1.77471471 -0.56372732 3 2 31662 2.50600000 1631091074 1631091074 -13.00000000
-1.98182535 2.09792089 -0.56097847 3 4 31663 2.94000000 1631091079 1631091079 -11.00000000
-2.44351864 2.58846951 -0.56378978 1 6 31665 3.60400000 1631091084 1631091084 -9.00000000
-3.13298869 3.32116103 -0.56059897 2 8 31667 4.60000000 1631091088 1631091088 -7.00000000
-4.32084465 4.58196306 -0.55099863 3 10 31668 6.32200000 1631091093 1631091093 -5.00000000
-7.18300533 7.62242031 -0.54889953 12 12 31670 10.48800000 1631091097 1631091097 -3.00000000
-7.63123369 8.10090065 2.56939101 53 13 31671 11.42200000 1631091100 1631091100 13.00000000
-6.57039022 6.97720671 2.56800246 42 15 31672 9.92200000 1631091104 1631091104 15.00000000
-1.44014096 1.53359437 -0.56370789 4 0 31680 2.17800000 1631091125 1631091125 -15.00000000
-1.66288507 1.77203190 -0.56102794 3 2 31682 2.49400000 1631091130 1631091130 -13.00000000
-1.97986293 2.11055326 -0.56250495 2 4 31683 2.94800000 1631091134 1631091134 -11.00000000
-2.42636228 2.58833623 -0.56191260 1 6 31685 3.59200000 1631091139 1631091139 -9.00000000
-3.10644817 3.31614089 -0.55791783 2 8 31687 4.57800000 1631091143 1631091143 -7.00000000
-4.31571913 4.60865211 -0.55239308 3 10 31688 6.33800000 1631091148 1631091148 -5.00000000
-7.10040283 7.58765554 -0.54460794 8 12 31690 10.40600000 1631091153 1631091153 -3.00000000
-7.60557222 8.13033581 2.57029080 57 13 31691 11.42600000 1631091155 1631091155 13.00000000
-6.55532742 7.01253176 2.57214355 42 15 31693 9.93800000 1631091160 1631091160 15.00000000
-1.43714488 1.54168856 -0.56474316 4 0 31701 2.18200000 1631091180 1631091180 -15.00000000
-1.66966200 1.79237390 -0.56552696 3 2 31703 2.51400000 1631091185 1631091185 -13.00000000
-1.96408641 2.10917497 -0.56021523 3 4 31704 2.93600000 1631091190 1631091190 -11.00000000
-2.41820502 2.59865785 -0.56222546 1 6 31706 3.59400000 1631091194 1631091194 -9.00000000
-3.10373569 3.33768034 -0.55962402 2 8 31708 4.59200000 1631091199 1631091199 -7.00000000
-4.32321548 4.65070629 -0.55553073 3 10 31709 6.37400000 1631091203 1631091203 -5.00000000
-7.83547878 8.43197918 2.23742628 3 11 31710 11.72600000 1631091206 1631091206 11.00000000
-7.03448391 7.57265615 -0.54167712 4 12 31711 10.35000000 1631091208 1631091208 -3.00000000
-7.57041788 8.15244484 2.56849122 55 13 31712 11.41800000 1631091210 1631091210 13.00000000
-6.53080940 7.03537130 2.57214355 40 15 31713 9.93800000 1631091215 1631091215 15.00000000
-1.42781770 1.54244268 -0.56319022 4 0 31721 2.17600000 1631091236 1631091236 -15.00000000
-1.66868842 1.80391335 -0.56732655 3 2 31723 2.52200000 1631091240 1631091240 -13.00000000
-1.95937788 2.11890101 -0.56097847 2 4 31724 2.94000000 1631091245 1631091245 -11.00000000
-2.40911913 2.60708332 -0.56222546 1 6 31726 3.59400000 1631091249 1631091249 -9.00000000
-3.09745312 3.35432768 -0.56059897 2 8 31728 4.60000000 1631091254 1631091254 -7.00000000
-4.28803539 4.64527273 -0.55309033 3 10 31729 6.34600000 1631091259 1631091259 -5.00000000
-7.03644562 7.62799406 -0.54387528 8 12 31731 10.39200000 1631091263 1631091263 -3.00000000
-7.54191399 8.17882061 2.56849122 55 13 31732 11.41800000 1631091266 1631091266 13.00000000
-6.49835539 7.04960299 2.56903791 42 15 31733 9.92600000 1631091270 1631091270 15.00000000
-1.41850269 1.54315054 -0.56163734 4 0 31741 2.17000000 1631091291 1631091291 -15.00000000
-1.65974486 1.80685687 -0.56642675 3 2 31743 2.51800000 1631091296 1631091296 -13.00000000
-1.95462537 2.12861967 -0.56174171 2 4 31744 2.94400000 1631091300 1631091300 -11.00000000
-2.38931966 2.60383296 -0.55972254 1 6 31746 3.57800000 1631091305 1631091305 -9.00000000
-3.09109187 3.37097168 -0.56157392 2 8 31748 4.60800000 1631091309 1631091309 -7.00000000
-4.27987242 4.66902447 -0.55413622 3 10 31749 6.35800000 1631091314 1631091314 -5.00000000
-7.01652145 7.65987349 -0.54439861 8 12 31751 10.40200000 1631091319 1631091319 -3.00000000
-7.51068687 8.20222282 2.56759143 59 13 31752 11.41400000 1631091321 1631091321 13.00000000
-6.46588182 7.06369352 2.56593204 42 15 31753 9.91400000 1631091325 1631091325 15.00000000
-1.41310740 1.54809260 -0.56163734 4 0 31761 2.17000000 1631091346 1631091346 -15.00000000
-1.64554787 1.80400097 -0.56372732 3 2 31763 2.50600000 1631091351 1631091351 -13.00000000
-1.95247447 2.14123249 -0.56326813 2 4 31764 2.95200000 1631091355 1631091355 -11.00000000
-2.39485121 2.62821865 -0.56316406 1 6 31766 3.60000000 1631091360 1631091360 -9.00000000
-3.07930613 3.38174105 -0.56157392 2 8 31768 4.60800000 1631091365 1631091365 -7.00000000
-4.27025414 4.69130278 -0.55500776 3 10 31769 6.36800000 1631091369 1631091369 -5.00000000
-6.99914837 7.69466114 -0.54513133 8 12 31771 10.41600000 1631091374 1631091374 -3.00000000
-7.48463202 8.23127365 2.56849122 57 13 31772 11.41800000 1631091376 1631091376 13.00000000
-6.44384575 7.09163380 2.56748486 40 15 31774 9.92000000 1631091381 1631091381 15.00000000
-1.41732240 1.56254065 -0.56526077 4 0 31779 2.18400000 1631091402 1631091402 -15.00000000
-1.64510739 1.81493711 -0.56552696 3 2 31781 2.51400000 1631091406 1631091406 -13.00000000
-1.95628393 2.15899467 -0.56632107 2 4 31782 2.96800000 1631091411 1631091411 -11.00000000
-2.39718962 2.64744377 -0.56566703 1 6 31784 3.61600000 1631091415 1631091415 -9.00000000
-3.07399440 3.39728618 -0.56254888 2 8 31786 4.61600000 1631091420 1631091420 -7.00000000
-4.27019644 4.72094870 -0.55692518 7 10 31787 6.39000000 1631091425 1631091425 -5.00000000
-6.98833323 7.73142862 -0.54617804 4 12 31789 10.43600000 1631091429 1631091429 -3.00000000
-7.45089674 8.24607086 2.56579161 55 13 31790 11.40600000 1631091431 1631091431 13.00000000
-6.42148161 7.10928822 2.56696725 42 15 31791 9.91800000 1631091436 1631091436 15.00000000
-1.41444528 1.57034945 -0.56629604 4 0 31799 2.18800000 1631091457 1631091457 -15.00000000
-1.64136946 1.82356548 -0.56642675 3 2 31801 2.51800000 1631091461 1631091461 -13.00000000
-1.94610941 2.16289115 -0.56555784 2 4 31802 2.96400000 1631091466 1631091466 -11.00000000
-2.37868834 2.64551306 -0.56347692 1 6 31804 3.60200000 1631091471 1631091471 -9.00000000
-3.06079030 3.40651917 -0.56230515 4 8 31806 4.61400000 1631091475 1631091475 -7.00000000
-4.25768566 4.74027252 -0.55744815 7 10 31807 6.39600000 1631091480 1631091480 -5.00000000
-6.96397114 7.75874805 -0.54638737 4 12 31809 10.44000000 1631091484 1631091484 -3.00000000
-7.40905285 8.25752449 2.56129265 40 13 31810 11.38600000 1631091487 1631091487 13.00000000
-6.40178585 7.13741255 2.56903791 45 15 31811 9.92600000 1631091491 1631091491 15.00000000
-1.39681864 1.56280553 -0.56163734 4 0 31821 2.17000000 1631091512 1631091512 -15.00000000
-1.63435543 1.82985437 -0.56642675 3 2 31823 2.51800000 1631091517 1631091517 -13.00000000
-1.93255997 2.16448998 -0.56403136 3 4 31824 2.95600000 1631091521 1631091521 -11.00000000
-2.38429427 2.67231464 -0.56723136 1 6 31826 3.62600000 1631091526 1631091526 -9.00000000
-3.04108238 3.41083813 -0.56108648 2 8 31828 4.60400000 1631091530 1631091530 -7.00000000
-4.23547554 4.75212383 -0.55692518 7 10 31829 6.39000000 1631091535 1631091535 -5.00000000
-6.94342709 7.79587078 -0.54712009 4 12 31831 10.45400000 1631091540 1631091540 -3.00000000
-6.34579277 7.12736893 2.20317054 11 13 31832 9.79400000 1631091542 1631091542 13.00000000
-6.36919546 7.15616894 2.56696725 40 15 31833 9.91800000 1631091547 1631091547 15.00000000
-1.39520204 1.57200634 -0.56319022 4 0 31841 2.17600000 1631091567 1631091567 -15.00000000
-1.62537193 1.83263230 -0.56552696 3 2 31843 2.51400000 1631091572 1631091572 -13.00000000
-1.92499268 2.17122269 -0.56403136 3 4 31844 2.95600000 1631091577 1631091577 -11.00000000
-2.35530210 2.65844274 -0.56253833 1 6 31846 3.59600000 1631091581 1631091581 -9.00000000
-3.03178954 3.42440534 -0.56157392 2 8 31848 4.60800000 1631091586 1631091586 -7.00000000
-4.22810507 4.77732325 -0.55814540 7 10 31849 6.40400000 1631091590 1631091590 -5.00000000
-6.93337297 7.83950949 -0.54848081 4 12 31851 10.48000000 1631091595 1631091595 -3.00000000
-6.29505968 7.12027740 2.19417262 15 13 31852 9.75400000 1631091597 1631091597 13.00000000
-6.33652878 7.17222595 2.56437922 40 15 31854 9.90800000 1631091602 1631091602 15.00000000
-1.39153433 1.57783067 -0.56370789 4 0 31859 2.17800000 1631091623 1631091623 -15.00000000
-1.62218356 1.84065354 -0.56642675 3 2 31861 2.51800000 1631091627 1631091627 -13.00000000
-1.92335331 2.18315196 -0.56555784 3 4 31862 2.96400000 1631091632 1631091632 -11.00000000
-2.34041238 2.65841579 -0.56097400 1 6 31864 3.58600000 1631091636 1631091636 -9.00000000
-3.04461813 3.46074033 -0.56596124 2 8 31866 4.64400000 1631091641 1631091641 -7.00000000
-4.23675966 4.81751251 -0.56128299 3 10 31867 6.44000000 1631091646 1631091646 -5.00000000
-6.91925812 7.87325430 -0.54931819 4 12 31869 10.49600000 1631091650 1631091650 -3.00000000
-6.25722551 7.12245035 2.18877387 16 13 31870 9.73000000 1631091653 1631091653 13.00000000
-6.30502224 7.17938280 2.56023788 40 15 31871 9.89200000 1631091657 1631091657 15.00000000
-1.38601816 1.58267844 -0.56370789 4 0 31879 2.17800000 1631091678 1631091678 -15.00000000
-1.61061513 1.84043884 -0.56462717 3 2 31881 2.51000000 1631091682 1631091682 -13.00000000
-1.91830635 2.19280767 -0.56632107 3 4 31882 2.96800000 1631091687 1631091687 -11.00000000
-2.35062027 2.68887734 -0.56566703 1 6 31884 3.61600000 1631091692 1631091692 -9.00000000
-3.02468348 3.46237707 -0.56449878 2 8 31886 4.63200000 1631091696 1631091696 -7.00000000
-4.21860695 4.83077192 -0.56110865 3 10 31887 6.43800000 1631091701 1631091701 -5.00000000
-6.89173317 7.89735889 -0.54931819 4 12 31889 10.49600000 1631091706 1631091706 -3.00000000
-6.28373241 7.20571566 2.56179094 40 15 31891 9.89800000 1631091712 1631091712 15.00000000
-1.38809121 1.59625351 -0.56681371 4 0 31899 2.19000000 1631091733 1631091733 -15.00000000
-1.60545921 1.84752071 -0.56507707 4 2 31901 2.51200000 1631091738 1631091738 -13.00000000
-1.90549028 2.19356179 -0.56479460 3 4 31902 2.96000000 1631091742 1631091742 -11.00000000
-2.33474541 2.68960738 -0.56410271 1 6 31904 3.60600000 1631091747 1631091747 -9.00000000
-3.00867677 3.46841550 -0.56376761 2 8 31906 4.62600000 1631091752 1631091752 -7.00000000
-4.22651911 4.87406826 -0.56442058 3 10 31907 6.47600000 1631091756 1631091756 -5.00000000
-6.91644239 7.98174381 -0.55350506 4 12 31909 10.57600000 1631091761 1631091761 -3.00000000
-6.15503645 7.10556841 2.17032766 18 13 31910 9.64800000 1631091763 1631091763 13.00000000
-6.07521296 7.01836634 2.48725104 45 15 31912 9.61000000 1631091768 1631091768 15.00000000
-1.38377333 1.60255122 -0.56733137 4 0 31919 2.19200000 1631091788 1631091788 -15.00000000
-1.59772730 1.85163808 -0.56462717 4 2 31921 2.51000000 1631091793 1631091793 -13.00000000
-1.90295100 2.20614648 -0.56632107 3 4 31922 2.96800000 1631091798 1631091798 -11.00000000
-2.33952951 2.71419954 -0.56754422 1 6 31924 3.62800000 1631091802 1631091802 -9.00000000
-3.01080203 3.49544144 -0.56644869 2 8 31926 4.64800000 1631091807 1631091807 -7.00000000
-4.19907951 4.87671328 -0.56302607 7 10 31927 6.46000000 1631091812 1631091812 -5.00000000
-6.88593340 8.00281048 -0.55329573 4 12 31929 10.57200000 1631091816 1631091816 -3.00000000
-6.12638378 7.12257814 2.16897798 20 13 31930 9.64200000 1631091818 1631091818 13.00000000
-6.23956442 7.25928688 2.56489682 42 15 31932 9.91000000 1631091823 1631091823 15.00000000
-1.36531842 1.59294426 -0.56215495 4 0 31940 2.17200000 1631091844 1631091844 -15.00000000
-1.59726834 1.86488199 -0.56687665 4 2 31942 2.52000000 1631091848 1631091848 -13.00000000
-1.89485228 2.21310616 -0.56632107 3 4 31943 2.96800000 1631091853 1631091853 -11.00000000
-2.31929207 2.71074843 -0.56504130 1 6 31945 3.61200000 1631091858 1631091858 -9.00000000
-2.99281049 3.50041795 -0.56547374 2 8 31947 4.64000000 1631091862 1631091862 -7.00000000
-4.18635511 4.89812899 -0.56372333 7 10 31948 6.46800000 1631091867 1631091867 -5.00000000
-6.85136652 8.02192020 -0.55287707 4 12 31950 10.56400000 1631091871 1631091871 -3.00000000
-6.08884907 7.13164616 2.16492891 21 13 31951 9.62400000 1631091874 1631091874 13.00000000
-6.20288467 7.27034998 2.56075573 42 15 31953 9.89400000 1631091878 1631091878 15.00000000
-1.36350584 1.60211396 -0.56370789 4 0 31960 2.17800000 1631091899 1631091899 -15.00000000
-1.59201145 1.87193060 -0.56732655 4 2 31962 2.52200000 1631091904 1631091904 -13.00000000
-1.87948573 2.21073246 -0.56403136 3 4 31963 2.95600000 1631091908 1631091908 -11.00000000
-2.32004738 2.73087120 -0.56754422 1 6 31965 3.62800000 1631091913 1631091913 -9.00000000
-2.98571229 3.51689649 -0.56644869 2 8 31967 4.64800000 1631091918 1631091918 -7.00000000
-4.16923237 4.91271257 -0.56372333 7 10 31968 6.46800000 1631091922 1631091922 -5.00000000
-6.02523184 7.10219622 1.81039572 18 11 31969 9.48800000 1631091924 1631091924 11.00000000
-6.84399223 8.07015896 -0.55455178 4 12 31970 10.59600000 1631091927 1631091927 -3.00000000
-6.05383635 7.14096498 2.16132975 16 13 31971 9.60800000 1631091929 1631091929 13.00000000
-6.18496132 7.30080175 2.56386137 42 15 31973 9.90600000 1631091934 1631091934 15.00000000
-1.36317432 1.61252797 -0.56577843 4 0 31979 2.18600000 1631091954 1631091954 -15.00000000
-1.57573462 1.86529028 -0.56372732 4 2 31981 2.50600000 1631091959 1631091959 -13.00000000
-1.87721109 2.22295284 -0.56555784 2 4 31982 2.96400000 1631091964 1631091964 -11.00000000
-2.30843067 2.73553038 -0.56691849 1 6 31984 3.62400000 1631091968 1631091968 -9.00000000
-2.96635532 3.51767302 -0.56498629 2 8 31986 4.63600000 1631091973 1631091973 -7.00000000
-4.16062307 4.93565130 -0.56476921 7 10 31987 6.48000000 1631091977 1631091977 -5.00000000
-6.02062368 7.14465714 1.81612003 21 11 31988 9.51800000 1631091980 1631091980 11.00000000
-6.82748699 8.10503006 -0.55538917 4 12 31989 10.61200000 1631091982 1631091982 -3.00000000
-6.00752878 7.13416958 2.15323138 14 13 31990 9.57200000 1631091984 1631091984 13.00000000
-6.16199446 7.32019615 2.56386137 42 15 31991 9.90600000 1631091989 1631091989 15.00000000
-1.36747348 1.62911391 -0.56991953 4 0 31999 2.20200000 1631092010 1631092010 -15.00000000
-1.57547569 1.87824452 -0.56597686 4 2 32001 2.51600000 1631092014 1631092014 -13.00000000
-1.87196290 2.23250079 -0.56632107 3 4 32002 2.96800000 1631092019 1631092019 -11.00000000
-2.30648017 2.75265646 -0.56879574 1 6 32004 3.63600000 1631092023 1631092023 -9.00000000
-2.94641185 3.51887393 -0.56352383 2 8 32006 4.62400000 1631092028 1631092028 -7.00000000
-4.15104198 4.95931149 -0.56581509 7 10 32007 6.49200000 1631092033 1631092033 -5.00000000
-6.01580524 7.18972063 1.82222593 9 11 32008 9.55000000 1631092035 1631092035 11.00000000
-6.80427933 8.13494110 -0.55580783 4 12 32009 10.62000000 1631092037 1631092037 -3.00000000
-5.95883894 7.12669134 2.14468336 14 13 32010 9.53400000 1631092040 1631092040 13.00000000
-6.13264608 7.33976698 2.56282616 42 15 32012 9.90200000 1631092044 1631092044 15.00000000
-1.34693623 1.61606944 -0.56370789 4 0 32019 2.17800000 1631092065 1631092065 -15.00000000
-1.57639277 1.89271688 -0.56867629 4 2 32021 2.52800000 1631092070 1631092070 -13.00000000
-1.86415863 2.23902154 -0.56632107 3 4 32022 2.96800000 1631092074 1631092074 -11.00000000
-2.28927708 2.75157952 -0.56691849 1 6 32024 3.62400000 1631092079 1631092079 -9.00000000
-2.93918705 3.53524327 -0.56449878 2 8 32026 4.63200000 1631092083 1631092083 -7.00000000
-4.14644003 4.98909378 -0.56755817 8 10 32027 6.51200000 1631092088 1631092088 -5.00000000
-6.03081846 7.25899887 1.83443773 9 11 32028 9.61400000 1631092090 1631092090 11.00000000
-6.77456522 8.15710640 -0.55570316 4 12 32029 10.61800000 1631092093 1631092093 -3.00000000
-5.98247242 7.20592308 2.16222954 21 13 32030 9.61200000 1631092095 1631092095 13.00000000
-6.02931309 7.26492214 2.52969742 49 15 32031 9.77400000 1631092100 1631092100 15.00000000
-1.34128690 1.62076128 -0.56370789 4 0 32039 2.17800000 1631092120 1631092120 -15.00000000
-1.56977630 1.89820802 -0.56867629 4 2 32041 2.52800000 1631092125 1631092125 -13.00000000
-1.85132802 2.23946238 -0.56479460 2 4 32042 2.96000000 1631092129 1631092129 -11.00000000
-2.28091645 2.76107669 -0.56723136 1 6 32044 3.62600000 1631092134 1631092134 -9.00000000
-2.93188381 3.55160475 -0.56547374 2 8 32046 4.64000000 1631092139 1631092139 -7.00000000
-4.12773180 5.00200033 -0.56738389 4 10 32047 6.51000000 1631092143 1631092143 -5.00000000
-6.76892281 8.20844078 -0.55758727 4 12 32049 10.65400000 1631092148 1631092148 -3.00000000
-7.03321314 8.53197002 2.55274463 42 13 32050 11.34800000 1631092150 1631092150 13.00000000
-6.07388592 7.37345505 2.55972028 42 15 32052 9.89000000 1631092155 1631092155 15.00000000
-1.33684766 1.62692595 -0.56422549 4 0 32059 2.18000000 1631092176 1631092176 -15.00000000
-1.56190407 1.90216994 -0.56822634 4 2 32061 2.52600000 1631092180 1631092180 -13.00000000
-1.85595560 2.26108623 -0.56861079 3 4 32062 2.98000000 1631092185 1631092185 -11.00000000
-2.26374793 2.75985789 -0.56535417 1 6 32064 3.61400000 1631092189 1631092189 -9.00000000
-2.93456936 3.58024049 -0.56839859 2 8 32066 4.66400000 1631092194 1631092194 -7.00000000
-4.10393238 5.00867271 -0.56651235 3 10 32067 6.50000000 1631092199 1631092199 -5.00000000
-6.74528980 8.23820019 -0.55800599 8 12 32069 10.66200000 1631092203 1631092203 -3.00000000
-7.00585699 8.55948448 2.55364442 59 13 32070 11.35200000 1631092206 1631092206 13.00000000
-6.05062437 7.39505148 2.56023788 40 15 32071 9.89200000 1631092210 1631092210 15.00000000
-1.33970916 1.64206052 -0.56784898 5 0 32079 2.19400000 1631092231 1631092231 -15.00000000
-1.55525470 1.90761042 -0.56822634 4 2 32081 2.52600000 1631092235 1631092235 -13.00000000
-1.84805167 2.26755071 -0.56861079 3 4 32082 2.98000000 1631092240 1631092240 -11.00000000
-2.26033759 2.77540135 -0.56691849 1 6 32084 3.62400000 1631092245 1631092245 -9.00000000
-2.92456007 3.59354162 -0.56888610 2 8 32086 4.66800000 1631092249 1631092249 -7.00000000
-4.09522533 5.03378630 -0.56773251 8 10 32087 6.51400000 1631092254 1631092254 -5.00000000
-6.73539066 8.28494167 -0.55957603 8 12 32089 10.69200000 1631092258 1631092258 -3.00000000
-6.96979094 8.57632542 2.55139494 56 13 32090 11.34200000 1631092261 1631092261 13.00000000
-6.02469778 7.41867828 2.56075573 42 15 32092 9.89400000 1631092265 1631092265 15.00000000
-1.33640122 1.64972925 -0.56888425 5 0 32099 2.19800000 1631092286 1631092286 -15.00000000
-1.55226481 1.91757166 -0.56957608 4 2 32101 2.53200000 1631092291 1631092291 -13.00000000
-1.83518529 2.26788330 -0.56708431 3 4 32102 2.97200000 1631092295 1631092295 -11.00000000
-2.26554084 2.80170679 -0.57067293 1 6 32104 3.64800000 1631092300 1631092300 -9.00000000
-2.90201735 3.59137630 -0.56693619 2 8 32106 4.65200000 1631092305 1631092305 -7.00000000
-4.10392046 5.08059883 -0.57139307 8 10 32107 6.55600000 1631092309 1631092309 -5.00000000
-6.71772003 8.32238865 -0.56051809 4 12 32109 10.71000000 1631092314 1631092314 -3.00000000
-6.93246889 8.59150314 2.54869556 57 13 32110 11.33000000 1631092316 1631092316 13.00000000
-6.00491476 7.44463062 2.56282616 42 15 32111 9.90200000 1631092321 1631092321 15.00000000
-1.33063447 1.65438414 -0.56888425 5 0 32119 2.19800000 1631092341 1631092341 -15.00000000
-1.54800344 1.92601621 -0.57047588 4 2 32121 2.53600000 1631092346 1631092346 -13.00000000
-1.82725763 2.27427554 -0.56708431 3 4 32122 2.97200000 1631092351 1631092351 -11.00000000
-2.26193070 2.81729984 -0.57223725 1 6 32124 3.65800000 1631092355 1631092355 -9.00000000
-2.90188575 3.61696792 -0.56937355 2 8 32126 4.67200000 1631092360 1631092360 -7.00000000
-4.07992792 5.08712196 -0.57052147 8 10 32127 6.54600000 1631092364 1631092364 -5.00000000
-6.70236778 8.36293125 -0.56166947 4 12 32129 10.73200000 1631092369 1631092369 -3.00000000
-6.90731049 8.62173271 2.55049515 57 13 32130 11.33800000 1631092371 1631092371 13.00000000
-5.96913671 7.45603323 2.55920267 45 15 32132 9.88800000 1631092376 1631092376 15.00000000
-1.31670058 1.64822197 -0.56526077 5 0 32138 2.18400000 1631092397 1631092397 -15.00000000
-1.54647112 1.93723094 -0.57227546 4 2 32140 2.54400000 1631092401 1631092401 -13.00000000
-1.82460415 2.28646040 -0.56861079 3 4 32141 2.98000000 1631092406 1631092406 -11.00000000
-2.23163867 2.79852962 -0.56691849 1 6 32143 3.62400000 1631092411 1631092411 -9.00000000
-2.89111257 3.62812352 -0.56961733 2 8 32145 4.67400000 1631092415 1631092415 -7.00000000
-4.06924295 5.10841513 -0.57139307 8 10 32146 6.55600000 1631092420 1631092420 -5.00000000
-6.69325686 8.40855026 -0.56323957 4 12 32148 10.76200000 1631092424 1631092424 -3.00000000
-6.87625504 8.64154148 2.54959536 60 13 32149 11.33400000 1631092427 1631092427 13.00000000
-5.94448090 7.47323704 2.55868506 45 15 32150 9.88600000 1631092431 1631092431 15.00000000
-1.31093919 1.65280807 -0.56526077 4 0 32158 2.18400000 1631092452 1631092452 -15.00000000
-1.53969955 1.94261730 -0.57227546 4 2 32160 2.54400000 1631092457 1631092457 -13.00000000
-1.82148862 2.29897070 -0.57013726 3 4 32161 2.98800000 1631092461 1631092461 -11.00000000
