# .PCD v0.7 - Point Cloud Data file format
VERSION 0.7
FIELDS x y z intensity laser_id azimuth distance_m adjustedtime timestamp vertical_angle
SIZE 4 4 4 1 1 2 8 8 4 8
TYPE F F F U U U F U U F
COUNT 1 1 1 1 1 1 1 1 1 1
WIDTH 551
HEIGHT 1
VIEWPOINT 0 0 0 1 0 0 0
POINTS 551
DATA ascii
7.71587849 4.50157213 2.06235123 70 13 5974 9.16800000 882221555 882221555 13.00000000
7.64377975 4.45772076 -0.15445380 16 14 5975 8.85000000 882221557 882221557 -1.00000000
6.69690275 3.90551829 2.07728171 45 15 5975 8.02600000 882221559 882221559 15.00000000
1.98247910 1.15244114 -0.61443639 4 0 5983 2.37400000 882221580 882221580 -15.00000000
7.63866949 4.43867540 0.15420946 12 1 5984 8.83600000 882221582 882221582 1.00000000
2.32038522 1.34778690 -0.61951518 4 2 5985 2.75400000 882221585 882221585 -13.00000000
7.66985893 4.45500851 0.46484795 18 3 5985 8.88200000 882221587 882221587 3.00000000
2.80310822 1.62752056 -0.63005131 5 4 5986 3.30200000 882221589 882221589 -11.00000000
7.66132545 4.44647598 0.77498889 78 5 5987 8.89200000 882221592 882221592 5.00000000
3.54033113 2.05390954 -0.64826441 6 6 5988 4.14400000 882221594 882221594 -9.00000000
7.66228771 4.44345951 1.08756196 100 7 5989 8.92400000 882221596 882221596 7.00000000
4.80873537 2.78752637 -0.68246830 9 8 5990 5.60000000 882221598 882221598 -7.00000000
7.53168821 4.36421061 -0.76156688 13 10 5991 8.73800000 882221603 882221603 -5.00000000
7.64841652 4.42828321 -0.46317321 17 12 5993 8.85000000 882221608 882221608 -3.00000000
7.71805191 4.46680212 2.05875206 68 13 5994 9.15200000 882221610 882221610 13.00000000
7.64890814 4.42500353 -0.15424436 16 14 5995 8.83800000 882221612 882221612 -1.00000000
6.70547819 3.87921572 2.07572865 42 15 5995 8.02000000 882221615 882221615 15.00000000
1.98983681 1.14744413 -0.61547166 4 0 6003 2.37800000 882221635 882221635 -15.00000000
7.64718723 4.40798998 0.15406984 12 1 6004 8.82800000 882221638 882221638 1.00000000
2.32845259 1.34162486 -0.62041503 4 2 6005 2.75800000 882221640 882221640 -13.00000000
7.65498304 4.40892458 0.46296388 13 3 6006 8.84600000 882221642 882221642 3.00000000
2.80196738 1.61380661 -0.62852484 6 4 6006 3.29400000 882221645 882221645 -11.00000000
7.67334652 4.41771793 0.77464026 82 5 6007 8.88800000 882221647 882221647 5.00000000
3.54234266 2.03858304 -0.64732581 6 6 6008 4.13800000 882221649 882221649 -9.00000000
7.67086887 4.41272688 1.08658707 100 7 6009 8.91600000 882221651 882221651 7.00000000
4.80466938 2.76280737 -0.68051839 6 8 6010 5.58400000 882221654 882221654 -7.00000000
7.55378532 4.34186506 -0.76226413 13 10 6011 8.74600000 882221658 882221658 -5.00000000
7.65689993 4.39757967 -0.46275452 17 12 6013 8.84200000 882221663 882221663 -3.00000000
7.71331644 4.42819118 2.05335331 72 13 6014 9.12800000 882221665 882221665 13.00000000
7.64696360 4.38832378 -0.15389532 16 14 6015 8.81800000 882221668 882221668 -1.00000000
6.73138094 3.86134148 2.07935214 45 15 6016 8.03400000 882221670 882221670 15.00000000
1.98376870 1.13473606 -0.61236584 4 0 6023 2.36600000 882221691 882221691 -15.00000000
7.66599894 4.38325453 0.15413965 15 1 6024 8.83200000 882221693 882221693 1.00000000
2.34496498 1.34025788 -0.62356430 4 2 6025 2.77200000 882221695 882221695 -13.00000000
7.66089153 4.37856007 0.46244052 10 3 6025 8.83600000 882221698 882221698 3.00000000
2.80417418 1.60206831 -0.62776160 6 4 6026 3.29000000 882221700 882221700 -11.00000000
7.66968918 4.38003731 0.77272284 86 5 6027 8.86600000 882221702 882221702 5.00000000
3.55286813 2.02816415 -0.64795154 6 6 6028 4.14200000 882221704 882221704 -9.00000000
7.67932892 4.38198805 1.08561206 99 7 6029 8.90800000 882221707 882221707 7.00000000
4.81428385 2.74601912 -0.68051839 9 8 6030 5.58400000 882221709 882221709 -7.00000000
7.57928038 4.32139206 -0.76331002 17 10 6031 8.75800000 882221714 882221714 -5.00000000
7.66526222 4.36687040 -0.46233582 17 12 6033 8.83400000 882221718 882221718 -3.00000000
7.72195292 4.39738226 2.05155373 70 13 6034 9.12000000 882221721 882221721 13.00000000
7.65007019 4.35467958 -0.15365098 18 14 6035 8.80400000 882221723 882221723 -1.00000000
6.73407555 3.83326411 2.07624626 45 15 6035 8.02200000 882221725 882221725 15.00000000
1.99107802 1.12971115 -0.61340111 4 0 6043 2.37000000 882221746 882221746 -15.00000000
7.65342236 4.34068441 0.15358117 18 1 6044 8.80000000 882221748 882221748 1.00000000
2.34793377 1.33110321 -0.62311441 4 2 6045 2.77000000 882221750 882221750 -13.00000000
7.68481588 4.35671711 0.46296388 15 3 6045 8.84600000 882221753 882221753 3.00000000
2.81316543 1.59420609 -0.62852484 5 4 6046 3.29400000 882221755 882221755 -11.00000000
7.66239500 4.34047222 0.77045679 82 5 6047 8.84000000 882221757 882221757 5.00000000
3.55476928 2.01283002 -0.64701295 6 6 6048 4.13600000 882221760 882221760 -9.00000000
7.69112253 4.35319996 1.08512461 100 7 6049 8.90400000 882221762 882221762 7.00000000
4.82729530 2.73115230 -0.68100590 9 8 6050 5.58800000 882221764 882221764 -7.00000000
7.59431887 4.29490900 -0.76331002 17 10 6051 8.75800000 882221769 882221769 -5.00000000
7.67350340 4.33615685 -0.46191716 17 12 6053 8.82600000 882221774 882221774 -3.00000000
7.73725557 4.37040091 2.05155373 70 13 6054 9.12000000 882221776 882221776 13.00000000
7.65303516 4.32106686 -0.15340665 16 14 6055 8.79000000 882221778 882221778 -1.00000000
6.73900366 3.80498528 2.07365823 45 15 6055 8.01200000 882221780 882221780 15.00000000
1.98827505 1.11896431 -0.61133057 4 0 6063 2.36200000 882221801 882221801 -15.00000000
7.65458488 4.30609894 0.15330194 21 1 6064 8.78400000 882221803 882221803 1.00000000
2.34916854 1.32098889 -0.62221462 4 2 6065 2.76600000 882221806 882221806 -13.00000000
7.68854523 4.32167101 0.46223116 13 3 6066 8.83200000 882221808 882221808 3.00000000
2.82213593 1.58630049 -0.62928808 5 4 6066 3.29800000 882221810 882221810 -11.00000000
7.67055130 4.30979538 0.76975954 78 5 6067 8.83200000 882221813 882221813 5.00000000
3.55143976 1.99460554 -0.64513576 4 6 6068 4.12400000 882221815 882221815 -9.00000000
7.68549967 4.31466532 1.08219981 100 7 6069 8.88000000 882221817 882221817 7.00000000
4.84718657 2.72011423 -0.68246830 9 8 6070 5.60000000 882221820 882221820 -7.00000000
7.60578918 4.26642466 -0.76296139 13 10 6071 8.75400000 882221824 882221824 -5.00000000
7.66942787 4.29860353 -0.46076575 17 12 6073 8.80400000 882221829 882221829 -3.00000000
7.74906397 4.34146118 2.05065370 66 13 6074 9.11600000 882221831 882221831 13.00000000
7.66458225 4.29237223 -0.15333684 16 14 6075 8.78600000 882221833 882221833 -1.00000000
6.74953318 3.77837276 2.07262301 42 15 6076 8.00800000 882221836 882221836 15.00000000
2.00229001 1.11766660 -0.61443639 4 0 6083 2.37400000 882221856 882221856 -15.00000000
7.66083765 4.27448130 0.15312742 25 1 6084 8.77400000 882221859 882221859 1.00000000
2.36397696 1.31847608 -0.62491405 4 2 6085 2.77800000 882221861 882221861 -13.00000000
7.68364668 4.28544950 0.46107978 13 3 6085 8.81000000 882221863 882221863 3.00000000
2.84137416 1.58408773 -0.63234103 5 4 6086 3.31400000 882221866 882221866 -11.00000000
7.67858696 4.27911425 0.76906228 78 5 6087 8.82400000 882221868 882221868 5.00000000
3.56873488 1.98796427 -0.64701295 4 6 6088 4.13600000 882221870 882221870 -9.00000000
7.67970181 4.27622271 1.07927489 99 7 6089 8.85600000 882221873 882221873 7.00000000
4.84277582 2.69545436 -0.68051839 9 8 6090 5.58400000 882221875 882221875 -7.00000000
7.63108158 4.24566126 -0.76400727 17 10 6091 8.76600000 882221880 882221880 -5.00000000
7.66169214 4.25919008 -0.45940503 17 12 6093 8.77800000 882221884 882221884 -3.00000000
7.75395060 4.30870581 2.04795432 55 13 6094 9.10400000 882221886 882221886 13.00000000
7.67077827 4.26073694 -0.15316232 18 14 6095 8.77600000 882221889 882221889 -1.00000000
6.76268101 3.75478959 2.07262301 42 15 6096 8.00800000 882221891 882221891 15.00000000
1.99922550 1.10727668 -0.61236584 4 0 6102 2.36600000 882221912 882221912 -15.00000000
7.67147160 4.24711657 0.15305761 28 1 6103 8.77000000 882221914 882221914 1.00000000
2.36322093 1.30779886 -0.62356430 5 2 6104 2.77200000 882221916 882221916 -13.00000000
7.67859268 4.24930859 0.45992839 13 3 6104 8.78800000 882221919 882221919 3.00000000
2.81912470 1.55945182 -0.62623513 5 4 6105 3.28200000 882221921 882221921 -11.00000000
7.68924761 4.25169945 0.76871365 93 5 6106 8.82000000 882221923 882221923 5.00000000
3.57876539 1.97803009 -0.64763868 4 6 6107 4.14000000 882221926 882221926 -9.00000000
7.69036484 4.24881268 1.07878745 99 7 6108 8.85200000 882221928 882221928 7.00000000
4.84647417 2.67650127 -0.67978722 9 8 6109 5.57800000 882221930 882221930 -7.00000000
7.65384007 4.22514677 -0.76487881 17 10 6110 8.77600000 882221935 882221935 -5.00000000
7.67402506 4.23279524 -0.45930034 17 12 6112 8.77600000 882221939 882221939 -3.00000000
7.75795698 4.27732372 2.04525495 57 13 6113 9.09200000 882221942 882221942 13.00000000
7.66910315 4.22658968 -0.15284817 16 14 6114 8.75800000 882221944 882221944 -1.00000000
6.78186321 3.73607159 2.07469344 45 15 6115 8.01600000 882221946 882221946 15.00000000
2.00307846 1.10029137 -0.61236584 4 0 6122 2.36600000 882221967 882221967 -15.00000000
7.68099117 4.21742487 0.15295289 28 1 6123 8.76400000 882221969 882221969 1.00000000
2.37631345 1.30422986 -0.62581384 11 2 6124 2.78200000 882221972 882221972 -13.00000000
7.68812609 4.21959639 0.45961437 13 3 6124 8.78200000 882221974 882221974 3.00000000
2.82799339 1.55149031 -0.62699836 5 4 6125 3.28600000 882221976 882221976 -11.00000000
7.68482590 4.21429491 0.76679623 86 5 6126 8.79800000 882221979 882221979 5.00000000
3.58911252 1.96742487 -0.64826441 6 6 6127 4.14400000 882221981 882221981 -9.00000000
7.69644499 4.21717310 1.07756877 95 7 6128 8.84200000 882221983 882221983 7.00000000
4.86797476 2.66624284 -0.68149334 9 8 6129 5.59200000 882221986 882221986 -7.00000000
7.65106583 4.18883610 -0.76313567 17 10 6130 8.75600000 882221990 882221990 -5.00000000
7.66772699 4.19447994 -0.45804429 17 12 6132 8.75200000 882221995 882221995 -3.00000000
7.77625990 4.25208759 2.04615474 56 13 6133 9.09600000 882221997 882221997 13.00000000
7.66801786 4.19116163 -0.15253404 14 14 6134 8.74000000 882221999 882221999 -1.00000000
6.78638697 3.70774460 2.07210517 45 15 6135 8.00600000 882222002 882222002 15.00000000
1.99672818 1.08774757 -0.60926002 4 0 6142 2.35400000 882222022 882222022 -15.00000000
7.68161631 4.18293715 0.15267365 21 1 6143 8.74800000 882222025 882222025 1.00000000
2.36544704 1.28754210 -0.62176472 12 2 6144 2.76400000 882222027 882222027 -13.00000000
7.69228315 4.18700504 0.45898634 13 3 6144 8.77000000 882222029 882222029 3.00000000
2.84029007 1.54536247 -0.62852484 5 4 6145 3.29400000 882222032 882222032 -11.00000000
7.68548727 4.17982912 0.76540172 78 5 6146 8.78200000 882222034 882222034 5.00000000
3.58554530 1.94922376 -0.64638722 6 6 6147 4.13200000 882222036 882222036 -9.00000000
7.70937443 4.18933392 1.07732499 100 7 6148 8.84000000 882222038 882222038 7.00000000
4.87027454 2.64544415 -0.68051839 9 8 6149 5.58400000 882222041 882222041 -7.00000000
7.64462996 4.15069532 -0.76104397 17 10 6150 8.73200000 882222045 882222045 -5.00000000
7.68056631 4.16673660 -0.45793962 17 12 6152 8.75000000 882222050 882222050 -3.00000000
7.79619455 4.22770405 2.04750443 54 13 6153 9.10200000 882222052 882222052 13.00000000
7.66853666 4.15674639 -0.15225479 14 14 6154 8.72400000 882222055 882222055 -1.00000000
6.78166103 3.67601347 2.06692886 45 15 6154 7.98600000 882222057 882222057 15.00000000
2.00731158 1.08444405 -0.61133057 4 0 6162 2.36200000 882222078 882222078 -15.00000000
7.67505646 4.14469576 0.15225479 12 1 6163 8.72400000 882222080 882222080 1.00000000
2.36478257 1.27650034 -0.62041503 10 2 6164 2.75800000 882222082 882222082 -13.00000000
7.70860910 4.16107702 0.45909101 13 3 6164 8.77200000 882222085 882222085 3.00000000
2.84912252 1.53730309 -0.62928808 5 4 6165 3.29800000 882222087 882222087 -11.00000000
7.68600178 4.14540958 0.76400727 78 5 6166 8.76600000 882222089 882222089 5.00000000
3.58884978 1.93482113 -0.64576149 6 6 6167 4.12800000 882222091 882222091 -9.00000000
7.70123339 4.15015507 1.07415640 92 7 6168 8.81400000 882222094 882222094 7.00000000
4.87947941 2.62842751 -0.68051839 9 8 6169 5.58400000 882222096 882222096 -7.00000000
7.72339153 4.16035700 1.38945091 26 9 6169 8.88200000 882222098 882222098 9.00000000
7.66608906 4.12776375 -0.76174122 17 10 6170 8.74000000 882222101 882222101 -5.00000000
7.72065735 4.15540791 1.70430589 43 11 6171 8.93200000 882222103 882222103 11.00000000
7.67395782 4.12854576 -0.45668355 17 12 6172 8.72600000 882222105 882222105 -3.00000000
7.73367071 4.15893078 2.02725887 78 13 6173 9.01200000 882222108 882222108 13.00000000
7.67771578 4.12711239 -0.15215008 12 14 6174 8.71800000 882222110 882222110 -1.00000000
6.79849195 3.65296149 2.06796408 45 15 6175 7.99000000 882222112 882222112 15.00000000
2.01278782 1.07834291 -0.61184824 4 0 6182 2.36400000 882222133 882222133 -15.00000000
7.68595171 4.11599112 0.15218498 12 1 6183 8.72000000 882222135 882222135 1.00000000
2.35719728 1.26180017 -0.61726570 4 2 6184 2.74400000 882222138 882222138 -13.00000000
7.69739342 4.11866188 0.45752093 13 3 6185 8.74200000 882222140 882222140 3.00000000
2.85793352 1.52920091 -0.63005131 5 4 6185 3.30200000 882222142 882222142 -11.00000000
7.69691133 4.11667585 0.76365864 78 5 6186 8.76200000 882222144 882222144 5.00000000
3.58861351 1.91855657 -0.64450997 4 6 6187 4.12000000 882222147 882222147 -9.00000000
7.70166683 4.11576271 1.07220650 97 7 6188 8.79800000 882222149 882222149 7.00000000
4.88862467 2.61137891 -0.68051839 6 8 6189 5.58400000 882222151 882222151 -7.00000000
7.65936041 4.08971739 -0.75964946 17 10 6190 8.71600000 882222156 882222156 -5.00000000
7.73511553 4.12843227 1.70430589 100 11 6191 8.93200000 882222158 882222158 11.00000000
7.67598724 4.09515285 -0.45595086 12 12 6192 8.71200000 882222161 882222161 -3.00000000
7.72750664 4.12090588 2.02186012 106 13 6193 8.98800000 882222163 882222163 13.00000000
7.68325186 4.09558392 -0.15197556 14 14 6194 8.70800000 882222165 882222165 -1.00000000
6.82079697 3.63584924 2.07106996 45 15 6194 8.00200000 882222168 882222168 15.00000000
2.02677584 1.07674849 -0.61495405 4 0 6202 2.37600000 882222188 882222188 -15.00000000
7.68790960 4.08257198 0.15194064 12 1 6203 8.70600000 882222191 882222191 1.00000000
2.37191510 1.25904644 -0.61996508 4 2 6204 2.75600000 882222193 882222193 -13.00000000
7.69584465 4.08334255 0.45657888 13 3 6205 8.72400000 882222195 882222195 3.00000000
2.86325407 1.51921558 -0.63005131 5 4 6205 3.30200000 882222197 882222197 -11.00000000
7.70771408 4.08791685 0.76331002 78 5 6206 8.75800000 882222200 882222200 5.00000000
3.59877920 1.90786874 -0.64513576 4 6 6207 4.12400000 882222202 882222202 -9.00000000
7.70897055 4.08513594 1.07123148 95 7 6208 8.79000000 882222204 882222204 7.00000000
4.89771032 2.59429860 -0.68051839 9 8 6209 5.58400000 882222207 882222207 -7.00000000
7.71630335 4.08557224 1.38288069 89 9 6210 8.84000000 882222209 882222209 9.00000000
7.68063259 4.06668568 -0.76034671 17 10 6210 8.72400000 882222211 882222211 -5.00000000
7.73039198 4.09130478 1.70010817 90 11 6211 8.91000000 882222214 882222214 11.00000000
7.67081547 4.05806017 -0.45479947 17 12 6212 8.69000000 882222216 882222216 -3.00000000
7.71772623 4.08115339 2.01556134 106 13 6213 8.96000000 882222218 882222218 13.00000000
7.67628622 4.05752563 -0.15155670 14 14 6214 8.68400000 882222221 882222221 -1.00000000
6.83920145 3.61353278 2.07262301 47 15 6215 8.00800000 882222223 882222223 15.00000000
2.03052211 1.06966722 -0.61495405 4 0 6222 2.37600000 882222244 882222244 -15.00000000
7.69503593 4.05198479 0.15180103 12 1 6223 8.69800000 882222246 882222246 1.00000000
2.37802005 1.25166690 -0.62041503 4 2 6224 2.75800000 882222248 882222248 -13.00000000
7.71005106 4.05645418 0.45657888 15 3 6225 8.72400000 882222250 882222250 3.00000000
2.85464001 1.50189877 -0.62699836 5 4 6225 3.28600000 882222253 882222253 -11.00000000
7.70782948 4.05356789 0.76191550 78 5 6226 8.74200000 882222255 882222255 5.00000000
3.61241102 1.89897168 -0.64638722 4 6 6227 4.13200000 882222257 882222257 -9.00000000
7.71615458 4.05450821 1.07025659 97 7 6228 8.78200000 882222260 882222260 7.00000000
4.91025114 2.57903266 -0.68100590 6 8 6229 5.58800000 882222262 882222262 -7.00000000
7.71581888 4.05261326 1.38037777 89 9 6229 8.82400000 882222264 882222264 9.00000000
7.66655636 4.02503204 -0.75755769 17 10 6230 8.69200000 882222267 882222267 -5.00000000
7.73767233 4.06064653 1.69858170 84 11 6231 8.90200000 882222269 882222269 11.00000000
7.67962790 4.02847576 -0.45448545 12 12 6232 8.68400000 882222271 882222271 -3.00000000
7.72157001 4.04875898 2.01286197 106 13 6233 8.94800000 882222274 882222274 13.00000000
7.68154716 4.02606392 -0.15138218 16 14 6234 8.67400000 882222276 882222276 -1.00000000
6.84259129 3.58634925 2.07003474 47 15 6234 7.99800000 882222278 882222278 15.00000000
2.02225709 1.05631185 -0.61133057 4 0 6242 2.36200000 882222299 882222299 -15.00000000
7.68254423 4.01121616 0.15127745 12 1 6243 8.66800000 882222301 882222301 1.00000000
2.37891936 1.24155509 -0.61951518 4 2 6244 2.75400000 882222303 882222303 -13.00000000
7.70999765 4.02212620 0.45574149 15 3 6245 8.70800000 882222306 882222306 3.00000000
2.87030888 1.49737334 -0.62928808 5 4 6245 3.29800000 882222308 882222308 -11.00000000
7.70603275 4.01834679 0.76034671 82 5 6246 8.72400000 882222310 882222310 5.00000000
3.62252116 1.88817656 -0.64701295 4 6 6247 4.13600000 882222313 882222313 -9.00000000
7.72497892 4.02479744 1.06952536 100 7 6248 8.77600000 882222315 882222315 7.00000000
4.92274475 2.56371093 -0.68149334 6 8 6249 5.59200000 882222317 882222317 -7.00000000
7.72711611 4.02248192 1.37975204 89 9 6250 8.82000000 882222320 882222320 9.00000000
7.66995621 3.99272633 -0.75651187 17 10 6250 8.68000000 882222322 882222322 -5.00000000
7.73612547 4.02545595 1.69514716 78 11 6251 8.88400000 882222324 882222324 11.00000000
7.69718695 4.00348759 -0.45469478 12 12 6252 8.68800000 882222326 882222326 -3.00000000
7.73219776 4.01998281 2.01196218 104 13 6253 8.94400000 882222329 882222329 13.00000000
7.69023085 3.99645948 -0.15127745 14 14 6254 8.66800000 882222331 882222331 -1.00000000
6.84883261 3.55768371 2.06796408 45 15 6255 7.99000000 882222333 882222333 15.00000000
2.02556562 1.04995358 -0.61133057 4 0 6260 2.36200000 882222354 882222354 -15.00000000
7.68800545 3.98338151 0.15113784 12 1 6261 8.66000000 882222356 882222356 1.00000000
2.39146042 1.23855639 -0.62176472 3 2 6262 2.76400000 882222359 882222359 -13.00000000
7.71904802 3.99604821 0.45553216 15 3 6263 8.70400000 882222361 882222361 3.00000000
2.86976862 1.48564088 -0.62814319 4 4 6263 3.29200000 882222363 882222363 -11.00000000
7.70977116 3.98953962 0.75947517 86 5 6264 8.71400000 882222366 882222366 5.00000000
3.60913491 1.86680388 -0.64357138 6 6 6265 4.11400000 882222368 882222368 -9.00000000
7.72347832 3.99321532 1.06757545 100 7 6266 8.76000000 882222370 882222370 7.00000000
4.93430185 2.55005574 -0.68198085 6 8 6267 5.59600000 882222373 882222373 -7.00000000
7.72848749 3.99409604 1.37787473 89 9 6267 8.80800000 882222375 882222375 9.00000000
7.67715120 3.96586752 -0.75598890 17 10 6268 8.67400000 882222377 882222377 -5.00000000
7.72780037 3.99032354 1.69056773 87 11 6269 8.86000000 882222379 882222379 11.00000000
7.70795107 3.97837043 -0.45459011 17 12 6270 8.68600000 882222382 882222382 -3.00000000
7.74132490 3.99388480 2.01106238 108 13 6271 8.94000000 882222384 882222384 13.00000000
7.69386148 3.96769762 -0.15110293 12 14 6272 8.65800000 882222386 882222386 -1.00000000
6.84733963 3.53114915 2.06434059 47 15 6272 7.97600000 882222389 882222389 15.00000000
2.02921844 1.04287660 -0.61133057 4 0 6280 2.36200000 882222409 882222409 -15.00000000
7.69830608 3.95469356 0.15106803 12 1 6281 8.65600000 882222412 882222412 1.00000000
2.38710141 1.22575033 -0.61951518 4 2 6282 2.75400000 882222414 882222414 -13.00000000
7.71340418 3.95904732 0.45438078 15 3 6283 8.68200000 882222416 882222416 3.00000000
2.88716316 1.48188984 -0.63081455 5 4 6283 3.30600000 882222419 882222419 -11.00000000
7.71478653 3.95805573 0.75860357 78 5 6284 8.70400000 882222421 882222421 5.00000000
3.62969112 1.86140549 -0.64607435 6 6 6285 4.13000000 882222423 882222423 -9.00000000
7.71263885 3.95355344 1.06416309 100 7 6286 8.73200000 882222426 882222426 7.00000000
4.93257284 2.52738500 -0.68051839 6 8 6287 5.58400000 882222428 882222428 -7.00000000
7.73955870 3.96394181 1.37724900 91 9 6288 8.80400000 882222430 882222430 9.00000000
7.69094801 3.93904519 -0.75598890 17 10 6288 8.67400000 882222432 882222432 -5.00000000
7.73818684 3.96153474 1.68980443 81 11 6289 8.85600000 882222435 882222435 11.00000000
7.70401144 3.94234180 -0.45354339 17 12 6290 8.66600000 882222437 882222437 -3.00000000
7.73786974 3.95796394 2.00656343 104 13 6291 8.92000000 882222439 882222439 13.00000000
7.70054293 3.93717551 -0.15096332 12 14 6292 8.65000000 882222442 882222442 -1.00000000
6.86883688 3.51042438 2.06692886 45 15 6293 7.98600000 882222444 882222444 15.00000000
2.04679871 1.04244602 -0.61547166 4 0 6301 2.37800000 882222465 882222465 -15.00000000
7.70383835 3.92191505 0.15089351 12 1 6302 8.64600000 882222467 882222467 1.00000000
2.39331484 1.21787667 -0.61996508 4 2 6303 2.75600000 882222469 882222469 -13.00000000
7.71718216 3.92531681 0.45375273 18 3 6304 8.67000000 882222472 882222472 3.00000000
2.88732553 1.46862769 -0.62966967 5 4 6304 3.30000000 882222474 882222474 -11.00000000
7.73101759 3.93065596 0.75877792 86 5 6305 8.70600000 882222476 882222476 5.00000000
3.63120604 1.84540462 -0.64513576 4 6 6306 4.12400000 882222479 882222479 -9.00000000
7.73238707 3.92795587 1.06489432 100 7 6307 8.73800000 882222481 882222481 7.00000000
4.93472338 2.50569415 -0.67954344 6 8 6308 5.57600000 882222483 882222483 -7.00000000
7.74101877 3.93064117 1.37505889 94 9 6308 8.79000000 882222485 882222485 9.00000000
7.70178032 3.90902638 -0.75564027 17 10 6309 8.67000000 882222488 882222488 -5.00000000
7.74915314 3.93136978 1.68904126 81 11 6310 8.85200000 882222490 882222490 11.00000000
7.71306515 3.91136885 -0.45322937 12 12 6311 8.66000000 882222492 882222492 -3.00000000
7.73494244 3.92076588 2.00206447 101 13 6312 8.90000000 882222495 882222495 13.00000000
7.70243502 3.90259862 -0.15071899 14 14 6313 8.63600000 882222497 882222497 -1.00000000
6.87932539 3.48555303 2.06641126 47 15 6313 7.98400000 882222499 882222499 15.00000000
2.04180264 1.03094137 -0.61288351 4 0 6321 2.36800000 882222520 882222520 -15.00000000
7.71034098 3.89139581 0.15075389 12 1 6322 8.63800000 882222522 882222522 1.00000000
2.40277100 1.21214831 -0.62131482 4 2 6323 2.76200000 882222525 882222525 -13.00000000
7.71835327 3.89205980 0.45302004 15 3 6324 8.65600000 882222527 882222527 3.00000000
2.88542247 1.45500422 -0.62814319 5 4 6324 3.29200000 882222529 882222529 -11.00000000
7.72512054 3.89378119 0.75686049 82 5 6325 8.68400000 882222532 882222532 5.00000000
3.64821029 1.83805096 -0.64701295 6 6 6326 4.13600000 882222534 882222534 -9.00000000
7.73186731 3.89379787 1.06294441 100 7 6327 8.72200000 882222536 882222536 7.00000000
4.94343948 2.48845363 -0.67954344 6 8 6328 5.57600000 882222538 882222538 -7.00000000
7.73419809 3.89158797 1.37130451 94 9 6329 8.76600000 882222541 882222541 9.00000000
7.69580078 3.87226772 -0.75372285 17 10 6329 8.64800000 882222543 882222543 -5.00000000
7.75581360 3.90076780 1.68751478 81 11 6330 8.84400000 882222545 882222545 11.00000000
7.71418047 3.87814164 -0.45249668 17 12 6331 8.64600000 882222548 882222548 -3.00000000
7.74509859 3.89199209 2.00116467 101 13 6332 8.89600000 882222550 882222550 13.00000000
7.70171499 3.86850786 -0.15043974 14 14 6333 8.62000000 882222552 882222552 -1.00000000
6.88514853 3.45684838 2.06434059 47 15 6334 7.97600000 882222555 882222555 15.00000000
2.04002786 1.02156985 -0.61133057 4 0 6340 2.36200000 882222575 882222575 -15.00000000
7.70889711 3.85864544 0.15047465 12 1 6341 8.62200000 882222578 882222578 1.00000000
2.41374850 1.20766151 -0.62311441 4 2 6342 2.77000000 882222580 882222580 -13.00000000
7.72585869 3.86376333 0.45270601 15 3 6343 8.65000000 882222582 882222582 3.00000000
2.89725518 1.44894040 -0.62966967 5 4 6343 3.30000000 882222585 882222585 -11.00000000
7.71838665 3.85834289 0.75494307 86 5 6344 8.66200000 882222587 882222587 5.00000000
3.64721727 1.82241118 -0.64576149 4 6 6345 4.12800000 882222589 882222589 -9.00000000
7.74118519 3.86636281 1.06245697 100 7 6346 8.71800000 882222591 882222591 7.00000000
4.95876884 2.47559357 -0.68051839 6 8 6347 5.58400000 882222594 882222594 -7.00000000
7.74285126 3.86550641 1.37067878 97 9 6347 8.76200000 882222596 882222596 9.00000000
7.70146847 3.84316754 -0.75302559 17 10 6348 8.64000000 882222598 882222598 -5.00000000
7.75465155 3.86801672 1.68446183 87 11 6349 8.82800000 882222601 882222601 11.00000000
7.71984863 3.84897447 -0.45207798 17 12 6350 8.63800000 882222603 882222603 -3.00000000
7.75098610 3.86281013 1.99936497 101 13 6351 8.88800000 882222605 882222605 13.00000000
7.70376158 3.83759689 -0.15023032 14 14 6352 8.60800000 882222608 882222608 -1.00000000
6.88732862 3.43089414 2.06175256 45 15 6352 7.96600000 882222610 882222610 15.00000000
2.04358149 1.01444268 -0.61133057 4 0 6360 2.36200000 882222631 882222631 -15.00000000
7.70261526 3.82193589 0.15009069 12 1 6361 8.60000000 882222633 882222633 1.00000000
2.41794944 1.19922864 -0.62311441 4 2 6362 2.77000000 882222635 882222635 -13.00000000
7.73929834 3.83677149 0.45270601 15 3 6363 8.65000000 882222638 882222638 3.00000000
2.90053630 1.43794632 -0.62928808 5 4 6363 3.29800000 882222640 882222640 -11.00000000
7.73002291 3.83049250 0.75476873 90 5 6364 8.66000000 882222642 882222642 5.00000000
3.63939548 1.80265462 -0.64325851 6 6 6365 4.11200000 882222644 882222644 -9.00000000
7.73328638 3.82874799 1.05953205 100 7 6366 8.69400000 882222647 882222647 7.00000000
4.97805500 2.46355200 -0.68198085 6 8 6367 5.59600000 882222649 882222649 -7.00000000
7.73859262 3.82969379 1.36755013 99 9 6367 8.74200000 882222651 882222651 9.00000000
7.70769310 3.81272745 -0.75232840 17 10 6368 8.63200000 882222654 882222654 -5.00000000
7.74346781 3.82874203 1.67911911 87 11 6369 8.80000000 882222656 882222656 11.00000000
7.71533203 3.81315446 -0.45103127 17 12 6370 8.61800000 882222658 882222658 -3.00000000
7.76442242 3.83573055 1.99936497 90 13 6371 8.88800000 882222661 882222661 13.00000000
7.71711063 3.81068230 -0.15023032 14 14 6372 8.60800000 882222663 882222663 -1.00000000
6.90099525 3.40768743 2.06227016 47 15 6372 7.96800000 882222665 882222665 15.00000000
2.05404353 1.01071477 -0.61340111 4 0 6380 2.37000000 882222686 882222686 -15.00000000
7.71590900 3.79502535 0.15009069 12 1 6381 8.60000000 882222688 882222688 1.00000000
2.40987897 1.18476272 -0.61996508 4 2 6382 2.75600000 882222691 882222691 -13.00000000
7.73471880 3.80092430 0.45165929 13 3 6383 8.63000000 882222693 882222693 3.00000000
2.90553808 1.42781281 -0.62928808 5 4 6383 3.29800000 882222695 882222695 -11.00000000
7.73798180 3.80085111 0.75424582 83 5 6384 8.65400000 882222697 882222697 5.00000000
3.65985107 1.79690456 -0.64576149 6 6 6385 4.12800000 882222700 882222700 -9.00000000
7.73234749 3.79473400 1.05758214 99 7 6386 8.67800000 882222702 882222702 7.00000000
4.98305941 2.44441175 -0.68149334 6 8 6387 5.59200000 882222704 882222704 -7.00000000
7.75257730 3.80130458 1.36755013 99 9 6388 8.74200000 882222707 882222707 9.00000000
7.71737719 3.78404522 -0.75197977 17 10 6388 8.62800000 882222709 882222709 -5.00000000
7.75678539 3.80168891 1.67911911 100 11 6389 8.80000000 882222711 882222711 11.00000000
7.72142076 3.78268504 -0.45061257 17 12 6390 8.61000000 882222714 882222714 -3.00000000
7.76376295 3.80174804 1.99576581 92 13 6391 8.87200000 882222716 882222716 13.00000000
7.71958876 3.77844667 -0.15002088 14 14 6392 8.59600000 882222718 882222718 -1.00000000
6.92152357 3.38782406 2.06485844 45 15 6392 7.97800000 882222720 882222720 15.00000000
2.05755901 1.00353861 -0.61340111 4 0 6400 2.37000000 882222741 882222741 -15.00000000
7.72191954 3.76456356 0.14995107 12 1 6401 8.59200000 882222744 882222744 1.00000000
2.41399980 1.17634344 -0.61996508 5 2 6402 2.75600000 882222746 882222746 -13.00000000
7.72459698 3.76253223 0.45029858 13 3 6403 8.60400000 882222748 882222748 3.00000000
2.90873933 1.41680217 -0.62890643 5 4 6403 3.29600000 882222750 882222750 -11.00000000
7.74224520 3.76945662 0.75337422 90 5 6404 8.64400000 882222753 882222753 5.00000000
3.66965365 1.78584719 -0.64638722 6 6 6405 4.13200000 882222755 882222755 -9.00000000
7.73840618 3.76424670 1.05660725 99 7 6406 8.67000000 882222757 882222757 7.00000000
4.97013855 2.41658640 -0.67856848 9 8 6407 5.56800000 882222760 882222760 -7.00000000
7.74803257 3.76558518 1.36442137 99 9 6408 8.72200000 882222762 882222762 9.00000000
7.72157907 3.75272894 -0.75110817 17 10 6408 8.61800000 882222764 882222764 -5.00000000
7.77000856 3.77458954 1.67911911 93 11 6409 8.80000000 882222767 882222767 11.00000000
7.72020483 3.74872994 -0.44977522 17 12 6410 8.59400000 882222769 882222769 -3.00000000
7.76646709 3.76951885 1.99306631 92 13 6411 8.86000000 882222771 882222771 13.00000000
7.71473932 3.74274898 -0.14967184 14 14 6412 8.57600000 882222773 882222773 -1.00000000
6.93041801 3.36074686 2.06382298 47 15 6413 7.97400000 882222776 882222776 15.00000000
2.05391908 0.99334556 -0.61133057 4 0 6419 2.36200000 882222797 882222797 -15.00000000
7.72535896 3.73458433 0.14977655 12 1 6420 8.58200000 882222799 882222799 1.00000000
2.42139673 1.17002761 -0.62086493 5 2 6421 2.76000000 882222801 882222801 -13.00000000
7.73883009 3.73776460 0.45040324 13 3 6422 8.60600000 882222803 882222803 3.00000000
2.90811801 1.40458703 -0.62776160 5 4 6422 3.29000000 882222806 882222806 -11.00000000
7.74034882 3.73683214 0.75197977 90 5 6423 8.62800000 882222808 882222808 5.00000000
3.68267179 1.77710235 -0.64763868 4 6 6424 4.14000000 882222810 882222810 -9.00000000
7.75084639 3.73856449 1.05660725 100 7 6425 8.67000000 882222813 882222813 7.00000000
4.98527765 2.40353990 -0.67954344 9 8 6426 5.57600000 882222815 882222815 -7.00000000
7.74979973 3.73472571 1.36254418 100 9 6427 8.71000000 882222817 882222817 9.00000000
7.72500706 3.72277784 -0.75023663 17 10 6427 8.60800000 882222820 882222820 -5.00000000
7.77187014 3.74369049 1.67682946 100 11 6428 8.78800000 882222822 882222822 11.00000000
7.72539520 3.71964240 -0.44935653 17 12 6429 8.58600000 882222824 882222824 -3.00000000
7.77190065 3.74036336 1.99126673 103 13 6430 8.85200000 882222826 882222826 13.00000000
7.71629620 3.71194410 -0.14946240 16 14 6431 8.56400000 882222829 882222829 -1.00000000
6.93745995 3.33728290 2.06278777 45 15 6431 7.97000000 882222831 882222831 15.00000000
2.05737400 0.98616999 -0.61133057 4 0 6439 2.36200000 882222852 882222852 -15.00000000
7.72392082 3.70068288 0.14949732 12 1 6440 8.56600000 882222854 882222854 1.00000000
2.43073893 1.16409338 -0.62221462 6 2 6441 2.76600000 882222856 882222856 -13.00000000
7.74282265 3.70641637 0.44987988 10 3 6442 8.59600000 882222859 882222859 3.00000000
2.91300321 1.39442730 -0.62776160 5 4 6442 3.29000000 882222861 882222861 -11.00000000
7.73896742 3.70291090 0.75058526 90 5 6443 8.61200000 882222863 882222863 5.00000000
3.66746783 1.75400913 -0.64388424 6 6 6444 4.11600000 882222866 882222866 -9.00000000
7.75668526 3.70806146 1.05563223 100 7 6445 8.66200000 882222868 882222868 7.00000000
4.99363708 2.38612342 -0.67954344 9 8 6446 5.57600000 882222870 882222870 -7.00000000
7.75209427 3.70254302 1.36066699 100 9 6447 8.69800000 882222873 882222873 9.00000000
6.28349257 3.00111175 -0.60921866 8 10 6447 6.99000000 882222875 882222875 -5.00000000
7.76363039 3.70638895 1.67225003 96 11 6448 8.76400000 882222877 882222877 11.00000000
7.73833227 3.69265318 -0.44935653 17 12 6449 8.58600000 882222879 882222879 -3.00000000
7.77435637 3.70817780 1.98856735 103 13 6450 8.84000000 882222882 882222882 13.00000000
7.72559643 3.68326545 -0.14939260 14 14 6451 8.56000000 882222884 882222884 -1.00000000
6.96127367 3.31886601 2.06641126 47 15 6451 7.98400000 882222886 882222886 15.00000000
2.06080389 0.97898239 -0.61133057 4 0 6459 2.36200000 882222907 882222907 -15.00000000
7.73317862 3.67198324 0.14942750 12 1 6460 8.56200000 882222909 882222909 1.00000000
2.42598510 1.15142357 -0.61996508 7 2 6461 2.75600000 882222912 882222912 -13.00000000
7.75687551 3.68157625 0.44998455 15 3 6461 8.59800000 882222914 882222914 3.00000000
2.92494798 1.38761640 -0.62928808 5 4 6462 3.29800000 882222916 882222916 -11.00000000
7.74644518 3.67331338 0.75006235 83 5 6463 8.60600000 882222919 882222919 5.00000000
3.66642809 1.73781240 -0.64263278 6 6 6464 4.10800000 882222921 882222921 -9.00000000
7.75881767 3.67586350 1.05416977 99 7 6465 8.65000000 882222923 882222923 7.00000000
5.01270056 2.37377548 -0.68100590 9 8 6466 5.58800000 882222925 882222925 -7.00000000
7.75718832 3.67343402 1.35941553 99 9 6466 8.69000000 882222928 882222928 9.00000000
6.30833673 2.98597932 -0.61061311 12 10 6467 7.00600000 882222930 882222930 -5.00000000
7.76587296 3.67422843 1.66996038 87 11 6468 8.75200000 882222932 882222932 11.00000000
7.73673058 3.65878797 -0.44851914 17 12 6469 8.57000000 882222935 882222935 -3.00000000
7.78725290 3.68101764 1.98856735 103 13 6470 8.84000000 882222937 882222937 13.00000000
7.73479033 3.65456700 -0.14932279 16 14 6471 8.55600000 882222939 882222939 -1.00000000
7.01124334 3.31270266 2.07779932 47 15 6471 8.02800000 882222942 882222942 15.00000000
2.07294774 0.97589713 -0.61391878 4 0 6479 2.37200000 882222962 882222962 -15.00000000
7.73509312 3.63985848 0.14921808 12 1 6480 8.55000000 882222965 882222965 1.00000000
2.42293572 1.13963056 -0.61816549 7 2 6481 2.74800000 882222967 882222967 -13.00000000
7.75766468 3.64717293 0.44925186 10 3 6482 8.58400000 882222969 882222969 3.00000000
2.92622042 1.37572742 -0.62852484 5 4 6482 3.29400000 882222972 882222972 -11.00000000
7.75020409 3.64201379 0.74919075 79 5 6483 8.59600000 882222974 882222974 5.00000000
3.68319964 1.73004246 -0.64450997 6 6 6484 4.12000000 882222976 882222976 -9.00000000
7.75183582 3.63947773 1.05148864 97 7 6485 8.62800000 882222978 882222978 7.00000000
5.01556492 2.35373354 -0.68027467 9 8 6486 5.58200000 882222981 882222981 -7.00000000
7.77060032 3.64497781 1.35941553 100 9 6487 8.69000000 882222983 882222983 9.00000000
6.31511402 2.96224856 -0.61026454 12 10 6487 7.00200000 882222985 882222985 -5.00000000
7.76798582 3.64209747 1.66767061 100 11 6488 8.74000000 882222988 882222988 11.00000000
7.72051907 3.61819863 -0.44684440 17 12 6489 8.53800000 882222990 882222990 -3.00000000
7.78240728 3.64554596 1.98406827 104 13 6490 8.82000000 882222992 882222992 13.00000000
7.74749994 3.62754536 -0.14932279 16 14 6491 8.55600000 882222995 882222995 -1.00000000
7.08282804 3.31482482 2.09539890 42 15 6492 8.09600000 882222997 882222997 15.00000000
2.08317494 0.97228581 -0.61598933 4 0 6498 2.38000000 882223018 882223018 -15.00000000
7.74530840 3.61334252 0.14918317 12 1 6499 8.54800000 882223020 882223020 1.00000000
2.42670155 1.13158953 -0.61816549 7 2 6500 2.74800000 882223022 882223022 -13.00000000
7.74917269 3.61349869 0.44810045 13 3 6500 8.56200000 882223025 882223025 3.00000000
2.92720771 1.36435735 -0.62776160 5 4 6501 3.29000000 882223027 882223027 -11.00000000
7.75682068 3.61376905 0.74866784 76 5 6502 8.59000000 882223029 882223029 5.00000000
3.69428873 1.72032070 -0.64544863 6 6 6503 4.12600000 882223031 882223031 -9.00000000
7.76566172 3.61458945 1.05173242 99 7 6504 8.63000000 882223034 882223034 7.00000000
5.00354433 2.32787728 -0.67759353 9 8 6505 5.56000000 882223036 882223036 -7.00000000
7.76831532 3.61252594 1.35691249 94 9 6506 8.67400000 882223038 882223038 9.00000000
6.32851553 2.94297099 -0.61061311 12 10 6506 7.00600000 882223041 882223041 -5.00000000
7.77645969 3.61466289 1.66690743 87 11 6507 8.73600000 882223043 882223043 11.00000000
7.72522974 3.58921027 -0.44642571 17 12 6508 8.53000000 882223045 882223045 -3.00000000
7.76970959 3.60822749 1.97776961 104 13 6509 8.79200000 882223048 882223048 13.00000000
7.73772097 3.59173036 -0.14890394 14 14 6510 8.53200000 882223050 882223050 -1.00000000
7.16680241 3.32671905 2.11713982 47 15 6510 8.18000000 882223052 882223052 15.00000000
2.07603550 0.96014267 -0.61288351 4 0 6518 2.36800000 882223073 882223073 -15.00000000
7.74516821 3.58041072 0.14893883 12 1 6519 8.53400000 882223075 882223075 1.00000000
2.43771291 1.12638152 -0.61996508 7 2 6520 2.75600000 882223077 882223077 -13.00000000
7.75086069 3.58140039 0.44747242 13 3 6520 8.55000000 882223080 882223080 3.00000000
2.93373466 1.35495436 -0.62814319 5 4 6521 3.29200000 882223082 882223082 -11.00000000
7.75672531 3.58082509 0.74744767 76 5 6522 8.57600000 882223084 882223084 5.00000000
3.69668388 1.70575953 -0.64482284 6 6 6523 4.12200000 882223087 882223087 -9.00000000
7.76741600 3.58247185 1.05026996 99 7 6524 8.61800000 882223089 882223089 7.00000000
5.01704788 2.31289077 -0.67832476 9 8 6525 5.56600000 882223091 882223091 -7.00000000
7.76293707 3.57712030 1.35378385 92 9 6526 8.65400000 882223094 882223094 9.00000000
6.30617857 2.90585375 -0.60747552 12 10 6526 6.97000000 882223096 882223096 -5.00000000
7.78368044 3.58503199 1.66576254 90 11 6527 8.73000000 882223098 882223098 11.00000000
7.74859667 3.56723380 -0.44705373 17 12 6528 8.54200000 882223101 882223101 -3.00000000
7.77871656 3.57945490 1.97686982 104 13 6529 8.78800000 882223103 882223103 13.00000000
7.74294424 3.56135654 -0.14876431 14 14 6530 8.52400000 882223105 882223105 -1.00000000
7.24682045 3.33316493 2.13732767 45 15 6530 8.25800000 882223107 882223107 15.00000000
2.07586193 0.95128047 -0.61184824 4 0 6538 2.36400000 882223128 882223128 -15.00000000
7.74125671 3.54585838 0.14862469 12 1 6539 8.51600000 882223130 882223130 1.00000000
2.44517350 1.11948788 -0.62086493 7 2 6540 2.76000000 882223133 882223133 -13.00000000
7.76938343 3.55546141 0.44778645 13 3 6541 8.55600000 882223135 882223135 3.00000000
2.94023156 1.34552240 -0.62852484 5 4 6541 3.29400000 882223137 882223137 -11.00000000
7.76192999 3.55041218 0.74675041 76 5 6542 8.56800000 882223140 882223140 5.00000000
3.69902253 1.69120252 -0.64419711 6 6 6543 4.11800000 882223142 882223142 -9.00000000
7.77806854 3.55451155 1.05002630 95 7 6544 8.61600000 882223144 882223144 7.00000000
5.03592443 2.30031252 -0.67978722 9 8 6545 5.57800000 882223147 882223147 -7.00000000
7.77655363 3.55217862 1.35409677 85 9 6545 8.65600000 882223149 882223149 9.00000000
6.30178404 2.87720323 -0.60608101 16 10 6546 6.95400000 882223151 882223151 -5.00000000
7.78900290 3.55457973 1.66423607 46 11 6547 8.72200000 882223154 882223154 11.00000000
7.75373268 3.53684878 -0.44663504 17 12 6548 8.53400000 882223156 882223156 -3.00000000
7.79116392 3.55228019 1.97686982 47 13 6549 8.78800000 882223158 882223158 13.00000000
7.74986935 3.53181911 -0.14865960 14 14 6550 8.51800000 882223160 882223160 -1.00000000
7.32227802 3.33541107 2.15596271 45 15 6551 8.33000000 882223163 882223163 15.00000000
2.07916999 0.94402856 -0.61184824 4 0 6558 2.36400000 882223183 882223183 -15.00000000
7.75722885 3.52046752 0.14869450 12 1 6559 8.52000000 882223186 882223186 1.00000000
2.44551706 1.10933578 -0.61996508 7 2 6560 2.75600000 882223188 882223188 -13.00000000
7.77021790 3.52472711 0.44715840 13 3 6560 8.54400000 882223190 882223190 3.00000000
2.94848657 1.33687234 -0.62928808 5 4 6561 3.29800000 882223193 882223193 -11.00000000
7.77064657 3.52165151 0.74640179 76 5 6562 8.56400000 882223195 882223195 5.00000000
3.71030164 1.68072557 -0.64513576 6 6 6563 4.12400000 882223197 882223197 -9.00000000
7.77957821 3.52242661 1.04856384 92 7 6564 8.60400000 882223200 882223200 7.00000000
5.04392338 2.28271985 -0.67978722 9 8 6565 5.57800000 882223202 882223202 -7.00000000
6.31541967 2.85683084 -0.60642964 24 10 6566 6.95800000 882223207 882223207 -5.00000000
7.84608555 3.54759026 1.67377651 12 11 6567 8.77200000 882223209 882223209 11.00000000
7.75147152 3.50318146 -0.44579768 17 12 6568 8.51800000 882223211 882223211 -3.00000000
7.86745024 3.55394316 1.99306631 22 13 6569 8.86000000 882223213 882223213 13.00000000
7.75668335 3.50227666 -0.14855488 14 14 6570 8.51200000 882223216 882223216 -1.00000000
7.41311407 3.34559178 2.17925644 47 15 6571 8.42000000 882223218 882223218 15.00000000
2.08597612 0.93835020 -0.61288351 4 0 6578 2.36800000 882223239 882223239 -15.00000000
7.75670338 3.48762822 0.14845017 12 1 6579 8.50600000 882223241 882223241 1.00000000
2.44404197 1.09839606 -0.61861539 9 2 6580 2.75000000 882223243 882223243 -13.00000000
7.77700901 3.49512625 0.44684440 13 3 6580 8.53800000 882223246 882223246 3.00000000
2.96029854 1.32979000 -0.63081455 5 4 6581 3.30600000 882223248 882223248 -11.00000000
7.77198696 3.48960900 0.74535590 72 5 6582 8.55200000 882223250 882223250 5.00000000
3.71254134 1.66614628 -0.64450997 6 6 6583 4.12000000 882223253 882223253 -9.00000000
7.77733707 3.48874950 1.04661393 97 7 6584 8.58800000 882223255 882223255 7.00000000
5.04461527 2.26185083 -0.67881227 9 8 6585 5.57000000 882223257 882223257 -7.00000000
7.91652203 3.54952550 1.37412035 13 9 6585 8.78400000 882223260 882223260 9.00000000
6.32717133 2.83558321 -0.60660398 20 10 6586 6.96000000 882223262 882223262 -5.00000000
7.89604712 3.53703523 1.68179047 18 11 6587 8.81400000 882223264 882223264 11.00000000
7.74906969 3.46957302 -0.44496030 17 12 6588 8.50200000 882223266 882223266 -3.00000000
7.89759541 3.53441954 1.99756539 5 13 6589 8.88000000 882223269 882223269 13.00000000
7.76155949 3.47191334 -0.14841527 14 14 6590 8.50400000 882223271 882223271 -1.00000000
7.50939989 3.35754395 2.20410299 45 15 6591 8.51600000 882223273 882223273 15.00000000
2.09276795 0.93263584 -0.61391878 4 0 6598 2.37200000 882223294 882223294 -15.00000000
7.77065706 3.46134448 0.14848508 12 1 6599 8.50800000 882223296 882223296 1.00000000
2.44964147 1.09065068 -0.61906528 7 2 6600 2.75200000 882223299 882223299 -13.00000000
7.77456522 3.46145940 0.44600701 13 3 6600 8.52200000 882223301 882223301 3.00000000
2.95416045 1.31465924 -0.62852484 5 4 6601 3.29400000 882223303 882223303 -11.00000000
7.78230000 3.46164870 0.74518162 76 5 6602 8.55000000 882223306 882223306 5.00000000
3.72194481 1.65478194 -0.64513576 4 6 6603 4.12400000 882223308 882223308 -9.00000000
7.78583956 3.45996809 1.04612648 95 7 6604 8.58400000 882223310 882223310 7.00000000
5.04159498 2.23939300 -0.67734981 9 8 6605 5.55800000 882223313 882223313 -7.00000000
6.33156824 2.81105471 -0.60608101 16 10 6606 6.95400000 882223317 882223317 -5.00000000
7.98909760 3.54528642 1.69896328 6 11 6607 8.90400000 882223319 882223319 11.00000000
7.75930738 3.44169283 -0.44485563 17 12 6608 8.50000000 882223322 882223322 -3.00000000
7.87069130 3.48945403 1.98766756 2 13 6609 8.83600000 882223324 882223324 13.00000000
7.76266193 3.43993831 -0.14820583 16 14 6610 8.49200000 882223326 882223326 -1.00000000
7.61468983 3.37277627 2.23153782 45 15 6611 8.62200000 882223329 882223329 15.00000000
2.09070897 0.92298442 -0.61236584 4 0 6618 2.36600000 882223349 882223349 -15.00000000
7.77354431 3.43016243 0.14831056 12 1 6619 8.49800000 882223352 882223352 1.00000000
2.45165062 1.08130670 -0.61861539 9 2 6620 2.75000000 882223354 882223354 -13.00000000
7.78294563 3.43268800 0.44579768 15 3 6620 8.51800000 882223356 882223356 3.00000000
2.95334220 1.30196345 -0.62737995 5 4 6621 3.28800000 882223359 882223359 -11.00000000
7.78521967 3.43044543 0.74431002 76 5 6622 8.54000000 882223361 882223361 5.00000000
3.73131394 1.64337230 -0.64576149 6 6 6623 4.12800000 882223363 882223363 -9.00000000
7.79241896 3.43036985 1.04539526 97 7 6624 8.57800000 882223365 882223365 7.00000000
5.05846596 2.22577834 -0.67856848 9 8 6625 5.56800000 882223368 882223368 -7.00000000
8.14361477 3.58327627 1.40916169 10 9 6625 9.00800000 882223370 882223370 9.00000000
6.30851364 2.77449822 -0.60294342 12 10 6626 6.91800000 882223372 882223372 -5.00000000
8.18654251 3.59875464 1.73826993 12 11 6627 9.11000000 882223375 882223375 11.00000000
7.77127409 3.41458678 -0.44485563 12 12 6628 8.50000000 882223377 882223377 -3.00000000
7.89709806 3.46822762 1.99126673 2 13 6629 8.85200000 882223379 882223379 13.00000000
7.76180506 3.40719414 -0.14796150 16 14 6630 8.47800000 882223382 882223382 -1.00000000
7.71427870 3.38633156 2.25741982 45 15 6630 8.72200000 882223384 882223384 15.00000000
2.08506799 0.91181070 -0.60977769 4 0 6638 2.35600000 882223405 882223405 -15.00000000
7.76531506 3.39419699 0.14792660 12 1 6639 8.47600000 882223407 882223407 1.00000000
2.45898175 1.07430267 -0.61951518 9 2 6640 2.75400000 882223409 882223409 -13.00000000
7.79122019 3.40390038 0.44558832 13 3 6640 8.51400000 882223412 882223412 3.00000000
2.95966792 1.29243207 -0.62776160 5 4 6641 3.29000000 882223414 882223414 -11.00000000
7.78253841 3.39687276 0.74291557 79 5 6642 8.52400000 882223416 882223416 5.00000000
3.72978544 1.62717795 -0.64450997 6 6 6643 4.12000000 882223418 882223418 -9.00000000
7.80616522 3.40394187 1.04563892 99 7 6644 8.58000000 882223421 882223421 7.00000000
5.07530355 2.21207309 -0.67978722 9 8 6645 5.57800000 882223423 882223423 -7.00000000
8.25566959 3.59823704 1.42636943 10 9 6645 9.11800000 882223425 882223425 9.00000000
6.32363987 2.75484776 -0.60346639 24 10 6646 6.92400000 882223428 882223428 -5.00000000
8.27465534 3.60307550 1.75429785 12 11 6647 9.19400000 882223430 882223430 11.00000000
7.77582073 3.38425088 -0.44443694 12 12 6648 8.49200000 882223432 882223432 -3.00000000
7.90736914 3.43986320 1.99081683 3 13 6649 8.85000000 882223435 882223435 13.00000000
7.76814985 3.37768769 -0.14785679 14 14 6650 8.47200000 882223437 882223437 -1.00000000
7.82940054 3.40269542 2.28744268 51 15 6651 8.83800000 882223439 882223439 15.00000000
2.08792233 0.90525573 -0.60977769 4 0 6656 2.35600000 882223460 882223460 -15.00000000
7.76493120 3.36501384 0.14771716 12 1 6657 8.46400000 882223462 882223462 1.00000000
2.45876813 1.06502318 -0.61861539 9 2 6658 2.75000000 882223465 882223465 -13.00000000
7.79696655 3.37566447 0.44527432 15 3 6659 8.50800000 882223467 882223467 3.00000000
2.96911860 1.28546762 -0.62890643 5 4 6659 3.29600000 882223469 882223469 -11.00000000
7.78402901 3.36845016 0.74204397 83 5 6660 8.51400000 882223471 882223471 5.00000000
3.73125267 1.61388409 -0.64388424 6 6 6661 4.11600000 882223474 882223474 -9.00000000
7.78766727 3.36679745 1.04173911 99 7 6662 8.54800000 882223476 882223476 7.00000000
5.07858324 2.19454288 -0.67929971 9 8 6663 5.57400000 882223478 882223478 -7.00000000
6.33592129 2.73654795 -0.60381496 32 10 6664 6.92800000 882223483 882223483 -5.00000000
7.75060177 3.34595752 1.64095736 3 11 6665 8.60000000 882223485 882223485 11.00000000
7.77174330 3.35347557 -0.44359955 17 12 6666 8.47600000 882223488 882223488 -3.00000000
7.71951246 3.32933998 1.94087768 10 13 6667 8.62800000 882223490 882223490 13.00000000
7.77505016 3.35168338 -0.14778697 16 14 6668 8.46800000 882223492 882223492 -1.00000000
7.76317835 3.34656596 2.26518416 24 15 6668 8.75200000 882223495 882223495 15.00000000
2.09816980 0.90101117 -0.61184824 4 0 6676 2.36400000 882223515 882223515 -15.00000000
7.74171591 3.32290292 0.14705397 12 1 6677 8.42600000 882223518 882223518 1.00000000
2.45888901 1.05489731 -0.61771560 9 2 6678 2.74600000 882223520 882223520 -13.00000000
7.73894882 3.31851673 0.44129679 15 3 6679 8.43200000 882223522 882223522 3.00000000
2.97539210 1.27586937 -0.62928808 5 4 6679 3.29800000 882223524 882223524 -11.00000000
7.76460791 3.32791519 0.73908073 32 5 6680 8.48000000 882223527 882223527 5.00000000
3.72960043 1.59773839 -0.64263278 6 6 6681 4.10800000 882223529 882223529 -9.00000000
7.70083046 3.29739881 1.02857721 30 7 6682 8.44000000 882223531 882223531 7.00000000
5.07343817 2.17133451 -0.67759353 9 8 6683 5.56000000 882223534 882223534 -7.00000000
7.70242500 3.29490042 1.32687712 20 9 6684 8.48200000 882223536 882223536 9.00000000
