# .PCD v0.7 - Point Cloud Data file format
VERSION 0.7
FIELDS x y z intensity laser_id azimuth distance_m adjustedtime timestamp vertical_angle
SIZE 4 4 4 1 1 2 8 8 4 8
TYPE F F F U U U F U U F
COUNT 1 1 1 1 1 1 1 1 1 1
WIDTH 551
HEIGHT 1
VIEWPOINT 0 0 0 1 0 0 0
POINTS 551
DATA ascii
1.93607748 1.22157395 -0.61340111 4 0 5775 2.37000000 882421088 882421088 -15.00000000
7.60784626 4.79833746 0.15700185 12 1 5776 8.99600000 882421091 882421091 1.00000000
7.60602522 4.79533339 -2.07584834 8 2 5777 9.22800000 882421093 882421093 -13.00000000
7.63151455 4.81140327 0.47280303 13 3 5777 9.03400000 882421095 882421095 3.00000000
2.74219060 1.72818673 -0.63005131 5 4 5778 3.30200000 882421098 882421098 -11.00000000
7.61121082 4.79489040 0.78701633 78 5 5779 9.03000000 882421100 882421100 5.00000000
3.47013831 2.18526268 -0.64951593 6 6 5780 4.15200000 882421102 882421102 -9.00000000
7.63708067 4.80746508 1.10803604 99 7 5781 9.09200000 882421104 882421104 7.00000000
4.70271397 2.95916486 -0.68222457 9 8 5782 5.59800000 882421107 882421107 -7.00000000
7.25364494 4.56256151 -0.74971372 13 10 5783 8.60200000 882421111 882421111 -5.00000000
7.62300587 4.79117775 -0.47186098 17 12 5785 9.01600000 882421116 882421116 -3.00000000
7.67625189 4.82277489 2.09294462 72 13 5786 9.30400000 882421118 882421118 13.00000000
7.60688400 4.77734137 -0.15679242 14 14 5787 8.98400000 882421121 882421121 -1.00000000
6.58153200 4.13339090 2.08245802 40 15 5787 8.04600000 882421123 882421123 15.00000000
1.93705499 1.21275806 -0.61236584 4 0 5795 2.36600000 882421144 882421144 -15.00000000
7.60251284 4.75796032 0.15654808 12 1 5796 8.97000000 882421146 882421146 1.00000000
7.59958839 4.75428438 -2.06954980 8 2 5797 9.20000000 882421148 882421148 -13.00000000
7.63302374 4.77520180 0.47186098 13 3 5797 9.01600000 882421151 882421151 3.00000000
2.74654198 1.71756327 -0.62966967 5 4 5798 3.30000000 882421153 882421153 -11.00000000
7.61945438 4.76301289 0.78614479 78 5 5799 9.02000000 882421155 882421155 5.00000000
3.46601868 2.16580892 -0.64732581 6 6 5800 4.13800000 882421157 882421157 -9.00000000
7.64034605 4.77236414 1.10608613 100 7 5801 9.07600000 882421160 882421160 7.00000000
4.71638203 2.94483399 -0.68271208 9 8 5802 5.60200000 882421162 882421162 -7.00000000
7.26107597 4.53193903 -0.74884212 13 10 5803 8.59200000 882421167 882421167 -5.00000000
7.60917950 4.74551487 -0.46997687 17 12 5805 8.98000000 882421171 882421171 -3.00000000
7.68311739 4.78976440 2.09024525 66 13 5806 9.29200000 882421174 882421174 13.00000000
7.61502790 4.74547100 -0.15661789 20 14 5807 8.97400000 882421176 882421176 -1.00000000
6.58351946 4.10106897 2.07831693 36 15 5808 8.03000000 882421178 882421178 15.00000000
1.94927001 1.21142650 -0.61495405 4 0 5814 2.37600000 882421199 882421199 -15.00000000
7.61315346 4.72955799 0.15644337 15 1 5815 8.96400000 882421201 882421201 1.00000000
7.59544611 4.71672058 -2.06415081 8 2 5816 9.17600000 882421204 882421204 -13.00000000
7.62758589 4.73483467 0.47050026 13 3 5817 8.99000000 882421206 882421206 3.00000000
2.75722647 1.71155214 -0.63081455 6 4 5817 3.30600000 882421208 882421208 -11.00000000
7.62674236 4.73246717 0.78527325 78 5 5818 9.01000000 882421210 882421210 5.00000000
3.47150302 2.15326190 -0.64701295 6 6 5819 4.13600000 882421213 882421213 -9.00000000
7.63251019 4.73235703 1.10267377 99 7 5820 9.04800000 882421215 882421215 7.00000000
4.71431065 2.92185736 -0.68100590 9 8 5821 5.58800000 882421217 882421217 -7.00000000
7.28792048 4.51518106 -0.75006235 13 10 5822 8.60600000 882421222 882421222 -5.00000000
7.61128855 4.71184587 -0.46913952 17 12 5824 8.96400000 882421227 882421227 -3.00000000
7.68570185 4.75605631 2.08664608 64 13 5825 9.27600000 882421229 882421229 13.00000000
7.62391996 4.71598482 -0.15647827 20 14 5826 8.96600000 882421231 882421231 -1.00000000
6.60458565 4.08544779 2.08090520 42 15 5826 8.04000000 882421234 882421234 15.00000000
1.95019805 1.20258689 -0.61391878 4 0 5834 2.37200000 882421254 882421254 -15.00000000
7.61940241 4.69665861 0.15623394 18 1 5835 8.95200000 882421257 882421257 1.00000000
7.60025072 4.68302298 -2.06100154 8 2 5836 9.16200000 882421259 882421259 -13.00000000
7.62536097 4.69665909 0.46934885 13 3 5837 8.96800000 882421261 882421261 3.00000000
2.75816941 1.69882846 -0.62966967 5 4 5837 3.30000000 882421263 882421263 -11.00000000
7.63473225 4.70059299 0.78440166 82 5 5838 9.00000000 882421266 882421266 5.00000000
3.48236275 2.14320183 -0.64763868 6 6 5839 4.14000000 882421268 882421268 -9.00000000
7.63883829 4.69944477 1.10121143 99 7 5840 9.03600000 882421270 882421270 7.00000000
4.70757151 2.89498496 -0.67856848 9 8 5841 5.56800000 882421273 882421273 -7.00000000
7.31042624 4.49388742 -0.75075954 13 10 5842 8.61400000 882421277 882421277 -5.00000000
7.60896921 4.67374992 -0.46798813 17 12 5844 8.94200000 882421282 882421282 -3.00000000
7.68564987 4.71900272 2.08214688 68 13 5845 9.25600000 882421284 882421284 13.00000000
7.61647558 4.67469931 -0.15598960 20 14 5846 8.93800000 882421287 882421287 -1.00000000
6.62610197 4.06525421 2.08297563 45 15 5847 8.04800000 882421289 882421289 15.00000000
1.96097553 1.19980502 -0.61598933 4 0 5854 2.38000000 882421310 882421310 -15.00000000
7.62892675 4.66585970 0.15609433 21 1 5855 8.94400000 882421312 882421312 1.00000000
7.60657549 4.65036583 -2.05830216 8 2 5856 9.15000000 882421314 882421314 -13.00000000
7.63318777 4.66480541 0.46882549 13 3 5857 8.95800000 882421316 882421316 3.00000000
2.75905681 1.68611908 -0.62852484 6 4 5857 3.29400000 882421319 882421319 -11.00000000
7.63579178 4.66456652 0.78283286 78 5 5858 8.98200000 882421321 882421321 5.00000000
3.48982263 2.13103294 -0.64763868 6 6 5859 4.14000000 882421323 882421323 -9.00000000
7.65350151 4.67171717 1.10096765 97 7 5860 9.03400000 882421326 882421326 7.00000000
4.72951031 2.88577247 -0.68027467 9 8 5861 5.58200000 882421328 882421328 -7.00000000
7.33457327 4.47352934 -0.75163114 13 10 5862 8.62400000 882421333 882421333 -5.00000000
7.62523746 4.64716101 -0.46798813 17 12 5864 8.94200000 882421337 882421337 -3.00000000
7.68876171 4.68403530 2.07854772 70 13 5865 9.24000000 882421340 882421340 13.00000000
7.61566734 4.63768387 -0.15564056 20 14 5866 8.91800000 882421342 882421342 -1.00000000
6.63294649 4.03923988 2.08090520 45 15 5866 8.04000000 882421344 882421344 15.00000000
1.94698644 1.18192530 -0.61029530 4 0 5874 2.35800000 882421365 882421365 -15.00000000
7.62978125 4.62986469 0.15578018 25 1 5875 8.92600000 882421367 882421367 1.00000000
2.31098819 1.40179026 -0.62401420 4 2 5876 2.77400000 882421369 882421369 -13.00000000
7.64600897 4.63606119 0.46861616 13 3 5877 8.95400000 882421372 882421372 3.00000000
2.76660442 1.67749584 -0.62890643 5 4 5877 3.29600000 882421374 882421374 -11.00000000
7.63498926 4.62755728 0.78108978 78 5 5878 8.96200000 882421376 882421376 5.00000000
3.49048209 2.11474395 -0.64638722 6 6 5879 4.13200000 882421379 882421379 -9.00000000
7.65617847 4.63674641 1.09901774 95 7 5880 9.01800000 882421381 882421381 7.00000000
4.75144196 2.87644219 -0.68198085 6 8 5881 5.59600000 882421383 882421383 -7.00000000
7.32968903 4.43552113 -0.74953938 13 10 5882 8.60000000 882421388 882421388 -5.00000000
7.63799429 4.61844873 -0.46777877 17 12 5884 8.93800000 882421392 882421392 -3.00000000
7.70172930 4.65515184 2.07764792 68 13 5885 9.23600000 882421395 882421395 13.00000000
7.62667513 4.60796928 -0.15553585 20 14 5886 8.91200000 882421397 882421397 -1.00000000
6.64439917 4.01290417 2.07986975 45 15 5887 8.03600000 882421399 882421399 15.00000000
1.96082330 1.18144441 -0.61340111 4 0 5893 2.37000000 882421420 882421420 -15.00000000
7.62624931 4.59318924 0.15539622 18 1 5894 8.90400000 882421422 882421422 1.00000000
2.31228495 1.39210880 -0.62311441 4 2 5895 2.77000000 882421425 882421425 -13.00000000
7.65449572 4.60656118 0.46819746 13 3 5896 8.94600000 882421427 882421427 3.00000000
2.77719855 1.67134917 -0.63005131 5 4 5896 3.30200000 882421429 882421429 -11.00000000
7.64004898 4.59605074 0.78004390 78 5 5897 8.95000000 882421432 882421432 5.00000000
3.49070430 2.09908557 -0.64513576 6 6 5898 4.12400000 882421434 882421434 -9.00000000
7.65449858 4.60110521 1.09658039 95 7 5899 8.99800000 882421436 882421436 7.00000000
4.76946211 2.86578202 -0.68319952 9 8 5900 5.60600000 882421439 882421439 -7.00000000
7.35460520 4.41734600 -0.75058526 13 10 5901 8.61200000 882421443 882421443 -5.00000000
7.63100481 4.57973385 -0.46641803 17 12 5903 8.91200000 882421448 882421448 -3.00000000
7.70375538 4.62156630 2.07404876 70 13 5904 9.22000000 882421450 882421450 13.00000000
7.62819386 4.57442570 -0.15525661 18 14 5905 8.89600000 882421452 882421452 -1.00000000
6.66028643 3.99399757 2.08090520 45 15 5905 8.04000000 882421455 882421455 15.00000000
1.96825171 1.17657506 -0.61443639 4 0 5913 2.37400000 882421475 882421475 -15.00000000
7.62850332 4.55833483 0.15511699 15 1 5914 8.88800000 882421478 882421478 1.00000000
2.30374599 1.37603450 -0.61951518 4 2 5915 2.75400000 882421480 882421480 -13.00000000
7.65509510 4.57059908 0.46725541 13 3 5916 8.92800000 882421482 882421482 3.00000000
2.78638697 1.66365767 -0.63081455 5 4 5916 3.30600000 882421485 882421485 -11.00000000
7.64749146 4.56424856 0.77917236 78 5 5917 8.94000000 882421487 882421487 5.00000000
3.50649214 2.09194827 -0.64670008 6 6 5918 4.13400000 882421489 882421489 -9.00000000
7.65516806 4.56520700 1.09438670 99 7 5919 8.98000000 882421492 882421492 7.00000000
4.77091074 2.84403372 -0.68198085 9 8 5920 5.59600000 882421494 882421494 -7.00000000
7.37853765 4.39674616 -0.75145680 13 10 5921 8.62200000 882421498 882421498 -5.00000000
7.62635136 4.54080725 -0.46516198 17 12 5923 8.88800000 882421503 882421503 -3.00000000
7.69974566 4.58268690 2.06865001 72 13 5924 9.19600000 882421505 882421505 13.00000000
7.64239645 4.54674816 -0.15522170 16 14 5925 8.89400000 882421508 882421508 -1.00000000
6.67155981 3.96758461 2.07986975 45 15 5926 8.03600000 882421510 882421510 15.00000000
1.97234678 1.16969740 -0.61443639 4 0 5933 2.37400000 882421531 882421531 -15.00000000
7.63404751 4.52556038 0.15490755 15 1 5934 8.87600000 882421533 882421533 1.00000000
2.31524134 1.37195837 -0.62131482 4 2 5935 2.76200000 882421535 882421535 -13.00000000
7.65381861 4.53367090 0.46620870 15 3 5936 8.90800000 882421538 882421538 3.00000000
2.78204226 1.64791787 -0.62852484 5 4 5936 3.29400000 882421540 882421540 -11.00000000
7.65823364 4.53448105 0.77864939 78 5 5937 8.93400000 882421542 882421542 5.00000000
3.51887298 2.08271384 -0.64763868 6 6 5938 4.14000000 882421545 882421545 -9.00000000
7.66080618 4.53239298 1.09292424 99 7 5939 8.96800000 882421547 882421547 7.00000000
4.78080940 2.82736278 -0.68198085 6 8 5940 5.59600000 882421549 882421549 -7.00000000
7.41785192 4.38515806 -0.75389719 13 10 5941 8.65000000 882421554 882421554 -5.00000000
7.63355684 4.50907993 -0.46463862 17 12 5943 8.87800000 882421558 882421558 -3.00000000
7.69388056 4.54290152 2.06280112 74 13 5944 9.17000000 882421561 882421561 13.00000000
7.64444399 4.51191187 -0.15494247 18 14 5945 8.87800000 882421563 882421563 -1.00000000
6.69299841 3.95034885 2.08245802 45 15 5945 8.04600000 882421565 882421565 15.00000000
1.97974789 1.16476476 -0.61547166 4 0 5953 2.37800000 882421586 882421586 -15.00000000
7.65324593 4.50091219 0.15497737 15 1 5954 8.88000000 882421588 882421588 1.00000000
2.33177590 1.37078142 -0.62446415 4 2 5955 2.77600000 882421591 882421591 -13.00000000
7.65926600 4.50085545 0.46558067 15 3 5956 8.89600000 882421593 882421593 3.00000000
2.78439236 1.63620734 -0.62776160 5 4 5956 3.29000000 882421595 882421595 -11.00000000
7.65855408 4.49863911 0.77708060 78 5 5957 8.91600000 882421598 882421598 5.00000000
3.53293538 2.07441878 -0.64889014 6 6 5958 4.14800000 882421600 882421600 -9.00000000
7.66973257 4.50160503 1.09194934 100 7 5959 8.96000000 882421602 882421602 7.00000000
4.78380108 2.80663919 -0.68100590 6 8 5960 5.58800000 882421604 882421604 -7.00000000
7.46061182 4.37536478 -0.75668615 13 10 5961 8.68200000 882421609 882421609 -5.00000000
7.65097332 4.48341608 -0.46474329 17 12 5963 8.88000000 882421614 882421614 -3.00000000
7.70464706 4.51306200 2.06145144 72 13 5964 9.16400000 882421616 882421616 13.00000000
7.64461613 4.47610664 -0.15462832 14 14 5965 8.86000000 882421618 882421618 -1.00000000
6.69576120 3.91896033 2.07883453 45 15 5966 8.03200000 882421621 882421621 15.00000000
1.97692633 1.15429688 -0.61340111 4 0 5972 2.37000000 882421641 882421641 -15.00000000
7.63704205 4.45736456 0.15434909 12 1 5973 8.84400000 882421644 882421644 1.00000000
2.34135842 1.36598754 -0.62581384 4 2 5974 2.78200000 882421646 882421646 -13.00000000
7.66897297 4.47241306 0.46526664 15 3 5975 8.89000000 882421648 882421648 3.00000000
2.79658675 1.63092113 -0.62928808 6 4 5975 3.29800000 882421651 882421651 -11.00000000
7.65621710 4.46318340 0.77533752 82 5 5976 8.89600000 882421653 882421653 5.00000000
3.52443409 2.05374098 -0.64607435 6 6 5977 4.13000000 882421655 882421655 -9.00000000
7.66918039 4.46715403 1.08975565 97 7 5978 8.94200000 882421657 882421657 7.00000000
4.80337477 2.79675317 -0.68246830 6 8 5979 5.60000000 882421660 882421660 -7.00000000
7.47163630 4.34859610 -0.75633752 13 10 5980 8.67800000 882421664 882421664 -5.00000000
7.65716600 4.45299959 -0.46421993 17 12 5982 8.87000000 882421669 882421669 -3.00000000
7.71283150 4.48357010 2.05965185 72 13 5983 9.15600000 882421671 882421671 13.00000000
7.64385653 4.44168949 -0.15431418 18 14 5984 8.84200000 882421674 882421674 -1.00000000
6.70135880 3.89402318 2.07676411 45 15 5984 8.02400000 882421676 882421676 15.00000000
1.98094356 1.14738917 -0.61340111 4 0 5992 2.37000000 882421697 882421697 -15.00000000
7.64217138 4.42466736 0.15413965 12 1 5993 8.83200000 882421699 882421699 1.00000000
2.33767915 1.35292566 -0.62356430 4 2 5994 2.77200000 882421701 882421701 -13.00000000
7.67589426 4.44061518 0.46474329 15 3 5995 8.88000000 882421704 882421704 3.00000000
2.80566120 1.62311554 -0.63005131 6 4 5995 3.30200000 882421706 882421706 -11.00000000
7.66485071 4.43244123 0.77464026 82 5 5996 8.88800000 882421708 882421708 5.00000000
3.54184294 2.04735732 -0.64795154 6 6 5997 4.14200000 882421710 882421710 -9.00000000
7.66925812 4.43141842 1.08756196 99 7 5998 8.92400000 882421713 882421713 7.00000000
4.81654596 2.78195500 -0.68295580 6 8 5999 5.60400000 882421715 882421715 -7.00000000
7.53163195 4.34838963 -0.76086962 13 10 6000 8.73000000 882421720 882421720 -5.00000000
7.65017319 4.41326952 -0.46285918 17 12 6002 8.84400000 882421724 882421724 -3.00000000
7.72168207 4.45272636 2.05785227 70 13 6003 9.14800000 882421727 882421727 13.00000000
7.65065193 4.40998745 -0.15413965 18 14 6004 8.83200000 882421729 882421729 -1.00000000
6.71156311 3.86867785 2.07572865 45 15 6004 8.02000000 882421731 882421731 15.00000000
1.98473752 1.14081383 -0.61340111 4 0 6011 2.37000000 882421752 882421752 -15.00000000
7.64639902 4.39332342 0.15393023 12 1 6012 8.82000000 882421754 882421754 1.00000000
2.33370352 1.34031355 -0.62131482 4 2 6013 2.76200000 882421757 882421757 -13.00000000
7.67672062 4.40718174 0.46390593 13 3 6014 8.86400000 882421759 882421759 3.00000000
2.81783891 1.61771250 -0.63157779 6 4 6014 3.31000000 882421761 882421761 -11.00000000
7.66741085 4.40005779 0.77342004 86 5 6015 8.87400000 882421763 882421763 5.00000000
3.54004526 2.03068638 -0.64638722 6 6 6016 4.13200000 882421766 882421766 -9.00000000
7.66324615 4.39411259 1.08463717 99 7 6017 8.90000000 882421768 882421768 7.00000000
4.81541109 2.76004457 -0.68149334 9 8 6018 5.59200000 882421770 882421770 -7.00000000
7.57021332 4.33725691 -0.76331002 13 10 6019 8.75800000 882421775 882421775 -5.00000000
7.65609932 4.38291502 -0.46233582 17 12 6021 8.83400000 882421780 882421780 -3.00000000
7.71949196 4.41741705 2.05335331 68 13 6022 9.12800000 882421782 882421782 13.00000000
7.65308332 4.37764263 -0.15389532 18 14 6023 8.81800000 882421784 882421784 -1.00000000
6.73106289 3.85023713 2.07779932 45 15 6023 8.02800000 882421786 882421786 15.00000000
1.99542058 1.13770628 -0.61547166 4 0 6031 2.37800000 882421807 882421807 -15.00000000
7.65473843 4.36264515 0.15379061 15 1 6032 8.81200000 882421810 882421810 1.00000000
2.33159471 1.32830071 -0.61951518 4 2 6033 2.75400000 882421812 882421812 -13.00000000
7.67123079 4.36849785 0.46264985 13 3 6034 8.84000000 882421814 882421814 3.00000000
2.81323242 1.60203743 -0.62928808 5 4 6034 3.29800000 882421816 882421816 -11.00000000
7.67233419 4.36735296 0.77237421 86 5 6035 8.86200000 882421819 882421819 5.00000000
3.54711223 2.01831698 -0.64638722 6 6 6036 4.13200000 882421821 882421821 -9.00000000
7.67163563 4.36341047 1.08366215 100 7 6037 8.89200000 882421823 882421823 7.00000000
4.81466198 2.73733211 -0.68003094 9 8 6038 5.58000000 882421826 882421826 -7.00000000
7.59223557 4.31474304 -0.76400727 17 10 6039 8.76600000 882421830 882421830 -5.00000000
7.66614151 4.35320473 -0.46202183 17 12 6041 8.82800000 882421835 882421835 -3.00000000
7.72469568 4.38467216 2.05065370 66 13 6042 9.11600000 882421837 882421837 13.00000000
7.65788221 4.34498072 -0.15368590 16 14 6043 8.80600000 882421839 882421839 -1.00000000
6.74512959 3.82554078 2.07779932 45 15 6044 8.02800000 882421842 882421842 15.00000000
1.98573112 1.12347257 -0.61133057 4 0 6050 2.36200000 882421863 882421863 -15.00000000
7.65871954 4.33133078 0.15358117 18 1 6051 8.80000000 882421865 882421865 1.00000000
2.35634398 1.33206964 -0.62491405 4 2 6052 2.77800000 882421867 882421867 -13.00000000
7.67524195 4.33713961 0.46202183 13 3 6053 8.82800000 882421869 882421869 3.00000000
2.81682014 1.59173381 -0.62890643 5 4 6053 3.29600000 882421872 882421872 -11.00000000
7.67463112 4.33502722 0.77115399 93 5 6054 8.84800000 882421874 882421874 5.00000000
3.56754661 2.01431298 -0.64889014 6 6 6055 4.14800000 882421876 882421876 -9.00000000
7.68260527 4.33599472 1.08317471 100 7 6056 8.88800000 882421879 882421879 7.00000000
4.82717085 2.72330189 -0.68051839 9 8 6057 5.58400000 882421881 882421881 -7.00000000
7.61344385 4.29345703 -0.76470447 17 10 6058 8.77400000 882421886 882421886 -5.00000000
7.66661501 4.31991529 -0.46118444 17 12 6060 8.81200000 882421890 882421890 -3.00000000
7.73919344 4.35903215 2.05065370 66 13 6061 9.11600000 882421892 882421892 13.00000000
7.65482378 4.30975151 -0.15333684 16 14 6062 8.78600000 882421895 882421895 -1.00000000
6.74701405 3.79864478 2.07469344 45 15 6062 8.01600000 882421897 882421897 15.00000000
1.98964071 1.11653423 -0.61133057 4 0 6070 2.36200000 882421918 882421918 -15.00000000
7.65635157 4.29478741 0.15323213 21 1 6071 8.78000000 882421920 882421920 1.00000000
2.36267924 1.32478952 -0.62536395 4 2 6072 2.78000000 882421922 882421922 -13.00000000
7.68685007 4.30836821 0.46181247 13 3 6073 8.82400000 882421925 882421925 3.00000000
2.82064676 1.58093166 -0.62852484 5 4 6073 3.29400000 882421927 882421927 -11.00000000
7.67233467 4.29847288 0.76941091 82 5 6074 8.82800000 882421929 882421929 5.00000000
3.56421518 1.99605632 -0.64701295 4 6 6075 4.13600000 882421932 882421932 -9.00000000
7.69422960 4.30721188 1.08268726 100 7 6076 8.88400000 882421934 882421934 7.00000000
4.83318281 2.70449662 -0.68003094 9 8 6077 5.58000000 882421936 882421936 -7.00000000
7.61447382 4.25907421 -0.76331002 17 10 6078 8.75800000 882421941 882421941 -5.00000000
7.67990398 4.29215336 -0.46107978 17 12 6080 8.81000000 882421945 882421945 -3.00000000
7.75095940 4.33008957 2.04975390 60 13 6081 9.11200000 882421948 882421948 13.00000000
7.66283703 4.27910519 -0.15319723 18 14 6082 8.77800000 882421950 882421950 -1.00000000
6.75685930 3.77318645 2.07365823 45 15 6082 8.01200000 882421952 882421952 15.00000000
1.99391317 1.10888636 -0.61133057 4 0 6092 2.36200000 882421973 882421973 -15.00000000
7.66055155 4.25855637 0.15298779 25 1 6093 8.76600000 882421975 882421975 1.00000000
2.35752797 1.31002843 -0.62266451 4 2 6094 2.76800000 882421978 882421978 -13.00000000
7.69386053 4.27531528 0.46128911 15 3 6094 8.81400000 882421980 882421980 3.00000000
2.82669616 1.57008958 -0.62852484 5 4 6095 3.29400000 882421982 882421982 -11.00000000
7.67484760 4.26124477 0.76801640 78 5 6096 8.81200000 882421985 882421985 5.00000000
3.56839871 1.98043895 -0.64638722 4 6 6097 4.13200000 882421987 882421987 -9.00000000
7.68640947 4.26415443 1.07927489 100 7 6098 8.85600000 882421989 882421989 7.00000000
4.86089182 2.69554567 -0.68246830 9 8 6099 5.60000000 882421991 882421991 -7.00000000
7.78427792 4.31667185 1.40978742 2 9 6099 9.01200000 882421994 882421994 9.00000000
7.62031555 4.22400999 -0.76226413 17 10 6100 8.74600000 882421996 882421996 -5.00000000
7.78780603 4.31507492 1.73063755 3 11 6101 9.07000000 882421998 882421998 11.00000000
7.67186737 4.24908543 -0.45961437 17 12 6102 8.78200000 882422001 882422001 -3.00000000
7.76070929 4.29652071 2.04795432 56 13 6103 9.10400000 882422003 882422003 13.00000000
7.66696358 4.24287271 -0.15295289 18 14 6104 8.76400000 882422005 882422005 -1.00000000
6.76622677 3.74440789 2.07210517 45 15 6104 8.00600000 882422008 882422008 15.00000000
1.99438858 1.10005355 -0.61029530 4 0 6112 2.35800000 882422028 882422028 -15.00000000
7.67186785 4.22985888 0.15291798 25 1 6113 8.76200000 882422031 882422031 1.00000000
2.35696650 1.29896927 -0.62131482 9 2 6114 2.76200000 882422033 882422033 -13.00000000
7.68848610 4.23552227 0.46003306 10 3 6115 8.79000000 882422035 882422035 3.00000000
2.84419680 1.56684411 -0.63119614 5 4 6115 3.30800000 882422038 882422038 -11.00000000
7.67920399 4.22866201 0.76697052 78 5 6116 8.80000000 882422040 882422040 5.00000000
3.57528996 1.96797085 -0.64638722 4 6 6117 4.13200000 882422042 882422042 -9.00000000
7.68733358 4.22964239 1.07732499 100 7 6118 8.84000000 882422044 882422044 7.00000000
4.85809612 2.67186499 -0.68076217 9 8 6119 5.58600000 882422047 882422047 -7.00000000
7.65072727 4.20602274 -0.76383293 17 10 6120 8.76400000 882422051 882422051 -5.00000000
7.66564608 4.21074104 -0.45835832 17 12 6122 8.75800000 882422056 882422056 -3.00000000
7.76541042 4.26377726 2.04525495 56 13 6123 9.09200000 882422058 882422058 13.00000000
7.67471504 4.21223593 -0.15281327 16 14 6124 8.75600000 882422061 882422061 -1.00000000
6.77990532 3.71958327 2.07210517 45 15 6125 8.00600000 882422063 882422063 15.00000000
2.01139092 1.10120428 -0.61443639 4 0 6130 2.37400000 882422084 882422084 -15.00000000
7.67283916 4.19901609 0.15267365 28 1 6131 8.74800000 882422086 882422086 1.00000000
2.36616468 1.29436398 -0.62266451 11 2 6132 2.76800000 882422088 882422088 -13.00000000
7.68700171 4.20502329 0.45919567 10 3 6132 8.77400000 882422091 882422091 3.00000000
2.83360195 1.54942393 -0.62776160 5 4 6133 3.29000000 882422093 882422093 -11.00000000
7.69245052 4.20451641 0.76697052 82 5 6134 8.80000000 882422095 882422095 5.00000000
3.58492184 1.95862317 -0.64701295 6 6 6135 4.13600000 882422097 882422097 -9.00000000
7.69361448 4.20166540 1.07635009 99 7 6136 8.83200000 882422100 882422100 7.00000000
4.86820841 2.65754104 -0.68100590 9 8 6137 5.58800000 882422102 882422102 -7.00000000
7.65865612 4.17910385 -0.76331002 17 10 6138 8.75800000 882422107 882422107 -5.00000000
7.66656208 4.17994547 -0.45762560 17 12 6140 8.74400000 882422111 882422111 -3.00000000
7.78561163 4.24309063 2.04705453 56 13 6141 9.10000000 882422114 882422114 13.00000000
7.67035007 4.17853785 -0.15246423 14 14 6142 8.73600000 882422116 882422116 -1.00000000
6.79430437 3.70129895 2.07314062 47 15 6142 8.01000000 882422118 882422118 15.00000000
2.01182699 1.09233296 -0.61340111 4 0 6150 2.37000000 882422139 882422139 -15.00000000
7.69272232 4.17506886 0.15277837 12 1 6151 8.75400000 882422141 882422141 1.00000000
2.36895537 1.28516734 -0.62221462 11 2 6152 2.76600000 882422143 882422143 -13.00000000
7.68758869 4.17054605 0.45835832 13 3 6152 8.75800000 882422146 882422146 3.00000000
2.84244490 1.54139519 -0.62852484 5 4 6153 3.29400000 882422148 882422148 -11.00000000
7.68956423 4.16814470 0.76522744 78 5 6154 8.78000000 882422150 882422150 5.00000000
3.59868431 1.94986176 -0.64826441 4 6 6155 4.14400000 882422153 882422153 -9.00000000
7.70474291 4.17289305 1.07586253 99 7 6156 8.82800000 882422155 882422155 7.00000000
4.87396383 2.63864136 -0.68051839 9 8 6157 5.58400000 882422157 882422157 -7.00000000
7.76403475 4.20150137 1.39821124 5 9 6158 8.93800000 882422160 882422160 9.00000000
7.65392256 4.14191389 -0.76139259 17 10 6158 8.73600000 882422162 882422162 -5.00000000
7.73783970 4.18557978 1.71003020 9 11 6159 8.96200000 882422164 882422164 11.00000000
7.67583513 4.15030861 -0.45731160 17 12 6160 8.73800000 882422167 882422167 -3.00000000
7.75923061 4.19365025 2.03625703 40 13 6161 9.05200000 882422169 882422169 13.00000000
7.67785168 4.14793587 -0.15232460 14 14 6162 8.72800000 882422171 882422171 -1.00000000
6.79698515 3.67205048 2.07003474 45 15 6162 7.99800000 882422173 882422173 15.00000000
2.01392674 1.08438778 -0.61288351 4 0 6170 2.36800000 882422194 882422194 -15.00000000
7.67555380 4.13113213 0.15215008 12 1 6171 8.71800000 882422196 882422196 1.00000000
2.37342715 1.27689028 -0.62221462 7 2 6172 2.76600000 882422199 882422199 -13.00000000
7.70634079 4.14423370 0.45856765 10 3 6173 8.76200000 882422201 882422201 3.00000000
2.84434986 1.52960408 -0.62776160 5 4 6173 3.29000000 882422203 882422203 -11.00000000
7.69353771 4.13561726 0.76418155 82 5 6174 8.76800000 882422206 882422206 5.00000000
3.59850812 1.93354821 -0.64701295 4 6 6175 4.13600000 882422208 882422208 -9.00000000
7.71401596 4.14315510 1.07513130 95 7 6176 8.82200000 882422210 882422210 7.00000000
4.89014053 2.62536788 -0.68149334 6 8 6177 5.59200000 882422213 882422213 -7.00000000
7.65077782 4.10575008 -0.75964946 17 10 6178 8.71600000 882422217 882422217 -5.00000000
7.68851566 4.12254572 -0.45720690 12 12 6180 8.73600000 882422222 882422222 -3.00000000
7.71542358 4.13524008 2.02096033 79 13 6181 8.98400000 882422224 882422224 13.00000000
7.67818260 4.11355543 -0.15204537 12 14 6182 8.71200000 882422226 882422226 -1.00000000
6.80358601 3.64346552 2.06796408 45 15 6183 7.99000000 882422229 882422229 15.00000000
2.02110791 1.07917118 -0.61391878 4 0 6190 2.37200000 882422249 882422249 -15.00000000
7.68639898 4.10243082 0.15208027 12 1 6191 8.71400000 882422252 882422252 1.00000000
2.37099242 1.26492858 -0.62041503 4 2 6192 2.75800000 882422254 882422254 -13.00000000
7.70065737 4.10831451 0.45741627 13 3 6192 8.74000000 882422256 882422256 3.00000000
2.86699510 1.52890420 -0.63157779 5 4 6193 3.31000000 882422259 882422259 -11.00000000
7.70089388 4.10498810 0.76348430 78 5 6194 8.76000000 882422261 882422261 5.00000000
3.59128881 1.91354406 -0.64450997 6 6 6195 4.12000000 882422263 882422263 -9.00000000
7.71091032 4.10687160 1.07269394 95 7 6196 8.80200000 882422266 882422266 7.00000000
4.90628386 2.61201358 -0.68246830 6 8 6197 5.60000000 882422268 882422268 -7.00000000
7.72865582 4.11286020 1.38663507 100 9 6198 8.86400000 882422270 882422270 9.00000000
7.66154528 4.07714701 -0.75930083 17 10 6198 8.71200000 882422273 882422273 -5.00000000
7.71833944 4.10564184 1.69934487 90 11 6199 8.90600000 882422275 882422275 11.00000000
7.68169737 4.08443117 -0.45595086 12 12 6200 8.71200000 882422277 882422277 -3.00000000
7.72981119 4.10828304 2.02096033 104 13 6201 8.98400000 882422279 882422279 13.00000000
7.68189907 4.08109951 -0.15183593 16 14 6202 8.70000000 882422282 882422282 -1.00000000
6.82308722 3.62331867 2.07003474 45 15 6203 7.99800000 882422284 882422284 15.00000000
2.02808976 1.07427156 -0.61495405 4 0 6209 2.37600000 882422305 882422305 -15.00000000
7.68582249 4.06943369 0.15180103 15 1 6210 8.69800000 882422307 882422307 1.00000000
2.36483955 1.25158978 -0.61771560 4 2 6211 2.74600000 882422309 882422309 -13.00000000
7.70364714 4.07714987 0.45678821 13 3 6211 8.72800000 882422312 882422312 3.00000000
2.86163712 1.51388013 -0.62928808 5 4 6212 3.29800000 882422314 882422314 -11.00000000
7.70213509 4.07290840 0.76226413 78 5 6213 8.74600000 882422316 882422316 5.00000000
3.61857176 1.91270185 -0.64826441 6 6 6214 4.14400000 882422319 882422319 -9.00000000
7.70518017 4.07107782 1.07001281 99 7 6215 8.78000000 882422321 882422321 7.00000000
4.90087605 2.58831310 -0.68051839 6 8 6216 5.58400000 882422323 882422323 -7.00000000
7.72407103 4.07933474 1.38350642 86 9 6216 8.84400000 882422326 882422326 9.00000000
7.66621399 4.04706717 -0.75842929 17 10 6217 8.70200000 882422328 882422328 -5.00000000
7.72323036 4.07544327 1.69743681 84 11 6218 8.89600000 882422330 882422330 11.00000000
7.67930031 4.05054903 -0.45500880 17 12 6219 8.69400000 882422332 882422332 -3.00000000
7.72270679 4.07172108 2.01556134 106 13 6220 8.96000000 882422335 882422335 13.00000000
7.68831396 4.05187368 -0.15169631 14 14 6221 8.69200000 882422337 882422337 -1.00000000
6.83506536 3.60067248 2.07003474 45 15 6222 7.99800000 882422339 882422339 15.00000000
2.03353763 1.06808388 -0.61547166 4 0 6229 2.37800000 882422360 882422360 -15.00000000
7.69112825 4.03793240 0.15162651 12 1 6230 8.68800000 882422362 882422362 1.00000000
2.37437081 1.24604392 -0.61906528 3 2 6231 2.75200000 882422365 882422365 -13.00000000
7.70014668 4.04095316 0.45574149 15 3 6231 8.70800000 882422367 882422367 3.00000000
2.86690426 1.50388193 -0.62928808 5 4 6232 3.29800000 882422369 882422369 -11.00000000
7.71101189 4.04322290 0.76174122 78 5 6233 8.74000000 882422372 882422372 5.00000000
3.61822772 1.89639091 -0.64701295 4 6 6234 4.13600000 882422374 882422374 -9.00000000
7.71406841 4.04139328 1.06928158 97 7 6235 8.77400000 882422376 882422376 7.00000000
4.90284681 2.56750631 -0.67954344 6 8 6236 5.57600000 882422379 882422379 -7.00000000
7.72426414 4.04501677 1.38100350 86 9 6236 8.82800000 882422381 882422381 9.00000000
7.67146826 4.01566267 -0.75755769 17 10 6237 8.69200000 882422383 882422383 -5.00000000
7.73045111 4.04481888 1.69591033 87 11 6238 8.88800000 882422385 882422385 11.00000000
7.68100405 4.01723909 -0.45427611 12 12 6239 8.68000000 882422388 882422388 -3.00000000
7.71614885 4.03390503 2.01016259 106 13 6240 8.93600000 882422390 882422390 13.00000000
7.68468809 4.01574993 -0.15134726 14 14 6241 8.67200000 882422392 882422392 -1.00000000
6.84416771 3.57500291 2.06899953 47 15 6242 7.99400000 882422395 882422395 15.00000000
2.02887082 1.05616331 -0.61288351 4 0 6250 2.36800000 882422415 882422415 -15.00000000
7.69700670 4.00510073 0.15145199 12 1 6251 8.67800000 882422418 882422418 1.00000000
2.38583732 1.24092996 -0.62086493 3 2 6252 2.76000000 882422420 882422420 -13.00000000
7.70781803 4.00901699 0.45532283 15 3 6252 8.70000000 882422422 882422422 3.00000000
2.86542940 1.48974168 -0.62776160 5 4 6253 3.29000000 882422425 882422425 -11.00000000
7.70986795 4.00666428 0.76017237 78 5 6254 8.72200000 882422427 882422427 5.00000000
3.62515402 1.88311672 -0.64701295 4 6 6255 4.13600000 882422429 882422429 -9.00000000
7.72002029 4.00851870 1.06806290 100 7 6256 8.76400000 882422431 882422431 7.00000000
4.92631960 2.55683494 -0.68149334 6 8 6257 5.59200000 882422434 882422434 -7.00000000
7.72150517 4.00757885 1.37787473 89 9 6257 8.80800000 882422436 882422436 9.00000000
7.68259764 3.98568320 -0.75720912 17 10 6258 8.68800000 882422438 882422438 -5.00000000
7.74522400 4.01645803 1.69591033 84 11 6259 8.88800000 882422441 882422441 11.00000000
7.69567633 3.98905969 -0.45427611 12 12 6260 8.68000000 882422443 882422443 -3.00000000
7.73088217 4.00559711 2.01016259 108 13 6261 8.93600000 882422445 882422445 13.00000000
7.68337345 3.97928071 -0.15103312 12 14 6262 8.65400000 882422448 882422448 -1.00000000
6.84631252 3.54575992 2.06589365 47 15 6262 7.98200000 882422450 882422450 15.00000000
2.02396178 1.04464459 -0.61029530 4 0 6270 2.35800000 882422471 882422471 -15.00000000
7.69850063 3.97179103 0.15120766 12 1 6271 8.66400000 882422473 882422473 1.00000000
2.39708233 1.23616707 -0.62266451 4 2 6272 2.76800000 882422475 882422475 -13.00000000
7.71288967 3.97751045 0.45479947 15 3 6272 8.69000000 882422478 882422478 3.00000000
2.87235713 1.48062992 -0.62814319 4 4 6273 3.29200000 882422480 882422480 -11.00000000
7.70432472 3.96968937 0.75825495 82 5 6274 8.70000000 882422482 882422482 5.00000000
3.63521743 1.87226009 -0.64763868 6 6 6275 4.14000000 882422484 882422484 -9.00000000
7.73749542 3.98336363 1.06855035 100 7 6276 8.76800000 882422487 882422487 7.00000000
4.94227505 2.54325652 -0.68246830 6 8 6277 5.60000000 882422489 882422489 -7.00000000
7.72842121 3.97698569 1.37662327 91 9 6277 8.80000000 882422491 882422491 9.00000000
7.68051767 3.95063972 -0.75564027 17 10 6278 8.67000000 882422494 882422494 -5.00000000
7.74173689 3.98042059 1.69209421 78 11 6279 8.86800000 882422496 882422496 11.00000000
7.70955372 3.96217251 -0.45427611 17 12 6280 8.68000000 882422498 882422498 -3.00000000
7.73788357 3.97502494 2.00836301 106 13 6281 8.92800000 882422501 882422501 13.00000000
7.69721699 3.95243645 -0.15103312 12 14 6282 8.65400000 882422503 882422503 -1.00000000
6.85238743 3.51711464 2.06382298 45 15 6283 7.97400000 882422505 882422505 15.00000000
2.03447509 1.04109347 -0.61236584 4 0 6290 2.36600000 882422526 882422526 -15.00000000
7.69273424 3.93487692 0.15082370 12 1 6291 8.64200000 882422528 882422528 1.00000000
2.40485311 1.22956634 -0.62356430 4 2 6292 2.77200000 882422531 882422531 -13.00000000
7.72208071 3.94648767 0.45448545 15 3 6293 8.68400000 882422533 882422533 3.00000000
2.88624883 1.47506166 -0.63005131 5 4 6293 3.30200000 882422535 882422535 -11.00000000
7.71103716 3.93914652 0.75755769 93 5 6294 8.69200000 882422537 882422537 5.00000000
3.62061930 1.84877932 -0.64388424 6 6 6295 4.11600000 882422540 882422540 -9.00000000
7.72306347 3.94189119 1.06465054 100 7 6296 8.73600000 882422542 882422542 7.00000000
4.94051313 2.52057648 -0.68100590 6 8 6297 5.58800000 882422544 882422544 -7.00000000
7.74225616 3.94998431 1.37662327 91 9 6297 8.80000000 882422547 882422547 9.00000000
7.68716145 3.92018509 -0.75494307 17 10 6298 8.66200000 882422549 882422549 -5.00000000
7.73809290 3.94445658 1.68827796 84 11 6299 8.84800000 882422551 882422551 11.00000000
7.70376205 3.92526293 -0.45312470 17 12 6300 8.65800000 882422554 882422554 -3.00000000
7.74476576 3.94445276 2.00656343 103 13 6301 8.92000000 882422556 882422556 13.00000000
7.70383835 3.92191505 -0.15089351 12 14 6302 8.64600000 882422558 882422558 -1.00000000
6.86745644 3.49612474 2.06485844 45 15 6302 7.97800000 882422561 882422561 15.00000000
2.04154229 1.03573358 -0.61340111 4 0 6310 2.37000000 882422581 882422581 -15.00000000
7.70107222 3.90528703 0.15071899 12 1 6311 8.63600000 882422584 882422584 1.00000000
2.38653398 1.20971048 -0.61771560 4 2 6312 2.74600000 882422586 882422586 -13.00000000
7.72333813 3.91318965 0.45375273 15 3 6313 8.67000000 882422588 882422588 3.00000000
2.89313149 1.46586514 -0.63043290 5 4 6313 3.30400000 882422590 882422590 -11.00000000
7.72829533 3.91400623 0.75790632 78 5 6314 8.69600000 882422593 882422593 5.00000000
3.62705064 1.83612978 -0.64388424 6 6 6315 4.11600000 882422595 882422595 -9.00000000
7.71906376 3.90594602 1.06221318 100 7 6316 8.71600000 882422597 882422597 7.00000000
4.95282412 2.50510740 -0.68149334 6 8 6317 5.59200000 882422600 882422600 -7.00000000
7.74786711 3.91712451 1.37505889 94 9 6318 8.79000000 882422602 882422602 9.00000000
7.69902086 3.89242911 -0.75476873 17 10 6318 8.66000000 882422604 882422604 -5.00000000
7.74130106 3.91210866 1.68598831 87 11 6319 8.83600000 882422607 882422607 11.00000000
7.69780684 3.88844204 -0.45197332 17 12 6320 8.63600000 882422609 882422609 -3.00000000
7.74457073 3.91036773 2.00296426 92 13 6321 8.90400000 882422611 882422611 13.00000000
7.71034098 3.89139581 -0.15075389 12 14 6322 8.63800000 882422614 882422614 -1.00000000
6.88022423 3.47093081 2.06485844 45 15 6323 7.97800000 882422616 882422616 15.00000000
2.04841709 1.03069448 -0.61443639 4 0 6329 2.37400000 882422637 882422637 -15.00000000
7.71040726 3.87793088 0.15064918 12 1 6330 8.63200000 882422639 882422639 1.00000000
2.40794325 1.21054280 -0.62221462 4 2 6331 2.76600000 882422641 882422641 -13.00000000
7.71485710 3.87679529 0.45249668 13 3 6332 8.64600000 882422643 882422643 3.00000000
2.89446807 1.45450008 -0.62966967 5 4 6332 3.30000000 882422646 882422646 -11.00000000
7.72698879 3.88120270 0.75651187 93 5 6333 8.68000000 882422648 882422648 5.00000000
3.65783477 1.83650064 -0.64826441 4 6 6334 4.14400000 882422650 882422650 -9.00000000
7.73197365 3.88032722 1.06221318 100 7 6335 8.71600000 882422653 882422653 7.00000000
4.95400667 2.48510909 -0.68051839 6 8 6336 5.58400000 882422655 882422655 -7.00000000
7.73718119 3.88125014 1.37099171 89 9 6336 8.76400000 882422657 882422657 9.00000000
7.70832396 3.86509061 -0.75442010 17 10 6337 8.65600000 882422660 882422660 -5.00000000
7.74721098 3.88289738 1.68446183 87 11 6338 8.82800000 882422662 882422662 11.00000000
7.71244478 3.86378860 -0.45207798 17 12 6339 8.63800000 882422664 882422664 -3.00000000
7.74355555 3.87768388 1.99936497 101 13 6340 8.88800000 882422667 882422667 13.00000000
7.70353270 3.85596037 -0.15036993 14 14 6341 8.61600000 882422669 882422669 -1.00000000
6.89627695 3.45189285 2.06641126 47 15 6341 7.98400000 882422671 882422671 15.00000000
2.04854488 1.02181327 -0.61340111 4 0 6349 2.37000000 882422692 882422692 -15.00000000
7.72031784 3.84920835 0.15057936 12 1 6350 8.62800000 882422694 882422694 1.00000000
2.40866590 1.20039165 -0.62131482 4 2 6351 2.76200000 882422696 882422696 -13.00000000
7.72834253 3.84984183 0.45249668 13 3 6352 8.64600000 882422699 882422699 3.00000000
2.88371205 1.43650913 -0.62623513 5 4 6352 3.28200000 882422701 882422701 -11.00000000
7.72622156 3.84710217 0.75511736 93 5 6353 8.66400000 882422703 882422703 5.00000000
3.65714908 1.82020056 -0.64701295 4 6 6354 4.13600000 882422706 882422706 -9.00000000
7.73480797 3.84800887 1.06075072 100 7 6355 8.70400000 882422708 882422708 7.00000000
4.95554161 2.46426582 -0.67954344 6 8 6356 5.57600000 882422710 882422710 -7.00000000
7.73189688 3.84319425 1.36755013 97 9 6357 8.74200000 882422713 882422713 9.00000000
7.70035934 3.82751822 -0.75232840 17 10 6357 8.63200000 882422715 882422715 -5.00000000
7.76071787 3.85583091 1.68446183 87 11 6358 8.82800000 882422717 882422717 11.00000000
7.72409630 3.83595514 -0.45197332 17 12 6359 8.63600000 882422719 882422719 -3.00000000
7.75006199 3.84716415 1.99756539 92 13 6360 8.88000000 882422722 882422722 13.00000000
7.69903231 3.82015824 -0.15002088 16 14 6361 8.59600000 882422724 882422724 -1.00000000
6.89849854 3.42144346 2.06330538 47 15 6362 7.97200000 882422726 882422726 15.00000000
2.04170895 1.00951886 -0.61029530 4 0 6369 2.35800000 882422747 882422747 -15.00000000
7.71577978 3.81337595 0.15023032 12 1 6370 8.60800000 882422749 882422749 1.00000000
2.42157722 1.19629216 -0.62356430 4 2 6371 2.77200000 882422752 882422752 -13.00000000
7.73457098 3.81930423 0.45207798 15 3 6372 8.63800000 882422754 882422754 3.00000000
2.89046907 1.42730367 -0.62661672 5 4 6372 3.28400000 882422756 882422756 -11.00000000
7.72173738 3.81129074 0.75337422 90 5 6373 8.64400000 882422759 882422759 5.00000000
3.64930844 1.80043173 -0.64450997 6 6 6374 4.12000000 882422761 882422761 -9.00000000
7.74107122 3.81747389 1.05977583 100 7 6375 8.69600000 882422763 882422763 7.00000000
4.97479630 2.45221877 -0.68100590 6 8 6376 5.58800000 882422766 882422766 -7.00000000
7.74105501 3.81578636 1.36692441 99 9 6376 8.73800000 882422768 882422768 9.00000000
7.70652390 3.79709315 -0.75163114 17 10 6377 8.62400000 882422770 882422770 -5.00000000
7.75475597 3.81917596 1.68026400 96 11 6378 8.80600000 882422772 882422772 11.00000000
7.73923111 3.80985188 -0.45207798 17 12 6379 8.63800000 882422775 882422775 -3.00000000
7.76344395 3.82008791 1.99756539 92 13 6380 8.88000000 882422777 882422777 13.00000000
7.71232033 3.79326034 -0.15002088 14 14 6381 8.59600000 882422779 882422779 -1.00000000
6.90460587 3.39599061 2.06175256 45 15 6381 7.96600000 882422782 882422782 15.00000000
2.05215931 1.00578654 -0.61236584 4 0 6389 2.36600000 882422802 882422802 -15.00000000
7.71467781 3.77938175 0.14995107 12 1 6390 8.59200000 882422805 882422805 1.00000000
2.41173697 1.18097591 -0.61996508 4 2 6391 2.75600000 882422807 882422807 -13.00000000
7.74606180 3.79140425 0.45197332 10 3 6392 8.63600000 882422809 882422809 3.00000000
2.90777731 1.42324698 -0.62928808 5 4 6392 3.29800000 882422812 882422812 -11.00000000
7.73857355 3.78606486 0.75372285 90 5 6393 8.64800000 882422814 882422814 5.00000000
3.66621828 1.79288912 -0.64638722 4 6 6394 4.13200000 882422816 882422816 -9.00000000
7.74008226 3.78345513 1.05782592 100 7 6395 8.68000000 882422819 882422819 7.00000000
4.97975874 2.43309569 -0.68051839 6 8 6396 5.58400000 882422821 882422821 -7.00000000
7.75143862 3.78565478 1.36629868 97 9 6397 8.73400000 882422823 882422823 9.00000000
7.71257019 3.76667190 -0.75093389 17 10 6397 8.61600000 882422825 882422825 -5.00000000
7.75569057 3.78605485 1.67759264 100 11 6398 8.79200000 882422828 882422828 11.00000000
7.71478844 3.76442075 -0.44987988 17 12 6399 8.59600000 882422830 882422830 -3.00000000
7.76972532 3.78954816 1.99576581 92 13 6400 8.87200000 882422832 882422832 13.00000000
7.72551441 3.76631618 -0.15002088 14 14 6401 8.59600000 882422835 882422835 -1.00000000
6.91353321 3.36896849 2.06071734 47 15 6402 7.96200000 882422837 882422837 15.00000000
2.05218220 0.99692881 -0.61133057 4 0 6409 2.36200000 882422858 882422858 -15.00000000
7.72242689 3.74980903 0.14984636 12 1 6410 8.58600000 882422860 882422860 1.00000000
2.41584468 1.17255008 -0.61996508 5 2 6411 2.75600000 882422862 882422862 -13.00000000
7.74307632 3.75649619 0.45103127 13 3 6412 8.61800000 882422865 882422865 3.00000000
2.91979313 1.41651607 -0.63081455 5 4 6412 3.30600000 882422867 882422867 -11.00000000
7.74098587 3.75381327 0.75267702 90 5 6413 8.63600000 882422869 882422869 5.00000000
3.65823364 1.77318788 -0.64388424 4 6 6414 4.11600000 882422872 882422872 -9.00000000
7.73001766 3.74516225 1.05465734 97 7 6415 8.65400000 882422874 882422874 7.00000000
4.98464823 2.41396761 -0.68003094 9 8 6416 5.58000000 882422876 882422876 -7.00000000
7.76039410 3.75820732 1.36567283 100 9 6416 8.73000000 882422878 882422878 9.00000000
7.72029114 3.73712277 -0.75041097 17 10 6417 8.61000000 882422881 882422881 -5.00000000
7.75825548 3.75382876 1.67530298 100 11 6418 8.78000000 882422883 882422883 11.00000000
7.70990133 3.72877216 -0.44883317 17 12 6419 8.57600000 882422885 882422885 -3.00000000
7.77237892 3.75731468 1.99306631 103 13 6420 8.86000000 882422888 882422888 13.00000000
7.72781134 3.73410606 -0.14981146 14 14 6421 8.58400000 882422890 882422890 -1.00000000
6.94032192 3.35358834 2.06537604 45 15 6421 7.98000000 882422892 882422892 15.00000000
2.06609321 0.99478769 -0.61443639 4 0 6429 2.37400000 882422913 882422913 -15.00000000
7.73006344 3.72022820 0.14974165 12 1 6430 8.58000000 882422915 882422915 1.00000000
2.41641068 1.16242051 -0.61906528 5 2 6431 2.75200000 882422918 882422918 -13.00000000
7.73814201 3.72078991 0.44998455 13 3 6432 8.59800000 882422920 882422920 3.00000000
2.91056514 1.39950931 -0.62776160 5 4 6432 3.29000000 882422922 882422922 -11.00000000
7.74326754 3.72159076 0.75163114 76 5 6433 8.62400000 882422925 882422925 5.00000000
3.67152333 1.76382899 -0.64513576 4 6 6434 4.12400000 882422927 882422927 -9.00000000
7.74125433 3.71729732 1.05441356 100 7 6435 8.65200000 882422929 882422929 7.00000000
4.98588562 2.39311743 -0.67905599 6 8 6436 5.57200000 882422931 882422931 -7.00000000
7.75630617 3.72119403 1.36254418 100 9 6437 8.71000000 882422934 882422934 9.00000000
7.73328924 3.71015120 -0.75041097 13 10 6437 8.61000000 882422936 882422936 -5.00000000
7.76777124 3.72502685 1.67453969 96 11 6438 8.77600000 882422938 882422938 11.00000000
7.72106934 3.70097375 -0.44872850 17 12 6439 8.57400000 882422941 882422941 -3.00000000
7.76787281 3.72174096 1.98856735 103 13 6440 8.84000000 882422943 882422943 13.00000000
7.72637033 3.70019841 -0.14953221 16 14 6441 8.56800000 882422945 882422945 -1.00000000
6.95430899 3.32896233 2.06589365 47 15 6442 7.98200000 882422948 882422948 15.00000000
2.05717707 0.98210478 -0.61081296 4 0 6448 2.36000000 882422968 882422968 -15.00000000
7.73152924 3.68940663 0.14953221 12 1 6449 8.56800000 882422971 882422971 1.00000000
2.42376995 1.15607893 -0.61996508 7 2 6450 2.75600000 882422973 882422973 -13.00000000
7.74502945 3.69253039 0.44967052 10 3 6451 8.59200000 882422975 882422975 3.00000000
2.91164565 1.38815999 -0.62699836 5 4 6451 3.28600000 882422978 882422978 -11.00000000
7.74837160 3.69246411 0.75093389 94 5 6452 8.61600000 882422980 882422980 5.00000000
3.68805242 1.75674105 -0.64701295 6 6 6453 4.13600000 882422982 882422982 -9.00000000
7.75353861 3.69160604 1.05441356 99 7 6454 8.65200000 882422984 882422984 7.00000000
4.99379396 2.37657046 -0.67905599 9 8 6455 5.57200000 882422987 882422987 -7.00000000
7.75012159 3.68831992 1.35941553 100 9 6455 8.69000000 882422989 882422989 9.00000000
6.31338787 3.00322008 -0.61165899 12 10 6456 7.01800000 882422991 882422991 -5.00000000
7.77298880 3.69587541 1.67301333 100 11 6457 8.76800000 882422994 882422994 11.00000000
7.71886873 3.66849065 -0.44789112 17 12 6458 8.55800000 882422996 882422996 -3.00000000
7.77313089 3.69261646 1.98676777 104 13 6459 8.83200000 882422998 882422998 13.00000000
7.73137236 3.67112541 -0.14939260 14 14 6460 8.56000000 882423001 882423001 -1.00000000
6.98567438 3.31704211 2.07210517 47 15 6460 8.00600000 882423003 882423003 15.00000000
2.05884647 0.97409171 -0.61029530 4 0 6468 2.35800000 882423024 882423024 -15.00000000
7.73351383 3.65726686 0.14932279 12 1 6469 8.55600000 882423026 882423026 1.00000000
2.43483782 1.15094256 -0.62176472 7 2 6470 2.76400000 882423028 882423028 -13.00000000
7.75787163 3.66547275 0.44967052 10 3 6471 8.59200000 882423031 882423031 3.00000000
2.92002368 1.37966549 -0.62776160 5 4 6471 3.29000000 882423033 882423033 -11.00000000
7.74680090 3.65858817 0.74953938 79 5 6472 8.60000000 882423035 882423035 5.00000000
3.67987156 1.73711050 -0.64450997 6 6 6473 4.12000000 882423037 882423037 -9.00000000
7.75919628 3.66113019 1.05343866 100 7 6474 8.64400000 882423040 882423040 7.00000000
5.00565052 2.36081791 -0.67954344 9 8 6475 5.57600000 882423042 882423042 -7.00000000
7.75222921 3.65618873 1.35753834 100 9 6475 8.67800000 882423044 882423044 9.00000000
6.30220652 2.97096896 -0.60956728 12 10 6476 6.99400000 882423047 882423047 -5.00000000
7.76808310 3.66035151 1.66919708 90 11 6477 8.74800000 882423049 882423049 11.00000000
7.73524094 3.64322662 -0.44810045 17 12 6478 8.56200000 882423051 882423051 -3.00000000
7.78244686 3.66380072 1.98586786 103 13 6479 8.82800000 882423054 882423054 13.00000000
7.73690224 3.64070988 -0.14925298 14 14 6480 8.55200000 882423056 882423056 -1.00000000
7.03391838 3.30991077 2.08297563 47 15 6480 8.04800000 882423058 882423058 15.00000000
2.06573248 0.96853924 -0.61133057 4 0 6488 2.36200000 882423079 882423079 -15.00000000
7.73174763 3.62346077 0.14904355 12 1 6489 8.54000000 882423081 882423081 1.00000000
2.43707585 1.14160979 -0.62131482 6 2 6490 2.76200000 882423084 882423084 -13.00000000
7.76881027 3.63752341 0.44956586 13 3 6491 8.59000000 882423086 882423086 3.00000000
2.93193388 1.37279427 -0.62928808 5 4 6491 3.29800000 882423088 882423088 -11.00000000
7.75050163 3.62730169 0.74866784 76 5 6492 8.59000000 882423090 882423090 5.00000000
3.67696619 1.72006977 -0.64294565 6 6 6493 4.11000000 882423093 882423093 -9.00000000
7.75934124 3.62813759 1.05173242 97 7 6494 8.63000000 882423095 882423095 7.00000000
5.02465105 2.34837365 -0.68100590 9 8 6495 5.58800000 882423097 882423097 -7.00000000
7.76915741 3.62942290 1.35816407 94 9 6496 8.68200000 882423100 882423100 9.00000000
6.31253862 2.94895220 -0.60956728 8 10 6496 6.99400000 882423102 882423102 -5.00000000
7.76480246 3.62573791 1.66576254 96 11 6497 8.73000000 882423104 882423104 11.00000000
7.73343229 3.60944557 -0.44726309 17 12 6498 8.54600000 882423107 882423107 -3.00000000
