# .PCD v0.7 - Point Cloud Data file format
VERSION 0.7
FIELDS x y z intensity laser_id azimuth distance_m adjustedtime timestamp vertical_angle
SIZE 4 4 4 1 1 2 8 8 4 8
TYPE F F F U U U F U U F
COUNT 1 1 1 1 1 1 1 1 1 1
WIDTH 526
HEIGHT 1
VIEWPOINT 0 0 0 1 0 0 0
POINTS 526
DATA ascii
-4.14540720 2.92426300 0.26586667 14 3 30520 5.08000000 1294088677 1294088677 3.00000000
-2.29890919 1.62170208 -0.54685861 3 4 30520 2.86600000 1294088679 1294088679 -11.00000000
-4.13641882 2.91900373 0.44292548 10 5 30521 5.08200000 1294088681 1294088681 5.00000000
-2.80312085 1.97885001 -0.54345334 1 6 30522 3.47400000 1294088684 1294088684 -9.00000000
-4.12349653 2.91204143 0.61982751 9 7 30523 5.08600000 1294088686 1294088686 7.00000000
-3.67874956 2.59892058 -0.55304307 36 8 30524 4.53800000 1294088688 1294088688 -7.00000000
-4.10714293 2.90264153 0.79656428 87 9 30525 5.09200000 1294088691 1294088691 9.00000000
-3.75039172 2.65051484 -0.40178797 76 10 30525 4.61000000 1294088693 1294088693 -5.00000000
-4.10868692 2.90480828 0.97808689 81 11 30526 5.12600000 1294088695 1294088695 11.00000000
-4.14672327 2.93278527 -0.26618066 10 12 30527 5.08600000 1294088698 1294088698 -3.00000000
-4.09003162 2.89376092 1.15669835 70 13 30528 5.14200000 1294088700 1294088700 13.00000000
-4.13933086 2.92972517 -0.08851860 8 14 30529 5.07200000 1294088702 1294088702 -1.00000000
-4.10612154 2.90622020 1.34792960 31 15 30529 5.20800000 1294088704 1294088704 15.00000000
-1.67768562 1.19094753 -0.55128455 4 0 30537 2.13000000 1294088725 1294088725 -15.00000000
-4.13961506 2.93969703 0.08862332 15 1 30538 5.07800000 1294088728 1294088728 1.00000000
-1.95406318 1.38816714 -0.55337960 3 2 30539 2.46000000 1294088730 1294088730 -13.00000000
-4.13354635 2.93755841 0.26576197 12 3 30540 5.07800000 1294088732 1294088732 3.00000000
-2.29003382 1.62744236 -0.54609537 3 4 30540 2.86200000 1294088734 1294088734 -11.00000000
-4.13757133 2.94150567 0.44414568 10 5 30541 5.09600000 1294088737 1294088737 5.00000000
-2.78975725 1.98404324 -0.54220188 1 6 30542 3.46600000 1294088739 1294088739 -9.00000000
-4.12948179 2.93792510 0.62226486 9 7 30543 5.10600000 1294088741 1294088741 7.00000000
-3.66318607 2.60714173 -0.55206811 40 8 30544 4.53000000 1294088744 1294088744 -7.00000000
-4.10503149 2.92268896 0.79812866 78 9 30545 5.10200000 1294088746 1294088746 9.00000000
-3.74923205 2.66936779 -0.40265954 100 10 30545 4.62000000 1294088748 1294088748 -5.00000000
-4.10651779 2.92482734 0.97999501 76 11 30546 5.13600000 1294088751 1294088751 11.00000000
-4.13971376 2.94956017 -0.26639003 10 12 30547 5.09000000 1294088753 1294088753 -3.00000000
-4.08942699 2.91480684 1.15939772 69 13 30548 5.15400000 1294088755 1294088755 13.00000000
-4.13396358 2.94763899 -0.08862332 8 14 30549 5.07800000 1294088757 1294088757 -1.00000000
-4.09072399 2.91788483 1.34637666 21 15 30550 5.20200000 1294088760 1294088760 15.00000000
-1.67687023 1.19875133 -0.55231982 4 0 30556 2.13400000 1294088781 1294088781 -15.00000000
-4.12821722 2.95224500 0.08858842 13 1 30557 5.07600000 1294088783 1294088783 1.00000000
-1.94627929 1.39237177 -0.55247980 3 2 30558 2.45600000 1294088785 1294088785 -13.00000000
-4.13515139 2.95938611 0.26649469 12 3 30559 5.09200000 1294088787 1294088787 3.00000000
-2.29420376 1.64188290 -0.54838502 3 4 30559 2.87400000 1294088790 1294088790 -11.00000000
-4.12455416 2.95289063 0.44379705 10 5 30560 5.09200000 1294088792 1294088792 5.00000000
-2.77995062 1.99098313 -0.54157615 1 6 30561 3.46200000 1294088794 1294088794 -9.00000000
-4.13423967 2.96200800 0.62445849 11 7 30562 5.12400000 1294088797 1294088797 7.00000000
-3.63515878 2.60539794 -0.54914325 36 8 30563 4.50600000 1294088799 1294088799 -7.00000000
-4.10655451 2.94434285 0.80031872 83 9 30564 5.11600000 1294088801 1294088801 9.00000000
-3.73226357 2.67598128 -0.40178797 91 10 30564 4.61000000 1294088804 1294088804 -5.00000000
-4.10636854 2.94529462 0.98228472 76 11 30565 5.14800000 1294088806 1294088806 11.00000000
-4.13964653 2.97025776 -0.26701805 10 12 30566 5.10200000 1294088808 1294088808 -3.00000000
-4.10190248 2.94426060 1.16569638 69 13 30567 5.18200000 1294088810 1294088810 13.00000000
-4.14528227 2.97649384 -0.08907709 8 14 30568 5.10400000 1294088813 1294088813 -1.00000000
-4.08624458 2.93410230 1.34792960 21 15 30568 5.20800000 1294088815 1294088815 15.00000000
-1.67581093 1.20685542 -0.55335510 4 0 30576 2.13800000 1294088836 1294088836 -15.00000000
-4.12599945 2.97248173 0.08876294 11 1 30577 5.08600000 1294088838 1294088838 1.00000000
-1.93508327 1.39459956 -0.55068016 3 2 30578 2.44800000 1294088840 1294088840 -13.00000000
-4.14099741 2.98548293 0.26754141 12 3 30579 5.11200000 1294088843 1294088843 3.00000000
-2.28208828 1.64528859 -0.54685861 3 4 30579 2.86600000 1294088845 1294088845 -11.00000000
-4.12391710 2.97426271 0.44484290 10 5 30580 5.10400000 1294088847 1294088847 5.00000000
-2.78579950 2.00992107 -0.54407907 3 6 30581 3.47800000 1294088850 1294088850 -9.00000000
-4.13192320 2.98222995 0.62567723 11 7 30582 5.13400000 1294088852 1294088852 7.00000000
-3.59707236 2.59715462 -0.54475594 22 8 30583 4.47000000 1294088854 1294088854 -7.00000000
-4.11226559 2.97022581 0.80344743 81 9 30584 5.13600000 1294088857 1294088857 9.00000000
-3.75358748 2.71115828 -0.40509990 100 10 30584 4.64800000 1294088859 1294088859 -5.00000000
-4.14220285 2.99404979 -0.26785544 10 12 30586 5.11800000 1294088863 1294088863 -3.00000000
-4.10897112 2.97112131 1.17064524 67 13 30587 5.20400000 1294088866 1294088866 13.00000000
-4.14620876 2.99914956 -0.08932142 8 14 30588 5.11800000 1294088868 1294088868 -1.00000000
-4.08223867 2.95287704 1.35000014 36 15 30588 5.21600000 1294088870 1294088870 15.00000000
-1.67450333 1.21525884 -0.55439037 4 0 30597 2.14200000 1294088891 1294088891 -15.00000000
-4.12640429 2.99580812 0.08900727 9 1 30598 5.10000000 1294088893 1294088893 1.00000000
-1.93941939 1.40855360 -0.55337960 3 2 30599 2.46000000 1294088896 1294088896 -13.00000000
-4.13216686 3.00109315 0.26764607 14 3 30599 5.11400000 1294088898 1294088898 3.00000000
-2.27604270 1.65364182 -0.54685861 3 4 30600 2.86600000 1294088900 1294088900 -11.00000000
-4.13393974 3.00458574 0.44710895 10 5 30601 5.13000000 1294088903 1294088903 5.00000000
-2.79598880 2.03289628 -0.54752064 1 6 30602 3.50000000 1294088905 1294088905 -9.00000000
-4.11614895 2.99385118 0.62494600 9 7 30603 5.12800000 1294088907 1294088907 7.00000000
-3.58913422 2.61148906 -0.54499972 38 8 30604 4.47200000 1294088909 1294088909 -7.00000000
-4.12103987 2.99850869 0.80720186 81 9 30604 5.16000000 1294088912 1294088912 9.00000000
-3.74684715 2.72724271 -0.40544853 52 10 30605 4.65200000 1294088914 1294088914 -5.00000000
-4.10581970 2.98962665 0.98724574 31 11 30606 5.17400000 1294088916 1294088916 11.00000000
-4.13604450 3.01273942 -0.26816943 10 12 30607 5.12400000 1294088919 1294088919 -3.00000000
-4.09805393 2.98616171 1.17064524 65 13 30608 5.20400000 1294088921 1294088921 13.00000000
-4.13680458 3.01550388 -0.08935632 8 14 30609 5.12000000 1294088923 1294088923 -1.00000000
-4.08699989 2.97919893 1.35517657 53 15 30609 5.23600000 1294088926 1294088926 15.00000000
-1.67337012 1.22337675 -0.55542564 4 0 30617 2.14600000 1294088946 1294088946 -15.00000000
-4.12722063 3.01845694 0.08925161 9 1 30618 5.11400000 1294088949 1294088949 1.00000000
-1.93134534 1.41301358 -0.55247980 3 2 30619 2.45600000 1294088951 1294088951 -13.00000000
-4.12597466 3.01975679 0.26796010 12 3 30620 5.12000000 1294088953 1294088953 3.00000000
-2.28293061 1.67085266 -0.54991150 2 4 30620 2.88200000 1294088956 1294088956 -11.00000000
-4.13307238 3.02605939 0.44815484 10 5 30621 5.14200000 1294088958 1294088958 5.00000000
-2.77293921 2.03097153 -0.54439193 3 6 30622 3.48000000 1294088960 1294088960 -9.00000000
-4.12328720 3.02110672 0.62762713 9 7 30623 5.15000000 1294088962 1294088962 7.00000000
-4.11480141 3.01709723 0.80814046 74 9 30625 5.16600000 1294088967 1294088967 9.00000000
-3.75176525 2.75090814 -0.40701732 49 10 30625 4.67000000 1294088969 1294088969 -5.00000000
-4.09852505 3.00626278 0.98800898 63 11 30626 5.17800000 1294088972 1294088972 11.00000000
-4.14160538 3.03897429 -0.26921615 10 12 30627 5.14400000 1294088974 1294088974 -3.00000000
-4.09074688 3.00275445 1.17154515 67 13 30628 5.20800000 1294088976 1294088976 13.00000000
-4.13270044 3.03465986 -0.08949594 8 14 30629 5.12800000 1294088979 1294088979 -1.00000000
-4.10719156 3.01703215 1.36552930 14 15 30630 5.27600000 1294088981 1294088981 15.00000000
-1.66308117 1.22433794 -0.55335510 4 0 30636 2.13800000 1294089002 1294089002 -15.00000000
-4.13328981 3.04398489 0.08960065 9 1 30637 5.13400000 1294089004 1294089004 1.00000000
-1.93292475 1.42403388 -0.55427939 3 2 30638 2.46400000 1294089006 1294089006 -13.00000000
-4.12933111 3.04218125 0.26879746 10 3 30638 5.13600000 1294089009 1294089009 3.00000000
-2.27421665 1.67608452 -0.54914826 3 4 30639 2.87800000 1294089011 1294089011 -11.00000000
-4.12622213 3.04211330 0.44850346 10 5 30640 5.14600000 1294089013 1294089013 5.00000000
-2.77731729 2.04836321 -0.54658204 3 6 30641 3.49400000 1294089015 1294089015 -9.00000000
-4.12922001 3.04654908 0.63006449 9 7 30642 5.17000000 1294089018 1294089018 7.00000000
-3.55370641 2.62289166 -0.54231858 70 8 30643 4.45000000 1294089020 1294089020 -7.00000000
-4.11113024 3.03541899 0.80939192 78 9 30644 5.17400000 1294089022 1294089022 9.00000000
-3.77628183 2.78818655 -0.41067785 57 10 30644 4.71200000 1294089025 1294089025 -5.00000000
-4.11537933 3.03966641 0.99449646 70 11 30645 5.21200000 1294089027 1294089027 11.00000000
-4.13953686 3.05862594 -0.26973951 10 12 30646 5.15400000 1294089029 1294089029 -3.00000000
-4.09957266 3.03020334 1.17694390 63 13 30647 5.23200000 1294089032 1294089032 13.00000000
-4.12583017 3.05072570 -0.08956575 8 14 30648 5.13200000 1294089034 1294089034 -1.00000000
-4.09303284 3.02647471 1.36397636 14 15 30648 5.27000000 1294089036 1294089036 15.00000000
-1.65259027 1.22553277 -0.55128455 4 0 30656 2.13000000 1294089057 1294089057 -15.00000000
-4.12585115 3.06077695 0.08967046 9 1 30657 5.13800000 1294089059 1294089059 1.00000000
-1.93107188 1.43309498 -0.55517918 3 2 30658 2.46800000 1294089061 1294089061 -13.00000000
-4.13632917 3.06966972 0.26994887 8 3 30658 5.15800000 1294089064 1294089064 3.00000000
-2.26519942 1.68167222 -0.54838502 2 4 30659 2.87400000 1294089066 1294089066 -11.00000000
-4.12357569 3.06243753 0.44937500 10 5 30660 5.15600000 1294089068 1294089068 5.00000000
-2.75746512 2.04862118 -0.54407907 3 6 30661 3.47800000 1294089071 1294089071 -9.00000000
-4.12971306 3.06923294 0.63177067 9 7 30662 5.18400000 1294089073 1294089073 7.00000000
-3.54930830 2.63883352 -0.54304981 20 8 30663 4.45600000 1294089075 1294089075 -7.00000000
-4.11001968 3.05682445 0.81126916 76 9 30664 5.18600000 1294089078 1294089078 9.00000000
-3.79370403 2.82156467 -0.41364115 27 10 30664 4.74600000 1294089080 1294089080 -5.00000000
-4.11104441 3.05870104 0.99602294 70 11 30665 5.22000000 1294089082 1294089082 11.00000000
-4.14966345 3.08855939 -0.27110025 10 12 30666 5.18000000 1294089085 1294089085 -3.00000000
-4.09834862 3.05147791 1.17964327 63 13 30667 5.24400000 1294089087 1294089087 13.00000000
-4.13279724 3.07824850 -0.08994970 14 14 30668 5.15400000 1294089089 1294089089 -1.00000000
-4.07934523 3.03843570 1.36294115 25 15 30668 5.26600000 1294089091 1294089091 15.00000000
-1.65427744 1.23620725 -0.55335510 4 0 30677 2.13800000 1294089112 1294089112 -15.00000000
-4.11460495 3.07587838 0.08967046 9 1 30678 5.13800000 1294089114 1294089114 1.00000000
-1.91956389 1.43549478 -0.55337960 3 2 30679 2.46000000 1294089117 1294089117 -13.00000000
-4.13570690 3.09390426 0.27068156 8 3 30680 5.17200000 1294089119 1294089119 3.00000000
-2.26216459 1.69231534 -0.54914826 2 4 30680 2.87800000 1294089121 1294089121 -11.00000000
-4.12029934 3.08349943 0.45024657 10 5 30681 5.16600000 1294089124 1294089124 5.00000000
-2.74519396 2.05516243 -0.54314047 3 6 30682 3.47200000 1294089126 1294089126 -9.00000000
-4.12479162 3.08910823 0.63274562 9 7 30683 5.19200000 1294089128 1294089128 7.00000000
-3.55549979 2.66372705 -0.54548717 10 8 30684 4.47600000 1294089131 1294089131 -7.00000000
-4.11197186 3.08062768 0.81377208 74 9 30684 5.20200000 1294089133 1294089133 9.00000000
-4.14524889 3.10668802 -0.45320988 9 10 30685 5.20000000 1294089135 1294089135 -5.00000000
-4.09980631 3.07374811 0.99602294 70 11 30686 5.22000000 1294089138 1294089138 11.00000000
-4.14470625 3.10854149 -0.27151895 10 12 30687 5.18800000 1294089140 1294089140 -3.00000000
-4.10272455 3.07817388 1.18414235 63 13 30688 5.26400000 1294089142 1294089142 13.00000000
-4.13428164 3.10297823 -0.09022894 14 14 30689 5.17000000 1294089144 1294089144 -1.00000000
-4.08773184 3.06915569 1.36967039 61 15 30690 5.29200000 1294089147 1294089147 15.00000000
-1.65612602 1.24662149 -0.55542564 4 0 30697 2.14600000 1294089167 1294089167 -15.00000000
-4.12620735 3.10706282 0.09015913 9 1 30698 5.16600000 1294089170 1294089170 1.00000000
-1.91142833 1.43984163 -0.55247980 3 2 30699 2.45600000 1294089172 1294089172 -13.00000000
-4.12701988 3.10880327 0.27078623 8 3 30699 5.17400000 1294089174 1294089174 3.00000000
-2.25937939 1.70256448 -0.54991150 3 4 30700 2.88200000 1294089177 1294089177 -11.00000000
-4.13337564 3.11585307 0.45286125 10 5 30701 5.19600000 1294089179 1294089179 5.00000000
-2.74115777 2.06711102 -0.54376620 3 6 30702 3.47600000 1294089181 1294089181 -9.00000000
-4.11556816 3.10468316 0.63298935 9 7 30703 5.19400000 1294089184 1294089184 7.00000000
-3.67294240 2.77178288 -0.56498629 38 8 30704 4.63600000 1294089186 1294089186 -7.00000000
-4.11641884 3.10757995 0.81690079 74 9 30705 5.22200000 1294089188 1294089188 9.00000000
-4.15187120 3.13434362 -0.45512730 12 10 30705 5.22200000 1294089191 1294089191 -5.00000000
-4.10628557 3.10105515 1.00022078 49 11 30706 5.24200000 1294089193 1294089193 11.00000000
-4.13223696 3.12178636 -0.27141428 10 12 30707 5.18600000 1294089195 1294089195 -3.00000000
-4.09817362 3.09717607 1.18594193 62 13 30708 5.27200000 1294089197 1294089197 13.00000000
-4.13618612 3.12703824 -0.09050818 14 14 30709 5.18600000 1294089200 1294089200 -1.00000000
-4.08931971 3.09272838 1.37381148 27 15 30710 5.30800000 1294089202 1294089202 15.00000000
-1.65792191 1.25706351 -0.55749625 4 0 30717 2.15400000 1294089223 1294089223 -15.00000000
-4.12489605 3.12869763 0.09036856 9 1 30718 5.17800000 1294089225 1294089225 1.00000000
-1.90639067 1.44650495 -0.55247980 3 2 30719 2.45600000 1294089227 1294089227 -13.00000000
-4.12409830 3.12922668 0.27130958 8 3 30719 5.18400000 1294089230 1294089230 3.00000000
-2.25967765 1.71518874 -0.55143797 3 4 30720 2.89000000 1294089232 1294089232 -11.00000000
-4.13358164 3.13869643 0.45408142 10 5 30721 5.21000000 1294089234 1294089234 5.00000000
-2.75594783 2.09339499 -0.54814637 3 6 30722 3.50400000 1294089237 1294089237 -9.00000000
-4.11735058 3.12863827 0.63493925 9 7 30723 5.21000000 1294089239 1294089239 7.00000000
-3.67430711 2.79299617 -0.56669247 24 8 30724 4.65000000 1294089241 1294089241 -7.00000000
-4.10923624 3.12360406 0.81752652 74 9 30724 5.22600000 1294089244 1294089244 9.00000000
-4.15042067 3.15605307 -0.45617315 13 10 30725 5.23400000 1294089246 1294089246 -5.00000000
-4.10949850 3.12606740 1.00365531 18 11 30726 5.26000000 1294089248 1294089248 11.00000000
-4.13561916 3.14707685 -0.27235630 10 12 30727 5.20400000 1294089250 1294089250 -3.00000000
-4.09043837 3.11382318 1.18684173 60 13 30728 5.27600000 1294089253 1294089253 13.00000000
-4.13160896 3.14630342 -0.09064780 14 14 30729 5.19400000 1294089255 1294089255 -1.00000000
-4.09079313 3.11634946 1.37795258 17 15 30730 5.32400000 1294089257 1294089257 15.00000000
-1.64431202 1.25580776 -0.55439037 4 0 30737 2.14200000 1294089278 1294089278 -15.00000000
-4.13619614 3.16007352 0.09085723 9 1 30738 5.20600000 1294089280 1294089280 1.00000000
-1.90752316 1.45788407 -0.55427939 3 2 30739 2.46400000 1294089283 1294089283 -13.00000000
-4.12584496 3.15330601 0.27214697 8 3 30739 5.20000000 1294089285 1294089285 3.00000000
-2.24431896 1.71591151 -0.54914826 3 4 30740 2.87800000 1294089287 1294089287 -11.00000000
-4.13051319 3.15915823 0.45495299 12 5 30741 5.22000000 1294089290 1294089290 5.00000000
-2.75019264 2.10420275 -0.54845923 3 6 30742 3.50600000 1294089292 1294089292 -9.00000000
-4.12059164 3.15385032 0.63713294 9 7 30743 5.22800000 1294089294 1294089294 7.00000000
-3.67399216 2.81304550 -0.56815487 22 8 30744 4.66200000 1294089297 1294089297 -7.00000000
-4.09830809 3.13792896 0.81752652 76 9 30744 5.22600000 1294089299 1294089299 9.00000000
-4.14886904 3.17779064 -0.45721903 9 10 30745 5.24600000 1294089301 1294089301 -5.00000000
-4.10791206 3.14755774 1.00594497 78 11 30746 5.27200000 1294089303 1294089303 11.00000000
-4.14204550 3.17485881 -0.27350771 10 12 30747 5.22600000 1294089306 1294089306 -3.00000000
-4.08882284 3.13519716 1.18954122 63 13 30748 5.28800000 1294089308 1294089308 13.00000000
-4.13170815 3.16922569 -0.09089214 12 14 30749 5.20800000 1294089310 1294089310 -1.00000000
-4.08755350 3.13649011 1.38054073 17 15 30750 5.33400000 1294089313 1294089313 15.00000000
-1.63838720 1.26036191 -0.55387276 4 0 30757 2.14000000 1294089333 1294089333 -15.00000000
-4.11880112 3.16961408 0.09071761 9 1 30758 5.19800000 1294089336 1294089336 1.00000000
-1.90551090 1.46691120 -0.55517918 3 2 30759 2.46800000 1294089338 1294089338 -13.00000000
-4.12905645 3.17865372 0.27308902 8 3 30759 5.21800000 1294089340 1294089340 3.00000000
-2.23831582 1.72373521 -0.54914826 3 4 30760 2.87800000 1294089343 1294089343 -11.00000000
-4.11788177 3.17234111 0.45477867 12 5 30761 5.21800000 1294089345 1294089345 5.00000000
-2.73813701 2.11017227 -0.54752064 3 6 30762 3.50000000 1294089347 1294089347 -9.00000000
-4.11584616 3.17306256 0.63810790 9 7 30763 5.23600000 1294089349 1294089349 7.00000000
-3.64057159 2.80766869 -0.56449878 8 8 30764 4.63200000 1294089352 1294089352 -7.00000000
-4.09984350 3.16186666 0.82002944 74 9 30764 5.24200000 1294089354 1294089354 9.00000000
-4.14090586 3.19468760 -0.45756766 13 10 30765 5.25000000 1294089356 1294089356 -5.00000000
-4.09689999 3.16187763 1.00594497 70 11 30766 5.27200000 1294089359 1294089359 11.00000000
-4.14358521 3.19906235 -0.27434507 10 12 30767 5.24200000 1294089361 1294089361 -3.00000000
-4.08710814 3.15659785 1.19224060 65 13 30768 5.30000000 1294089363 1294089363 13.00000000
-4.12853241 3.18974161 -0.09106666 10 14 30769 5.21800000 1294089366 1294089366 -1.00000000
-4.08630228 3.15711427 1.38364661 25 15 30769 5.34600000 1294089368 1294089368 15.00000000
-1.63550484 1.26725662 -0.55439037 4 0 30777 2.14200000 1294089389 1294089389 -15.00000000
-4.11245346 3.18764710 0.09082232 11 1 30778 5.20400000 1294089391 1294089391 1.00000000
-1.89421868 1.46877718 -0.55337960 3 2 30779 2.46000000 1294089393 1294089393 -13.00000000
-4.12740612 3.20039058 0.27371705 8 3 30779 5.23000000 1294089396 1294089396 3.00000000
-2.23538756 1.73394442 -0.54991150 3 4 30780 2.88200000 1294089398 1294089398 -11.00000000
-4.10835743 3.18791723 0.45495299 10 5 30781 5.22000000 1294089400 1294089400 5.00000000
-2.71827102 2.11002731 -0.54501766 3 6 30782 3.48400000 1294089402 1294089402 -9.00000000
-4.11415243 3.19471526 0.63957030 9 7 30783 5.24800000 1294089405 1294089405 7.00000000
-3.59155679 2.78991532 -0.55840534 6 8 30784 4.58200000 1294089407 1294089407 -7.00000000
-4.10438156 3.18827653 0.82315814 72 9 30784 5.26200000 1294089409 1294089409 9.00000000
-4.14231539 3.21890283 -0.45896214 9 10 30785 5.26600000 1294089412 1294089412 -5.00000000
-4.09203768 3.18097901 1.00747144 65 11 30786 5.28000000 1294089414 1294089414 11.00000000
-4.14185286 3.22086310 -0.27497312 10 12 30787 5.25400000 1294089416 1294089416 -3.00000000
-4.08836985 3.18041754 1.19583976 65 13 30788 5.31600000 1294089419 1294089419 13.00000000
-4.13631058 3.21887064 -0.09148552 10 14 30789 5.24200000 1294089421 1294089421 -1.00000000
-4.08689880 3.18156385 1.38778770 59 15 30790 5.36200000 1294089423 1294089423 15.00000000
-1.63107133 1.27295780 -0.55439037 4 0 30797 2.14200000 1294089444 1294089444 -15.00000000
-4.11391115 3.21182752 0.09110156 11 1 30798 5.22000000 1294089446 1294089446 1.00000000
-1.88600850 1.47298133 -0.55247980 3 2 30799 2.45600000 1294089449 1294089449 -13.00000000
-4.11564827 3.21549678 0.27371705 8 3 30800 5.23000000 1294089451 1294089451 3.00000000
-2.23550963 1.74657166 -0.55143797 2 4 30800 2.89000000 1294089453 1294089453 -11.00000000
-4.12232161 3.22186923 0.45774198 10 5 30801 5.25200000 1294089455 1294089455 5.00000000
-2.72178245 2.12801981 -0.54720777 1 6 30802 3.49800000 1294089458 1294089458 -9.00000000
-4.10766649 3.21272564 0.64030153 9 7 30803 5.25400000 1294089460 1294089460 7.00000000
-3.29569030 2.57858276 -0.51380116 8 8 30804 4.21600000 1294089462 1294089462 -7.00000000
-4.10256195 3.20988750 0.82503539 78 9 30804 5.27400000 1294089465 1294089465 9.00000000
-4.14360571 3.24316669 -0.46035662 13 10 30805 5.28200000 1294089467 1294089467 -5.00000000
-4.09018421 3.20250535 1.00976121 73 11 30806 5.29200000 1294089469 1294089469 11.00000000
-4.13058472 3.23530126 -0.27497312 10 12 30807 5.25400000 1294089472 1294089472 -3.00000000
-4.08644676 3.20188069 1.19853926 67 13 30808 5.32800000 1294089474 1294089474 13.00000000
-4.13764048 3.24315834 -0.09176476 10 14 30809 5.25800000 1294089476 1294089476 -1.00000000
-4.08848953 3.20463300 1.39192879 70 15 30809 5.37800000 1294089479 1294089479 15.00000000
-1.63876820 1.28819454 -0.55853152 4 0 30817 2.15800000 1294089499 1294089499 -15.00000000
-4.12310934 3.24223733 0.09155533 9 1 30818 5.24600000 1294089502 1294089502 1.00000000
-1.89157689 1.48798966 -0.55562907 4 2 30819 2.47000000 1294089504 1294089504 -13.00000000
-4.11695528 3.23972440 0.27455443 8 3 30820 5.24600000 1294089506 1294089506 3.00000000
-2.21705675 1.74465168 -0.54838502 2 4 30820 2.87400000 1294089508 1294089508 -11.00000000
-4.12200832 3.24486589 0.45896214 10 5 30821 5.26600000 1294089511 1294089511 5.00000000
-2.72209716 2.14361835 -0.54877210 1 6 30822 3.50800000 1294089513 1294089513 -9.00000000
-4.11202049 3.23932886 0.64273894 9 7 30823 5.27400000 1294089515 1294089515 7.00000000
-3.28043270 2.58515644 -0.51282620 20 8 30824 4.20800000 1294089518 1294089518 -7.00000000
-4.10162878 3.23346329 0.82722545 83 9 30825 5.28800000 1294089520 1294089520 9.00000000
-4.14790583 3.26994538 -0.46209976 9 10 30825 5.30200000 1294089522 1294089522 -5.00000000
-4.08822966 3.22405744 1.01205087 70 11 30826 5.30400000 1294089525 1294089525 11.00000000
-4.13651514 3.26330733 -0.27612451 11 12 30827 5.27600000 1294089527 1294089527 -3.00000000
-4.07830477 3.21854019 1.19943905 70 13 30828 5.33200000 1294089529 1294089529 13.00000000
-4.13100290 3.26129889 -0.09186947 8 14 30829 5.26400000 1294089532 1294089532 -1.00000000
-4.08884478 3.22917509 1.39606988 70 15 30830 5.39400000 1294089534 1294089534 15.00000000
-1.62063015 1.28311455 -0.55387276 4 0 30837 2.14000000 1294089555 1294089555 -15.00000000
-4.12587500 3.26778388 0.09186947 9 1 30838 5.26400000 1294089557 1294089557 1.00000000
-1.88484383 1.49337327 -0.55517918 4 2 30839 2.46800000 1294089559 1294089559 -13.00000000
-4.11970854 3.26524091 0.27549648 8 3 30840 5.26400000 1294089561 1294089561 3.00000000
-2.21710753 1.75725782 -0.54991150 3 4 30840 2.88200000 1294089564 1294089564 -11.00000000
-4.11846256 3.26542401 0.45983371 10 5 30841 5.27600000 1294089566 1294089566 5.00000000
-2.71614575 2.15433478 -0.54908496 1 6 30842 3.51000000 1294089568 1294089568 -9.00000000
-4.11934853 3.26846886 0.64566380 11 7 30843 5.29800000 1294089571 1294089571 7.00000000
-3.30404067 2.62250805 -0.51794469 18 8 30844 4.25000000 1294089573 1294089573 -7.00000000
-4.09552526 3.25073123 0.82816404 76 9 30844 5.29400000 1294089575 1294089575 9.00000000
-4.14894915 3.29431581 -0.46349424 13 10 30845 5.31800000 1294089578 1294089578 -5.00000000
-4.10001040 3.25662470 1.01777518 76 11 30846 5.33400000 1294089580 1294089580 11.00000000
-4.13917208 3.28890920 -0.27706656 11 12 30847 5.29400000 1294089582 1294089582 -3.00000000
-4.08077478 3.24366975 1.20348811 66 13 30848 5.35000000 1294089585 1294089585 13.00000000
-4.12428904 3.27943277 -0.09197418 8 14 30849 5.27000000 1294089587 1294089587 -1.00000000
-4.08718681 3.24993062 1.39917576 68 15 30849 5.40600000 1294089589 1294089589 15.00000000
-1.61765170 1.28996825 -0.55439037 4 0 30857 2.14200000 1294089610 1294089610 -15.00000000
-4.12069607 3.28715420 0.09200909 16 1 30858 5.27200000 1294089612 1294089612 1.00000000
-1.87961948 1.49994349 -0.55517918 3 2 30859 2.46800000 1294089614 1294089614 -13.00000000
-4.12233400 3.29081583 0.27643853 10 3 30860 5.28200000 1294089617 1294089617 3.00000000
-2.22016597 1.77233529 -0.55220121 3 4 30860 2.89400000 1294089619 1294089619 -11.00000000
-4.11171007 3.28350997 0.46035662 10 5 30861 5.28200000 1294089621 1294089621 5.00000000
-2.71323919 2.16750145 -0.55002356 1 6 30862 3.51600000 1294089624 1294089624 -9.00000000
-4.12497282 3.29646015 0.64834493 19 7 30863 5.32000000 1294089626 1294089626 7.00000000
-3.31812406 2.65261841 -0.52160078 16 8 30864 4.28000000 1294089628 1294089628 -7.00000000
-4.09746790 3.27682400 0.83097988 81 9 30865 5.31200000 1294089631 1294089631 9.00000000
-4.14364862 3.31375575 -0.46419150 13 10 30865 5.32600000 1294089633 1294089633 -5.00000000
-4.09474993 3.27582240 1.01930165 77 11 30866 5.34200000 1294089635 1294089635 11.00000000
-4.14326048 3.31581712 -0.27811328 11 12 30867 5.31400000 1294089637 1294089637 -3.00000000
-4.08768272 3.27250934 1.20888698 69 13 30868 5.37400000 1294089640 1294089640 13.00000000
-4.12686443 3.30505943 -0.09228832 8 14 30869 5.28800000 1294089642 1294089642 -1.00000000
-4.07524776 3.26488900 1.39917576 70 15 30870 5.40600000 1294089644 1294089644 15.00000000
-1.61185873 1.29411602 -0.55387276 4 0 30876 2.14000000 1294089665 1294089665 -15.00000000
-4.11912727 3.30831385 0.09221852 19 1 30877 5.28400000 1294089667 1294089667 1.00000000
-1.88375008 1.51349163 -0.55787861 3 2 30878 2.48000000 1294089670 1294089670 -13.00000000
-4.13007975 3.31948256 0.27769458 12 3 30879 5.30600000 1294089672 1294089672 3.00000000
-2.21121597 1.77722800 -0.55143797 3 4 30879 2.89000000 1294089674 1294089674 -11.00000000
-4.11322069 3.30711436 0.46175113 10 5 30880 5.29800000 1294089677 1294089677 5.00000000
-2.68756533 2.16163039 -0.54626918 1 6 30881 3.49200000 1294089679 1294089679 -9.00000000
-4.12329817 3.31758738 0.64980733 30 7 30882 5.33200000 1294089681 1294089681 7.00000000
-3.35879445 2.70343685 -0.52940041 18 8 30883 4.34400000 1294089684 1294089684 -7.00000000
-4.10254145 3.30206609 0.83410859 85 9 30883 5.33200000 1294089686 1294089686 9.00000000
-4.14194822 3.33497548 -0.46523735 13 10 30884 5.33800000 1294089688 1294089688 -5.00000000
-4.08539343 3.29061460 1.01968324 74 11 30885 5.34400000 1294089690 1294089690 11.00000000
-4.13224173 3.32953835 -0.27811328 11 12 30886 5.31400000 1294089693 1294089693 -3.00000000
-4.09349775 3.29949903 1.21383584 67 13 30887 5.39600000 1294089695 1294089695 13.00000000
-4.12677860 3.32751274 -0.09253266 8 14 30888 5.30200000 1294089697 1294089697 -1.00000000
-4.08301687 3.29222679 1.40538740 65 15 30888 5.43000000 1294089700 1294089700 15.00000000
-1.61334038 1.30459344 -0.55594331 4 0 30896 2.14800000 1294089720 1294089720 -15.00000000
-4.11532784 3.32896042 0.09239304 11 1 30897 5.29400000 1294089723 1294089723 1.00000000
-1.85724723 1.50289595 -0.55158001 3 2 30898 2.45200000 1294089725 1294089725 -13.00000000
-4.12622929 3.34016228 0.27821794 19 3 30899 5.31600000 1294089727 1294089727 3.00000000
-2.20805073 1.78740633 -0.55220121 3 4 30899 2.89400000 1294089730 1294089730 -11.00000000
-4.12023211 3.33649826 0.46384287 7 5 30900 5.32200000 1294089732 1294089732 5.00000000
-2.68614340 2.17597222 -0.54752064 1 6 30901 3.50000000 1294089734 1294089734 -9.00000000
-4.11631966 3.33570957 0.65053856 49 7 30902 5.33800000 1294089737 1294089737 7.00000000
-3.36167359 2.72514534 -0.53135031 16 8 30903 4.36000000 1294089739 1294089739 -7.00000000
-4.10728836 3.33076692 0.83755010 76 9 30904 5.35400000 1294089741 1294089741 9.00000000
-4.14885187 3.36447263 -0.46732908 13 10 30904 5.36200000 1294089743 1294089743 -5.00000000
-4.08760405 3.31598687 1.02311778 79 11 30905 5.36200000 1294089746 1294089746 11.00000000
-4.12214518 3.34520078 -0.27821794 11 12 30906 5.31600000 1294089748 1294089748 -3.00000000
-4.08498144 3.31622434 1.21473575 67 13 30907 5.40000000 1294089750 1294089750 13.00000000
-4.12134743 3.34694004 -0.09267228 8 14 30908 5.31000000 1294089753 1294089753 -1.00000000
-4.09191465 3.32422328 1.41263437 65 15 30909 5.45800000 1294089755 1294089755 15.00000000
-1.61649597 1.31603467 -0.55853152 4 0 30915 2.15800000 1294089776 1294089776 -15.00000000
-4.11977100 3.35521674 0.09274209 16 1 30916 5.31400000 1294089778 1294089778 1.00000000
-1.87340450 1.52627873 -0.55787861 3 2 30917 2.48000000 1294089780 1294089780 -13.00000000
-4.11203384 3.35130334 0.27800861 19 3 30918 5.31200000 1294089783 1294089783 3.00000000
-2.20515513 1.79719925 -0.55296445 3 4 30918 2.89800000 1294089785 1294089785 -11.00000000
-4.11995459 3.35895586 0.46506304 10 5 30919 5.33600000 1294089787 1294089787 5.00000000
-4.13930273 3.37593293 -0.84599757 4 6 30920 5.40800000 1294089790 1294089790 -9.00000000
-4.11292601 3.35561585 0.65175724 59 7 30921 5.34800000 1294089792 1294089792 7.00000000
-3.37107301 2.75134015 -0.53427517 14 8 30922 4.38400000 1294089794 1294089794 -7.00000000
-4.10598660 3.35114813 0.83942735 78 9 30922 5.36600000 1294089796 1294089796 9.00000000
-4.15156221 3.38955259 -0.46889791 13 10 30923 5.38000000 1294089799 1294089799 -5.00000000
-4.08722925 3.33821678 1.02578914 74 11 30924 5.37600000 1294089801 1294089801 11.00000000
-4.11412287 3.36137938 -0.27842727 22 12 30925 5.32000000 1294089803 1294089803 -3.00000000
-4.08301544 3.33715177 1.21743512 67 13 30926 5.41200000 1294089806 1294089806 13.00000000
-4.11177397 3.36185431 -0.09270718 12 14 30927 5.31200000 1294089808 1294089808 -1.00000000
-4.09192038 3.34562182 1.41625786 59 15 30927 5.47200000 1294089810 1294089810 15.00000000
-1.60741067 1.31799459 -0.55697858 4 0 30935 2.15200000 1294089831 1294089831 -15.00000000
-4.11576462 3.37591815 0.09291662 21 1 30936 5.32400000 1294089833 1294089833 1.00000000
-1.86505246 1.53033662 -0.55697882 3 2 30937 2.47600000 1294089836 1294089836 -13.00000000
-4.10494184 3.36943817 0.27832261 8 3 30938 5.31800000 1294089838 1294089838 3.00000000
-2.18369317 1.79242969 -0.54914826 2 4 30938 2.87800000 1294089840 1294089840 -11.00000000
-4.10974455 3.37458110 0.46523735 10 5 30939 5.33800000 1294089843 1294089843 5.00000000
-2.68958712 2.20925164 -0.55127507 1 6 30940 3.52400000 1294089845 1294089845 -9.00000000
-4.11345720 3.38003445 0.65370715 66 7 30941 5.36400000 1294089847 1294089847 7.00000000
-3.38598466 2.78325915 -0.53817505 16 8 30942 4.41600000 1294089849 1294089849 -7.00000000
-4.09672785 3.36868405 0.84005308 78 9 30943 5.37000000 1294089852 1294089852 9.00000000
-4.14739943 3.41035080 -0.46976945 13 10 30943 5.39000000 1294089854 1294089854 -5.00000000
-4.09981060 3.37241864 1.03189504 74 11 30944 5.40800000 1294089856 1294089856 11.00000000
-4.11316013 3.38460326 -0.27915999 22 12 30945 5.33400000 1294089859 1294089859 -3.00000000
-4.08638716 3.36376882 1.22193408 67 13 30946 5.43200000 1294089861 1294089861 13.00000000
-4.10618877 3.38127112 -0.09284680 19 14 30947 5.32000000 1294089863 1294089863 -1.00000000
-4.08112192 3.36182523 1.41677547 63 15 30948 5.47400000 1294089866 1294089866 15.00000000
-1.59810114 1.32018602 -0.55542564 4 0 30956 2.14600000 1294089886 1294089886 -15.00000000
-4.10336399 3.39098048 0.09291662 19 1 30957 5.32400000 1294089889 1294089889 1.00000000
-1.85642695 1.53467882 -0.55607903 3 2 30958 2.47200000 1294089891 1294089891 -13.00000000
-4.10949516 3.39846206 0.27947402 27 3 30959 5.34000000 1294089893 1294089893 3.00000000
-2.19223833 1.81293285 -0.55296445 3 4 30959 2.89800000 1294089896 1294089896 -11.00000000
-4.09581327 3.38835144 0.46506304 34 5 30960 5.33600000 1294089898 1294089898 5.00000000
-2.66929698 2.20901942 -0.54877210 3 6 30961 3.50800000 1294089900 1294089900 -9.00000000
-4.11327410 3.40521526 0.65565705 64 7 30962 5.38000000 1294089902 1294089902 7.00000000
-3.38799191 2.80577993 -0.54012495 18 8 30963 4.43200000 1294089905 1294089905 -7.00000000
-4.10320091 3.39808321 0.84380752 74 9 30963 5.39400000 1294089907 1294089907 9.00000000
-4.63197756 3.83735490 -0.52624637 3 10 30964 6.03800000 1294089909 1294089909 -5.00000000
-4.09649229 3.39493918 1.03418481 68 11 30965 5.42000000 1294089912 1294089912 11.00000000
-4.08603096 3.38867569 1.22553337 65 13 30967 5.44800000 1294089916 1294089916 13.00000000
-4.07382250 3.37975097 1.41832840 61 15 30968 5.48000000 1294089921 1294089921 15.00000000
-1.59793830 1.32946312 -0.55697858 4 0 30976 2.15200000 1294089942 1294089942 -15.00000000
-1.85405385 1.54364336 -0.55697882 3 2 30978 2.47600000 1294089946 1294089946 -13.00000000
-2.18589664 1.82057416 -0.55296445 3 4 30979 2.89800000 1294089951 1294089951 -11.00000000
-2.66763949 2.22338247 -0.55002356 3 6 30981 3.51600000 1294089955 1294089955 -9.00000000
-3.39951944 2.83538961 -0.54353726 24 8 30983 4.46000000 1294089960 1294089960 -7.00000000
-4.65680027 3.88541055 -0.53060418 3 10 30984 6.08800000 1294089965 1294089965 -5.00000000
-7.40191126 6.18018341 -0.50535601 8 12 30986 9.65600000 1294089969 1294089969 -3.00000000
-8.69576645 7.26305628 2.61573076 45 13 30987 11.62800000 1294089972 1294089972 13.00000000
-4.07682467 3.40633726 1.42350471 27 15 30988 5.50000000 1294089976 1294089976 15.00000000
-1.59055889 1.33227384 -0.55594331 4 0 30995 2.14800000 1294089997 1294089997 -15.00000000
-1.84295094 1.54477572 -0.55517918 3 2 30997 2.46800000 1294090002 1294090002 -13.00000000
-2.18887353 1.83538139 -0.55525416 3 4 30998 2.91000000 1294090006 1294090006 -11.00000000
-2.66630483 2.23729539 -0.55127507 5 6 31000 3.52400000 1294090011 1294090011 -9.00000000
-3.37641621 2.83515859 -0.54134363 40 8 31002 4.44200000 1294090015 1294090015 -7.00000000
-4.65304375 3.90852070 -0.53165001 3 10 31003 6.10000000 1294090020 1294090020 -5.00000000
-7.39666462 6.21754646 -0.50640273 12 12 31005 9.67600000 1294090025 1294090025 -3.00000000
-8.65224361 7.27554798 2.60988212 57 13 31006 11.60200000 1294090027 1294090027 13.00000000
-7.44061613 6.25892496 2.60527253 40 15 31007 10.06600000 1294090031 1294090031 15.00000000
-1.59771168 1.34778285 -0.56008440 4 0 31015 2.16400000 1294090052 1294090052 -15.00000000
-1.83754742 1.55119944 -0.55517918 3 2 31017 2.46800000 1294090057 1294090057 -13.00000000
-2.18545365 1.84554422 -0.55601740 2 4 31018 2.91400000 1294090061 1294090061 -11.00000000
-2.65847898 2.24658895 -0.55127507 3 6 31020 3.52400000 1294090066 1294090066 -9.00000000
-3.33921552 2.82385445 -0.53695631 36 8 31022 4.40600000 1294090071 1294090071 -7.00000000
-4.64089298 3.92602587 -0.53182435 3 10 31023 6.10200000 1294090075 1294090075 -5.00000000
-7.39168453 6.25752306 -0.50755411 12 12 31025 9.69800000 1294090080 1294090080 -3.00000000
-8.63125610 7.30948400 2.61123180 66 13 31026 11.60800000 1294090082 1294090082 13.00000000
-7.41615248 6.28490543 2.60475492 42 15 31028 10.06400000 1294090087 1294090087 15.00000000
-1.58981705 1.35112762 -0.55904913 4 0 31036 2.16000000 1294090108 1294090108 -15.00000000
-1.83184958 1.55792391 -0.55517918 3 2 31038 2.46800000 1294090112 1294090112 -13.00000000
-2.16671205 1.84336460 -0.55296445 3 4 31039 2.89800000 1294090117 1294090117 -11.00000000
-2.66526794 2.26912308 -0.55440372 3 6 31041 3.54400000 1294090121 1294090121 -9.00000000
-3.34244251 2.84766054 -0.53915000 38 8 31043 4.42400000 1294090126 1294090126 -7.00000000
-4.60675955 3.92620850 -0.52955830 3 10 31044 6.07600000 1294090131 1294090131 -5.00000000
-7.40061235 6.31178999 -0.50975221 12 12 31046 9.74000000 1294090135 1294090135 -3.00000000
-8.60440731 7.34106970 2.61123180 62 13 31047 11.60800000 1294090137 1294090137 13.00000000
-7.38976049 6.30699158 2.60320187 45 15 31048 10.05800000 1294090142 1294090142 15.00000000
-1.57628500 1.34913182 -0.55594331 4 0 31056 2.14800000 1294090163 1294090163 -15.00000000
-1.84416103 1.57952094 -0.56057805 4 2 31058 2.49200000 1294090167 1294090167 -13.00000000
-2.15430093 1.84580708 -0.55143797 3 4 31059 2.89000000 1294090172 1294090172 -11.00000000
-2.62733841 2.25269699 -0.54814637 3 6 31061 3.50400000 1294090177 1294090177 -9.00000000
-3.33700156 2.86318851 -0.53988117 32 8 31063 4.43000000 1294090181 1294090181 -7.00000000
-4.61570406 3.96172976 -0.53217298 3 10 31064 6.10600000 1294090186 1294090186 -5.00000000
-7.40580654 6.36100864 -0.51163632 12 12 31066 9.77600000 1294090190 1294090190 -3.00000000
-8.57577324 7.36852026 2.61033201 64 13 31067 11.60400000 1294090193 1294090193 13.00000000
-7.36183977 6.32771158 2.60113144 45 15 31068 10.05000000 1294090197 1294090197 15.00000000
-1.58058345 1.36191785 -0.55904913 4 0 31075 2.16000000 1294090218 1294090218 -15.00000000
-1.82710624 1.57544708 -0.55697882 3 2 31077 2.47600000 1294090223 1294090223 -13.00000000
-2.15114141 1.85550547 -0.55220121 3 4 31078 2.89400000 1294090227 1294090227 -11.00000000
-2.62284446 2.26397872 -0.54877210 3 6 31080 3.50800000 1294090232 1294090232 -9.00000000
-3.34551573 2.88981009 -0.54280603 16 8 31082 4.45400000 1294090236 1294090236 -7.00000000
-4.62213945 3.99394894 -0.53443903 3 10 31083 6.13200000 1294090241 1294090241 -5.00000000
-7.42093086 6.41688538 -0.51414841 12 12 31085 9.82400000 1294090246 1294090246 -3.00000000
-8.55718708 7.40201759 2.61213160 59 13 31086 11.61200000 1294090248 1294090248 13.00000000
-7.33789396 6.34956121 2.60009623 47 15 31087 10.04600000 1294090253 1294090253 15.00000000
-1.57290161 1.36489451 -0.55801386 4 0 31095 2.15600000 1294090273 1294090273 -15.00000000
-1.81865299 1.57925987 -0.55607903 3 2 31097 2.47200000 1294090278 1294090278 -13.00000000
-2.15650845 1.87330306 -0.55525416 3 4 31098 2.91000000 1294090283 1294090283 -11.00000000
-2.62685251 2.28348804 -0.55127507 3 6 31100 3.52400000 1294090287 1294090287 -9.00000000
-3.31893301 2.88713908 -0.54012495 16 8 31102 4.43200000 1294090292 1294090292 -7.00000000
-4.61267853 4.01398230 -0.53496194 3 10 31103 6.13800000 1294090296 1294090296 -5.00000000
-7.41806698 6.45980120 -0.51550919 17 12 31105 9.85000000 1294090301 1294090301 -3.00000000
-8.51954174 7.42160225 2.60853243 60 13 31106 11.59600000 1294090303 1294090303 13.00000000
-7.31457233 6.37641335 2.60009623 45 15 31108 10.04600000 1294090308 1294090308 15.00000000
-1.57249165 1.37419033 -0.55956680 4 0 31115 2.16200000 1294090329 1294090329 -15.00000000
-1.82193077 1.59329557 -0.55877841 3 2 31117 2.48400000 1294090333 1294090333 -13.00000000
-2.14109039 1.87306321 -0.55296445 3 4 31118 2.89800000 1294090338 1294090338 -11.00000000
-2.61589313 2.29004121 -0.55064934 3 6 31120 3.52000000 1294090342 1294090342 -9.00000000
-3.31779385 2.90655518 -0.54158735 6 8 31122 4.44400000 1294090347 1294090347 -7.00000000
-4.60163593 4.03268576 -0.53531057 3 10 31123 6.14200000 1294090352 1294090352 -5.00000000
-7.39547300 6.48565578 -0.51550919 12 12 31125 9.85000000 1294090356 1294090356 -3.00000000
-8.47893429 7.43844461 2.60403347 59 13 31126 11.57600000 1294090359 1294090359 13.00000000
-7.28757906 6.39553738 2.59802556 47 15 31127 10.03800000 1294090363 1294090363 15.00000000
-1.56623507 1.37839460 -0.55904913 4 0 31135 2.16000000 1294090384 1294090384 -15.00000000
-1.81343317 1.59706962 -0.55787861 3 2 31137 2.48000000 1294090388 1294090388 -13.00000000
-2.13159299 1.87793005 -0.55220121 3 4 31138 2.89400000 1294090393 1294090393 -11.00000000
-2.63455486 2.32267261 -0.55628097 3 6 31140 3.55600000 1294090398 1294090398 -9.00000000
-3.31358218 2.92337203 -0.54256231 4 8 31142 4.45200000 1294090402 1294090402 -7.00000000
-4.59350634 4.05399704 -0.53600782 3 10 31143 6.15000000 1294090407 1294090407 -5.00000000
-7.37129164 6.51010895 -0.51540452 12 12 31145 9.84800000 1294090412 1294090412 -3.00000000
-8.45583916 7.47057676 2.60493326 55 13 31146 11.58000000 1294090414 1294090414 13.00000000
-7.25363016 6.41070175 2.59388447 45 15 31147 10.02200000 1294090418 1294090418 15.00000000
-1.55587161 1.37845647 -0.55697858 4 0 31154 2.15200000 1294090439 1294090439 -15.00000000
-1.81104350 1.60566008 -0.55877841 3 2 31156 2.48400000 1294090444 1294090444 -13.00000000
-2.12829137 1.88759363 -0.55296445 3 4 31157 2.89800000 1294090448 1294090448 -11.00000000
-2.61206412 2.31828380 -0.55315226 3 6 31159 3.53600000 1294090453 1294090453 -9.00000000
-3.30683804 2.93698049 -0.54304981 6 8 31161 4.45600000 1294090458 1294090458 -7.00000000
-4.58450603 4.07317734 -0.53653073 3 10 31162 6.15600000 1294090462 1294090462 -5.00000000
-7.34966278 6.53451729 -0.51540452 8 12 31164 9.84800000 1294090467 1294090467 -3.00000000
-8.42228222 7.49080563 2.60223389 49 13 31165 11.56800000 1294090469 1294090469 13.00000000
-7.22254992 6.42827654 2.59077859 45 15 31167 10.01000000 1294090474 1294090474 15.00000000
-1.54816747 1.38130689 -0.55594331 4 0 31174 2.14800000 1294090494 1294090494 -15.00000000
-1.80542767 1.61197197 -0.55877841 3 2 31176 2.48400000 1294090499 1294090499 -13.00000000
-2.12754655 1.90024257 -0.55449092 3 4 31177 2.90600000 1294090504 1294090504 -11.00000000
-2.60101008 2.32475471 -0.55252653 3 6 31179 3.53200000 1294090508 1294090508 -9.00000000
-3.30544353 2.95644593 -0.54451221 8 8 31181 4.46800000 1294090513 1294090513 -7.00000000
-4.55689669 4.07719898 -0.53496194 3 10 31182 6.13800000 1294090518 1294090518 -5.00000000
-7.32978439 6.56279707 -0.51561385 8 12 31184 9.85200000 1294090522 1294090522 -3.00000000
-8.38882542 7.51365852 2.59998417 46 13 31185 11.55800000 1294090524 1294090524 13.00000000
-7.19718981 6.45087004 2.58974338 45 15 31187 10.00600000 1294090529 1294090529 15.00000000
-1.54788995 1.39030588 -0.55749625 4 0 31193 2.15400000 1294090550 1294090550 -15.00000000
-1.78847754 1.60752857 -0.55517918 3 2 31195 2.46800000 1294090554 1294090554 -13.00000000
-2.13291264 1.91778851 -0.55754387 2 4 31196 2.92200000 1294090559 1294090559 -11.00000000
-2.59916043 2.33865237 -0.55377799 3 6 31198 3.54000000 1294090564 1294090564 -9.00000000
-3.29414630 2.96606278 -0.54426849 8 8 31200 4.46600000 1294090568 1294090568 -7.00000000
-4.58332205 4.12829018 -0.53966838 3 10 31201 6.19200000 1294090573 1294090573 -5.00000000
-7.31094837 6.58974218 -0.51582319 8 12 31203 9.85600000 1294090577 1294090577 -3.00000000
-8.35228443 7.53099537 2.59638500 43 13 31204 11.54200000 1294090580 1294090580 13.00000000
-7.17575836 6.47470140 2.58974338 42 15 31206 10.00600000 1294090584 1294090584 15.00000000
-1.55305648 1.40477192 -0.56111968 4 0 31213 2.16800000 1294090605 1294090605 -15.00000000
-1.79441357 1.62422371 -0.55877841 3 2 31215 2.48400000 1294090610 1294090610 -13.00000000
-2.11456275 1.91468012 -0.55449092 2 4 31216 2.90600000 1294090614 1294090614 -11.00000000
-2.60269189 2.35832191 -0.55628097 3 6 31218 3.55600000 1294090619 1294090619 -9.00000000
-3.27789044 2.97220969 -0.54329354 8 8 31220 4.45800000 1294090624 1294090624 -7.00000000
-4.56888390 4.14426422 -0.53966838 3 10 31221 6.19200000 1294090628 1294090628 -5.00000000
-7.28198576 6.60985231 -0.51540452 12 12 31223 9.84800000 1294090633 1294090633 -3.00000000
-8.31728935 7.55224466 2.59368563 39 13 31224 11.53000000 1294090635 1294090635 13.00000000
-7.15597343 6.50230837 2.59077859 47 15 31226 10.01000000 1294090640 1294090640 15.00000000
-1.53932953 1.40264785 -0.55801386 4 0 31234 2.15600000 1294090660 1294090660 -15.00000000
-1.78844845 1.63078964 -0.55877841 3 2 31236 2.48400000 1294090665 1294090665 -13.00000000
-2.11333275 1.92770982 -0.55601740 3 4 31237 2.91400000 1294090670 1294090670 -11.00000000
-2.59986663 2.37317252 -0.55753243 3 6 31239 3.56400000 1294090674 1294090674 -9.00000000
-3.27576876 2.99223661 -0.54475594 8 8 31241 4.47000000 1294090679 1294090679 -7.00000000
-4.56543016 4.17173386 -0.54106283 3 10 31242 6.20800000 1294090683 1294090683 -5.00000000
-7.28718948 6.66345358 -0.51749796 8 12 31244 9.88800000 1294090688 1294090688 -3.00000000
-8.28667736 7.58004761 2.59278584 40 13 31245 11.52600000 1294090690 1294090690 13.00000000
-7.12468100 6.51942301 2.58767271 47 15 31246 9.99800000 1294090695 1294090695 15.00000000
-1.52730703 1.40148187 -0.55542564 4 0 31254 2.14600000 1294090716 1294090716 -15.00000000
-1.79135728 1.64493084 -0.56147784 3 2 31256 2.49600000 1294090720 1294090720 -13.00000000
-2.09502411 1.92445004 -0.55296445 3 4 31257 2.89800000 1294090725 1294090725 -11.00000000
-2.58865809 2.37955952 -0.55690670 3 6 31259 3.56000000 1294090729 1294090729 -9.00000000
-3.27114797 3.00902867 -0.54573095 8 8 31261 4.47800000 1294090734 1294090734 -7.00000000
-4.53764486 4.17550278 -0.53949404 3 10 31262 6.19000000 1294090739 1294090739 -5.00000000
-7.28298521 6.70643806 -0.51885867 8 12 31264 9.91400000 1294090743 1294090743 -3.00000000
-8.26016712 7.60892725 2.59278584 40 13 31265 11.52600000 1294090746 1294090746 13.00000000
-7.08795452 6.53370810 2.58301401 45 15 31267 9.98000000 1294090750 1294090750 15.00000000
-1.52832747 1.41178226 -0.55749625 4 0 31273 2.15400000 1294090771 1294090771 -15.00000000
-1.77730668 1.64292538 -0.55877841 3 2 31275 2.48400000 1294090776 1294090776 -13.00000000
-2.09439683 1.93671846 -0.55449092 3 4 31276 2.90600000 1294090780 1294090780 -11.00000000
-2.57785344 2.38544750 -0.55628097 3 6 31278 3.55600000 1294090785 1294090785 -9.00000000
-3.25823855 3.01716208 -0.54524344 8 8 31280 4.47400000 1294090789 1294090789 -7.00000000
-4.52231216 4.18917322 -0.53931975 3 10 31281 6.18800000 1294090794 1294090794 -5.00000000
-7.26510000 6.73462582 -0.51917267 8 12 31283 9.92000000 1294090799 1294090799 -3.00000000
-8.23774719 7.63892746 2.59368563 42 13 31284 11.53000000 1294090801 1294090801 13.00000000
-7.06314421 6.55200195 2.58146119 42 15 31285 9.97400000 1294090806 1294090806 15.00000000
-1.52904797 1.42237175 -0.55956680 4 0 31293 2.16200000 1294090826 1294090826 -15.00000000
-1.77156091 1.64911926 -0.55877841 4 2 31295 2.48400000 1294090831 1294090831 -13.00000000
-2.09624410 1.95204496 -0.55678064 3 4 31296 2.91800000 1294090835 1294090835 -11.00000000
-2.56517529 2.39039111 -0.55534238 3 6 31298 3.55000000 1294090840 1294090840 -9.00000000
-3.24042797 3.02174783 -0.54402477 8 8 31300 4.46400000 1294090845 1294090845 -7.00000000
-4.52660131 4.22260141 -0.54158580 7 10 31301 6.21400000 1294090849 1294090849 -5.00000000
-7.23862743 6.75721884 -0.51896334 4 12 31303 9.91600000 1294090854 1294090854 -3.00000000
-8.19963837 7.65699577 2.59008646 39 13 31304 11.51400000 1294090856 1294090856 13.00000000
-7.04190540 6.58048344 2.58249640 42 15 31306 9.97800000 1294090861 1294090861 15.00000000
-1.52664375 1.43060839 -0.56060207 4 0 31314 2.16600000 1294090882 1294090882 -15.00000000
-1.76692617 1.65693438 -0.55922830 4 2 31316 2.48600000 1294090886 1294090886 -13.00000000
-2.08334804 1.95434225 -0.55525416 3 4 31317 2.91000000 1294090891 1294090891 -11.00000000
-2.56215787 2.40518498 -0.55659384 1 6 31319 3.55800000 1294090895 1294090895 -9.00000000
-3.21920300 3.02409029 -0.54231858 8 8 31321 4.45000000 1294090900 1294090900 -7.00000000
-4.51545000 4.24325705 -0.54210871 3 10 31322 6.22000000 1294090905 1294090905 -5.00000000
-7.25018692 6.81791019 -0.52158016 4 12 31324 9.96600000 1294090909 1294090909 -3.00000000
-8.16584110 7.68165636 2.58828688 41 13 31325 11.50600000 1294090912 1294090912 13.00000000
-7.02451992 6.61032009 2.58456707 47 15 31326 9.98600000 1294090916 1294090916 15.00000000
-1.51883066 1.43327689 -0.55956680 4 0 31334 2.16200000 1294090937 1294090937 -15.00000000
-1.76254857 1.66442990 -0.55967820 3 2 31336 2.48800000 1294090941 1294090941 -13.00000000
-2.08222198 1.96699536 -0.55678064 3 4 31337 2.91800000 1294090946 1294090946 -11.00000000
