# .PCD v0.7 - Point Cloud Data file format
VERSION 0.7
FIELDS x y z intensity laser_id azimuth distance_m adjustedtime timestamp vertical_angle
SIZE 4 4 4 1 1 2 8 8 4 8
TYPE F F F U U U F U U F
COUNT 1 1 1 1 1 1 1 1 1 1
WIDTH 534
HEIGHT 1
VIEWPOINT 0 0 0 1 0 0 0
POINTS 534
DATA ascii
8.12247372 0.72491145 0.14234182 21 1 8490 8.15600000 1293027540 1293027540 1.00000000
2.61460161 0.23288701 -0.60601813 6 2 8491 2.69400000 1293027542 1293027542 -13.00000000
8.13458729 0.72456151 0.42800346 15 3 8491 8.17800000 1293027545 1293027545 3.00000000
3.16406822 0.28127232 -0.61745793 4 4 8492 3.23600000 1293027547 1293027547 -11.00000000
8.13882065 0.72207516 0.71485138 94 5 8493 8.20200000 1293027549 1293027549 5.00000000
3.97274280 0.35176241 -0.63168240 9 6 8494 4.03800000 1293027552 1293027552 -9.00000000
8.13496876 0.71887153 1.00274098 97 7 8495 8.22800000 1293027554 1293027554 7.00000000
5.26388454 0.46423346 -0.64883238 6 8 8496 5.32400000 1293027556 1293027556 -7.00000000
6.62299919 0.58293182 -0.58167744 12 10 8497 6.67400000 1293027561 1293027561 -5.00000000
8.12166309 0.71198183 -0.42727074 17 12 8499 8.16400000 1293027565 1293027565 -3.00000000
8.12385082 0.70931607 -0.14234182 16 14 8501 8.15600000 1293027570 1293027570 -1.00000000
8.19092369 0.71373194 2.20306778 49 15 8502 8.51200000 1293027572 1293027572 15.00000000
2.23849869 0.19230060 -0.60201311 4 0 8509 2.32600000 1293027593 1293027593 -15.00000000
8.12495422 0.69655430 0.14234182 25 1 8510 8.15600000 1293027595 1293027595 1.00000000
2.61345696 0.22359282 -0.60556823 7 2 8511 2.69200000 1293027598 1293027598 -13.00000000
8.13706684 0.69616210 0.42800346 15 3 8511 8.17800000 1293027600 1293027600 3.00000000
3.15133786 0.26905689 -0.61478657 5 4 8512 3.22200000 1293027602 1293027602 -11.00000000
8.13533592 0.69315356 0.71432847 100 5 8513 8.19600000 1293027605 1293027605 5.00000000
3.98575592 0.33889696 -0.63355958 9 6 8514 4.05000000 1293027607 1293027607 -9.00000000
8.14138412 0.69080651 1.00322843 95 7 8515 8.23200000 1293027609 1293027609 7.00000000
5.26942873 0.44619122 -0.64931989 8 8 8516 5.32800000 1293027612 1293027612 -7.00000000
6.61506701 0.55897093 -0.58080590 16 10 8517 6.66400000 1293027616 1293027616 -5.00000000
8.13006973 0.68413001 -0.42758477 17 12 8519 8.17000000 1293027621 1293027621 -3.00000000
8.11232758 0.67978537 -0.14209749 14 14 8521 8.14200000 1293027625 1293027625 -1.00000000
8.18566418 0.68449205 2.20099711 56 15 8522 8.50400000 1293027628 1293027628 15.00000000
2.23338032 0.18400973 -0.60046017 4 0 8529 2.32000000 1293027648 1293027648 -15.00000000
8.12135792 0.66769713 0.14223711 21 1 8530 8.15000000 1293027651 1293027651 1.00000000
2.62199044 0.21510614 -0.60736787 7 2 8531 2.70000000 1293027653 1293027653 -13.00000000
8.14143753 0.66791749 0.42810813 23 3 8531 8.18000000 1293027655 1293027655 3.00000000
3.15030098 0.25789484 -0.61440498 4 4 8532 3.22000000 1293027658 1293027658 -11.00000000
8.12181950 0.66345400 0.71293396 83 5 8533 8.18000000 1293027660 1293027660 5.00000000
3.97903943 0.32434008 -0.63230813 9 6 8534 4.04200000 1293027662 1293027662 -9.00000000
8.14374638 0.66238356 1.00322843 95 7 8535 8.23200000 1293027664 1293027664 7.00000000
5.26897573 0.42763418 -0.64907610 8 8 8536 5.32600000 1293027667 1293027667 -7.00000000
6.61896372 0.53603745 -0.58098018 40 10 8537 6.66600000 1293027671 1293027671 -5.00000000
8.13041782 0.65558612 -0.42748010 17 12 8539 8.16800000 1293027676 1293027676 -3.00000000
8.11066437 0.65114385 -0.14202769 14 14 8541 8.13800000 1293027681 1293027681 -1.00000000
8.18403816 0.65703446 2.19996190 51 15 8541 8.50000000 1293027683 1293027683 15.00000000
2.23786092 0.17651647 -0.60149544 4 0 8549 2.32400000 1293027704 1293027704 -15.00000000
8.11965179 0.63903046 0.14216730 18 1 8550 8.14600000 1293027706 1293027706 1.00000000
2.61883974 0.20564726 -0.60646802 7 2 8551 2.69600000 1293027708 1293027708 -13.00000000
8.14770222 0.63980722 0.42831746 21 3 8551 8.18400000 1293027711 1293027711 3.00000000
3.15509653 0.24720336 -0.61516821 4 4 8552 3.22400000 1293027713 1293027713 -11.00000000
8.12607193 0.63525480 0.71310830 90 5 8553 8.18200000 1293027715 1293027715 5.00000000
3.97030020 0.30968061 -0.63074374 6 6 8554 4.03200000 1293027717 1293027717 -9.00000000
8.13809204 0.63333642 1.00225353 95 7 8555 8.22400000 1293027720 1293027720 7.00000000
5.28626919 0.41046882 -0.65102601 9 8 8556 5.34200000 1293027722 1293027722 -7.00000000
6.62675381 0.51339138 -0.58150309 68 10 8557 6.67200000 1293027727 1293027727 -5.00000000
8.12070847 0.62628019 -0.42685205 17 12 8559 8.15600000 1293027731 1293027731 -3.00000000
8.12086391 0.62344068 -0.14216730 14 14 8561 8.14600000 1293027736 1293027736 -1.00000000
8.18446445 0.62688649 2.19944429 47 15 8562 8.49800000 1293027738 1293027738 15.00000000
2.24036026 0.16924001 -0.60201311 4 0 8568 2.32600000 1293027759 1293027759 -15.00000000
8.11375046 0.61150008 0.14202769 15 1 8569 8.13800000 1293027761 1293027761 1.00000000
2.61367750 0.19652340 -0.60511833 6 2 8570 2.69000000 1293027764 1293027764 -13.00000000
8.13793564 0.61046612 0.42768943 21 3 8571 8.17200000 1293027766 1293027766 3.00000000
3.16373014 0.23732677 -0.61669469 4 4 8571 3.23200000 1293027768 1293027768 -11.00000000
8.13210773 0.60860163 0.71345693 76 5 8572 8.18600000 1293027770 1293027770 5.00000000
3.97524524 0.29680708 -0.63136947 6 6 8573 4.03600000 1293027773 1293027773 -9.00000000
8.13420868 0.60590369 1.00152230 99 7 8574 8.21800000 1293027775 1293027775 7.00000000
5.26780510 0.39146554 -0.64858866 8 8 8575 5.32200000 1293027777 1293027777 -7.00000000
6.62444592 0.49111882 -0.58115447 76 10 8576 6.66800000 1293027782 1293027782 -5.00000000
8.10282230 0.59787780 -0.42580533 17 12 8578 8.13600000 1293027787 1293027787 -3.00000000
8.13285828 0.59723973 -0.14234182 16 14 8580 8.15600000 1293027791 1293027791 -1.00000000
8.18253994 0.60088819 2.19840908 49 15 8580 8.49400000 1293027794 1293027794 15.00000000
2.25249863 0.16225143 -0.60511893 4 0 8588 2.33800000 1293027814 1293027814 -15.00000000
8.12181854 0.58360404 0.14213240 18 1 8589 8.14400000 1293027817 1293027817 1.00000000
2.61629128 0.18753810 -0.60556823 5 2 8590 2.69200000 1293027819 1293027819 -13.00000000
8.12208748 0.58077365 0.42674738 21 3 8591 8.15400000 1293027821 1293027821 3.00000000
3.14887309 0.22516164 -0.61364174 4 4 8591 3.21600000 1293027823 1293027823 -11.00000000
8.13418293 0.58021158 0.71345693 76 5 8592 8.18600000 1293027826 1293027826 5.00000000
3.98019767 0.28320947 -0.63199526 9 6 8593 4.04000000 1293027828 1293027828 -9.00000000
8.13429451 0.57736576 1.00127852 92 7 8594 8.21600000 1293027830 1293027830 7.00000000
5.26121902 0.37251428 -0.64761370 8 8 8595 5.31400000 1293027833 1293027833 -7.00000000
6.61618280 0.46729034 -0.58028293 40 10 8596 6.65800000 1293027837 1293027837 -5.00000000
8.11482143 0.57029015 -0.42632869 17 12 8598 8.14600000 1293027842 1293027842 -3.00000000
8.11893463 0.56773120 -0.14206259 16 14 8600 8.14000000 1293027847 1293027847 -1.00000000
8.19046974 0.57129693 2.19996190 51 15 8601 8.50000000 1293027849 1293027849 15.00000000
2.24148726 0.15359534 -0.60201311 4 0 8608 2.32600000 1293027870 1293027870 -15.00000000
8.12979126 0.55565912 0.14223711 21 1 8609 8.15000000 1293027872 1293027872 1.00000000
2.62081861 0.17866948 -0.60646802 5 2 8610 2.69600000 1293027874 1293027874 -13.00000000
8.14199924 0.55363816 0.42768943 21 3 8611 8.17200000 1293027876 1293027876 3.00000000
3.14180493 0.21363589 -0.61211526 4 4 8611 3.20800000 1293027879 1293027879 -11.00000000
8.13218307 0.55154485 0.71310830 76 5 8612 8.18200000 1293027881 1293027881 5.00000000
3.98510385 0.26958090 -0.63262099 6 6 8613 4.04400000 1293027883 1293027883 -9.00000000
8.14022160 0.54923552 1.00176597 95 7 8614 8.22000000 1293027886 1293027886 7.00000000
5.27239037 0.35481337 -0.64883238 8 8 8615 5.32400000 1293027888 1293027888 -7.00000000
8.20690536 0.55229598 1.30278623 10 9 8615 8.32800000 1293027890 1293027890 9.00000000
6.60783434 0.44352555 -0.57941139 16 10 8616 6.64800000 1293027893 1293027893 -5.00000000
8.23900604 0.55156732 1.60508525 6 11 8617 8.41200000 1293027895 1293027895 11.00000000
8.11875534 0.54209369 -0.42643338 17 12 8618 8.14800000 1293027897 1293027897 -3.00000000
8.10889530 0.53859222 -0.14185315 16 14 8620 8.12800000 1293027902 1293027902 -1.00000000
8.17882538 0.54323697 2.19633842 49 15 8620 8.48600000 1293027904 1293027904 15.00000000
2.23429847 0.14526880 -0.59994256 4 0 8628 2.31800000 1293027925 1293027925 -15.00000000
8.11970901 0.52650112 0.14202769 21 1 8629 8.13800000 1293027927 1293027927 1.00000000
2.63503909 0.17040032 -0.60961735 6 2 8630 2.71000000 1293027929 1293027929 -13.00000000
8.14188862 0.52508539 0.42758477 23 3 8631 8.17000000 1293027932 1293027932 3.00000000
3.14840913 0.20304669 -0.61326009 5 4 8631 3.21400000 1293027934 1293027934 -11.00000000
8.12212849 0.52238756 0.71206242 90 5 8632 8.17000000 1293027936 1293027936 5.00000000
3.97024989 0.25465712 -0.63011801 6 6 8633 4.02800000 1293027939 1293027939 -9.00000000
8.14605141 0.52107096 1.00225353 92 7 8634 8.22400000 1293027941 1293027941 7.00000000
5.27359676 0.33640712 -0.64883238 8 8 8635 5.32400000 1293027943 1293027943 -7.00000000
6.59940004 0.41982475 -0.57853985 16 10 8636 6.63800000 1293027948 1293027948 -5.00000000
8.11860561 0.51362455 -0.42632869 17 12 8638 8.14600000 1293027952 1293027952 -3.00000000
8.11471748 0.51053476 -0.14192297 16 14 8640 8.13200000 1293027957 1293027957 -1.00000000
8.17112160 0.51265162 2.19375014 47 15 8641 8.47600000 1293027959 1293027959 15.00000000
2.23481607 0.13707872 -0.59994256 4 0 8649 2.31800000 1293027980 1293027980 -15.00000000
8.11958790 0.49661526 0.14199278 25 1 8650 8.13600000 1293027982 1293027982 1.00000000
2.62592030 0.16014814 -0.60736787 6 2 8651 2.70000000 1293027985 1293027985 -13.00000000
8.15173340 0.49572527 0.42800346 21 3 8652 8.17800000 1293027987 1293027987 3.00000000
3.14913225 0.19150583 -0.61326009 5 4 8652 3.21400000 1293027989 1293027989 -11.00000000
8.12001133 0.49237379 0.71171379 79 5 8653 8.16600000 1293027992 1293027992 5.00000000
3.96721315 0.23986527 -0.62949228 9 6 8654 4.02400000 1293027994 1293027994 -9.00000000
8.13998032 0.49073285 1.00127852 90 7 8655 8.21600000 1293027996 1293027996 7.00000000
5.29857254 0.31850553 -0.65175724 9 8 8656 5.34800000 1293027999 1293027999 -7.00000000
6.61282730 0.39634913 -0.57958567 32 10 8657 6.65000000 1293028003 1293028003 -5.00000000
8.11644554 0.48362732 -0.42611936 17 12 8659 8.14200000 1293028008 1293028008 -3.00000000
8.11653423 0.48078939 -0.14192297 16 14 8661 8.13200000 1293028012 1293028012 -1.00000000
8.17478943 0.48424020 2.19426775 49 15 8661 8.47800000 1293028015 1293028015 15.00000000
2.24106669 0.12961154 -0.60149544 4 0 8669 2.32400000 1293028035 1293028035 -15.00000000
8.11927509 0.46815449 0.14195788 21 1 8670 8.13400000 1293028038 1293028038 1.00000000
2.61478996 0.15030997 -0.60466844 5 2 8671 2.68800000 1293028040 1293028040 -13.00000000
8.12948608 0.46589610 0.42674738 21 3 8672 8.15400000 1293028042 1293028042 3.00000000
3.15566158 0.18084913 -0.61440498 4 4 8672 3.22000000 1293028045 1293028045 -11.00000000
8.12764835 0.46436760 0.71223670 83 5 8673 8.17200000 1293028047 1293028047 5.00000000
3.97985935 0.22668965 -0.63136947 9 6 8674 4.03600000 1293028049 1293028049 -9.00000000
8.12975216 0.46164078 0.99981612 92 7 8675 8.20400000 1293028052 1293028052 7.00000000
5.26992321 0.29832521 -0.64810115 8 8 8676 5.31800000 1293028054 1293028054 -7.00000000
8.21437359 0.46356940 1.30309904 5 9 8677 8.33000000 1293028056 1293028056 9.00000000
6.63207388 0.37427399 -0.58115447 56 10 8677 6.66800000 1293028058 1293028058 -5.00000000
8.10811424 0.45473352 -0.42559600 17 12 8679 8.13200000 1293028063 1293028063 -3.00000000
8.22837162 0.46003741 1.90263605 5 13 8680 8.45800000 1293028065 1293028065 13.00000000
8.11416912 0.45223191 -0.14185315 16 14 8681 8.12800000 1293028068 1293028068 -1.00000000
8.18036747 0.45448917 2.19530320 47 15 8682 8.48200000 1293028070 1293028070 15.00000000
2.24727106 0.12249462 -0.60304838 4 0 8688 2.33000000 1293028091 1293028091 -15.00000000
8.12277985 0.44133592 0.14199278 18 1 8689 8.13600000 1293028093 1293028093 1.00000000
2.62111187 0.14195433 -0.60601813 6 2 8690 2.69400000 1293028095 1293028095 -13.00000000
8.12699795 0.43871987 0.42653805 15 3 8691 8.15000000 1293028098 1293028098 3.00000000
3.14448166 0.16974862 -0.61211526 4 4 8691 3.20800000 1293028100 1293028100 -11.00000000
8.13113308 0.43751985 0.71241105 79 5 8692 8.17400000 1293028102 1293028102 5.00000000
3.97861671 0.21338493 -0.63105661 9 6 8693 4.03400000 1293028105 1293028105 -9.00000000
8.13520336 0.43489096 1.00030363 95 7 8694 8.20800000 1293028107 1293028107 7.00000000
5.26890135 0.28074223 -0.64785743 6 8 8695 5.31600000 1293028109 1293028109 -7.00000000
8.20987225 0.43744561 1.30216050 10 9 8695 8.32400000 1293028111 1293028111 9.00000000
6.62929916 0.35206786 -0.58080590 64 10 8696 6.66400000 1293028114 1293028114 -5.00000000
8.11755466 0.42826444 -0.42601469 17 12 8698 8.14000000 1293028118 1293028118 -3.00000000
8.11163044 0.42511255 -0.14178336 16 14 8700 8.12400000 1293028123 1293028123 -1.00000000
8.19525909 0.42949533 2.19892669 51 15 8700 8.49600000 1293028125 1293028125 15.00000000
2.24961448 0.11474784 -0.60356599 4 0 8708 2.33200000 1293028146 1293028146 -15.00000000
8.12626839 0.41308096 0.14202769 21 1 8709 8.13800000 1293028148 1293028148 1.00000000
2.61964512 0.13270549 -0.60556823 6 2 8710 2.69200000 1293028151 1293028151 -13.00000000
8.13246918 0.41055009 0.42674738 18 3 8711 8.15400000 1293028153 1293028153 3.00000000
3.14701581 0.15887028 -0.61249685 5 4 8711 3.21000000 1293028155 1293028155 -11.00000000
8.12266159 0.40863371 0.71153951 76 5 8712 8.16400000 1293028158 1293028158 5.00000000
3.98328304 0.19969347 -0.63168240 9 6 8713 4.03800000 1293028160 1293028160 -9.00000000
8.14063644 0.40668926 1.00079107 95 7 8714 8.21200000 1293028162 1293028162 7.00000000
5.27183199 0.26244733 -0.64810115 4 8 8715 5.31800000 1293028164 1293028164 -7.00000000
8.21339321 0.40744987 1.30247331 10 9 8716 8.32600000 1293028167 1293028167 9.00000000
6.61456823 0.32813540 -0.57941139 68 10 8716 6.64800000 1293028169 1293028169 -5.00000000
8.11900043 0.39992628 -0.42601469 25 12 8718 8.14000000 1293028174 1293028174 -3.00000000
8.10707283 0.39650202 -0.14167863 18 14 8720 8.11800000 1293028178 1293028178 -1.00000000
8.17941189 0.39860901 2.19426775 49 15 8721 8.47800000 1293028181 1293028181 15.00000000
2.23649359 0.10625279 -0.59994256 4 0 8728 2.31800000 1293028201 1293028201 -15.00000000
8.11967087 0.38433427 0.14188807 15 1 8729 8.13000000 1293028204 1293028204 1.00000000
2.62398553 0.12374402 -0.60646802 6 2 8730 2.69600000 1293028206 1293028206 -13.00000000
8.13584709 0.38225371 0.42685205 15 3 8731 8.15600000 1293028208 1293028208 3.00000000
3.14951229 0.14797631 -0.61287850 5 4 8731 3.21200000 1293028211 1293028211 -11.00000000
8.12204838 0.38018468 0.71136516 76 5 8732 8.16200000 1293028213 1293028213 5.00000000
3.97211647 0.18523589 -0.62980515 9 6 8733 4.02600000 1293028215 1293028215 -9.00000000
8.14597225 0.37845489 1.00127852 95 7 8734 8.21600000 1293028217 1293028217 7.00000000
5.27866459 0.24431895 -0.64883238 6 8 8735 5.32400000 1293028220 1293028220 -7.00000000
8.20680618 0.37984571 1.30122185 10 9 8735 8.31800000 1293028222 1293028222 9.00000000
6.61766386 0.30513602 -0.57958567 84 10 8736 6.65000000 1293028224 1293028224 -5.00000000
8.11835194 0.37149194 -0.42591003 17 12 8738 8.13800000 1293028229 1293028229 -3.00000000
8.11040592 0.36829135 -0.14171354 16 14 8740 8.12000000 1293028234 1293028234 -1.00000000
8.16911030 0.37095711 2.19116211 47 15 8740 8.46600000 1293028236 1293028236 15.00000000
2.24264073 0.09870014 -0.60149544 4 0 8748 2.32400000 1293028257 1293028257 -15.00000000
8.11097431 0.35555112 0.14171354 28 1 8749 8.12000000 1293028259 1293028259 1.00000000
2.62050772 0.11441384 -0.60556823 6 2 8750 2.69200000 1293028261 1293028261 -13.00000000
8.14710903 0.35428584 0.42737541 13 3 8751 8.16600000 1293028264 1293028264 3.00000000
3.14020252 0.13655509 -0.61097038 5 4 8751 3.20200000 1293028266 1293028266 -11.00000000
8.12531567 0.35191733 0.71153951 76 5 8752 8.16400000 1293028268 1293028268 5.00000000
3.96089768 0.17085870 -0.62792796 9 6 8753 4.01400000 1293028270 1293028270 -9.00000000
8.13336086 0.34942141 0.99957234 90 7 8754 8.20200000 1293028273 1293028273 7.00000000
5.28345203 0.22606120 -0.64931989 6 8 8755 5.32800000 1293028275 1293028275 -7.00000000
8.21597576 0.35153407 1.30247331 10 9 8755 8.32600000 1293028277 1293028277 9.00000000
6.60276365 0.28135562 -0.57819122 60 10 8756 6.63400000 1293028280 1293028280 -5.00000000
8.10962200 0.34272966 -0.42538664 25 12 8758 8.12800000 1293028284 1293028284 -3.00000000
8.11963367 0.34031346 -0.14185315 20 14 8760 8.12800000 1293028289 1293028289 -1.00000000
8.17807579 0.34276292 2.19323254 47 15 8760 8.47400000 1293028291 1293028291 15.00000000
2.24104142 0.09079307 -0.60097784 4 0 8768 2.32200000 1293028312 1293028312 -15.00000000
8.11216545 0.32723635 0.14171354 25 1 8769 8.12000000 1293028314 1293028314 1.00000000
2.61504960 0.10503124 -0.60421854 6 2 8770 2.68600000 1293028317 1293028317 -13.00000000
8.13632202 0.32536611 0.42674738 13 3 8771 8.15400000 1293028319 1293028319 3.00000000
3.15635347 0.12622048 -0.61402333 5 4 8771 3.21800000 1293028321 1293028321 -11.00000000
8.12848568 0.32363179 0.71171379 79 5 8772 8.16600000 1293028323 1293028323 5.00000000
3.96936512 0.15734451 -0.62917942 9 6 8773 4.02200000 1293028326 1293028326 -9.00000000
8.12461376 0.32063714 0.99835366 90 7 8774 8.19200000 1293028328 1293028328 7.00000000
5.28420877 0.20761713 -0.64931989 6 8 8775 5.32800000 1293028330 1293028330 -7.00000000
8.22115707 0.32157308 1.30309904 10 9 8776 8.33000000 1293028333 1293028333 9.00000000
6.60768747 0.25846171 -0.57853985 52 10 8776 6.63800000 1293028335 1293028335 -5.00000000
8.09879398 0.31395552 -0.42475861 25 12 8778 8.11600000 1293028340 1293028340 -3.00000000
8.11877346 0.31189182 -0.14181826 18 14 8780 8.12600000 1293028344 1293028344 -1.00000000
8.18115234 0.31428817 2.19375014 51 15 8780 8.47600000 1293028346 1293028346 15.00000000
2.24520564 0.08311275 -0.60201311 4 0 8788 2.32600000 1293028367 1293028367 -15.00000000
8.11725521 0.29906487 0.14178336 15 1 8789 8.12400000 1293028370 1293028370 1.00000000
2.61929512 0.09604520 -0.60511833 6 2 8790 2.69000000 1293028372 1293028372 -13.00000000
8.12543297 0.29652604 0.42611936 13 3 8791 8.14200000 1293028374 1293028374 3.00000000
3.14892721 0.11491559 -0.61249685 5 4 8791 3.21000000 1293028376 1293028376 -11.00000000
8.12558365 0.29511151 0.71136516 76 5 8792 8.16200000 1293028379 1293028379 5.00000000
3.96594214 0.14334518 -0.62855369 9 6 8793 4.01800000 1293028381 1293028381 -9.00000000
8.13361835 0.29256043 0.99932861 92 7 8794 8.20000000 1293028383 1293028383 7.00000000
5.25911188 0.18824740 -0.64615124 4 8 8795 5.30200000 1293028386 1293028386 -7.00000000
8.21235847 0.29252234 1.30153477 10 9 8796 8.32000000 1293028388 1293028388 9.00000000
6.61850500 0.23574962 -0.57941139 44 10 8796 6.64800000 1293028390 1293028390 -5.00000000
8.10383320 0.28582433 -0.42496797 21 12 8798 8.12000000 1293028395 1293028395 -3.00000000
8.10382557 0.28299180 -0.14153902 18 14 8800 8.11000000 1293028399 1293028399 -1.00000000
8.18611145 0.28443483 2.19478559 56 15 8801 8.48000000 1293028402 1293028402 15.00000000
2.24738646 0.07612422 -0.60253072 4 0 8806 2.32800000 1293028423 1293028423 -15.00000000
8.11615658 0.27349499 0.14174844 21 1 8807 8.12200000 1293028425 1293028425 1.00000000
2.63126993 0.08820772 -0.60781777 6 2 8808 2.70200000 1293028427 1293028427 -13.00000000
8.13031673 0.27113095 0.42632869 13 3 8809 8.14600000 1293028429 1293028429 3.00000000
3.13749957 0.10462978 -0.61020714 5 4 8809 3.19800000 1293028432 1293028432 -11.00000000
8.12049675 0.26938462 0.71084225 83 5 8810 8.15600000 1293028434 1293028434 5.00000000
3.97229576 0.13108057 -0.62949228 6 6 8811 4.02400000 1293028436 1293028436 -9.00000000
8.13449764 0.26700652 0.99932861 90 7 8812 8.20000000 1293028439 1293028439 7.00000000
5.26761341 0.17198363 -0.64712620 4 8 8813 5.31000000 1293028441 1293028441 -7.00000000
8.20534039 0.26646459 1.30028331 10 9 8814 8.31200000 1293028443 1293028443 9.00000000
6.60726500 0.21456784 -0.57836550 44 10 8814 6.63600000 1293028446 1293028446 -5.00000000
8.11067963 0.26055640 -0.42528197 17 12 8816 8.12600000 1293028450 1293028450 -3.00000000
8.09867859 0.25734100 -0.14143430 20 14 8818 8.10400000 1293028455 1293028455 -1.00000000
8.19078064 0.26026762 2.19582081 56 15 8818 8.48400000 1293028457 1293028457 15.00000000
2.23219085 0.06780964 -0.59838963 4 0 8826 2.31200000 1293028478 1293028478 -15.00000000
8.11706161 0.24516265 0.14174844 21 1 8827 8.12200000 1293028480 1293028480 1.00000000
2.63350964 0.07908083 -0.60826766 6 2 8828 2.70400000 1293028482 1293028482 -13.00000000
8.13121319 0.24274920 0.42632869 13 3 8829 8.14600000 1293028485 1293028485 3.00000000
3.14569521 0.09391157 -0.61173362 5 4 8829 3.20600000 1293028487 1293028487 -11.00000000
8.11342144 0.24080074 0.71014500 76 5 8830 8.14800000 1293028489 1293028489 5.00000000
3.96680546 0.11703909 -0.62855369 6 6 8831 4.01800000 1293028492 1293028492 -9.00000000
8.14331722 0.23884298 1.00030363 90 7 8832 8.20800000 1293028494 1293028494 7.00000000
5.27413416 0.15376873 -0.64785743 6 8 8833 5.31600000 1293028496 1293028496 -7.00000000
8.20819473 0.23787820 1.30059612 10 9 8834 8.31400000 1293028499 1293028499 9.00000000
6.60399055 0.19138744 -0.57801688 12 10 8834 6.63200000 1293028501 1293028501 -5.00000000
8.12351799 0.23258623 -0.42591003 17 12 8836 8.13800000 1293028505 1293028505 -3.00000000
8.10352516 0.22918284 -0.14150411 22 14 8838 8.10800000 1293028510 1293028510 -1.00000000
8.18005276 0.23134720 2.19271493 56 15 8838 8.47200000 1293028512 1293028512 15.00000000
2.22856212 0.05952464 -0.59735435 4 0 8847 2.30800000 1293028533 1293028533 -15.00000000
8.10591125 0.21509223 0.14153902 21 1 8848 8.11000000 1293028535 1293028535 1.00000000
2.62209344 0.06911989 -0.60556823 6 2 8849 2.69200000 1293028538 1293028538 -13.00000000
8.14399052 0.21468028 0.42695674 13 3 8849 8.15800000 1293028540 1293028540 3.00000000
3.15386868 0.08258696 -0.61326009 5 4 8850 3.21400000 1293028542 1293028542 -11.00000000
8.11624146 0.21111375 0.71031928 76 5 8851 8.15000000 1293028545 1293028545 5.00000000
3.95535946 0.10219312 -0.62667644 6 6 8852 4.00600000 1293028547 1293028547 -9.00000000
8.13223076 0.20868908 0.99884117 90 7 8853 8.19600000 1293028549 1293028549 7.00000000
5.27466249 0.13443702 -0.64785743 6 8 8854 5.31600000 1293028551 1293028551 -7.00000000
8.21094990 0.20927514 1.30090904 10 9 8854 8.31600000 1293028554 1293028554 9.00000000
6.59668064 0.16697966 -0.57731962 16 10 8855 6.62400000 1293028556 1293028556 -5.00000000
8.11034012 0.20246159 -0.42517731 21 12 8857 8.12400000 1293028561 1293028561 -3.00000000
8.11230659 0.19967723 -0.14164373 16 14 8859 8.11600000 1293028565 1293028565 -1.00000000
8.18857098 0.20155440 2.19478559 51 15 8859 8.48000000 1293028568 1293028568 15.00000000
2.25193214 0.05228322 -0.60356599 4 0 8867 2.33200000 1293028588 1293028588 -15.00000000
8.10661316 0.18679601 0.14153902 15 1 8868 8.11000000 1293028591 1293028591 1.00000000
2.61257744 0.05974390 -0.60331875 6 2 8869 2.68200000 1293028593 1293028593 -13.00000000
8.12874889 0.18446712 0.42611936 15 3 8870 8.14200000 1293028595 1293028595 3.00000000
3.15217495 0.07153286 -0.61287850 5 4 8870 3.21200000 1293028598 1293028598 -11.00000000
8.12489700 0.18296091 0.71101654 72 5 8871 8.15800000 1293028600 1293028600 5.00000000
3.95371723 0.08834159 -0.62636358 6 6 8872 4.00400000 1293028602 1293028602 -9.00000000
8.12497139 0.18012503 0.99786621 90 7 8873 8.18800000 1293028604 1293028604 7.00000000
5.25723791 0.11563134 -0.64566380 6 8 8874 5.29800000 1293028607 1293028607 -7.00000000
8.21956158 0.17935146 1.30216050 10 9 8875 8.32400000 1293028609 1293028609 9.00000000
6.61714268 0.14438656 -0.57906276 60 10 8875 6.64400000 1293028611 1293028611 -5.00000000
8.09901619 0.17389275 -0.42454928 25 12 8877 8.11200000 1293028616 1293028616 -3.00000000
8.11095524 0.17131655 -0.14160882 18 14 8879 8.11400000 1293028621 1293028621 -1.00000000
8.18925476 0.17154042 2.19478559 51 15 8880 8.48000000 1293028623 1293028623 15.00000000
2.24050426 0.04458465 -0.60046017 4 0 8886 2.32000000 1293028644 1293028644 -15.00000000
8.12318230 0.16022797 0.14181826 18 1 8887 8.12600000 1293028646 1293028646 1.00000000
2.61470962 0.05111804 -0.60376865 6 2 8888 2.68400000 1293028648 1293028648 -13.00000000
8.11331367 0.15861672 0.42528197 15 3 8888 8.12600000 1293028651 1293028651 3.00000000
3.14650607 0.06096538 -0.61173362 5 4 8889 3.20600000 1293028653 1293028653 -11.00000000
8.12346649 0.15597853 0.71084225 76 5 8890 8.15600000 1293028655 1293028655 5.00000000
3.96386361 0.07541800 -0.62792796 9 6 8891 4.01400000 1293028657 1293028657 -9.00000000
8.12552452 0.15318066 0.99786621 92 7 8892 8.18800000 1293028660 1293028660 7.00000000
5.23972988 0.09786345 -0.64347011 6 8 8893 5.28000000 1293028662 1293028662 -7.00000000
8.21813583 0.15205689 1.30184758 10 9 8894 8.32200000 1293028664 1293028664 9.00000000
6.62156916 0.12251625 -0.57941139 100 10 8894 6.64800000 1293028667 1293028667 -5.00000000
8.11153030 0.14725199 -0.42517731 21 12 8896 8.12400000 1293028671 1293028671 -3.00000000
8.11147881 0.14441870 -0.14160882 18 14 8898 8.11400000 1293028676 1293028676 -1.00000000
8.19361591 0.14588110 2.19582081 56 15 8898 8.48400000 1293028678 1293028678 15.00000000
2.23678327 0.03670017 -0.59942490 4 0 8906 2.31600000 1293028699 1293028699 -15.00000000
8.11569405 0.13174197 0.14167863 15 1 8907 8.11800000 1293028701 1293028701 1.00000000
2.62461448 0.04214713 -0.60601813 6 2 8908 2.69400000 1293028703 1293028703 -13.00000000
8.12779617 0.13051948 0.42601469 15 3 8908 8.14000000 1293028706 1293028706 3.00000000
3.13099575 0.04973221 -0.60868067 5 4 8909 3.19000000 1293028708 1293028708 -11.00000000
8.11798477 0.12752751 0.71031928 76 5 8910 8.15000000 1293028710 1293028710 5.00000000
3.96805310 0.06164243 -0.62855369 9 6 8911 4.01800000 1293028713 1293028713 -9.00000000
8.13593388 0.12496880 0.99908489 87 7 8912 8.19800000 1293028715 1293028715 7.00000000
5.24797916 0.07969335 -0.64444506 6 8 8913 5.28800000 1293028717 1293028717 -7.00000000
8.21071625 0.12325072 1.30059612 10 9 8914 8.31400000 1293028720 1293028720 9.00000000
6.60004234 0.09907297 -0.57749397 100 10 8914 6.62600000 1293028722 1293028722 -5.00000000
8.10400677 0.11881945 -0.42475861 17 12 8916 8.11600000 1293028727 1293028727 -3.00000000
8.10593510 0.11601763 -0.14150411 20 14 8918 8.10800000 1293028731 1293028731 -1.00000000
8.18634892 0.11716857 2.19375014 58 15 8918 8.47600000 1293028733 1293028733 15.00000000
2.22724414 0.02837864 -0.59683675 4 0 8927 2.30600000 1293028754 1293028754 -15.00000000
8.10812473 0.10189506 0.14153902 18 1 8928 8.11000000 1293028756 1293028756 1.00000000
2.62864852 0.03257545 -0.60691792 6 2 8929 2.69800000 1293028759 1293028759 -13.00000000
8.12823772 0.09931010 0.42601469 15 3 8930 8.14000000 1293028761 1293028761 3.00000000
3.13900948 0.03835214 -0.61020714 5 4 8930 3.19800000 1293028763 1293028763 -11.00000000
8.11242104 0.09770076 0.70979637 76 5 8931 8.14400000 1293028766 1293028766 5.00000000
3.95047522 0.04688738 -0.62573785 6 6 8932 4.00000000 1293028768 1293028768 -9.00000000
8.13832188 0.09517148 0.99932861 90 7 8933 8.20000000 1293028770 1293028770 7.00000000
5.26411533 0.06064094 -0.64639497 8 8 8934 5.30400000 1293028773 1293028773 -7.00000000
8.20121956 0.09447545 1.29903185 10 9 8934 8.30400000 1293028775 1293028775 9.00000000
6.58442307 0.07470112 -0.57609946 36 10 8935 6.61000000 1293028777 1293028777 -5.00000000
8.12036419 0.08929167 -0.42559600 17 12 8937 8.13200000 1293028782 1293028782 -3.00000000
8.10030651 0.08624324 -0.14139940 18 14 8939 8.10200000 1293028786 1293028786 -1.00000000
8.17901134 0.08565354 2.19167972 54 15 8940 8.46800000 1293028789 1293028789 15.00000000
2.23892021 0.02071115 -0.59994256 4 0 8947 2.31800000 1293028809 1293028809 -15.00000000
8.10443211 0.07355551 0.14146921 15 1 8948 8.10600000 1293028812 1293028812 1.00000000
2.61900306 0.02331283 -0.60466844 7 2 8949 2.68800000 1293028814 1293028814 -13.00000000
8.13251686 0.07239090 0.42622402 15 3 8949 8.14400000 1293028816 1293028816 3.00000000
3.13912416 0.02739472 -0.61020714 5 4 8950 3.19800000 1293028819 1293028819 -11.00000000
8.10872841 0.06934845 0.70944774 76 5 8951 8.14000000 1293028821 1293028821 5.00000000
3.93876290 0.03299807 -0.62386066 2 6 8952 3.98800000 1293028823 1293028823 -9.00000000
8.13264942 0.06671400 0.99859738 90 7 8953 8.19400000 1293028826 1293028826 7.00000000
5.26032495 0.04223350 -0.64590752 8 8 8954 5.30000000 1293028828 1293028828 -7.00000000
8.22126389 0.06457099 1.30216050 10 9 8955 8.32400000 1293028830 1293028830 9.00000000
6.59261322 0.05177933 -0.57679671 20 10 8955 6.61800000 1293028833 1293028833 -5.00000000
8.10864353 0.06085583 -0.42496797 21 12 8957 8.12000000 1293028837 1293028837 -3.00000000
8.10455799 0.05799599 -0.14146921 18 14 8959 8.10600000 1293028842 1293028842 -1.00000000
8.17926025 0.05710294 2.19167972 58 15 8960 8.46800000 1293028844 1293028844 15.00000000
2.24090600 0.01368909 -0.60046017 4 0 8965 2.32000000 1293028865 1293028865 -15.00000000
8.09662437 0.04804690 0.14132959 15 1 8966 8.09800000 1293028867 1293028867 1.00000000
2.60737109 0.01501754 -0.60196900 7 2 8967 2.67600000 1293028869 1293028869 -13.00000000
8.13070679 0.04683003 0.42611936 15 3 8967 8.14200000 1293028872 1293028872 3.00000000
3.14704776 0.01757661 -0.61173362 5 4 8968 3.20600000 1293028874 1293028874 -11.00000000
8.11289120 0.04389539 0.70979637 76 5 8969 8.14400000 1293028876 1293028876 5.00000000
3.94082236 0.02063429 -0.62417352 2 6 8970 3.99000000 1293028879 1293028879 -9.00000000
8.12289333 0.04111401 0.99737871 92 7 8971 8.18400000 1293028881 1293028881 7.00000000
5.24455118 0.02562992 -0.64395761 8 8 8972 5.28400000 1293028883 1293028883 -7.00000000
8.21351814 0.04013914 1.30090904 10 9 8972 8.31600000 1293028886 1293028886 9.00000000
6.59075117 0.03105841 -0.57662237 20 10 8973 6.61600000 1293028888 1293028888 -5.00000000
8.10080528 0.03534666 -0.42454928 29 12 8975 8.11200000 1293028892 1293028892 -3.00000000
8.11269855 0.03256664 -0.14160882 18 14 8977 8.11400000 1293028897 1293028897 -1.00000000
8.18326283 0.03142163 2.19271493 56 15 8978 8.47200000 1293028899 1293028899 15.00000000
2.24673581 0.00588195 -0.60201311 4 0 8985 2.32600000 1293028920 1293028920 -15.00000000
8.10874081 0.01981343 0.14153902 28 1 8986 8.11000000 1293028922 1293028922 1.00000000
2.61130500 0.00592487 -0.60286885 7 2 8987 2.68000000 1293028925 1293028925 -13.00000000
8.11284542 0.01840749 0.42517731 18 3 8987 8.12400000 1293028927 1293028927 3.00000000
3.14708996 0.00659126 -0.61173362 5 4 8988 3.20600000 1293028929 1293028929 -11.00000000
8.12295628 0.01559498 0.71066791 79 5 8989 8.15400000 1293028932 1293028932 5.00000000
3.95667338 0.00690570 -0.62667644 2 6 8990 4.00600000 1293028934 1293028934 -9.00000000
8.12298775 0.01275957 0.99737871 92 7 8991 8.18400000 1293028936 1293028936 7.00000000
5.24460888 0.00732286 -0.64395761 8 8 8992 5.28400000 1293028939 1293028939 -7.00000000
8.20570660 0.01145734 1.29965758 10 9 8992 8.30800000 1293028941 1293028941 9.00000000
6.60476589 0.00806925 -0.57784259 16 10 8993 6.63000000 1293028943 1293028943 -5.00000000
8.10687160 0.00707458 -0.42486328 17 12 8995 8.11800000 1293028948 1293028948 -3.00000000
8.10076523 0.00424155 -0.14139940 18 14 8997 8.10200000 1293028952 1293028952 -1.00000000
8.18718719 0.00285787 2.19375014 51 15 8998 8.47600000 1293028955 1293028955 15.00000000
-3.96422935 -0.00000000 -0.48674616 3 8 27000 3.99400000 1293078871 1293078871 -7.00000000
-5.17423534 0.00090307 -0.45268694 9 10 27001 5.19400000 1293078876 1293078876 -5.00000000
-7.65149832 0.00400632 -0.40099809 28 12 27003 7.66200000 1293078880 1293078880 -3.00000000
-10.18085480 0.00888447 2.72795272 47 15 27005 10.54000000 1293078887 1293078887 15.00000000
-1.95696068 0.00444021 -0.52436739 5 0 27013 2.02600000 1293078908 1293078908 -15.00000000
-2.22935104 0.00583644 -0.51468801 4 2 27015 2.28800000 1293078912 1293078912 -13.00000000
-2.63075066 0.00734646 -0.51136810 3 4 27016 2.68000000 1293078917 1293078917 -11.00000000
-3.15071034 0.00989828 -0.49902594 3 6 27018 3.19000000 1293078922 1293078922 -9.00000000
-3.93442893 0.01373380 -0.48309007 3 8 27020 3.96400000 1293078926 1293078926 -7.00000000
-5.17818546 0.01897912 -0.45303556 6 10 27021 5.19800000 1293078931 1293078931 -5.00000000
-7.64544630 0.03069095 -0.40068409 24 12 27023 7.65600000 1293078935 1293078935 -3.00000000
-10.17496586 0.04439694 2.72639990 42 15 27025 10.53400000 1293078942 1293078942 15.00000000
-1.96852422 0.01133801 -0.52747321 5 0 27033 2.03800000 1293078964 1293078964 -15.00000000
-2.23516321 0.01365400 -0.51603770 4 2 27035 2.29400000 1293078969 1293078969 -13.00000000
-2.63070893 0.01652945 -0.51136810 3 4 27036 2.68000000 1293078973 1293078973 -11.00000000
-3.15065646 0.02089625 -0.49902594 3 6 27038 3.19000000 1293078978 1293078978 -9.00000000
-3.94031215 0.02750902 -0.48382130 3 8 27040 3.97000000 1293078982 1293078982 -7.00000000
-5.19402599 0.03716831 -0.45443004 6 10 27041 5.21400000 1293078987 1293078987 -5.00000000
-7.63730383 0.05731840 -0.40026540 16 12 27043 7.64800000 1293078992 1293078992 -3.00000000
-10.17474842 0.07991394 2.72639990 42 15 27045 10.53400000 1293078999 1293078999 15.00000000
-1.95301843 0.01806641 -0.52333212 5 0 27053 2.02200000 1293079019 1293079019 -15.00000000
-2.23899913 0.02149351 -0.51693749 4 2 27055 2.29800000 1293079024 1293079024 -13.00000000
-2.60707736 0.02548198 -0.50678867 3 4 27056 2.65600000 1293079029 1293079029 -11.00000000
-3.15451503 0.03193396 -0.49965167 3 6 27058 3.19400000 1293079033 1293079033 -9.00000000
-3.93423724 0.04120074 -0.48309007 5 8 27060 3.96400000 1293079038 1293079038 -7.00000000
-5.19386482 0.05529862 -0.45443004 6 10 27061 5.21400000 1293079042 1293079042 -5.00000000
-7.65303421 0.08415290 -0.40110278 16 12 27063 7.66400000 1293079047 1293079047 -3.00000000
-10.15893364 0.11702769 2.72225881 40 15 27066 10.51800000 1293079054 1293079054 15.00000000
-1.94521236 0.02512466 -0.52126157 4 0 27074 2.01400000 1293079075 1293079075 -15.00000000
-2.24280262 0.02975141 -0.51783735 4 2 27076 2.30200000 1293079079 1293079079 -13.00000000
-2.63052320 0.03535382 -0.51136810 3 4 27077 2.68000000 1293079084 1293079084 -11.00000000
-3.15042639 0.04344115 -0.49902594 3 6 27079 3.19000000 1293079088 1293079088 -9.00000000
-3.93802953 0.05567629 -0.48357755 7 8 27081 3.96800000 1293079093 1293079093 -7.00000000
-5.17768955 0.07410660 -0.45303556 6 10 27082 5.19800000 1293079098 1293079098 -5.00000000
-7.65866518 0.11228994 -0.40141678 16 12 27084 7.67000000 1293079102 1293079102 -3.00000000
-10.14301014 0.15225631 2.71811771 42 15 27086 10.50200000 1293079109 1293079109 15.00000000
-1.95283914 0.03204134 -0.52333212 5 0 27094 2.02200000 1293079130 1293079130 -15.00000000
-2.24463344 0.03761271 -0.51828724 4 2 27096 2.30400000 1293079134 1293079134 -13.00000000
-2.61468005 0.04426996 -0.50831515 3 4 27097 2.66400000 1293079139 1293079139 -11.00000000
-3.16605616 0.05471097 -0.50152892 3 6 27099 3.20600000 1293079144 1293079144 -9.00000000
-3.95765901 0.06977215 -0.48601493 5 8 27101 3.98800000 1293079148 1293079148 -7.00000000
-5.17739964 0.09217966 -0.45303556 6 10 27102 5.19800000 1293079153 1293079153 -5.00000000
-7.65023899 0.13887799 -0.40099809 12 12 27104 7.66200000 1293079158 1293079158 -3.00000000
-10.14821148 0.18776831 2.71967053 42 15 27106 10.50800000 1293079164 1293079164 15.00000000
-1.95465362 0.03855511 -0.52384973 5 0 27113 2.02400000 1293079185 1293079185 -15.00000000
-2.23085809 0.04478220 -0.51513791 4 2 27115 2.29000000 1293079190 1293079190 -13.00000000
-2.63022161 0.05325827 -0.51136810 3 4 27116 2.68000000 1293079194 1293079194 -11.00000000
-3.16190743 0.06512833 -0.50090313 3 6 27118 3.20200000 1293079199 1293079199 -9.00000000
-3.95343661 0.08281269 -0.48552746 7 8 27120 3.98400000 1293079204 1293079204 -7.00000000
-5.18901682 0.10960047 -0.45408142 9 10 27121 5.21000000 1293079208 1293079208 -5.00000000
-7.64174938 0.16407484 -0.40057942 12 12 27123 7.65400000 1293079213 1293079213 -3.00000000
-10.14749432 0.22319104 2.71967053 42 15 27126 10.50800000 1293079220 1293079220 15.00000000
-1.96802652 0.04569177 -0.52747321 5 0 27133 2.03800000 1293079240 1293079240 -15.00000000
-2.23653269 0.05270682 -0.51648760 4 2 27135 2.29600000 1293079245 1293079245 -13.00000000
-2.61431813 0.06206636 -0.50831515 3 4 27136 2.66400000 1293079250 1293079250 -11.00000000
-3.16166067 0.07616505 -0.50090313 3 6 27138 3.20200000 1293079254 1293079254 -9.00000000
-3.94121647 0.09632125 -0.48406503 7 8 27140 3.97200000 1293079259 1293079259 -7.00000000
-5.20453691 0.12810506 -0.45547593 9 10 27141 5.22600000 1293079264 1293079264 -5.00000000
-7.64911652 0.19094789 -0.40099809 12 12 27143 7.66200000 1293079268 1293079268 -3.00000000
-10.15051556 0.25870949 2.72070575 42 15 27146 10.51200000 1293079275 1293079275 15.00000000
-1.95240569 0.05214854 -0.52333212 5 0 27153 2.02200000 1293079296 1293079296 -15.00000000
-2.24412727 0.06072430 -0.51828724 4 2 27155 2.30400000 1293079300 1293079300 -13.00000000
-2.62193561 0.07140545 -0.50984162 3 4 27156 2.67200000 1293079305 1293079305 -11.00000000
-3.16927409 0.08741871 -0.50215465 3 6 27158 3.21000000 1293079310 1293079310 -9.00000000
-3.93688750 0.10996722 -0.48357755 7 8 27160 3.96800000 1293079314 1293079314 -7.00000000
-5.18414211 0.14571172 -0.45373279 9 10 27161 5.20600000 1293079319 1293079319 -5.00000000
-7.65239620 0.21776076 -0.40120745 12 12 27163 7.66600000 1293079323 1293079323 -3.00000000
-10.14375782 0.29397193 2.71915293 40 15 27166 10.50600000 1293079330 1293079330 15.00000000
-1.94641888 0.05878842 -0.52177918 4 0 27173 2.01600000 1293079351 1293079351 -15.00000000
-2.23805809 0.06837886 -0.51693749 4 2 27175 2.29800000 1293079356 1293079356 -13.00000000
-2.62559509 0.08067787 -0.51060486 3 4 27176 2.67600000 1293079360 1293079360 -11.00000000
-3.14723110 0.09780606 -0.49871308 3 6 27178 3.18800000 1293079365 1293079365 -9.00000000
-3.95235276 0.12420768 -0.48552746 7 8 27180 3.98400000 1293079370 1293079370 -7.00000000
-5.18360186 0.16380687 -0.45373279 9 10 27181 5.20600000 1293079374 1293079374 -5.00000000
-7.67354822 0.24517286 -0.40235883 16 12 27183 7.68800000 1293079379 1293079379 -3.00000000
-10.13687706 0.32919034 2.71759987 45 15 27186 10.50000000 1293079386 1293079386 15.00000000
-1.95006335 0.06571245 -0.52281445 4 0 27193 2.02000000 1293079406 1293079406 -15.00000000
-2.23391056 0.07605810 -0.51603770 4 2 27195 2.29400000 1293079411 1293079411 -13.00000000
-2.62137341 0.08970812 -0.50984162 3 4 27196 2.67200000 1293079416 1293079416 -11.00000000
-3.14687037 0.10879134 -0.49871308 3 6 27198 3.18800000 1293079420 1293079420 -9.00000000
-3.95189500 0.13800322 -0.48552746 7 8 27200 3.98400000 1293079425 1293079425 -7.00000000
-5.19096327 0.18217954 -0.45443004 6 10 27201 5.21400000 1293079429 1293079429 -5.00000000
-7.66066980 0.27153257 -0.40173081 16 12 27203 7.67600000 1293079434 1293079434 -3.00000000
-10.13959122 0.36294186 2.71863532 42 15 27205 10.50400000 1293079441 1293079441 15.00000000
-1.95175254 0.07259085 -0.52333212 5 0 27213 2.02200000 1293079462 1293079462 -15.00000000
-2.23363137 0.08385544 -0.51603770 4 2 27215 2.29400000 1293079466 1293079466 -13.00000000
-2.62889171 0.09915385 -0.51136810 3 4 27216 2.68000000 1293079471 1293079471 -11.00000000
-3.16226315 0.12037645 -0.50121605 3 6 27218 3.20400000 1293079475 1293079475 -9.00000000
-3.95734000 0.15202567 -0.48625869 7 8 27220 3.99000000 1293079480 1293079480 -7.00000000
-5.20622301 0.20091292 -0.45582452 6 10 27221 5.23000000 1293079485 1293079485 -5.00000000
-7.64770079 0.29780534 -0.40110278 16 12 27223 7.66400000 1293079489 1293079489 -3.00000000
-10.14784431 0.40048379 2.72122335 45 15 27226 10.51400000 1293079496 1293079496 15.00000000
-1.96885955 0.08011015 -0.52799088 4 0 27233 2.04000000 1293079517 1293079517 -15.00000000
-2.23721933 0.09181157 -0.51693749 4 2 27235 2.29800000 1293079522 1293079522 -13.00000000
-2.61676002 0.10784474 -0.50907838 3 4 27236 2.66800000 1293079526 1293079526 -11.00000000
-3.16577101 0.13157813 -0.50184178 3 6 27238 3.20800000 1293079531 1293079531 -9.00000000
-3.94290185 0.16525654 -0.48455250 7 8 27240 3.97600000 1293079535 1293079535 -7.00000000
-5.20549011 0.21908480 -0.45582452 9 10 27241 5.23000000 1293079540 1293079540 -5.00000000
-7.65060520 0.32466835 -0.40131211 20 12 27243 7.66800000 1293079545 1293079545 -3.00000000
-10.14646053 0.43413305 2.72122335 45 15 27245 10.51400000 1293079552 1293079552 15.00000000
-1.95505822 0.08638532 -0.52436739 4 0 27253 2.02600000 1293079572 1293079572 -15.00000000
-2.24077892 0.09979377 -0.51783735 4 2 27255 2.30200000 1293079577 1293079577 -13.00000000
-2.61048365 0.11671521 -0.50793356 3 4 27256 2.66200000 1293079581 1293079581 -11.00000000
-3.16923928 0.14280577 -0.50246751 3 6 27258 3.21200000 1293079586 1293079586 -9.00000000
-3.95023322 0.17937905 -0.48552746 7 8 27260 3.98400000 1293079591 1293079591 -7.00000000
-5.20071268 0.23707256 -0.45547593 6 10 27261 5.22600000 1293079595 1293079595 -5.00000000
-7.65341568 0.35155526 -0.40152144 32 12 27263 7.67200000 1293079600 1293079600 -3.00000000
-10.13515282 0.47087049 2.71863532 42 15 27266 10.50400000 1293079607 1293079607 15.00000000
-1.94125319 0.09222632 -0.52074391 4 0 27272 2.01200000 1293079628 1293079628 -15.00000000
-2.24043560 0.10722391 -0.51783735 4 2 27274 2.30200000 1293079632 1293079632 -13.00000000
-2.61596537 0.12565382 -0.50907838 3 4 27275 2.66800000 1293079637 1293079637 -11.00000000
-3.16874814 0.15331456 -0.50246751 3 6 27277 3.21200000 1293079641 1293079641 -9.00000000
-3.95754766 0.19286400 -0.48650241 5 8 27279 3.99200000 1293079646 1293079646 -7.00000000
-5.19989824 0.25431743 -0.45547593 9 10 27280 5.22600000 1293079651 1293079651 -5.00000000
-7.65220785 0.37693298 -0.40152144 24 12 27282 7.67200000 1293079655 1293079655 -3.00000000
-10.13362312 0.50270861 2.71863532 42 15 27284 10.50400000 1293079662 1293079662 15.00000000
-1.95635426 0.09978929 -0.52488500 4 0 27292 2.02800000 1293079683 1293079683 -15.00000000
-2.24199390 0.11514378 -0.51828724 4 2 27294 2.30400000 1293079687 1293079687 -13.00000000
-2.61943197 0.13498655 -0.50984162 3 4 27295 2.67200000 1293079692 1293079692 -11.00000000
-3.14057565 0.16294172 -0.49808735 3 6 27297 3.18400000 1293079697 1293079697 -9.00000000
-3.97667408 0.20771270 -0.48893979 6 8 27299 4.01200000 1293079701 1293079701 -7.00000000
-5.21091652 0.27309257 -0.45652178 6 10 27300 5.23800000 1293079706 1293079706 -5.00000000
-7.64685678 0.40343142 -0.40131211 28 12 27302 7.66800000 1293079710 1293079710 -3.00000000
-10.12592506 0.53953850 2.71708226 42 15 27305 10.49800000 1293079717 1293079717 15.00000000
-1.95597529 0.10695902 -0.52488500 4 0 27313 2.02800000 1293079738 1293079738 -15.00000000
-2.22404456 0.12239658 -0.51423812 4 2 27315 2.28600000 1293079743 1293079743 -13.00000000
-2.63068128 0.14523569 -0.51213133 3 4 27316 2.68400000 1293079747 1293079747 -11.00000000
-3.17151475 0.17620470 -0.50309324 3 6 27318 3.21600000 1293079752 1293079752 -9.00000000
-3.96399426 0.22162168 -0.48747736 6 8 27320 4.00000000 1293079757 1293079757 -7.00000000
-5.20988083 0.29218969 -0.45652178 6 10 27321 5.23800000 1293079761 1293079761 -5.00000000
-7.63934422 0.43111822 -0.40099809 32 12 27323 7.66200000 1293079766 1293079766 -3.00000000
-10.12976646 0.57520986 2.71863532 42 15 27325 10.50400000 1293079773 1293079773 15.00000000
-1.95751870 0.11389821 -0.52540267 4 0 27333 2.03000000 1293079793 1293079793 -15.00000000
-2.22749448 0.13038695 -0.51513791 4 2 27335 2.29000000 1293079798 1293079798 -13.00000000
-2.63015819 0.15441759 -0.51213133 3 4 27336 2.68400000 1293079803 1293079803 -11.00000000
-3.17088032 0.18727426 -0.50309324 3 6 27338 3.21600000 1293079807 1293079807 -9.00000000
-3.96319652 0.23545726 -0.48747736 6 8 27340 4.00000000 1293079812 1293079812 -7.00000000
-5.20087337 0.30989978 -0.45582452 6 10 27341 5.23000000 1293079816 1293079816 -5.00000000
-7.64576769 0.45825985 -0.40141678 32 12 27343 7.67000000 1293079821 1293079821 -3.00000000
-10.13723183 0.61291635 2.72122335 42 15 27346 10.51400000 1293079828 1293079828 15.00000000
-1.95134556 0.12003312 -0.52384973 4 0 27352 2.02400000 1293079849 1293079849 -15.00000000
-2.24844527 0.13909645 -0.52008682 4 2 27354 2.31200000 1293079853 1293079853 -13.00000000
-2.62179375 0.16265240 -0.51060486 3 4 27355 2.67600000 1293079858 1293079858 -11.00000000
-3.17024183 0.19778825 -0.50309324 3 6 27357 3.21600000 1293079863 1293079863 -9.00000000
-3.96635628 0.24884699 -0.48796484 6 8 27359 4.00400000 1293079867 1293079867 -7.00000000
-5.19981718 0.32714477 -0.45582452 6 10 27360 5.23000000 1293079872 1293079872 -5.00000000
-7.65217924 0.48411605 -0.40183547 32 12 27362 7.67800000 1293079876 1293079876 -3.00000000
-10.12561703 0.64414710 2.71863532 42 15 27364 10.50400000 1293079883 1293079883 15.00000000
-1.94127572 0.12621716 -0.52126157 4 0 27372 2.01400000 1293079904 1293079904 -15.00000000
-2.23822308 0.14630857 -0.51783735 4 2 27374 2.30200000 1293079909 1293079909 -13.00000000
-2.62512827 0.17206000 -0.51136810 3 4 27375 2.68000000 1293079913 1293079913 -11.00000000
-3.15376329 0.20781419 -0.50059026 3 6 27377 3.20000000 1293079918 1293079918 -9.00000000
-3.97338629 0.26321548 -0.48893979 6 8 27379 4.01200000 1293079922 1293079922 -7.00000000
-5.21852398 0.34661397 -0.45756766 9 10 27380 5.25000000 1293079927 1293079927 -5.00000000
-7.64645672 0.51055807 -0.40162614 32 12 27382 7.67400000 1293079932 1293079932 -3.00000000
-10.11162281 0.68047673 2.71552944 42 15 27385 10.49200000 1293079939 1293079939 15.00000000
-1.93889606 0.13286063 -0.52074391 4 0 27392 2.01200000 1293079959 1293079959 -15.00000000
-2.24158692 0.15438834 -0.51873714 4 2 27394 2.30600000 1293079964 1293079964 -13.00000000
-2.62451148 0.18122235 -0.51136810 3 4 27395 2.68000000 1293079969 1293079969 -11.00000000
-3.15696001 0.21909514 -0.50121605 3 6 27397 3.20400000 1293079973 1293079973 -9.00000000
-3.97442365 0.27722174 -0.48918355 6 8 27399 4.01400000 1293079978 1293079978 -7.00000000
-5.21330690 0.36454993 -0.45721903 6 10 27400 5.24600000 1293079982 1293079982 -5.00000000
-7.64861298 0.53752607 -0.40183547 32 12 27402 7.67800000 1293079987 1293079987 -3.00000000
-10.12087250 0.71482098 2.71863532 42 15 27404 10.50400000 1293079994 1293079994 15.00000000
-1.95190847 0.14059940 -0.52436739 4 0 27412 2.02600000 1293080015 1293080015 -15.00000000
-2.23325968 0.16164924 -0.51693749 4 2 27414 2.29800000 1293080019 1293080019 -13.00000000
-2.63365364 0.19109288 -0.51327622 3 4 27415 2.69000000 1293080024 1293080024 -11.00000000
-3.16602659 0.23083186 -0.50278038 4 6 27417 3.21400000 1293080028 1293080028 -9.00000000
-3.97145200 0.29094833 -0.48893979 6 8 27419 4.01200000 1293080033 1293080033 -7.00000000
-5.20405436 0.38216189 -0.45652178 6 10 27420 5.23800000 1293080038 1293080038 -5.00000000
-7.64071417 0.56378055 -0.40152144 40 12 27422 7.67200000 1293080042 1293080042 -3.00000000
-10.12794876 0.75085920 2.72122335 45 15 27424 10.51400000 1293080049 1293080049 15.00000000
-1.95333219 0.14755750 -0.52488500 4 0 27432 2.02800000 1293080070 1293080070 -15.00000000
-2.22685242 0.16900139 -0.51558781 4 2 27434 2.29200000 1293080075 1293080075 -13.00000000
-2.61339450 0.19879578 -0.50946003 3 4 27435 2.67000000 1293080079 1293080079 -11.00000000
-3.15929270 0.24143039 -0.50184178 3 6 27437 3.20800000 1293080084 1293080084 -9.00000000
-3.95853662 0.30389783 -0.48747736 6 8 27439 4.00000000 1293080088 1293080088 -7.00000000
