# .PCD v0.7 - Point Cloud Data file format
VERSION 0.7
FIELDS x y z intensity laser_id azimuth distance_m adjustedtime timestamp vertical_angle
SIZE 4 4 4 1 1 2 8 8 4 8
TYPE F F F U U U F U U F
COUNT 1 1 1 1 1 1 1 1 1 1
WIDTH 539
HEIGHT 1
VIEWPOINT 0 0 0 1 0 0 0
POINTS 539
DATA ascii
2.81030488 1.59128928 -0.62776160 5 4 6048 3.29000000 1293920856 1293920856 -11.00000000
8.24303722 4.66558552 0.82867682 77 5 6049 9.50800000 1293920858 1293920858 5.00000000
3.53827906 2.00186181 -0.64388424 4 6 6050 4.11600000 1293920860 1293920860 -9.00000000
8.24211597 4.66126633 1.16263354 40 7 6051 9.54000000 1293920863 1293920863 7.00000000
4.75394106 2.68746042 -0.67052513 4 8 6052 5.50200000 1293920865 1293920865 -7.00000000
6.69209051 3.78157830 -0.67249370 42 10 6053 7.71600000 1293920870 1293920870 -5.00000000
8.21590233 4.63887405 -0.49447012 17 12 6055 9.44800000 1293920874 1293920874 -3.00000000
8.27676201 4.67133141 2.19417262 75 13 6056 9.75400000 1293920877 1293920877 13.00000000
8.21883678 4.63674784 -0.16471581 12 14 6057 9.43800000 1293920879 1293920879 -1.00000000
7.69341755 4.33855677 2.36664128 45 15 6058 9.14400000 1293920881 1293920881 15.00000000
1.99054480 1.11886966 -0.61184824 4 0 6066 2.36400000 1293920902 1293920902 -15.00000000
8.22168732 4.61945772 0.16461110 16 1 6067 9.43200000 1293920904 1293920904 1.00000000
2.35495734 1.32262146 -0.62356430 3 2 6068 2.77200000 1293920907 1293920907 -13.00000000
8.23243713 4.62171793 0.49478412 10 3 6069 9.45400000 1293920909 1293920909 3.00000000
2.80413485 1.57425070 -0.62509024 5 4 6069 3.27600000 1293920911 1293920911 -11.00000000
8.24096966 4.62461662 0.82675940 81 5 6070 9.48600000 1293920913 1293920913 5.00000000
3.55248380 1.99274564 -0.64513576 4 6 6071 4.12400000 1293920916 1293920916 -9.00000000
8.25048828 4.62617159 1.16141486 78 7 6072 9.53000000 1293920918 1293920918 7.00000000
4.77761269 2.67778277 -0.67247504 4 8 6073 5.51800000 1293920920 1293920920 -7.00000000
6.69373846 3.75020838 -0.67127353 56 10 6074 7.70200000 1293920925 1293920925 -5.00000000
8.21890736 4.60092497 -0.49363273 17 12 6076 9.43200000 1293920930 1293920930 -3.00000000
8.27682114 4.63144827 2.18967366 74 13 6077 9.73400000 1293920932 1293920932 13.00000000
8.21657848 4.59585524 -0.16433185 12 14 6078 9.41600000 1293920934 1293920934 -1.00000000
7.70008469 4.30696011 2.36405325 42 15 6078 9.13400000 1293920937 1293920937 15.00000000
1.99443817 1.11191452 -0.61184824 4 0 6086 2.36400000 1293920957 1293920957 -15.00000000
8.21156025 4.57612896 0.16408752 13 1 6087 9.40200000 1293920960 1293920960 1.00000000
2.35955977 1.31439316 -0.62356430 3 2 6088 2.77200000 1293920962 1293920962 -13.00000000
8.24153996 4.58906651 0.49436545 15 3 6089 9.44600000 1293920964 1293920964 3.00000000
2.81647420 1.56827331 -0.62661672 4 4 6089 3.28400000 1293920966 1293920966 -11.00000000
8.22920799 4.58031845 0.82397038 89 5 6090 9.45400000 1293920969 1293920969 5.00000000
3.55251336 1.97649145 -0.64388424 4 6 6091 4.11600000 1293920971 1293920971 -9.00000000
8.24750233 4.58673096 1.15873373 94 7 6092 9.50800000 1293920973 1293920973 7.00000000
4.79213572 2.66398287 -0.67320627 4 8 6093 5.52400000 1293920976 1293920976 -7.00000000
8.22618675 4.56736040 -0.49310938 17 12 6096 9.42200000 1293920985 1293920985 -3.00000000
8.27930641 4.59496307 2.18607426 74 13 6097 9.71800000 1293920987 1293920987 13.00000000
8.20808983 4.55356503 -0.16384318 14 14 6098 9.38800000 1293920990 1293920990 -1.00000000
7.70906067 4.27496147 2.36198258 45 15 6099 9.12600000 1293920992 1293920992 15.00000000
1.99811447 1.10529459 -0.61184824 4 0 6105 2.36400000 1293921013 1293921013 -15.00000000
8.20219040 4.53532648 0.16359887 16 1 6106 9.37400000 1293921015 1293921015 1.00000000
2.35708332 1.30279052 -0.62176472 3 2 6107 2.76400000 1293921017 1293921017 -13.00000000
8.24272728 4.55398464 0.49352807 15 3 6108 9.43000000 1293921019 1293921019 3.00000000
2.82853293 1.56272256 -0.62814319 4 4 6108 3.29200000 1293921022 1293921022 -11.00000000
8.23563194 4.54818821 0.82309884 85 5 6109 9.44400000 1293921024 1293921024 5.00000000
3.54867172 1.95897210 -0.64200705 4 6 6110 4.10400000 1293921026 1293921026 -9.00000000
8.24007320 4.54688835 1.15556514 94 7 6111 9.48200000 1293921029 1293921029 7.00000000
4.79225254 2.64328337 -0.67198753 4 8 6112 5.51400000 1293921031 1293921031 -7.00000000
6.69468307 3.69109154 -0.66883320 44 10 6113 7.67400000 1293921036 1293921036 -5.00000000
8.21504688 4.52560043 -0.49153930 17 12 6115 9.39200000 1293921040 1293921040 -3.00000000
8.28254890 4.56090260 2.18292499 75 13 6116 9.70400000 1293921043 1293921043 13.00000000
8.21263409 4.52053547 -0.16363376 16 14 6117 9.37600000 1293921045 1293921045 -1.00000000
7.72245312 4.25072145 2.36198258 42 15 6117 9.12600000 1293921047 1293921047 15.00000000
2.00534797 1.10017157 -0.61288351 4 0 6125 2.36800000 1293921068 1293921068 -15.00000000
8.20569801 4.49993706 0.16335453 16 1 6126 9.36000000 1293921070 1293921070 1.00000000
2.36161637 1.29455483 -0.62176472 3 2 6127 2.76400000 1293921072 1293921072 -13.00000000
8.22354221 4.50598955 0.49143463 13 3 6128 9.39000000 1293921075 1293921075 3.00000000
2.83052707 1.55095279 -0.62737995 4 4 6128 3.28800000 1293921077 1293921077 -11.00000000
8.23922539 4.51271343 0.82187867 89 5 6129 9.43000000 1293921079 1293921079 5.00000000
3.56934977 1.95416188 -0.64450997 4 6 6130 4.12000000 1293921082 1293921082 -9.00000000
8.23499775 4.50666142 1.15264022 94 7 6131 9.45800000 1293921084 1293921084 7.00000000
4.80493307 2.62844443 -0.67247504 4 8 6132 5.51800000 1293921086 1293921086 -7.00000000
8.20625591 4.48349047 -0.49007389 21 12 6135 9.36400000 1293921095 1293921095 -3.00000000
8.27789593 4.52075481 2.17752624 72 13 6136 9.68000000 1293921098 1293921098 13.00000000
8.22134304 4.48800755 -0.16349414 16 14 6137 9.36800000 1293921100 1293921100 -1.00000000
7.74137259 4.22423935 2.36301780 42 15 6138 9.13000000 1293921102 1293921102 15.00000000
2.00898528 1.09351552 -0.61288351 4 0 6144 2.36800000 1293921123 1293921123 -15.00000000
8.21706200 4.47078991 0.16328472 13 1 6145 9.35600000 1293921125 1293921125 1.00000000
2.36589646 1.28671634 -0.62176472 3 2 6146 2.76400000 1293921128 1293921128 -13.00000000
8.22089195 4.46915531 0.49038792 10 3 6147 9.37000000 1293921130 1293921130 3.00000000
2.82530570 1.53593171 -0.62509024 4 4 6147 3.27600000 1293921132 1293921132 -11.00000000
8.24013996 4.47775602 0.82048416 89 5 6148 9.41400000 1293921135 1293921135 5.00000000
3.57581043 1.94231474 -0.64450997 6 6 6149 4.12000000 1293921137 1293921137 -9.00000000
8.23419571 4.47080374 1.15044665 85 7 6150 9.44000000 1293921139 1293921139 7.00000000
4.81013346 2.61060238 -0.67198753 4 8 6151 5.51400000 1293921142 1293921142 -7.00000000
6.69163179 3.63023591 -0.66604418 25 10 6152 7.64200000 1293921146 1293921146 -5.00000000
8.21405506 4.45244598 -0.48965520 21 12 6154 9.35600000 1293921151 1293921151 -3.00000000
8.27228069 4.48213911 2.17212749 68 13 6155 9.65600000 1293921153 1293921153 13.00000000
8.20628834 4.44453049 -0.16290076 18 14 6156 9.33400000 1293921155 1293921155 -1.00000000
7.76309872 4.20449877 2.36560607 45 15 6156 9.14000000 1293921158 1293921158 15.00000000
2.00939012 1.08466089 -0.61184824 4 0 6164 2.36400000 1293921178 1293921178 -15.00000000
8.21677971 4.43353367 0.16297057 16 1 6165 9.33800000 1293921181 1293921181 1.00000000
2.36694312 1.27659988 -0.62086493 3 2 6166 2.76000000 1293921183 1293921183 -13.00000000
8.22413635 4.43379736 0.48965520 10 3 6167 9.35600000 1293921185 1293921185 3.00000000
2.83410597 1.52792358 -0.62585348 4 4 6167 3.28000000 1293921188 1293921188 -11.00000000
8.23116493 4.43573284 0.81804383 89 5 6168 9.38600000 1293921190 1293921190 5.00000000
3.58952498 1.93356824 -0.64576149 6 6 6169 4.12800000 1293921192 1293921192 -9.00000000
8.23576927 4.43450499 1.14849675 90 7 6170 9.42400000 1293921195 1293921195 7.00000000
4.81921673 2.59379601 -0.67198753 4 8 6171 5.51400000 1293921197 1293921197 -7.00000000
6.68847179 3.59835982 -0.66447538 12 10 6172 7.62400000 1293921201 1293921201 -5.00000000
8.20843697 4.41239834 -0.48839915 17 12 6174 9.33200000 1293921206 1293921206 -3.00000000
8.27757645 4.44770193 2.16942787 68 13 6175 9.64400000 1293921208 1293921208 13.00000000
8.19708920 4.40261126 -0.16241209 14 14 6176 9.30600000 1293921211 1293921211 -1.00000000
7.77164841 4.17236185 2.36353540 45 15 6177 9.13200000 1293921213 1293921213 15.00000000
2.00635123 1.07399333 -0.60977769 4 0 6184 2.35600000 1293921234 1293921234 -15.00000000
8.21457386 4.39539051 0.16262153 15 1 6185 9.31800000 1293921236 1293921236 1.00000000
2.37825847 1.27200627 -0.62266451 3 2 6186 2.76800000 1293921238 1293921238 -13.00000000
8.22899532 4.39941263 0.48902717 10 3 6187 9.34400000 1293921241 1293921241 3.00000000
2.83942223 1.51802135 -0.62585348 4 4 6187 3.28000000 1293921243 1293921243 -11.00000000
8.21672535 4.39100981 0.81508052 77 5 6188 9.35200000 1293921245 1293921245 5.00000000
3.58231354 1.91358089 -0.64325851 6 6 6189 4.11200000 1293921248 1293921248 -9.00000000
8.23718929 4.39824963 1.14654684 92 7 6190 9.40800000 1293921250 1293921250 7.00000000
4.82473898 2.57508874 -0.67150009 6 8 6191 5.51000000 1293921252 1293921252 -7.00000000
6.67638159 3.56186128 -0.66203505 72 10 6192 7.59600000 1293921257 1293921257 -5.00000000
8.21321392 4.37808180 -0.48777112 17 12 6194 9.32000000 1293921261 1293921261 -3.00000000
8.28273201 4.41328239 2.16672850 70 13 6195 9.63200000 1293921264 1293921264 13.00000000
8.20711231 4.37115145 -0.16230738 16 14 6196 9.30000000 1293921266 1293921266 -1.00000000
7.77691650 4.14202642 2.36094737 45 15 6196 9.12200000 1293921268 1293921268 15.00000000
2.01691341 1.07060635 -0.61184824 4 0 6204 2.36400000 1293921289 1293921289 -15.00000000
8.20866871 4.35544252 0.16220267 12 1 6205 9.29400000 1293921291 1293921291 1.00000000
2.37235451 1.25821841 -0.61996508 3 2 6206 2.75600000 1293921294 1293921294 -13.00000000
8.23194885 4.36411285 0.48829448 10 3 6207 9.33000000 1293921296 1293921296 3.00000000
2.84643841 1.50902033 -0.62623513 5 4 6207 3.28200000 1293921298 1293921298 -11.00000000
8.22496128 4.35856962 0.81438327 81 5 6208 9.34400000 1293921301 1293921301 5.00000000
3.58198905 1.89736605 -0.64200705 6 6 6209 4.10400000 1293921303 1293921303 -9.00000000
8.23845768 4.36203861 1.14459682 85 7 6210 9.39200000 1293921305 1293921305 7.00000000
4.84773445 2.56566000 -0.67344999 4 8 6211 5.52600000 1293921307 1293921307 -7.00000000
8.20902252 4.33911896 -0.48661971 17 12 6214 9.29800000 1293921317 1293921317 -3.00000000
8.29119492 4.38070202 2.16492891 72 13 6215 9.62400000 1293921319 1293921319 13.00000000
8.20817471 4.33500576 -0.16202815 16 14 6216 9.28400000 1293921321 1293921321 -1.00000000
7.79717064 4.11620045 2.36250019 45 15 6217 9.12800000 1293921324 1293921324 15.00000000
2.01721931 1.06175995 -0.61081296 4 0 6224 2.36000000 1293921344 1293921344 -15.00000000
8.20435524 4.31652021 0.16181871 15 1 6225 9.27200000 1293921347 1293921347 1.00000000
2.37328243 1.24811554 -0.61906528 3 2 6226 2.75200000 1293921349 1293921349 -13.00000000
8.23122215 4.32698727 0.48735243 13 3 6227 9.31200000 1293921351 1293921351 3.00000000
2.86385298 1.50546980 -0.62890643 5 4 6227 3.29600000 1293921354 1293921354 -11.00000000
8.22777939 4.32334518 0.81316310 81 5 6228 9.33000000 1293921356 1293921356 5.00000000
3.58859015 1.88485098 -0.64200705 6 6 6229 4.10400000 1293921358 1293921358 -9.00000000
8.23605728 4.32402706 1.14215946 87 7 6230 9.37200000 1293921360 1293921360 7.00000000
4.85314512 2.54687786 -0.67296249 4 8 6231 5.52200000 1293921363 1293921363 -7.00000000
6.69049883 3.50961185 -0.66098917 122 10 6232 7.58400000 1293921367 1293921367 -5.00000000
8.19227695 4.29374838 -0.48473564 17 12 6234 9.26200000 1293921372 1293921372 -3.00000000
8.27191162 4.33364677 2.15593100 75 13 6235 9.58400000 1293921374 1293921374 13.00000000
8.21439934 4.30168867 -0.16185361 14 14 6236 9.27400000 1293921377 1293921377 -1.00000000
7.80906630 4.08942556 2.36198258 42 15 6236 9.12600000 1293921379 1293921379 15.00000000
2.02776361 1.05828738 -0.61288351 4 0 6244 2.36800000 1293921400 1293921400 -15.00000000
8.20873547 4.28230619 0.16160928 12 1 6245 9.26000000 1293921402 1293921402 1.00000000
2.38972020 1.24613082 -0.62221462 4 2 6246 2.76600000 1293921404 1293921404 -13.00000000
8.22679329 4.28807402 0.48620105 13 3 6247 9.29000000 1293921407 1293921407 3.00000000
2.85690379 1.48911178 -0.62623513 5 4 6247 3.28200000 1293921409 1293921409 -11.00000000
8.22868538 4.28723383 0.81176859 78 5 6248 9.31400000 1293921411 1293921411 5.00000000
3.60215569 1.87596273 -0.64325851 6 6 6249 4.11200000 1293921413 1293921413 -9.00000000
8.24053669 4.28975153 1.14069700 92 7 6250 9.36000000 1293921416 1293921416 7.00000000
4.85320139 2.52534008 -0.67174381 6 8 6251 5.51200000 1293921418 1293921418 -7.00000000
8.20544243 4.26420498 -0.48463094 17 12 6254 9.26000000 1293921427 1293921427 -3.00000000
8.26623631 4.29396629 2.15053201 80 13 6255 9.56000000 1293921430 1293921430 13.00000000
8.20806789 4.26193094 -0.16143475 14 14 6256 9.25000000 1293921432 1293921432 -1.00000000
7.81986427 4.06036139 2.36094737 42 15 6256 9.12200000 1293921434 1293921434 15.00000000
2.03126192 1.05155718 -0.61288351 4 0 6263 2.36800000 1293921455 1293921455 -15.00000000
8.20690727 4.24678993 0.16129515 12 1 6264 9.24200000 1293921457 1293921457 1.00000000
2.38518500 1.23372293 -0.61996508 3 2 6265 2.75600000 1293921460 1293921460 -13.00000000
8.22145176 4.25067902 0.48504964 13 3 6266 9.26800000 1293921462 1293921462 3.00000000
2.86705804 1.48233473 -0.62737995 5 4 6266 3.28800000 1293921464 1293921464 -11.00000000
8.21984673 4.24803114 0.80950254 78 5 6267 9.28800000 1293921466 1293921466 5.00000000
3.61186695 1.86582053 -0.64388424 6 6 6268 4.11600000 1293921469 1293921469 -9.00000000
8.24060535 4.25511551 1.13874710 90 7 6269 9.34400000 1293921471 1293921471 7.00000000
4.86154890 2.50923252 -0.67174381 6 8 6270 5.51200000 1293921473 1293921473 -7.00000000
8.31585979 4.29029751 1.48206007 2 9 6271 9.47400000 1293921476 1293921476 9.00000000
8.20711136 4.23056555 -0.48389825 17 12 6273 9.24600000 1293921483 1293921483 -3.00000000
8.26137543 4.25671244 2.14558315 75 13 6274 9.53800000 1293921485 1293921485 13.00000000
8.20437813 4.22553253 -0.16108571 14 14 6275 9.23000000 1293921487 1293921487 -1.00000000
7.83328581 4.03440714 2.36094737 45 15 6275 9.12200000 1293921489 1293921489 15.00000000
2.02804542 1.04093182 -0.61081296 4 0 6283 2.36000000 1293921510 1293921510 -15.00000000
8.20744705 4.21081448 0.16101590 12 1 6284 9.22600000 1293921513 1293921513 1.00000000
2.41201901 1.23694980 -0.62581384 4 2 6285 2.78200000 1293921515 1293921515 -13.00000000
8.23090744 4.21922207 0.48473564 13 3 6286 9.26200000 1293921517 1293921517 3.00000000
2.86872077 1.47052670 -0.62661672 5 4 6286 3.28400000 1293921519 1293921519 -11.00000000
8.21866608 4.21113586 0.80793375 86 5 6287 9.27000000 1293921522 1293921522 5.00000000
3.62187433 1.85500228 -0.64450997 4 6 6288 4.12000000 1293921524 1293921524 -9.00000000
8.23950577 4.21818304 1.13655353 94 7 6289 9.32600000 1293921526 1293921526 7.00000000
4.88441515 2.49948168 -0.67369372 6 8 6290 5.52800000 1293921529 1293921529 -7.00000000
6.65710497 3.40514660 -0.65419102 12 10 6291 7.50600000 1293921533 1293921533 -5.00000000
8.21115780 4.19643784 -0.48327023 17 12 6293 9.23400000 1293921538 1293921538 -3.00000000
8.26750660 4.22341633 2.14333367 75 13 6294 9.52800000 1293921540 1293921540 13.00000000
8.19592571 4.18504620 -0.16063195 16 14 6295 9.20400000 1293921542 1293921542 -1.00000000
7.83941698 4.00127840 2.35835910 45 15 6296 9.11200000 1293921545 1293921545 15.00000000
2.03166676 1.03384626 -0.61081296 4 0 6303 2.36000000 1293921566 1293921566 -15.00000000
8.19001293 4.16582060 0.16038762 12 1 6304 9.19000000 1293921568 1293921568 1.00000000
2.40242529 1.22145724 -0.62221462 4 2 6305 2.76600000 1293921570 1293921570 -13.00000000
8.22778034 4.18141603 0.48368892 15 3 6306 9.24200000 1293921572 1293921572 3.00000000
2.88433766 1.46584082 -0.62890643 5 4 6306 3.29600000 1293921575 1293921575 -11.00000000
8.22621059 4.17881203 0.80723649 86 5 6307 9.26200000 1293921577 1293921577 5.00000000
3.60719156 1.83161616 -0.64075559 6 6 6308 4.09600000 1293921579 1293921579 -9.00000000
8.22762775 4.17591953 1.13289738 97 7 6309 9.29600000 1293921582 1293921582 7.00000000
4.88956976 2.48062038 -0.67320627 6 8 6310 5.52400000 1293921584 1293921584 -7.00000000
6.65118074 3.37287712 -0.65244788 12 10 6311 7.48600000 1293921589 1293921589 -5.00000000
8.20794010 4.15872335 -0.48222351 17 12 6313 9.21400000 1293921593 1293921593 -3.00000000
8.27176762 4.18924856 2.14063430 75 13 6314 9.51600000 1293921595 1293921595 13.00000000
8.20334816 4.15279865 -0.16049233 18 14 6315 9.19600000 1293921598 1293921598 -1.00000000
7.85781336 3.97787786 2.35991216 42 15 6315 9.11800000 1293921600 1293921600 15.00000000
2.03871274 1.02848840 -0.61184824 4 0 6323 2.36400000 1293921621 1293921621 -15.00000000
8.19914818 4.13450575 0.16028289 12 1 6324 9.18400000 1293921623 1293921623 1.00000000
2.39971352 1.20955527 -0.62041503 4 2 6325 2.75800000 1293921625 1293921625 -13.00000000
8.22448921 4.14368391 0.48264217 15 3 6326 9.22200000 1293921628 1293921628 3.00000000
2.88943672 1.45576370 -0.62890643 5 4 6326 3.29600000 1293921630 1293921630 -11.00000000
8.22651196 4.14290285 0.80584198 86 5 6327 9.24600000 1293921632 1293921632 5.00000000
3.62591410 1.82523096 -0.64294565 6 6 6328 4.11000000 1293921635 1293921635 -9.00000000
8.21732807 4.13468266 1.12948513 97 7 6329 9.26800000 1293921637 1293921637 7.00000000
4.89110518 2.45996976 -0.67223132 6 8 6330 5.51600000 1293921639 1293921639 -7.00000000
6.67715454 3.35679889 -0.65384239 8 10 6331 7.50200000 1293921644 1293921644 -5.00000000
8.19920444 4.11839247 -0.48086277 17 12 6333 9.18800000 1293921648 1293921648 -3.00000000
8.26544189 4.14985657 2.13523531 75 13 6334 9.49200000 1293921651 1293921651 13.00000000
8.21422005 4.12234449 -0.16042252 18 14 6335 9.19200000 1293921653 1293921653 -1.00000000
7.86992407 3.94955826 2.35939431 45 15 6335 9.11600000 1293921655 1293921655 15.00000000
2.04401827 1.02222979 -0.61236584 4 0 6343 2.36600000 1293921676 1293921676 -15.00000000
8.20100975 4.09960127 0.16003856 12 1 6344 9.17000000 1293921678 1293921678 1.00000000
8.20017719 4.09739637 -2.11633945 8 2 6345 9.40800000 1293921681 1293921681 -13.00000000
8.20959854 4.10210419 0.48096743 10 3 6345 9.19000000 1293921683 1293921683 3.00000000
2.88923168 1.44303715 -0.62776160 5 4 6346 3.29000000 1293921685 1293921685 -11.00000000
8.23379230 4.11060190 0.80514473 97 5 6347 9.23800000 1293921688 1293921688 5.00000000
3.63933325 1.81609106 -0.64419711 6 6 6348 4.11800000 1293921690 1293921690 -9.00000000
8.22105312 4.10065746 1.12802267 95 7 6349 9.25600000 1293921692 1293921692 7.00000000
4.88189697 2.43402410 -0.66979390 9 8 6350 5.49600000 1293921694 1293921694 -7.00000000
8.32118702 4.14879084 1.47267401 2 9 6350 9.41400000 1293921697 1293921697 9.00000000
6.74946070 3.36368632 -0.65976900 8 10 6351 7.57000000 1293921699 1293921699 -5.00000000
8.19743919 4.08173466 -0.47992072 17 12 6353 9.17000000 1293921704 1293921704 -3.00000000
8.26243114 4.11229658 2.13073635 70 13 6354 9.47200000 1293921706 1293921706 13.00000000
8.20349407 4.08117676 -0.15993385 16 14 6355 9.16400000 1293921708 1293921708 -1.00000000
7.89231062 3.92636538 2.36198258 45 15 6355 9.12600000 1293921711 1293921711 15.00000000
2.03199649 1.00736606 -0.60770714 4 0 6363 2.34800000 1293921731 1293921731 -15.00000000
8.21168613 4.06917334 0.15996876 12 1 6364 9.16600000 1293921734 1293921734 1.00000000
8.19696712 4.06009817 -2.11184049 8 2 6365 9.38800000 1293921736 1293921736 -13.00000000
8.21025944 4.06489754 0.48013008 10 3 6366 9.17400000 1293921738 1293921738 3.00000000
2.88369465 1.42771649 -0.62547189 5 4 6366 3.27800000 1293921741 1293921741 -11.00000000
8.21059132 4.06327772 0.80148423 78 5 6367 9.19600000 1293921743 1293921743 5.00000000
3.65627408 1.80863154 -0.64607435 4 6 6368 4.13000000 1293921745 1293921745 -9.00000000
8.22819901 4.06841612 1.12704766 92 7 6369 9.24800000 1293921747 1293921747 7.00000000
4.90815973 2.42576361 -0.67223132 6 8 6370 5.51600000 1293921750 1293921750 -7.00000000
6.80045986 3.35951996 -0.66360384 4 10 6371 7.61400000 1293921754 1293921754 -5.00000000
8.20089149 4.04779148 -0.47929269 17 12 6373 9.15800000 1293921759 1293921759 -3.00000000
8.26275444 4.07653236 2.12713718 72 13 6374 9.45600000 1293921761 1293921761 13.00000000
8.19437504 4.04101849 -0.15948009 18 14 6375 9.13800000 1293921764 1293921764 -1.00000000
7.90145016 3.89484978 2.36042976 45 15 6376 9.12000000 1293921766 1293921766 15.00000000
2.04590344 1.00537896 -0.61081296 4 0 6383 2.36000000 1293921787 1293921787 -15.00000000
8.20071220 4.02814198 0.15948009 15 1 6384 9.13800000 1293921789 1293921789 1.00000000
8.20409298 4.02802515 -2.11004090 8 2 6385 9.38000000 1293921791 1293921791 -13.00000000
8.21831512 4.03500795 0.47981605 13 3 6385 9.16800000 1293921794 1293921794 3.00000000
2.89218569 1.41937172 -0.62623513 5 4 6386 3.28200000 1293921796 1293921796 -11.00000000
8.20862579 4.02669525 0.79991543 78 5 6387 9.17800000 1293921798 1293921798 5.00000000
3.63773417 1.78368235 -0.64169419 4 6 6388 4.10200000 1293921800 1293921800 -9.00000000
8.23165512 4.03442764 1.12558520 92 7 6389 9.23600000 1293921803 1293921803 7.00000000
4.91659737 2.40861607 -0.67223132 6 8 6390 5.51600000 1293921805 1293921805 -7.00000000
7.54578829 3.69501066 -0.73507154 13 10 6391 8.43400000 1293921810 1293921810 -5.00000000
8.19703102 4.01036310 -0.47824597 17 12 6393 9.13800000 1293921814 1293921814 -3.00000000
8.26993084 4.04424095 2.12533760 68 13 6394 9.44800000 1293921817 1293921817 13.00000000
8.19405842 4.00536489 -0.15920085 14 14 6395 9.12200000 1293921819 1293921819 -1.00000000
7.90911579 3.86608100 2.35887671 42 15 6395 9.11400000 1293921821 1293921821 15.00000000
2.04940033 0.99823135 -0.61081296 4 0 6403 2.36000000 1293921842 1293921842 -15.00000000
8.20034027 3.99248862 0.15920085 18 1 6404 9.12200000 1293921844 1293921844 1.00000000
8.18831539 3.98486638 -2.10239244 8 2 6405 9.34600000 1293921846 1293921846 -13.00000000
8.22157478 4.00105238 0.47918802 10 3 6405 9.15600000 1293921849 1293921849 3.00000000
2.89535713 1.40840864 -0.62585348 5 4 6406 3.28000000 1293921851 1293921851 -11.00000000
8.20650578 3.99017644 0.79834658 78 5 6407 9.16000000 1293921853 1293921853 5.00000000
3.62972498 1.76406574 -0.63919121 6 6 6408 4.08600000 1293921856 1293921856 -9.00000000
8.22247505 3.99439311 1.12241662 99 7 6409 9.21000000 1293921858 1293921858 7.00000000
4.93568945 2.39664197 -0.67369372 9 8 6410 5.52800000 1293921860 1293921860 -7.00000000
8.32045746 4.03840256 1.46485233 2 9 6411 9.36400000 1293921863 1293921863 9.00000000
7.55505562 3.66690850 -0.73472291 13 10 6411 8.43000000 1293921865 1293921865 -5.00000000
8.32132149 4.03702784 1.79780233 3 11 6412 9.42200000 1293921867 1293921867 11.00000000
8.19300842 3.97301126 -0.47719926 17 12 6413 9.11800000 1293921870 1293921870 -3.00000000
8.27698326 4.01194859 2.12353802 70 13 6414 9.44000000 1293921872 1293921872 13.00000000
8.19359303 3.96976256 -0.15892161 16 14 6415 9.10600000 1293921874 1293921874 -1.00000000
7.93125534 3.84266114 2.36146498 45 15 6415 9.12400000 1293921876 1293921876 15.00000000
2.05252624 0.99178803 -0.61081296 4 0 6421 2.36000000 1293921897 1293921897 -15.00000000
8.20383835 3.96235824 0.15902632 21 1 6422 9.11200000 1293921899 1293921899 1.00000000
8.18324375 3.95064998 -2.09789348 8 2 6423 9.32600000 1293921902 1293921902 -13.00000000
8.21501160 3.96421862 0.47803661 10 3 6424 9.13400000 1293921904 1293921904 3.00000000
2.90507197 1.40186536 -0.62699836 5 4 6424 3.28600000 1293921906 1293921906 -11.00000000
8.21002769 3.96004748 0.79747504 75 5 6425 9.15000000 1293921909 1293921909 5.00000000
3.64948392 1.75951695 -0.64169419 4 6 6426 4.10200000 1293921911 1293921911 -9.00000000
8.21531296 3.95906210 1.11973548 90 7 6427 9.18800000 1293921913 1293921913 7.00000000
4.92888689 2.37423229 -0.67174381 6 8 6428 5.51200000 1293921916 1293921916 -7.00000000
7.57012844 3.64488411 -0.73507154 13 10 6429 8.43400000 1293921920 1293921920 -5.00000000
8.18565178 3.93772864 -0.47604784 17 12 6431 9.09600000 1293921925 1293921925 -3.00000000
8.26847172 3.97579241 2.11813903 72 13 6432 9.41600000 1293921927 1293921927 13.00000000
8.20602417 3.94400215 -0.15892161 18 14 6433 9.10600000 1293921929 1293921929 -1.00000000
7.94743729 3.81801224 2.36250019 45 15 6434 9.12800000 1293921932 1293921932 15.00000000
2.05946040 0.98628616 -0.61184824 4 0 6441 2.36400000 1293921952 1293921952 -15.00000000
8.20499420 3.92765355 0.15878199 21 1 6442 9.09800000 1293921955 1293921955 1.00000000
8.18995285 3.91869664 -2.09609389 8 2 6443 9.31800000 1293921957 1293921957 -13.00000000
8.20468998 3.92574811 0.47667590 13 3 6443 9.10800000 1293921959 1293921959 3.00000000
2.90286303 1.38832796 -0.62547189 5 4 6444 3.27800000 1293921962 1293921962 -11.00000000
8.22559834 3.93222427 0.79764938 78 5 6445 9.15200000 1293921964 1293921964 5.00000000
3.66273284 1.75017381 -0.64294565 4 6 6446 4.11000000 1293921966 1293921966 -9.00000000
8.22191715 3.92693901 1.11876059 95 7 6447 9.18000000 1293921969 1293921969 7.00000000
4.91922998 2.34846067 -0.66930646 9 8 6448 5.49200000 1293921971 1293921971 -7.00000000
7.58999777 3.62186956 -0.73576880 13 10 6449 8.44200000 1293921976 1293921976 -5.00000000
8.18492413 3.90225506 -0.47521049 17 12 6451 9.08000000 1293921980 1293921980 -3.00000000
8.25591087 3.93433070 2.11139059 74 13 6452 9.38600000 1293921982 1293921982 13.00000000
8.19446659 3.90329432 -0.15843295 14 14 6453 9.07800000 1293921985 1293921985 -1.00000000
7.96420479 3.79190803 2.36353540 45 15 6454 9.13200000 1293921987 1293921987 15.00000000
2.06289077 0.97909135 -0.61184824 4 0 6461 2.36400000 1293922008 1293922008 -15.00000000
8.20058727 3.89041781 0.15843295 21 1 6462 9.07800000 1293922010 1293922010 1.00000000
8.17188740 3.87505531 -2.08799577 8 2 6463 9.28200000 1293922012 1293922012 -13.00000000
8.21653938 3.89622879 0.47657123 13 3 6463 9.10600000 1293922015 1293922015 3.00000000
2.90946555 1.37902749 -0.62585348 5 4 6464 3.28000000 1293922017 1293922017 -11.00000000
8.21766758 3.89325118 0.79555762 75 5 6465 9.12800000 1293922019 1293922019 5.00000000
3.68310237 1.74414134 -0.64544863 6 6 6466 4.12600000 1293922022 1293922022 -9.00000000
8.22480965 3.89311957 1.11729813 95 7 6467 9.16800000 1293922024 1293922024 7.00000000
4.94175291 2.33806682 -0.67125636 9 8 6468 5.50800000 1293922026 1293922026 -7.00000000
7.59538984 3.59194636 -0.73507154 13 10 6469 8.43400000 1293922031 1293922031 -5.00000000
8.19488430 3.87195420 -0.47500113 17 12 6471 9.07600000 1293922035 1293922035 -3.00000000
8.25549698 3.89883065 2.10779142 74 13 6472 9.37000000 1293922038 1293922038 13.00000000
8.19176579 3.86698389 -0.15811880 16 14 6473 9.06000000 1293922040 1293922040 -1.00000000
7.97739267 3.76408458 2.36353540 45 15 6474 9.13200000 1293922042 1293922042 15.00000000
2.05580688 0.96695113 -0.60874242 4 0 6481 2.35200000 1293922063 1293922063 -15.00000000
8.19964027 3.85496235 0.15815371 21 1 6482 9.06200000 1293922065 1293922065 1.00000000
8.18183708 3.84484887 -2.08709598 8 2 6483 9.27800000 1293922068 1293922068 -13.00000000
8.22285938 3.86412621 0.47615254 13 3 6483 9.09800000 1293922070 1293922070 3.00000000
2.91603851 1.36969793 -0.62623513 5 4 6484 3.28200000 1293922072 1293922072 -11.00000000
8.20956612 3.85438156 0.79346585 78 5 6485 9.10400000 1293922075 1293922075 5.00000000
3.67843866 1.72623909 -0.64357138 6 6 6486 4.11400000 1293922077 1293922077 -9.00000000
8.22576809 3.85848475 1.11559200 99 7 6487 9.15400000 1293922079 1293922079 7.00000000
4.95168161 2.32164526 -0.67150009 9 8 6488 5.51000000 1293922082 1293922082 -7.00000000
8.33641720 3.90861225 1.45828211 2 9 6488 9.32200000 1293922084 1293922084 9.00000000
7.59705734 3.56033874 -0.73402566 13 10 6489 8.42200000 1293922086 1293922086 -5.00000000
8.20654106 3.84247804 -0.47489646 17 12 6491 9.07400000 1293922091 1293922091 -3.00000000
8.25846672 3.86503363 2.10509205 74 13 6492 9.35800000 1293922093 1293922093 13.00000000
8.19796944 3.83497643 -0.15797919 16 14 6493 9.05200000 1293922095 1293922095 -1.00000000
7.99048281 3.73621535 2.36353540 45 15 6494 9.13200000 1293922098 1293922098 15.00000000
2.05916977 0.95976913 -0.60874242 4 0 6501 2.35200000 1293922118 1293922118 -15.00000000
8.18404388 3.81280518 0.15759523 15 1 6502 9.03000000 1293922121 1293922121 1.00000000
8.18107510 3.80968428 -2.08349657 8 2 6503 9.26200000 1293922123 1293922123 -13.00000000
8.22000217 3.82781148 0.47521049 13 3 6503 9.08000000 1293922125 1293922125 3.00000000
2.91902208 1.35868216 -0.62585348 5 4 6504 3.28000000 1293922128 1293922128 -11.00000000
8.20309925 3.81645632 0.79154843 78 5 6505 9.08200000 1293922130 1293922130 5.00000000
3.66653013 1.70505893 -0.64044273 6 6 6506 4.09400000 1293922132 1293922132 -9.00000000
8.21578503 3.81887054 1.11242342 97 7 6507 9.12800000 1293922134 1293922134 7.00000000
4.96695662 2.30769229 -0.67247504 9 8 6508 5.51800000 1293922137 1293922137 -7.00000000
7.61305285 3.53547668 -0.73437428 13 10 6509 8.42600000 1293922141 1293922141 -5.00000000
8.19453907 3.80204010 -0.47343105 17 12 6511 9.04600000 1293922146 1293922146 -3.00000000
8.25776482 3.82962370 2.10149264 74 13 6512 9.34200000 1293922148 1293922148 13.00000000
8.19497776 3.79876781 -0.15766504 16 14 6513 9.03400000 1293922151 1293922151 -1.00000000
8.00107574 3.70888495 2.36301780 42 15 6513 9.13000000 1293922153 1293922153 15.00000000
2.07127666 0.95662546 -0.61133057 4 0 6521 2.36200000 1293922174 1293922174 -15.00000000
8.19548798 3.78337622 0.15756032 12 1 6522 9.02800000 1293922176 1293922176 1.00000000
8.16778183 3.76885653 -2.07674813 8 2 6523 9.23200000 1293922178 1293922178 -13.00000000
8.21517849 3.79072690 0.47416377 13 3 6523 9.06000000 1293922181 1293922181 3.00000000
2.92196417 1.34766233 -0.62547189 5 4 6524 3.27800000 1293922183 1293922183 -11.00000000
8.21456146 3.78696489 0.79137415 78 5 6525 9.08000000 1293922185 1293922185 5.00000000
3.69040036 1.70051694 -0.64357138 4 6 6526 4.11400000 1293922187 1293922187 -9.00000000
8.20562553 3.77937293 1.10925472 99 7 6527 9.10200000 1293922190 1293922190 7.00000000
4.95694971 2.28203893 -0.67003763 9 8 6528 5.49800000 1293922192 1293922192 -7.00000000
7.62534761 3.50888062 -0.73437428 13 10 6529 8.42600000 1293922197 1293922197 -5.00000000
8.19142818 3.76590419 -0.47248900 17 12 6531 9.02800000 1293922201 1293922201 -3.00000000
8.24983311 3.79101110 2.09609389 74 13 6532 9.31800000 1293922204 1293922204 13.00000000
8.20818806 3.77013898 -0.15766504 14 14 6533 9.03400000 1293922206 1293922206 -1.00000000
8.02690601 3.68517685 2.36664128 45 15 6534 9.14400000 1293922208 1293922208 15.00000000
2.07443738 0.94975162 -0.61133057 4 0 6540 2.36200000 1293922229 1293922229 -15.00000000
8.19344234 3.74952126 0.15728109 12 1 6541 9.01200000 1293922231 1293922231 1.00000000
8.17491817 3.73931885 -2.07539845 8 2 6542 9.22600000 1293922234 1293922234 -13.00000000
8.20656395 3.75206184 0.47290769 15 3 6543 9.03600000 1293922236 1293922236 3.00000000
2.91927528 1.33470011 -0.62394542 5 4 6543 3.27000000 1293922238 1293922238 -11.00000000
8.21620178 3.75473475 0.79032826 82 5 6544 9.06800000 1293922240 1293922240 5.00000000
3.69601917 1.68826973 -0.64357138 4 6 6545 4.11400000 1293922243 1293922243 -9.00000000
8.21089077 3.74884343 1.10827982 99 7 6546 9.09400000 1293922245 1293922245 7.00000000
4.95907259 2.26311612 -0.66930646 9 8 6547 5.49200000 1293922247 1293922247 -7.00000000
8.30613708 3.79057813 1.44608021 2 9 6547 9.24400000 1293922250 1293922250 9.00000000
7.63331604 3.48192096 -0.73402566 13 10 6548 8.42200000 1293922252 1293922252 -5.00000000
8.19841957 3.73623514 -0.47217500 17 12 6550 9.02200000 1293922257 1293922257 -3.00000000
8.24639893 3.75636244 2.09204483 68 13 6551 9.30000000 1293922259 1293922259 13.00000000
8.18970585 3.72881222 -0.15707166 16 14 6552 9.00000000 1293922261 1293922261 -1.00000000
8.03316879 3.65754008 2.36508846 45 15 6552 9.13800000 1293922264 1293922264 15.00000000
2.07246208 0.94011050 -0.60977769 4 0 6560 2.35600000 1293922284 1293922284 -15.00000000
8.19919586 3.71759486 0.15714146 12 1 6561 9.00400000 1293922287 1293922287 1.00000000
8.18437099 3.70915127 -2.07449865 8 2 6562 9.22200000 1293922289 1293922289 -13.00000000
8.20869541 3.71844792 0.47227967 13 3 6563 9.02400000 1293922291 1293922291 3.00000000
2.92570472 1.32531190 -0.62432700 5 4 6563 3.27200000 1293922293 1293922293 -11.00000000
8.21292305 3.71863580 0.78875947 86 5 6564 9.05000000 1293922296 1293922296 5.00000000
3.69109178 1.67047119 -0.64169419 6 6 6565 4.10200000 1293922298 1293922298 -9.00000000
8.21488285 3.71606851 1.10706115 97 7 6566 9.08400000 1293922300 1293922300 7.00000000
4.98864746 2.25560594 -0.67223132 9 8 6567 5.51600000 1293922303 1293922303 -7.00000000
7.65087080 3.45771623 -0.73454863 13 10 6568 8.42800000 1293922307 1293922307 -5.00000000
8.20049000 3.70266294 -0.47154698 17 12 6570 9.01000000 1293922312 1293922312 -3.00000000
8.24880314 3.72274446 2.08934546 66 13 6571 9.28800000 1293922314 1293922314 13.00000000
8.19355869 3.69609070 -0.15689713 14 14 6572 8.99000000 1293922317 1293922317 -1.00000000
8.04652023 3.62807250 2.36508846 45 15 6573 9.13800000 1293922319 1293922319 15.00000000
2.06900716 0.92898077 -0.60770714 4 0 6582 2.34800000 1293922340 1293922340 -15.00000000
8.18604374 3.67380333 0.15661789 12 1 6583 8.97400000 1293922342 1293922342 1.00000000
8.18966293 3.67371035 -2.07224917 8 2 6584 9.21200000 1293922344 1293922344 -13.00000000
8.21380043 3.68281579 0.47175631 10 3 6585 9.01400000 1293922346 1293922346 3.00000000
2.92898059 1.31326497 -0.62394542 5 4 6585 3.27000000 1293922349 1293922349 -11.00000000
8.19077778 3.67077661 0.78527325 78 5 6586 9.01000000 1293922351 1293922351 5.00000000
3.70829535 1.66113138 -0.64357138 6 6 6587 4.11400000 1293922353 1293922353 -9.00000000
8.22003269 3.68044233 1.10584247 100 7 6588 9.07400000 1293922356 1293922356 7.00000000
4.98640013 2.23156905 -0.67076886 9 8 6589 5.50400000 1293922358 1293922358 -7.00000000
7.64954090 3.42180514 -0.73315412 13 10 6590 8.41200000 1293922363 1293922363 -5.00000000
8.20552921 3.66707373 -0.47102362 12 12 6592 9.00000000 1293922367 1293922367 -3.00000000
8.25591946 3.68786478 2.08754587 64 13 6593 9.28000000 1293922370 1293922370 13.00000000
8.19673443 3.65971112 -0.15668771 14 14 6594 8.97800000 1293922372 1293922372 -1.00000000
7.12483835 3.18112683 2.09074020 33 15 6594 8.07800000 1293922374 1293922374 15.00000000
2.07929778 0.92489344 -0.60977769 4 0 6602 2.35600000 1293922395 1293922395 -15.00000000
8.19516373 3.64358163 0.15654808 12 1 6603 8.97000000 1293922397 1293922397 1.00000000
8.17750549 3.63402152 -2.06595039 8 2 6604 9.18400000 1293922399 1293922399 -13.00000000
8.21930408 3.65087891 0.47133762 13 3 6605 9.00600000 1293922402 1293922402 3.00000000
2.93892956 1.30542386 -0.62509024 5 4 6605 3.27600000 1293922404 1293922404 -11.00000000
8.19261551 3.63731241 0.78422737 78 5 6606 8.99800000 1293922406 1293922406 5.00000000
3.70323777 1.64336944 -0.64169419 6 6 6607 4.10200000 1293922409 1293922409 -9.00000000
8.21468353 3.64367771 1.10340500 99 7 6608 9.05400000 1293922411 1293922411 7.00000000
4.99778891 2.21575880 -0.67125636 9 8 6609 5.50800000 1293922413 1293922413 -7.00000000
7.66143894 3.39508247 -0.73315412 13 10 6610 8.41200000 1293922418 1293922418 -5.00000000
8.19088554 3.62628055 -0.46945351 17 12 6612 8.97000000 1293922422 1293922422 -3.00000000
8.26161385 3.65586948 2.08574629 64 13 6613 9.27200000 1293922425 1293922425 13.00000000
8.18751335 3.62137008 -0.15626885 20 14 6614 8.95400000 1293922427 1293922427 -1.00000000
7.11878109 3.14718008 2.08556390 45 15 6615 8.05800000 1293922429 1293922429 15.00000000
2.08572841 0.91991580 -0.61081296 4 0 6620 2.36000000 1293922450 1293922450 -15.00000000
8.19193172 3.61136460 0.15626885 12 1 6621 8.95400000 1293922452 1293922452 1.00000000
8.17104816 3.60045528 -2.06145144 8 2 6622 9.16400000 1293922455 1293922455 -13.00000000
8.20879936 3.61537886 0.47008157 10 3 6623 8.98200000 1293922457 1293922457 3.00000000
2.94840622 1.29855847 -0.62623513 5 4 6623 3.28200000 1293922459 1293922459 -11.00000000
8.19853115 3.60914826 0.78370446 78 5 6624 8.99200000 1293922462 1293922462 5.00000000
3.69210958 1.62456703 -0.63887835 6 6 6625 4.08400000 1293922464 1293922464 -9.00000000
8.20610142 3.60906172 1.10072386 97 7 6626 9.03200000 1293922466 1293922466 7.00000000
5.00472498 2.20004678 -0.67125636 9 8 6627 5.50800000 1293922469 1293922469 -7.00000000
7.67206717 3.37099648 -0.73315412 13 10 6628 8.41200000 1293922473 1293922473 -5.00000000
8.17480469 3.58848858 -0.46788344 17 12 6630 8.94000000 1293922478 1293922478 -3.00000000
8.26235104 3.62519884 2.08304667 64 13 6631 9.26000000 1293922480 1293922480 13.00000000
8.20251274 3.59723687 -0.15633866 20 14 6632 8.95800000 1293922482 1293922482 -1.00000000
7.14577961 3.13380337 2.09074020 45 15 6632 8.07800000 1293922485 1293922485 15.00000000
2.08715630 0.91185623 -0.61029530 4 0 6640 2.35800000 1293922505 1293922505 -15.00000000
8.18799400 3.57554507 0.15595470 18 1 6641 8.93600000 1293922508 1293922508 1.00000000
8.18356705 3.57191110 -2.06145144 8 2 6642 9.16400000 1293922510 1293922510 -13.00000000
8.20489311 3.57951498 0.46913952 10 3 6643 8.96400000 1293922512 1293922512 3.00000000
2.95112157 1.28747368 -0.62585348 5 4 6643 3.28000000 1293922515 1293922515 -11.00000000
8.19829559 3.57493353 0.78248423 78 5 6644 8.97800000 1293922517 1293922517 5.00000000
3.70862293 1.61640489 -0.64075559 6 6 6645 4.09600000 1293922519 1293922519 -9.00000000
8.21137047 3.57722378 1.09974897 95 7 6646 9.02400000 1293922522 1293922522 7.00000000
4.99963379 2.17701602 -0.66955018 9 8 6647 5.49400000 1293922524 1293922524 -7.00000000
7.69292164 3.34817100 -0.73402566 13 10 6648 8.42200000 1293922528 1293922528 -5.00000000
8.18178654 3.55754209 -0.46756944 17 12 6650 8.93400000 1293922533 1293922533 -3.00000000
8.24993420 3.58546138 2.07674813 66 13 6651 9.23200000 1293922535 1293922535 13.00000000
8.19117546 3.55822515 -0.15588489 20 14 6652 8.93200000 1293922538 1293922538 -1.00000000
7.16076136 3.10913062 2.09177542 45 15 6653 8.08200000 1293922540 1293922540 15.00000000
2.09580374 0.90650105 -0.61184824 4 0 6661 2.36400000 1293922561 1293922561 -15.00000000
8.20287991 3.54630399 0.15598960 18 1 6662 8.93800000 1293922563 1293922563 1.00000000
8.18587017 3.53725481 -2.05875206 8 2 6663 9.15200000 1293922565 1293922565 -13.00000000
8.20695686 3.54466677 0.46851149 13 3 6664 8.95200000 1293922568 1293922568 3.00000000
2.94500661 1.27197790 -0.62356383 6 4 6664 3.26800000 1293922570 1293922570 -11.00000000
8.19670963 3.53854370 0.78108978 78 5 6665 8.96200000 1293922572 1293922572 5.00000000
3.72359109 1.60671425 -0.64231992 6 6 6666 4.10600000 1293922575 1293922575 -9.00000000
8.20984364 3.54081440 1.09779906 95 7 6667 9.00800000 1293922577 1293922577 7.00000000
5.01487112 2.16182017 -0.67052513 9 8 6668 5.50200000 1293922579 1293922579 -7.00000000
7.69965219 3.31758738 -0.73350275 13 10 6669 8.41600000 1293922584 1293922584 -5.00000000
8.19293594 3.52674079 -0.46746477 17 12 6671 8.93200000 1293922588 1293922588 -3.00000000
8.25943947 3.55365944 2.07584834 68 13 6672 9.22800000 1293922591 1293922591 13.00000000
8.17844391 3.51711893 -0.15539622 18 14 6673 8.90400000 1293922593 1293922593 -1.00000000
7.16447210 3.08106303 2.08970499 45 15 6673 8.07400000 1293922595 1293922595 15.00000000
2.09007645 0.89537615 -0.60926002 4 0 6681 2.35400000 1293922616 1293922616 -15.00000000
8.19131184 3.50741649 0.15553585 25 1 6682 8.91200000 1293922618 1293922618 1.00000000
8.17487717 3.49869156 -2.05290341 8 2 6683 9.12600000 1293922621 1293922621 -13.00000000
8.21009827 3.51206994 0.46798813 10 3 6684 8.94200000 1293922623 1293922623 3.00000000
2.95484400 1.26400661 -0.62470865 6 4 6684 3.27400000 1293922625 1293922625 -11.00000000
8.19252396 3.50286078 0.77952099 75 5 6685 8.94400000 1293922628 1293922628 5.00000000
3.72191095 1.59060156 -0.64106846 6 6 6686 4.09800000 1293922630 1293922630 -9.00000000
8.22215366 3.51213527 1.09779906 97 7 6687 9.00800000 1293922632 1293922632 7.00000000
5.02786398 2.14664030 -0.67125636 9 8 6688 5.50800000 1293922634 1293922634 -7.00000000
7.68919563 3.28130627 -0.73141098 13 10 6689 8.39200000 1293922639 1293922639 -5.00000000
8.18682384 3.49028778 -0.46641803 21 12 6691 8.91200000 1293922644 1293922644 -3.00000000
8.26103687 3.52022314 2.07314897 70 13 6692 9.21600000 1293922646 1293922646 13.00000000
8.18699169 3.48698235 -0.15532641 20 14 6693 8.90000000 1293922648 1293922648 -1.00000000
7.15971899 3.04797292 2.08504629 45 15 6694 8.05600000 1293922651 1293922651 15.00000000
2.08592105 0.88542098 -0.60718948 4 0 6700 2.34600000 1293922671 1293922671 -15.00000000
8.17896652 3.47008061 0.15508208 15 1 6701 8.88600000 1293922674 1293922674 1.00000000
8.17566967 3.46699858 -2.05020380 8 2 6702 9.11400000 1293922676 1293922676 -13.00000000
8.20882702 3.47936916 0.46725541 10 3 6703 8.92800000 1293922678 1293922678 3.00000000
2.96444201 1.25649953 -0.62585348 5 4 6703 3.28000000 1293922681 1293922681 -11.00000000
8.19492245 3.47178817 0.77864939 75 5 6704 8.93400000 1293922683 1293922683 5.00000000
3.72716522 1.57825053 -0.64106846 6 6 6705 4.09800000 1293922685 1293922685 -9.00000000
8.21181774 3.47556543 1.09487414 92 7 6706 8.98400000 1293922687 1293922687 7.00000000
5.03861094 2.13150239 -0.67174381 6 8 6707 5.51200000 1293922690 1293922690 -7.00000000
7.71288013 3.26122141 -0.73263115 13 10 6708 8.40600000 1293922694 1293922694 -5.00000000
8.18915367 3.45923424 -0.46589467 17 12 6710 8.90200000 1293922699 1293922699 -3.00000000
8.26548386 3.48977733 2.07134938 70 13 6711 9.20800000 1293922701 1293922701 13.00000000
8.18745518 3.45514917 -0.15511699 16 14 6712 8.88800000 1293922704 1293922704 -1.00000000
7.17993832 3.02997160 2.08815217 45 15 6712 8.06800000 1293922706 1293922706 15.00000000
2.09790349 0.88187748 -0.60977769 4 0 6720 2.35600000 1293922727 1293922727 -15.00000000
8.18365479 3.43841124 0.15494247 15 1 6721 8.87800000 1293922729 1293922729 1.00000000
2.45613694 1.03145623 -0.61501616 4 2 6722 2.73400000 1293922731 1293922731 -13.00000000
8.20803165 3.44528270 0.46652272 13 3 6723 8.91400000 1293922734 1293922734 3.00000000
2.96337914 1.24386454 -0.62470865 6 4 6723 3.27400000 1293922736 1293922736 -11.00000000
8.20147896 3.44084883 0.77812648 78 5 6724 8.92800000 1293922738 1293922738 5.00000000
3.71807814 1.55911958 -0.63856548 4 6 6725 4.08200000 1293922740 1293922740 -9.00000000
8.20376110 3.43843913 1.09219301 99 7 6726 8.96200000 1293922743 1293922743 7.00000000
5.03869724 2.11083317 -0.67076886 6 8 6727 5.50400000 1293922745 1293922745 -7.00000000
7.72605467 3.23504806 -0.73280549 13 10 6728 8.40800000 1293922750 1293922750 -5.00000000
8.17906857 3.42137861 -0.46463862 17 12 6730 8.87800000 1293922754 1293922754 -3.00000000
8.25963593 3.45338702 2.06685019 68 13 6731 9.18800000 1293922757 1293922757 13.00000000
8.19577599 3.42500639 -0.15504718 18 14 6732 8.88400000 1293922759 1293922759 -1.00000000
7.19581890 3.00712538 2.08970499 45 15 6732 8.07400000 1293922761 1293922761 15.00000000
2.10081649 0.87491572 -0.60977769 4 0 6739 2.35600000 1293922782 1293922782 -15.00000000
8.18947315 3.40894890 0.15483776 12 1 6740 8.87200000 1293922784 1293922784 1.00000000
2.47753620 1.03079152 -0.61951518 4 2 6741 2.75400000 1293922787 1293922787 -13.00000000
8.19728184 3.40884209 0.46526664 15 3 6742 8.89000000 1293922789 1293922789 3.00000000
2.96386218 1.23252308 -0.62394542 6 4 6742 3.27000000 1293922791 1293922791 -11.00000000
8.19996548 3.40827990 0.77690631 75 5 6743 8.91400000 1293922793 1293922793 5.00000000
3.73599744 1.55208635 -0.64075559 6 6 6744 4.09600000 1293922796 1293922796 -9.00000000
8.20595169 3.40740919 1.09097433 97 7 6745 8.95200000 1293922798 1293922798 7.00000000
5.03100157 2.08802509 -0.66881895 6 8 6746 5.48800000 1293922800 1293922800 -7.00000000
7.74778223 3.21399021 -0.73385137 13 10 6747 8.42000000 1293922805 1293922805 -5.00000000
8.18298912 3.39117837 -0.46421993 17 12 6749 8.87000000 1293922810 1293922810 -3.00000000
8.24583721 3.41553760 2.06055164 68 13 6750 9.16000000 1293922812 1293922812 13.00000000
8.18491745 3.38863039 -0.15462832 16 14 6751 8.86000000 1293922814 1293922814 -1.00000000
7.21110582 2.98546338 2.09125781 45 15 6751 8.08000000 1293922816 1293922816 15.00000000
2.10028577 0.86610419 -0.60874242 4 0 6759 2.35200000 1293922837 1293922837 -15.00000000
8.18838120 3.37500739 0.15459342 12 1 6760 8.85800000 1293922840 1293922840 1.00000000
2.48472285 1.02362156 -0.62041503 4 2 6761 2.75800000 1293922842 1293922842 -13.00000000
8.20174313 3.37716579 0.46484795 15 3 6762 8.88200000 1293922844 1293922844 3.00000000
2.96633101 1.22142220 -0.62356383 5 4 6762 3.26800000 1293922846 1293922846 -11.00000000
8.19891548 3.37432814 0.77568609 78 5 6763 8.90000000 1293922849 1293922849 5.00000000
3.74687290 1.54129028 -0.64169419 6 6 6764 4.10200000 1293922851 1293922851 -9.00000000
8.21045208 3.37572479 1.08999944 97 7 6765 8.94400000 1293922853 1293922853 7.00000000
5.05294800 2.07648730 -0.67076886 6 8 6766 5.50400000 1293922856 1293922856 -7.00000000
7.75158215 3.18389797 -0.73315412 13 10 6767 8.41200000 1293922860 1293922860 -5.00000000
8.18923378 3.36031914 -0.46390593 17 12 6769 8.86400000 1293922865 1293922865 -3.00000000
8.25410366 3.38525438 2.05965185 68 13 6770 9.15600000 1293922867 1293922867 13.00000000
8.17819309 3.35245419 -0.15427928 16 14 6771 8.84000000 1293922869 1293922869 -1.00000000
7.21306181 2.95535135 2.08866978 42 15 6772 8.07000000 1293922872 1293922872 15.00000000
2.09614205 0.85584658 -0.60667187 4 0 6779 2.34400000 1293922893 1293922893 -15.00000000
8.18900394 3.34187055 0.15438399 12 1 6780 8.84600000 1293922895 1293922895 1.00000000
2.49549866 1.01788604 -0.62221462 4 2 6781 2.76600000 1293922897 1293922897 -13.00000000
8.20978260 3.34700775 0.46463862 13 3 6782 8.87800000 1293922899 1293922899 3.00000000
2.97239447 1.21180153 -0.62394542 6 4 6782 3.27000000 1293922902 1293922902 -11.00000000
8.19403839 3.33892131 0.77411729 86 5 6783 8.88200000 1293922904 1293922904 5.00000000
3.75405979 1.52894700 -0.64200705 6 6 6784 4.10400000 1293922906 1293922906 -9.00000000
8.21115398 3.34255385 1.08853698 97 7 6785 8.93200000 1293922909 1293922909 7.00000000
5.05648851 2.05734038 -0.67028141 6 8 6786 5.50000000 1293922911 1293922911 -7.00000000
7.76449442 3.15757108 -0.73332840 13 10 6787 8.41400000 1293922916 1293922916 -5.00000000
8.18981075 3.32720256 -0.46327788 17 12 6789 8.85200000 1293922920 1293922920 -3.00000000
8.26225853 3.35495543 2.05875206 66 13 6790 9.15200000 1293922922 1293922922 13.00000000
8.17502308 3.31787062 -0.15400003 16 14 6791 8.82400000 1293922925 1293922925 -1.00000000
7.21566200 2.92850971 2.08659911 42 15 6791 8.06200000 1293922927 1293922927 15.00000000
2.10269904 0.84997243 -0.60770714 4 0 6799 2.34800000 1293922948 1293922948 -15.00000000
8.17095375 3.30127954 0.15382551 12 1 6800 8.81400000 1293922950 1293922950 1.00000000
2.48277378 1.00260162 -0.61816549 4 2 6801 2.74800000 1293922952 1293922952 -13.00000000
8.20659924 3.31234956 0.46380123 13 3 6802 8.86200000 1293922955 1293922955 3.00000000
2.97842693 1.20215333 -0.62432700 6 4 6802 3.27200000 1293922957 1293922957 -11.00000000
8.20194817 3.30880785 0.77376866 86 5 6803 8.87800000 1293922959 1293922959 5.00000000
3.74288535 1.50918508 -0.63919121 6 6 6804 4.08600000 1293922962 1293922962 -9.00000000
8.20251846 3.30570889 1.08585584 100 7 6805 8.91000000 1293922964 1293922964 7.00000000
5.05074978 2.03448534 -0.66857523 6 8 6806 5.48600000 1293922966 1293922966 -7.00000000
7.76622772 3.12672806 -0.73245686 13 10 6807 8.40400000 1293922971 1293922971 -5.00000000
