# .PCD v0.7 - Point Cloud Data file format
VERSION 0.7
FIELDS x y z intensity laser_id azimuth distance_m adjustedtime timestamp vertical_angle
SIZE 4 4 4 1 1 2 8 8 4 8
TYPE F F F U U U F U U F
COUNT 1 1 1 1 1 1 1 1 1 1
WIDTH 522
HEIGHT 1
VIEWPOINT 0 0 0 1 0 0 0
POINTS 522
DATA ascii
-2.42113042 6.90593433 -0.64024609 4 10 34068 7.34600000 1293798610 1293798610 -5.00000000
-3.74008274 10.67402744 2.19850135 59 11 34069 11.52200000 1293798612 1293798612 11.00000000
-3.90924764 11.16305923 -0.61986709 8 12 34070 11.84400000 1293798614 1293798614 -3.00000000
-3.56195521 10.17704105 2.48930836 53 13 34071 11.06600000 1293798617 1293798617 13.00000000
-3.90813375 11.17237854 -0.20660159 6 14 34072 11.83800000 1293798619 1293798619 -1.00000000
-3.07299113 8.78983593 2.49501562 38 15 34073 9.64000000 1293798621 1293798621 15.00000000
-0.72553724 2.08345914 -0.59114271 4 0 34080 2.28400000 1293798642 1293798642 -15.00000000
-3.88992214 11.17661572 0.20656668 10 1 34081 11.83600000 1293798644 1293798644 1.00000000
-0.84382737 2.42586827 -0.59297097 3 2 34082 2.63600000 1293798647 1293798647 -13.00000000
-3.78612089 10.88449001 0.60395694 26 3 34082 11.54000000 1293798649 1293798649 3.00000000
-1.00118494 2.87986588 -0.59265274 2 4 34083 3.10600000 1293798651 1293798651 -11.00000000
-3.79206276 10.91384792 1.01083231 4 5 34084 11.59800000 1293798654 1293798654 5.00000000
-1.24223006 3.57724714 -0.59976971 2 6 34085 3.83400000 1293798656 1293798656 -9.00000000
-3.87265944 11.15837383 1.45024514 44 7 34086 11.90000000 1293798658 1293798658 7.00000000
-3.86342001 11.13802719 1.86720181 34 9 34087 11.93600000 1293798663 1293798663 9.00000000
-2.39700937 6.91434336 -0.64024609 4 10 34088 7.34600000 1293798665 1293798665 -5.00000000
-3.69765878 10.67217731 2.19544840 59 11 34089 11.50600000 1293798667 1293798667 11.00000000
-3.91077685 11.29364967 -0.62635672 4 12 34090 11.96800000 1293798670 1293798670 -3.00000000
-3.52385974 10.18204689 2.48750877 54 13 34091 11.05800000 1293798672 1293798672 13.00000000
-3.90310240 11.28422451 -0.20841664 8 14 34092 11.94200000 1293798674 1293798674 -1.00000000
-3.04102778 8.79685783 2.49398041 38 15 34093 9.63600000 1293798677 1293798677 15.00000000
-0.71349567 2.07331729 -0.58751923 4 0 34101 2.27000000 1293798697 1293798697 -15.00000000
-3.88730383 11.30236530 0.20862606 6 1 34102 11.95400000 1293798700 1293798700 1.00000000
-0.83619738 2.43263054 -0.59387076 3 2 34103 2.64000000 1293798702 1293798702 -13.00000000
-3.74425411 10.89262772 0.60364294 26 3 34103 11.53400000 1293798704 1293798704 3.00000000
-0.98807150 2.87608910 -0.59112626 2 4 34104 3.09800000 1293798707 1293798707 -11.00000000
-3.73909593 10.88998508 1.00734603 4 5 34105 11.55800000 1293798709 1293798709 5.00000000
-1.23552203 3.60046029 -0.60289842 2 6 34106 3.85400000 1293798711 1293798711 -9.00000000
-1.63490021 4.76971912 -0.61909628 2 8 34108 5.08000000 1293798716 1293798716 -7.00000000
-2.37165093 6.92308235 -0.64024609 4 10 34109 7.34600000 1293798720 1293798720 -5.00000000
-3.65597463 10.67822838 2.19392180 59 11 34110 11.49800000 1293798723 1293798723 11.00000000
-3.48525572 10.19120598 2.48660898 54 13 34112 11.05400000 1293798727 1293798727 13.00000000
-3.00717854 8.79827976 2.49139214 40 15 34113 9.62600000 1293798732 1293798732 15.00000000
-0.70252061 2.06482196 -0.58441341 4 0 34121 2.25800000 1293798753 1293798753 -15.00000000
-0.82895494 2.43922472 -0.59477061 3 2 34123 2.64400000 1293798757 1293798757 -13.00000000
-3.69913960 10.88482952 0.60249156 23 3 34123 11.51200000 1293798760 1293798760 3.00000000
-0.98055160 2.88695645 -0.59265274 2 4 34124 3.10600000 1293798762 1293798762 -11.00000000
-3.69337463 10.88033104 1.00525439 12 5 34125 11.53400000 1293798764 1293798764 5.00000000
-1.22294652 3.60475111 -0.60289842 2 6 34126 3.85400000 1293798766 1293798766 -9.00000000
-1.61186981 4.75659609 -0.61665887 2 8 34128 5.06000000 1293798771 1293798771 -7.00000000
-3.61112523 10.66860962 2.18934250 59 11 34130 11.47400000 1293798778 1293798778 11.00000000
-3.45028472 10.20515633 2.48705888 55 13 34132 11.05600000 1293798783 1293798783 13.00000000
-2.97305655 8.80375099 2.48983932 40 15 34134 9.62000000 1293798787 1293798787 15.00000000
-0.69715637 2.07275486 -0.58596629 4 0 34141 2.26400000 1293798808 1293798808 -15.00000000
-0.82043540 2.44210362 -0.59477061 3 2 34143 2.64400000 1293798813 1293798813 -13.00000000
-0.97421765 2.90152836 -0.59494245 2 4 34144 3.11800000 1293798817 1293798817 -11.00000000
-3.67502189 10.95171261 1.01065803 12 5 34145 11.59600000 1293798819 1293798819 5.00000000
-1.20407510 3.59026957 -0.59976971 2 6 34146 3.83400000 1293798822 1293798822 -9.00000000
-1.61417246 4.81866264 -0.62397105 2 8 34148 5.12000000 1293798826 1293798826 -7.00000000
-3.57137084 10.67370224 2.18781590 56 11 34150 11.46600000 1293798833 1293798833 11.00000000
-3.41402340 10.21528912 2.48660898 53 13 34152 11.05400000 1293798838 1293798838 13.00000000
-2.94139791 8.80623245 2.48776865 40 15 34153 9.61200000 1293798843 1293798843 15.00000000
-0.69052631 2.07700896 -0.58648396 4 0 34161 2.26600000 1293798863 1293798863 -15.00000000
-0.81067759 2.44125366 -0.59387076 3 2 34163 2.64000000 1293798868 1293798868 -13.00000000
-3.68469548 11.10247612 0.61306340 2 3 34164 11.71400000 1293798870 1293798870 3.00000000
-0.96532029 2.90863800 -0.59570569 2 4 34164 3.12200000 1293798872 1293798872 -11.00000000
-3.68255973 11.10252285 1.02338278 12 5 34165 11.74200000 1293798875 1293798875 5.00000000
-1.20023727 3.62070131 -0.60414988 2 6 34166 3.86200000 1293798877 1293798877 -9.00000000
-1.57363176 4.75265741 -0.61470896 2 8 34168 5.04400000 1293798882 1293798882 -7.00000000
-3.52915931 10.67119217 2.18476295 59 11 34170 11.45000000 1293798889 1293798889 11.00000000
-3.37651086 10.22159290 2.48525929 55 13 34172 11.04800000 1293798893 1293798893 13.00000000
-2.91031241 8.82062340 2.48880386 40 15 34174 9.61600000 1293798898 1293798898 15.00000000
-0.68749344 2.09225392 -0.59010744 4 0 34181 2.28000000 1293798919 1293798919 -15.00000000
-0.80215108 2.44406867 -0.59387076 3 2 34183 2.64000000 1293798923 1293798923 -13.00000000
-3.67579746 11.20636368 0.61808765 2 3 34184 11.81000000 1293798925 1293798925 3.00000000
-0.95149004 2.90079713 -0.59341598 2 4 34184 3.11000000 1293798928 1293798928 -11.00000000
-1.18144119 3.60609674 -0.60102123 2 6 34186 3.84200000 1293798932 1293798932 -9.00000000
-1.58049273 4.82981396 -0.62397105 2 8 34188 5.12000000 1293798937 1293798937 -7.00000000
-3.48944879 10.67598152 2.18323660 56 11 34190 11.44200000 1293798944 1293798944 11.00000000
-3.33597207 10.21849728 2.48166013 56 13 34192 11.03200000 1293798949 1293798949 13.00000000
-2.88344288 8.83757210 2.49087453 40 15 34193 9.62400000 1293798953 1293798953 15.00000000
-0.67660600 2.08361650 -0.58700162 4 0 34201 2.26800000 1293798974 1293798974 -15.00000000
-0.79481721 2.45056105 -0.59477061 3 2 34203 2.64400000 1293798978 1293798978 -13.00000000
-0.94135857 2.90410089 -0.59341598 2 4 34204 3.11000000 1293798983 1293798983 -11.00000000
-1.16884637 3.61019874 -0.60102123 2 6 34206 3.84200000 1293798988 1293798988 -9.00000000
-1.55385125 4.80508089 -0.62007123 2 8 34208 5.08800000 1293798992 1293798992 -7.00000000
-3.45095444 10.68436050 2.18247318 56 11 34210 11.43800000 1293798999 1293798999 11.00000000
-3.30387235 10.24120712 2.48435950 55 13 34212 11.04400000 1293799004 1293799004 13.00000000
-2.84866238 8.84072590 2.48880386 40 15 34214 9.61600000 1293799008 1293799008 15.00000000
-0.66733050 2.07849121 -0.58493102 4 0 34220 2.26000000 1293799029 1293799029 -15.00000000
-0.78430623 2.44576073 -0.59297097 3 2 34222 2.63600000 1293799034 1293799034 -13.00000000
-0.93052471 2.90346742 -0.59265274 2 4 34223 3.10600000 1293799038 1293799038 -11.00000000
-1.15686810 3.61405492 -0.60102123 2 6 34225 3.84200000 1293799043 1293799043 -9.00000000
-1.53790855 4.81020737 -0.62007123 2 8 34227 5.08800000 1293799048 1293799048 -7.00000000
-3.40833831 10.67330360 2.17789388 56 11 34229 11.41400000 1293799054 1293799054 11.00000000
-3.26930094 10.25024986 2.48390961 53 13 34231 11.04200000 1293799059 1293799059 13.00000000
-2.81735420 8.83858776 2.48569822 40 15 34232 9.60400000 1293799064 1293799064 15.00000000
-0.66240770 2.08817363 -0.58700162 4 0 34240 2.26800000 1293799084 1293799084 -15.00000000
-0.77929568 2.45962977 -0.59567040 3 2 34242 2.64800000 1293799089 1293799089 -13.00000000
-0.92749584 2.92915773 -0.59723216 2 4 34243 3.13000000 1293799094 1293799094 -11.00000000
-1.14186311 3.61053753 -0.59976971 2 6 34245 3.83400000 1293799098 1293799098 -9.00000000
-1.51632500 4.80040312 -0.61812133 2 8 34247 5.07200000 1293799103 1293799103 -7.00000000
-3.36574459 10.66828537 2.17445922 59 11 34249 11.39600000 1293799110 1293799110 11.00000000
-3.23350096 10.26159954 2.48390961 54 13 34251 11.04200000 1293799114 1293799114 13.00000000
-2.78899980 8.86175346 2.48932147 40 15 34253 9.61800000 1293799119 1293799119 15.00000000
-0.65742540 2.09784698 -0.58907217 4 0 34260 2.27600000 1293799140 1293799140 -15.00000000
-0.76837683 2.45489597 -0.59387076 3 2 34262 2.64000000 1293799144 1293799144 -13.00000000
-0.92195439 2.94736719 -0.60028511 4 4 34263 3.14600000 1293799149 1293799149 -11.00000000
-1.13160932 3.62204337 -0.60102123 2 6 34265 3.84200000 1293799154 1293799154 -9.00000000
-1.50428975 4.82082653 -0.62007123 2 8 34267 5.08800000 1293799158 1293799158 -7.00000000
-3.32673240 10.67434597 2.17331457 62 11 34269 11.39000000 1293799165 1293799165 11.00000000
-3.19534492 10.26538181 2.48211002 52 13 34271 11.03400000 1293799170 1293799170 13.00000000
-2.75787640 8.86541939 2.48776865 38 15 34272 9.61200000 1293799174 1293799174 15.00000000
-0.65124106 2.10381985 -0.59010744 4 0 34280 2.28000000 1293799195 1293799195 -15.00000000
-0.75980294 2.45756316 -0.59387076 3 2 34282 2.64000000 1293799200 1293799200 -13.00000000
-0.90354657 2.92430687 -0.59494245 4 4 34283 3.11800000 1293799204 1293799204 -11.00000000
-1.12594891 3.64862180 -0.60477567 2 6 34285 3.86600000 1293799209 1293799209 -9.00000000
-1.49213028 4.84122419 -0.62202114 2 8 34287 5.10400000 1293799213 1293799213 -7.00000000
-3.28945160 10.68589306 2.17331457 59 11 34289 11.39000000 1293799220 1293799220 11.00000000
-3.15319300 10.25598335 2.47716093 53 13 34291 11.01200000 1293799225 1293799225 13.00000000
-2.72536445 8.87546825 2.48776865 40 15 34293 9.61200000 1293799230 1293799230 15.00000000
-0.64426094 2.10596800 -0.59010744 4 0 34299 2.28000000 1293799250 1293799250 -15.00000000
-0.75506580 2.47125149 -0.59657019 3 2 34301 2.65200000 1293799255 1293799255 -13.00000000
-0.89613765 2.93479776 -0.59646893 4 4 34302 3.12600000 1293799260 1293799260 -11.00000000
-1.11384344 3.65233564 -0.60477567 2 6 34304 3.86600000 1293799264 1293799264 -9.00000000
-1.47375441 4.83855009 -0.62104619 2 8 34306 5.09600000 1293799269 1293799269 -7.00000000
-3.25056958 10.68547344 2.17102480 62 11 34308 11.37800000 1293799276 1293799276 11.00000000
-3.12256479 10.27757072 2.47986031 56 13 34310 11.02400000 1293799280 1293799280 13.00000000
-2.69522285 8.87659264 2.48569822 40 15 34311 9.60400000 1293799285 1293799285 15.00000000
-0.63355368 2.09710813 -0.58700162 4 0 34319 2.26800000 1293799306 1293799306 -15.00000000
-0.74418324 2.46640944 -0.59477061 3 2 34321 2.64400000 1293799310 1293799310 -13.00000000
-0.88362068 2.93038940 -0.59494245 2 4 34322 3.11800000 1293799315 1293799315 -11.00000000
-1.10051811 3.65430999 -0.60446280 2 6 34324 3.86400000 1293799319 1293799319 -9.00000000
-1.45456874 4.83606100 -0.62007123 2 8 34326 5.08800000 1293799324 1293799324 -7.00000000
-3.20760226 10.67795181 2.16720867 59 11 34328 11.35800000 1293799331 1293799331 11.00000000
-3.08667016 10.28840733 2.47986031 56 13 34330 11.02400000 1293799336 1293799336 13.00000000
-2.65978289 8.87114239 2.48155689 40 15 34331 9.58800000 1293799340 1293799340 15.00000000
-0.62917459 2.11052418 -0.59010744 4 0 34340 2.28000000 1293799361 1293799361 -15.00000000
-0.73625052 2.47285581 -0.59567040 3 2 34342 2.64800000 1293799366 1293799366 -13.00000000
-0.87959307 2.95618892 -0.59952188 2 4 34343 3.14200000 1293799370 1293799370 -11.00000000
-1.08374083 3.64695764 -0.60258555 2 6 34345 3.85200000 1293799375 1293799375 -9.00000000
-1.45490730 4.90225744 -0.62787086 2 8 34347 5.15200000 1293799379 1293799379 -7.00000000
-3.16174912 10.66704941 2.16262913 59 11 34349 11.33400000 1293799386 1293799386 11.00000000
-3.05336571 10.31460094 2.48345971 57 13 34351 11.04000000 1293799391 1293799391 13.00000000
-2.62615442 8.87712669 2.48052168 40 15 34352 9.58400000 1293799395 1293799395 15.00000000
-0.62507629 2.12382722 -0.59321326 4 0 34360 2.29200000 1293799416 1293799416 -15.00000000
-0.72431684 2.46419287 -0.59297097 3 2 34362 2.63600000 1293799421 1293799421 -13.00000000
-0.86373550 2.94040465 -0.59570569 2 4 34363 3.12200000 1293799425 1293799425 -11.00000000
-1.07156003 3.65261388 -0.60289842 2 6 34365 3.85400000 1293799430 1293799430 -9.00000000
-1.42885602 4.87682581 -0.62397105 2 8 34367 5.12000000 1293799435 1293799435 -7.00000000
-3.12228942 10.67048359 2.16110277 56 11 34369 11.32600000 1293799442 1293799442 11.00000000
-3.01187634 10.30649090 2.47896051 59 13 34371 11.02000000 1293799446 1293799446 13.00000000
-2.59684801 8.89781952 2.48362756 40 15 34373 9.59600000 1293799451 1293799451 15.00000000
-0.61479425 2.11475801 -0.59010744 4 0 34379 2.28000000 1293799472 1293799472 -15.00000000
-0.71940142 2.47780991 -0.59567040 3 2 34381 2.64800000 1293799476 1293799476 -13.00000000
-0.85835654 2.95833683 -0.59875864 2 4 34382 3.13800000 1293799481 1293799481 -11.00000000
-1.06383991 3.67132592 -0.60540140 2 6 34384 3.87000000 1293799485 1293799485 -9.00000000
-1.41267598 4.88153744 -0.62397105 2 8 34386 5.12000000 1293799490 1293799490 -7.00000000
-3.08470726 10.67323494 2.15957618 53 11 34388 11.31800000 1293799497 1293799497 11.00000000
-2.97335887 10.30144310 2.47536135 57 13 34390 11.00400000 1293799501 1293799501 13.00000000
-2.56620479 8.89665318 2.48103929 40 15 34391 9.58600000 1293799506 1293799506 15.00000000
-0.60634297 2.11317730 -0.58907217 4 0 34399 2.27600000 1293799527 1293799527 -15.00000000
-0.71074784 2.48030615 -0.59567040 3 2 34401 2.64800000 1293799531 1293799531 -13.00000000
-0.84478188 2.94999051 -0.59646893 2 4 34402 3.12600000 1293799536 1293799536 -11.00000000
-1.05319083 3.68261385 -0.60665286 2 6 34404 3.87800000 1293799541 1293799541 -9.00000000
-1.39562762 4.88643885 -0.62397105 2 8 34406 5.12000000 1293799545 1293799545 -7.00000000
-3.04635501 10.68016148 2.15881300 53 11 34408 11.31400000 1293799552 1293799552 11.00000000
-2.93631434 10.30801105 2.47446156 57 13 34410 11.00000000 1293799557 1293799557 13.00000000
-2.53354740 8.89998245 2.47948647 40 15 34411 9.58000000 1293799561 1293799561 15.00000000
-0.59475231 2.10041070 -0.58493102 4 0 34419 2.26000000 1293799582 1293799582 -15.00000000
-0.70420676 2.49027276 -0.59746999 3 2 34421 2.65600000 1293799587 1293799587 -13.00000000
-0.83234376 2.94536448 -0.59494245 2 4 34422 3.11800000 1293799591 1293799591 -11.00000000
-1.04032969 3.68626785 -0.60665286 2 6 34424 3.87800000 1293799596 1293799596 -9.00000000
-1.37856221 4.89128065 -0.62397105 2 8 34426 5.12000000 1293799600 1293799600 -7.00000000
-3.00639606 10.68128109 2.15690494 50 11 34428 11.30400000 1293799607 1293799607 11.00000000
-2.90136933 10.32194996 2.47536135 59 13 34430 11.00400000 1293799612 1293799612 13.00000000
-2.49880815 8.89575291 2.47586298 40 15 34431 9.56600000 1293799617 1293799617 15.00000000
-0.59053588 2.11363769 -0.58803689 4 0 34439 2.27200000 1293799637 1293799637 -15.00000000
-0.69550979 2.49271584 -0.59746999 3 2 34441 2.65600000 1293799642 1293799642 -13.00000000
-0.82522124 2.95959854 -0.59723216 2 4 34442 3.13000000 1293799647 1293799647 -11.00000000
-1.03063512 3.70129466 -0.60853004 2 6 34444 3.89000000 1293799651 1293799651 -9.00000000
-1.36148012 4.89606285 -0.62397105 2 8 34446 5.12000000 1293799656 1293799656 -7.00000000
-2.96489072 10.67657661 2.15385199 46 11 34448 11.28800000 1293799663 1293799663 11.00000000
-2.86740446 10.33952618 2.47716093 57 13 34450 11.01200000 1293799667 1293799667 13.00000000
-2.46721792 8.90857506 2.47689819 42 15 34452 9.57000000 1293799672 1293799672 15.00000000
-0.58763289 2.13048267 -0.59217799 4 0 34458 2.28800000 1293799693 1293799693 -15.00000000
-0.68516982 2.48749328 -0.59567040 3 2 34460 2.64800000 1293799697 1293799697 -13.00000000
-0.81852847 2.97367597 -0.59952188 2 4 34461 3.14200000 1293799702 1293799702 -11.00000000
-1.01835561 3.70469213 -0.60853004 2 6 34463 3.89000000 1293799706 1293799706 -9.00000000
-1.35154247 4.92352200 -0.62689590 2 8 34465 5.14400000 1293799711 1293799711 -7.00000000
-2.92843151 10.68256283 2.15308881 46 11 34467 11.28400000 1293799718 1293799718 11.00000000
-2.82898521 10.33394146 2.47356176 60 13 34469 10.99600000 1293799723 1293799723 13.00000000
-2.44023824 8.92000866 2.47793365 40 15 34470 9.57400000 1293799727 1293799727 15.00000000
-0.58019257 2.13252091 -0.59217799 4 0 34478 2.28800000 1293799748 1293799748 -15.00000000
-0.67546082 2.48610878 -0.59477061 3 2 34480 2.64400000 1293799752 1293799752 -13.00000000
-0.81020105 2.98409367 -0.60104835 2 4 34481 3.15000000 1293799757 1293799757 -11.00000000
-1.01162064 3.73110271 -0.61228448 2 6 34483 3.91400000 1293799762 1293799762 -9.00000000
-1.32812238 4.90521669 -0.62397105 2 8 34485 5.12000000 1293799766 1293799766 -7.00000000
-2.89214921 10.69651031 2.15385199 43 11 34487 11.28800000 1293799773 1293799773 11.00000000
-2.78984785 10.33246517 2.47086239 60 13 34489 10.98400000 1293799778 1293799778 13.00000000
-2.40355086 8.90795612 2.47223949 40 15 34490 9.55200000 1293799782 1293799782 15.00000000
-0.57074255 2.12706995 -0.59010744 4 0 34498 2.28000000 1293799803 1293799803 -15.00000000
-0.66879600 2.49598074 -0.59657019 3 2 34500 2.65200000 1293799808 1293799808 -13.00000000
-0.79470176 2.96793914 -0.59723216 2 4 34501 3.13000000 1293799812 1293799812 -11.00000000
-0.99552894 3.72316122 -0.61040729 2 6 34503 3.90200000 1293799817 1293799817 -9.00000000
-1.31918561 4.94050932 -0.62787086 2 8 34505 5.15200000 1293799822 1293799822 -7.00000000
-2.85580564 10.71033478 2.15461516 40 11 34507 11.29200000 1293799829 1293799829 11.00000000
-2.75175810 10.33460808 2.46906281 59 13 34509 10.97600000 1293799833 1293799833 13.00000000
-2.37138200 8.91857243 2.47275710 40 15 34511 9.55400000 1293799838 1293799838 15.00000000
-0.56430244 2.13278437 -0.59114271 4 0 34518 2.28400000 1293799858 1293799858 -15.00000000
-0.66207051 2.50583649 -0.59836978 3 2 34520 2.66000000 1293799863 1293799863 -13.00000000
-0.78533918 2.97449160 -0.59799540 2 4 34521 3.13400000 1293799868 1293799868 -11.00000000
-0.98151940 3.72279334 -0.60978156 2 6 34523 3.89800000 1293799872 1293799872 -9.00000000
-1.29991031 4.93740511 -0.62689590 2 8 34525 5.14400000 1293799877 1293799877 -7.00000000
-2.81690454 10.71454239 2.15347028 43 11 34527 11.28600000 1293799884 1293799884 11.00000000
-2.71665668 10.34792042 2.46996260 57 13 34529 10.98000000 1293799888 1293799888 13.00000000
-2.33386731 8.90250301 2.46602798 40 15 34531 9.52800000 1293799893 1293799893 15.00000000
-0.55759937 2.13454652 -0.59114271 4 0 34536 2.28400000 1293799914 1293799914 -15.00000000
-0.65321124 2.50413275 -0.59746999 3 2 34538 2.65600000 1293799918 1293799918 -13.00000000
-0.77599072 2.97694397 -0.59799540 4 4 34539 3.13400000 1293799923 1293799923 -11.00000000
-0.96285272 3.69909501 -0.60540140 2 6 34541 3.87000000 1293799928 1293799928 -9.00000000
-1.28639007 4.94914961 -0.62787086 2 8 34543 5.15200000 1293799932 1293799932 -7.00000000
-2.78273678 10.72143841 2.15308881 43 11 34545 11.28400000 1293799939 1293799939 11.00000000
-2.68120074 10.34508610 2.46726322 59 13 34547 10.96800000 1293799944 1293799944 13.00000000
-2.30733967 8.91540146 2.46758080 42 15 34549 9.53400000 1293799948 1293799948 15.00000000
-0.55159020 2.14209247 -0.59269559 4 0 34556 2.29000000 1293799969 1293799969 -15.00000000
-0.64252502 2.49884820 -0.59567040 3 2 34558 2.64800000 1293799974 1293799974 -13.00000000
-0.76852596 2.99104357 -0.60028511 2 4 34559 3.14600000 1293799978 1293799978 -11.00000000
-0.95778930 3.73304796 -0.61040729 2 6 34561 3.90200000 1293799983 1293799983 -9.00000000
-1.26615047 4.94207191 -0.62640840 2 8 34563 5.14000000 1293799988 1293799988 -7.00000000
-2.74529505 10.73108673 2.15308881 40 11 34565 11.28400000 1293799994 1293799994 11.00000000
-2.64121485 10.33927727 2.46366405 57 13 34567 10.95200000 1293799999 1293799999 13.00000000
-2.27668262 8.92527294 2.46809840 38 15 34569 9.53600000 1293800004 1293800004 15.00000000
-0.54553515 2.14962220 -0.59424853 4 0 34576 2.29600000 1293800024 1293800024 -15.00000000
-0.63475591 2.50485396 -0.59657019 3 2 34578 2.65200000 1293800029 1293800029 -13.00000000
-0.75904441 2.99751449 -0.60104835 2 4 34579 3.15000000 1293800034 1293800034 -11.00000000
-0.94378424 3.73253822 -0.60978156 2 6 34581 3.89800000 1293800038 1293800038 -9.00000000
-1.24403226 4.92721462 -0.62397105 2 8 34583 5.12000000 1293800043 1293800043 -7.00000000
-2.70781970 10.74060440 2.15308881 43 11 34585 11.28400000 1293800050 1293800050 11.00000000
-2.60225344 10.33709526 2.46096444 56 13 34587 10.94000000 1293800054 1293800054 13.00000000
-2.24895811 8.94026756 2.47016907 42 15 34588 9.54400000 1293800059 1293800059 15.00000000
-0.53521627 2.14026856 -0.59114271 4 0 34596 2.28400000 1293800080 1293800080 -15.00000000
-0.62600845 2.50705433 -0.59657019 3 2 34598 2.65200000 1293800084 1293800084 -13.00000000
-0.74667537 2.99252629 -0.59952188 2 4 34599 3.14200000 1293800089 1293800089 -11.00000000
-0.93361479 3.74731064 -0.61165875 2 6 34601 3.91000000 1293800093 1293800093 -9.00000000
-1.23449314 4.96234894 -0.62787086 2 8 34603 5.15200000 1293800098 1293800098 -7.00000000
-2.67031169 10.74999046 2.15308881 40 11 34605 11.28400000 1293800105 1293800105 11.00000000
-2.56521630 10.34233284 2.46006465 57 13 34607 10.93600000 1293800110 1293800110 13.00000000
-2.20874453 8.91844749 2.46188664 38 15 34609 9.51200000 1293800114 1293800114 15.00000000
-0.52496934 2.13086915 -0.58803689 4 0 34616 2.27200000 1293800135 1293800135 -15.00000000
-0.61818439 2.51300883 -0.59746999 3 2 34618 2.65600000 1293800140 1293800140 -13.00000000
-0.73622495 2.99511433 -0.59952188 2 4 34619 3.14200000 1293800144 1293800144 -11.00000000
-0.91582000 3.73136234 -0.60853004 2 6 34621 3.89000000 1293800149 1293800149 -9.00000000
-1.21810877 4.97048426 -0.62835836 2 8 34623 5.15600000 1293800153 1293800153 -7.00000000
-2.62950444 10.74589729 2.15041733 40 11 34625 11.27000000 1293800160 1293800160 11.00000000
-2.53002405 10.35501003 2.46096444 57 13 34627 10.94000000 1293800165 1293800165 13.00000000
-2.17686677 8.91633892 2.45929861 40 15 34628 9.50200000 1293800170 1293800170 15.00000000
-0.52026147 2.14395308 -0.59114271 4 0 34636 2.28400000 1293800190 1293800190 -15.00000000
-0.61124414 2.52272725 -0.59926963 3 2 34638 2.66400000 1293800195 1293800195 -13.00000000
-0.72484165 2.99384975 -0.59875864 2 4 34639 3.13800000 1293800199 1293800199 -11.00000000
-0.90371782 3.73837662 -0.60915583 2 6 34641 3.89400000 1293800204 1293800204 -9.00000000
-1.20075119 4.97470570 -0.62835836 2 8 34643 5.15600000 1293800209 1293800209 -7.00000000
-2.59243822 10.75691891 2.15079904 43 11 34645 11.27200000 1293800216 1293800216 11.00000000
-2.49477482 10.36756802 2.46186423 56 13 34647 10.94400000 1293800220 1293800220 13.00000000
-2.14642882 8.93365002 2.46188664 38 15 34649 9.51200000 1293800225 1293800225 15.00000000
-0.51509207 2.15711951 -0.59424853 4 0 34657 2.29600000 1293800246 1293800246 -15.00000000
-0.60108989 2.52115941 -0.59836978 3 2 34659 2.66000000 1293800250 1293800250 -13.00000000
-0.72023350 3.02322364 -0.60410130 4 4 34660 3.16600000 1293800255 1293800255 -11.00000000
-0.89000994 3.74166369 -0.60915583 2 6 34662 3.89400000 1293800259 1293800259 -9.00000000
-1.18159246 4.97521067 -0.62787086 2 8 34664 5.15200000 1293800264 1293800264 -7.00000000
-2.55118275 10.75870800 2.14927244 43 11 34666 11.26400000 1293800271 1293800271 11.00000000
-2.45226932 10.35767841 2.45736527 56 13 34668 10.92400000 1293800276 1293800276 13.00000000
-2.11256289 8.92980862 2.45878100 40 15 34669 9.50000000 1293800280 1293800280 15.00000000
-0.50667495 2.15514326 -0.59321326 4 0 34677 2.29200000 1293800301 1293800301 -15.00000000
-0.59094977 2.51755071 -0.59702009 3 2 34679 2.65400000 1293800305 1293800305 -13.00000000
-0.70519298 3.00660563 -0.60028511 2 4 34680 3.14600000 1293800310 1293800310 -11.00000000
-0.87964612 3.75628781 -0.61103302 2 6 34682 3.90600000 1293800315 1293800315 -9.00000000
-1.16783416 4.99476862 -0.62982076 2 8 34684 5.16800000 1293800319 1293800319 -7.00000000
-2.51271963 10.76372337 2.14850926 43 11 34686 11.26000000 1293800326 1293800326 11.00000000
-2.41211820 10.34909439 2.45331621 54 13 34688 10.90600000 1293800331 1293800331 13.00000000
-2.08069515 8.94125462 2.45981622 38 15 34690 9.50400000 1293800335 1293800335 15.00000000
-0.49734601 2.14740133 -0.59062505 4 0 34696 2.28200000 1293800356 1293800356 -15.00000000
-0.58479321 2.52898979 -0.59926963 3 2 34698 2.66400000 1293800361 1293800361 -13.00000000
-0.69698668 3.01657891 -0.60181159 2 4 34699 3.15400000 1293800365 1293800365 -11.00000000
-0.87073720 3.77458262 -0.61353600 2 6 34701 3.92200000 1293800370 1293800370 -9.00000000
-1.14369035 4.96572828 -0.62567723 2 8 34703 5.13400000 1293800375 1293800375 -7.00000000
-2.47789192 10.77582359 2.14927244 43 11 34705 11.26400000 1293800381 1293800381 11.00000000
-2.37865829 10.36083508 2.45421600 53 13 34707 10.91000000 1293800386 1293800386 13.00000000
-2.05000329 8.93644905 2.45671034 40 15 34708 9.49200000 1293800391 1293800391 15.00000000
-0.48855922 2.14347386 -0.58907217 4 0 34716 2.27600000 1293800411 1293800411 -15.00000000
-0.57682663 2.53481603 -0.60016942 3 2 34718 2.66800000 1293800416 1293800416 -13.00000000
-0.68645263 3.01899338 -0.60181159 2 4 34719 3.15400000 1293800421 1293800421 -11.00000000
-0.85799342 3.77952552 -0.61384887 2 6 34721 3.92400000 1293800425 1293800425 -9.00000000
-1.11581910 4.92322636 -0.61982751 4 8 34723 5.08600000 1293800430 1293800430 -7.00000000
-2.43679595 10.76908875 2.14621949 46 11 34725 11.24800000 1293800437 1293800437 11.00000000
-2.34204817 10.36717415 2.45376611 55 13 34727 10.90800000 1293800441 1293800441 13.00000000
-2.01553583 8.93636513 2.45463991 38 15 34729 9.48400000 1293800446 1293800446 15.00000000
-0.48398691 2.15639186 -0.59217799 4 0 34735 2.28800000 1293800467 1293800467 -15.00000000
-0.56671327 2.52910852 -0.59836978 3 2 34737 2.66000000 1293800471 1293800471 -13.00000000
-0.67815328 3.02891660 -0.60333806 2 4 34738 3.16200000 1293800476 1293800476 -11.00000000
-0.84200805 3.76692748 -0.61134589 2 6 34740 3.90800000 1293800481 1293800481 -9.00000000
-2.39509392 10.75028229 2.14087701 43 11 34744 11.22000000 1293800492 1293800492 11.00000000
-2.30807972 10.37678623 2.45421600 54 13 34746 10.91000000 1293800497 1293800497 13.00000000
-1.98661315 8.93888092 2.45360446 38 15 34747 9.48000000 1293800501 1293800501 15.00000000
-0.47728971 2.16184092 -0.59321326 4 0 34755 2.29200000 1293800522 1293800522 -15.00000000
-0.55452591 2.51584673 -0.59477061 3 2 34757 2.64400000 1293800527 1293800527 -13.00000000
-0.66757625 3.03126526 -0.60333806 2 4 34758 3.16200000 1293800531 1293800531 -11.00000000
-0.83139896 3.78141952 -0.61322308 2 6 34760 3.92000000 1293800536 1293800536 -9.00000000
-1.09802902 5.00244808 -0.62884581 2 8 34762 5.16000000 1293800540 1293800540 -7.00000000
-2.35839438 10.76241302 2.14164019 43 11 34764 11.22400000 1293800547 1293800547 11.00000000
-2.27017808 10.37716484 2.45241642 51 13 34766 10.90200000 1293800552 1293800552 13.00000000
-1.95136404 8.93477821 2.45049882 36 15 34768 9.46800000 1293800557 1293800557 15.00000000
-0.47182035 2.17490339 -0.59631908 4 0 34776 2.30400000 1293800577 1293800577 -15.00000000
-0.55025095 2.54071736 -0.60016942 3 2 34778 2.66800000 1293800582 1293800582 -13.00000000
-0.65646160 3.03369164 -0.60333806 2 4 34779 3.16200000 1293800587 1293800587 -11.00000000
-0.81753379 3.78444123 -0.61322308 2 6 34781 3.92000000 1293800591 1293800591 -9.00000000
-2.31893229 10.77098465 2.14164019 50 11 34785 11.22400000 1293800603 1293800603 11.00000000
-2.22926211 10.37207890 2.44926715 51 13 34787 10.88800000 1293800607 1293800607 13.00000000
-1.92219198 8.95097923 2.45308685 38 15 34788 9.47800000 1293800612 1293800612 15.00000000
-0.46180782 2.16520095 -0.59321326 4 0 34796 2.29200000 1293800633 1293800633 -15.00000000
-0.54056716 2.53881049 -0.59926963 3 2 34798 2.66400000 1293800637 1293800637 -13.00000000
-0.64341694 3.02444291 -0.60104835 2 4 34799 3.15000000 1293800642 1293800642 -11.00000000
-0.80842233 3.80659485 -0.61635178 2 6 34801 3.94000000 1293800646 1293800646 -9.00000000
-1.07126200 5.05289936 -0.63420808 2 8 34803 5.20400000 1293800651 1293800651 -7.00000000
-2.28375936 10.79053783 2.14392996 46 11 34805 11.23600000 1293800658 1293800658 11.00000000
-2.19384885 10.38361073 2.45016694 53 13 34807 10.89200000 1293800663 1293800663 13.00000000
-1.88814235 8.94440269 2.44946337 38 15 34808 9.46400000 1293800667 1293800667 15.00000000
-0.45420930 2.16285992 -0.59217799 4 0 34814 2.28800000 1293800688 1293800688 -15.00000000
-0.53418797 2.54812551 -0.60106921 3 2 34816 2.67200000 1293800693 1293800693 -13.00000000
-0.63954699 3.05335116 -0.60639101 2 4 34817 3.17800000 1293800697 1293800697 -11.00000000
-0.79322523 3.79364729 -0.61384887 2 6 34819 3.92400000 1293800702 1293800702 -9.00000000
-1.05538261 5.05624008 -0.63420808 2 8 34821 5.20400000 1293800706 1293800706 -7.00000000
-2.24504304 10.77459526 2.13935041 46 11 34823 11.21200000 1293800713 1293800713 11.00000000
-2.16121697 10.39045143 2.45016694 50 13 34825 10.89200000 1293800718 1293800718 13.00000000
-1.85767496 8.93894196 2.44635773 38 15 34826 9.45200000 1293800722 1293800722 15.00000000
-0.44821846 2.17200017 -0.59424853 4 0 34834 2.29600000 1293800743 1293800743 -15.00000000
-0.52529007 2.54997444 -0.60106921 3 2 34836 2.67200000 1293800748 1293800748 -13.00000000
-0.62651026 3.04402733 -0.60410130 2 4 34837 3.16600000 1293800752 1293800752 -11.00000000
-0.77838796 3.78865314 -0.61259735 2 6 34839 3.91600000 1293800757 1293800757 -9.00000000
-2.20663166 10.77851963 2.13858724 46 11 34843 11.20800000 1293800769 1293800769 11.00000000
-2.12454438 10.39602280 2.44971704 50 13 34845 10.89000000 1293800773 1293800773 13.00000000
-1.82451355 8.94379807 2.44583988 38 15 34847 9.45000000 1293800778 1293800778 15.00000000
-0.43948770 2.16984153 -0.59321326 4 0 34855 2.29200000 1293800799 1293800799 -15.00000000
-0.51439571 2.54424238 -0.59926963 3 2 34857 2.66400000 1293800803 1293800803 -13.00000000
-0.61768150 3.05784941 -0.60639101 4 4 34858 3.17800000 1293800808 1293800808 -11.00000000
-0.76918197 3.81471753 -0.61635178 2 6 34860 3.94000000 1293800812 1293800812 -9.00000000
-1.00899029 5.01306486 -0.62787086 2 8 34862 5.15200000 1293800817 1293800817 -7.00000000
-2.16479135 10.77498627 2.13629746 46 11 34864 11.19600000 1293800824 1293800824 11.00000000
-2.08604360 10.40182972 2.44926715 51 13 34866 10.88800000 1293800828 1293800828 13.00000000
-1.79290318 8.94821739 2.44532228 38 15 34867 9.44800000 1293800833 1293800833 15.00000000
-0.43341839 2.17894149 -0.59528381 4 0 34875 2.30000000 1293800854 1293800854 -15.00000000
-0.50551152 2.54602242 -0.59926963 3 2 34877 2.66400000 1293800858 1293800858 -13.00000000
-0.60700381 3.05998707 -0.60639101 2 4 34878 3.17800000 1293800863 1293800863 -11.00000000
-0.75432670 3.80962825 -0.61510032 2 6 34880 3.93200000 1293800868 1293800868 -9.00000000
-2.12792635 10.78632927 2.13706064 43 11 34884 11.20000000 1293800879 1293800879 11.00000000
-2.04746246 10.39757538 2.44656777 51 13 34886 10.87600000 1293800884 1293800884 13.00000000
-1.76575923 8.97527218 2.45101643 40 15 34887 9.47000000 1293800888 1293800888 15.00000000
-0.42508718 2.17270875 -0.59321326 4 0 34893 2.29200000 1293800909 1293800909 -15.00000000
-0.49975151 2.55907369 -0.60196900 3 2 34895 2.67600000 1293800914 1293800914 -13.00000000
-0.59212428 3.03490186 -0.60104835 2 4 34896 3.15000000 1293800918 1293800918 -11.00000000
-0.74915141 3.84688020 -0.62073195 2 6 34898 3.96800000 1293800923 1293800923 -9.00000000
-2.09253383 10.78525162 2.13553429 50 11 34902 11.19200000 1293800934 1293800934 11.00000000
-2.01589918 10.40969658 2.44791746 55 13 34904 10.88200000 1293800939 1293800939 13.00000000
-1.73718703 8.97887897 2.45049882 40 15 34905 9.46800000 1293800944 1293800944 15.00000000
-0.41677183 2.17038488 -0.59217799 4 0 34913 2.28800000 1293800964 1293800964 -15.00000000
-0.49228293 2.56845808 -0.60376865 3 2 34915 2.68400000 1293800969 1293800969 -13.00000000
-0.58521914 3.05623245 -0.60486454 2 4 34916 3.17000000 1293800974 1293800974 -11.00000000
-0.72756058 3.80678630 -0.61384887 2 6 34918 3.92400000 1293800978 1293800978 -9.00000000
-0.97083962 5.08931971 -0.63615799 2 8 34920 5.22000000 1293800983 1293800983 -7.00000000
-2.05634236 10.80020523 2.13706064 46 11 34922 11.20000000 1293800990 1293800990 11.00000000
-1.98100543 10.42432785 2.44971704 51 13 34924 10.89000000 1293800994 1293800994 13.00000000
-1.70174599 8.97189903 2.44687533 40 15 34926 9.45400000 1293800999 1293800999 15.00000000
-0.40952888 2.17569494 -0.59321326 4 0 34934 2.29200000 1293801020 1293801020 -15.00000000
-0.48070690 2.55875373 -0.60106921 3 2 34936 2.67200000 1293801024 1293801024 -13.00000000
-0.57401353 3.05835700 -0.60486454 2 4 34937 3.17000000 1293801029 1293801029 -11.00000000
-0.71869510 3.83660984 -0.61822903 2 6 34939 3.95200000 1293801033 1293801033 -9.00000000
-0.95728731 5.12016153 -0.63957030 2 8 34941 5.24800000 1293801038 1293801038 -7.00000000
-2.01458311 10.79609013 2.13477111 43 11 34943 11.18800000 1293801045 1293801045 11.00000000
-1.94171464 10.42577076 2.44836736 53 13 34945 10.88400000 1293801050 1293801050 13.00000000
-1.66900432 8.97018814 2.44480467 40 15 34946 9.44600000 1293801054 1293801054 15.00000000
-0.40263322 2.18091059 -0.59424853 4 0 34954 2.29600000 1293801075 1293801075 -15.00000000
-0.47035977 2.55275011 -0.59926963 3 2 34956 2.66400000 1293801079 1293801079 -13.00000000
-0.56262356 3.05648041 -0.60410130 2 4 34957 3.16600000 1293801084 1293801084 -11.00000000
-0.70458460 3.83520937 -0.61760324 2 6 34959 3.94800000 1293801089 1293801089 -9.00000000
-0.92866856 5.06489563 -0.63225818 2 8 34961 5.18800000 1293801093 1293801093 -7.00000000
-1.39033091 7.59023857 -0.67510837 4 10 34962 7.74600000 1293801098 1293801098 -5.00000000
-1.97476506 10.79146862 2.13248134 46 11 34963 11.17600000 1293801100 1293801100 11.00000000
-1.90425980 10.42673397 2.44701767 52 13 34965 10.87800000 1293801105 1293801105 13.00000000
-1.63906944 8.98356152 2.44687533 40 15 34966 9.45400000 1293801109 1293801109 15.00000000
-0.39539886 2.18223381 -0.59424853 4 0 34973 2.29600000 1293801130 1293801130 -15.00000000
-0.46258548 2.55813122 -0.60016942 3 2 34975 2.66800000 1293801135 1293801135 -13.00000000
-0.55667293 3.08151317 -0.60868067 2 4 34976 3.19000000 1293801139 1293801139 -11.00000000
-0.69186270 3.83752465 -0.61760324 2 6 34978 3.94800000 1293801144 1293801144 -9.00000000
-0.91327381 5.07576227 -0.63323313 2 8 34980 5.19600000 1293801149 1293801149 -7.00000000
-1.34329939 7.47322798 -0.66430110 4 10 34981 7.62200000 1293801153 1293801153 -5.00000000
-1.94035625 10.80568790 2.13400769 50 11 34982 11.18400000 1293801156 1293801156 11.00000000
-1.86829793 10.42531872 2.44521785 53 13 34984 10.87000000 1293801160 1293801160 13.00000000
-1.60770094 8.98922729 2.44687533 42 15 34986 9.45400000 1293801165 1293801165 15.00000000
-0.38777903 2.18360066 -0.59424853 4 0 34993 2.29600000 1293801185 1293801185 -15.00000000
-0.45433325 2.56356812 -0.60106921 3 2 34995 2.67200000 1293801190 1293801190 -13.00000000
-0.54317492 3.06797194 -0.60562778 2 4 34996 3.17400000 1293801195 1293801195 -11.00000000
-0.68533701 3.87882137 -0.62386066 2 6 34998 3.98800000 1293801199 1293801199 -9.00000000
-0.89623994 5.08282900 -0.63372058 2 8 35000 5.20000000 1293801204 1293801204 -7.00000000
-1.32135236 7.50141764 -0.66639280 4 10 35001 7.64600000 1293801209 1293801209 -5.00000000
-1.90330613 10.81626225 2.13477111 43 11 35002 11.18800000 1293801211 1293801211 11.00000000
-1.83223248 10.43369579 2.44566774 55 13 35004 10.87200000 1293801215 1293801215 13.00000000
-1.57364511 8.97956181 2.44273424 42 15 35006 9.43800000 1293801220 1293801220 15.00000000
-0.37882990 2.17732787 -0.59217799 4 0 35013 2.28800000 1293801241 1293801241 -15.00000000
-0.44671544 2.57281828 -0.60286885 3 2 35015 2.68000000 1293801245 1293801245 -13.00000000
-0.53447551 3.08145547 -0.60791749 2 4 35016 3.18600000 1293801250 1293801250 -11.00000000
-0.66673958 3.85199356 -0.61916763 2 6 35018 3.95800000 1293801255 1293801255 -9.00000000
-0.87849206 5.08592653 -0.63372058 2 8 35020 5.20000000 1293801259 1293801259 -7.00000000
-1.86287081 10.80736160 2.13171816 43 11 35022 11.17200000 1293801266 1293801266 11.00000000
-1.79646170 10.44386959 2.44656777 55 13 35024 10.87600000 1293801271 1293801271 13.00000000
-1.53967643 8.96976852 2.43859315 45 15 35026 9.42200000 1293801275 1293801275 15.00000000
-0.37252530 2.18625474 -0.59424853 4 0 35033 2.29600000 1293801296 1293801296 -15.00000000
-0.43609858 2.56475616 -0.60061932 3 2 35035 2.67000000 1293801301 1293801301 -13.00000000
-0.52240092 3.07556033 -0.60639101 2 4 35036 3.17800000 1293801305 1293801305 -11.00000000
-0.65229923 3.84845448 -0.61822903 2 6 35038 3.95200000 1293801310 1293801310 -9.00000000
-0.86007142 5.08504772 -0.63323313 2 8 35040 5.19600000 1293801315 1293801315 -7.00000000
-1.82252085 10.79831219 2.12866521 46 11 35042 11.15600000 1293801321 1293801321 11.00000000
-1.75999486 10.45007706 2.44656777 56 13 35044 10.87600000 1293801326 1293801326 13.00000000
-1.50835669 8.97508812 2.43859315 40 15 35046 9.42200000 1293801331 1293801331 15.00000000
-0.36501813 2.18360329 -0.59321326 4 0 35051 2.29200000 1293801351 1293801351 -15.00000000
-0.42675650 2.55842495 -0.59881973 3 2 35053 2.66200000 1293801356 1293801356 -13.00000000
-0.51338154 3.08105946 -0.60715425 4 4 35054 3.18200000 1293801361 1293801361 -11.00000000
-0.63988179 3.84853625 -0.61791611 2 6 35056 3.95000000 1293801365 1293801365 -9.00000000
-0.84799087 5.11122417 -0.63615799 2 8 35058 5.22000000 1293801370 1293801370 -7.00000000
-1.79115319 10.81947899 2.13171816 43 11 35060 11.17200000 1293801377 1293801377 11.00000000
-1.72588587 10.44786358 2.44476795 56 13 35062 10.86800000 1293801381 1293801381 13.00000000
-1.48109138 8.97571182 2.43755770 42 15 35063 9.41800000 1293801386 1293801386 15.00000000
-0.35988858 2.20011640 -0.59735435 4 0 35071 2.30800000 1293801407 1293801407 -15.00000000
-0.41907901 2.56759214 -0.60061932 3 2 35073 2.67000000 1293801411 1293801411 -13.00000000
-0.50262350 3.08283257 -0.60715425 4 4 35074 3.18200000 1293801416 1293801416 -11.00000000
-0.63025022 3.87414336 -0.62167054 2 6 35076 3.97400000 1293801420 1293801420 -9.00000000
-0.83014417 5.11415339 -0.63615799 2 8 35078 5.22000000 1293801425 1293801425 -7.00000000
-1.75211966 10.81791401 2.13019156 43 11 35080 11.16400000 1293801432 1293801432 11.00000000
-1.68754017 10.44228172 2.44206858 56 13 35082 10.85600000 1293801437 1293801437 13.00000000
-1.44818389 8.98108006 2.43755770 42 15 35084 9.41800000 1293801441 1293801441 15.00000000
-0.34900180 2.18622041 -0.59321326 4 0 35093 2.29200000 1293801462 1293801462 -15.00000000
-0.40860403 2.56533337 -0.59971952 3 2 35095 2.66600000 1293801467 1293801467 -13.00000000
-0.48954871 3.07698441 -0.60562778 4 4 35096 3.17400000 1293801471 1293801471 -11.00000000
-0.61691844 3.88628936 -0.62323493 2 6 35098 3.98400000 1293801476 1293801476 -9.00000000
-0.81050116 5.11730289 -0.63615799 2 8 35100 5.22000000 1293801480 1293801480 -7.00000000
-1.71179485 10.83231831 2.13171816 46 11 35102 11.17200000 1293801487 1293801487 11.00000000
-1.64743233 10.44868469 2.44206858 57 13 35104 10.85600000 1293801492 1293801492 13.00000000
-1.41165030 8.96342754 2.43134618 42 15 35105 9.39400000 1293801497 1293801497 15.00000000
-0.34196410 2.19124293 -0.59424853 4 0 35113 2.29600000 1293801517 1293801517 -15.00000000
-0.40264496 2.58599949 -0.60421854 3 2 35115 2.68600000 1293801522 1293801522 -13.00000000
-0.48182210 3.09807396 -0.60944390 2 4 35116 3.19400000 1293801526 1293801526 -11.00000000
-0.59910864 3.86109090 -0.61885476 2 6 35118 3.95600000 1293801531 1293801531 -9.00000000
-0.79627782 5.14364195 -0.63908285 2 8 35120 5.24400000 1293801536 1293801536 -7.00000000
-1.67217457 10.82658577 2.12942839 43 11 35122 11.16000000 1293801543 1293801543 11.00000000
-1.61154306 10.45822334 2.44296837 55 13 35124 10.86000000 1293801547 1293801547 13.00000000
-1.37761402 8.96090412 2.42927551 40 15 35126 9.38600000 1293801552 1293801552 15.00000000
-0.33391091 2.18466759 -0.59217799 4 0 35131 2.28800000 1293801573 1293801573 -15.00000000
-0.39305004 2.57761931 -0.60196900 3 2 35133 2.67600000 1293801577 1293801577 -13.00000000
-0.47090444 3.09180880 -0.60791749 2 4 35134 3.18600000 1293801582 1293801582 -11.00000000
-0.58697569 3.86295414 -0.61885476 2 6 35136 3.95600000 1293801586 1293801586 -9.00000000
-0.78547019 5.18144608 -0.64347011 2 8 35138 5.28000000 1293801591 1293801591 -7.00000000
-1.15522468 7.62956095 -0.67510837 4 10 35139 7.74600000 1293801596 1293801596 -5.00000000
-1.63580501 10.81625652 2.12637544 46 11 35140 11.14400000 1293801598 1293801598 11.00000000
-1.57867968 10.46323490 2.44296837 55 13 35142 10.86000000 1293801603 1293801603 13.00000000
-1.35102046 8.96495152 2.42927551 40 15 35143 9.38600000 1293801607 1293801607 15.00000000
-0.32856467 2.20110536 -0.59631908 4 0 35151 2.30400000 1293801628 1293801628 -15.00000000
-0.38376305 2.57704806 -0.60151911 3 2 35153 2.67400000 1293801632 1293801632 -13.00000000
-0.45895380 3.08566618 -0.60639101 2 4 35154 3.17800000 1293801637 1293801637 -11.00000000
-0.57464761 3.87279534 -0.62010622 2 6 35156 3.96400000 1293801642 1293801642 -9.00000000
-0.76447201 5.16451931 -0.64103276 2 8 35158 5.26000000 1293801646 1293801646 -7.00000000
-1.12858558 7.63354683 -0.67510837 4 10 35159 7.74600000 1293801651 1293801651 -5.00000000
-1.59803927 10.82190037 2.12637544 46 11 35160 11.14400000 1293801653 1293801653 11.00000000
-1.54101062 10.46096992 2.44116879 56 13 35162 10.85200000 1293801658 1293801658 13.00000000
-1.31871498 8.97366619 2.43031073 42 15 35164 9.39000000 1293801662 1293801662 15.00000000
-0.32049501 2.20229483 -0.59631908 4 0 35172 2.30400000 1293801683 1293801683 -15.00000000
-0.37403515 2.57650876 -0.60106921 3 2 35174 2.67200000 1293801688 1293801688 -13.00000000
-0.44764119 3.08732748 -0.60639101 2 4 35175 3.17800000 1293801692 1293801692 -11.00000000
-0.56158036 3.88269567 -0.62135768 2 6 35177 3.97200000 1293801697 1293801697 -9.00000000
-0.74440408 5.15942764 -0.64005780 2 8 35179 5.25200000 1293801702 1293801702 -7.00000000
-1.10059965 7.63763237 -0.67510837 4 10 35180 7.74600000 1293801706 1293801706 -5.00000000
-1.55892360 10.83157158 2.12713861 40 11 35181 11.14800000 1293801708 1293801708 11.00000000
-1.50099730 10.45497322 2.43846941 57 13 35183 10.84000000 1293801713 1293801713 13.00000000
-1.28847980 8.98586369 2.43238139 42 15 35184 9.39800000 1293801718 1293801718 15.00000000
-0.31280559 2.20340014 -0.59631908 4 0 35192 2.30400000 1293801738 1293801738 -15.00000000
-0.36613211 2.58551669 -0.60286885 3 2 35194 2.68000000 1293801743 1293801743 -13.00000000
-0.43796140 3.09664702 -0.60791749 2 4 35195 3.18600000 1293801748 1293801748 -11.00000000
-0.54912758 3.89245629 -0.62260920 2 6 35197 3.98000000 1293801752 1293801752 -9.00000000
-0.72860271 5.17772055 -0.64200771 2 8 35199 5.26800000 1293801757 1293801757 -7.00000000
-1.52137780 10.83889103 2.12752032 43 11 35201 11.15000000 1293801764 1293801764 11.00000000
-1.46395302 10.45628929 2.43756962 59 13 35203 10.83600000 1293801768 1293801768 13.00000000
-0.57821161 4.13513422 -0.07288125 1 14 35204 4.17600000 1293801771 1293801771 -1.00000000
-1.25366592 8.97713280 2.42875791 40 15 35205 9.38400000 1293801773 1293801773 15.00000000
-0.30378813 2.19491053 -0.59373087 4 0 35212 2.29400000 1293801794 1293801794 -15.00000000
-0.35790423 2.59257030 -0.60421854 3 2 35214 2.68600000 1293801798 1293801798 -13.00000000
-0.42500427 3.08259797 -0.60486454 2 4 35215 3.17000000 1293801803 1293801803 -11.00000000
-0.53715169 3.90609121 -0.62448639 2 6 35217 3.99200000 1293801808 1293801808 -9.00000000
-0.71214312 5.19203234 -0.64347011 2 8 35219 5.28000000 1293801812 1293801812 -7.00000000
-0.61434484 4.48482704 -0.39603570 5 10 35220 4.54400000 1293801817 1293801817 -5.00000000
-1.48220325 10.83441067 2.12561226 40 11 35221 11.14000000 1293801819 1293801819 11.00000000
-0.55182195 4.03888321 -0.21363537 1 12 35222 4.08200000 1293801821 1293801821 -3.00000000
-1.42744482 10.46133614 2.43756962 56 13 35223 10.83600000 1293801824 1293801824 13.00000000
-0.53677315 3.93898916 -0.06939077 1 14 35224 3.97600000 1293801826 1293801826 -1.00000000
-1.22206390 8.96784115 2.42513442 42 15 35224 9.37000000 1293801828 1293801828 15.00000000
-0.29715729 2.20361567 -0.59580141 4 0 35232 2.30200000 1293801849 1293801849 -15.00000000
-0.34703401 2.58028436 -0.60106921 3 2 35234 2.67200000 1293801854 1293801854 -13.00000000
-0.41894573 3.11908674 -0.61173362 2 4 35235 3.20600000 1293801858 1293801858 -11.00000000
-0.52351362 3.90794253 -0.62448639 2 6 35237 3.99200000 1293801863 1293801863 -9.00000000
-0.61330968 4.59043074 -0.56864238 2 8 35239 4.66600000 1293801867 1293801867 -7.00000000
-0.59499705 4.45929575 -0.39359534 5 10 35240 4.51600000 1293801872 1293801872 -5.00000000
-1.44255984 10.82589531 2.12294078 46 11 35241 11.12600000 1293801874 1293801874 11.00000000
-0.52085888 3.91407704 -0.20693637 1 12 35242 3.95400000 1293801877 1293801877 -3.00000000
-1.39245963 10.47784519 2.44026899 55 13 35243 10.84800000 1293801879 1293801879 13.00000000
-0.51775843 3.90119267 -0.06869267 1 14 35244 3.93600000 1293801881 1293801881 -1.00000000
-1.19020224 8.97992039 2.42720509 42 15 35245 9.37800000 1293801884 1293801884 15.00000000
-0.28897220 2.19496179 -0.59321326 4 0 35250 2.29200000 1293801904 1293801904 -15.00000000
-0.50882119 3.87010002 0.06813420 1 1 35251 3.90400000 1293801907 1293801907 1.00000000
-0.33892608 2.58136177 -0.60106921 3 2 35252 2.67200000 1293801909 1293801909 -13.00000000
-0.40710288 3.10481477 -0.60868067 2 4 35253 3.19000000 1293801914 1293801914 -11.00000000
-0.50918484 3.89389825 -0.62198341 2 6 35255 3.97600000 1293801918 1293801918 -9.00000000
-0.59683180 4.57658720 -0.56669247 4 8 35257 4.65000000 1293801923 1293801923 -7.00000000
-0.58021295 4.45521593 -0.39307240 7 10 35258 4.51000000 1293801927 1293801927 -5.00000000
-1.40727627 10.82063961 2.12103271 40 11 35259 11.11600000 1293801930 1293801930 11.00000000
-0.50444406 3.88400412 -0.20526162 5 12 35260 3.92200000 1293801932 1293801932 -3.00000000
-1.35753047 10.46670818 2.43666983 55 13 35261 10.83200000 1293801934 1293801934 13.00000000
-0.50061965 3.86512041 -0.06802948 3 14 35262 3.89800000 1293801937 1293801937 -1.00000000
-1.16231227 8.97383308 2.42461681 40 15 35262 9.36800000 1293801939 1293801939 15.00000000
-0.28278142 2.20745420 -0.59631908 4 0 35270 2.30400000 1293801960 1293801960 -15.00000000
-0.49404019 3.86193490 0.06795967 3 1 35271 3.89400000 1293801962 1293801962 1.00000000
-0.33040726 2.58639526 -0.60196900 3 2 35272 2.67600000 1293801964 1293801964 -13.00000000
-0.39626259 3.10621691 -0.60868067 2 4 35273 3.19000000 1293801969 1293801969 -11.00000000
-0.49708527 3.90740943 -0.62386066 2 6 35275 3.98800000 1293801973 1293801973 -9.00000000
-0.57660580 4.54516459 -0.56254888 6 8 35277 4.61600000 1293801978 1293801978 -7.00000000
-0.56515861 4.46116686 -0.39342102 7 10 35278 4.51400000 1293801983 1293801983 -5.00000000
