# .PCD v0.7 - Point Cloud Data file format
VERSION 0.7
FIELDS x y z intensity laser_id azimuth distance_m adjustedtime timestamp vertical_angle
SIZE 4 4 4 1 1 2 8 8 4 8
TYPE F F F U U U F U U F
COUNT 1 1 1 1 1 1 1 1 1 1
WIDTH 542
HEIGHT 1
VIEWPOINT 0 0 0 1 0 0 0
POINTS 542
DATA ascii
2.99166274 2.70222640 0.07036810 7 1 4791 4.03200000 1293117230 1293117230 1.00000000
2.02492356 1.82837546 -0.62986296 3 2 4792 2.80000000 1293117233 1293117233 -13.00000000
3.01712942 2.72331738 0.21300735 8 3 4793 4.07000000 1293117235 1293117235 3.00000000
2.43381834 2.19681001 -0.63730204 4 4 4793 3.34000000 1293117237 1293117237 -11.00000000
3.01320577 2.71882153 0.35507250 6 5 4794 4.07400000 1293117239 1293117239 5.00000000
2.98061252 2.68846917 -0.63574964 9 6 4795 4.06400000 1293117242 1293117242 -9.00000000
3.03407526 2.73573136 0.50161421 7 7 4796 4.11600000 1293117244 1293117244 7.00000000
2.98441911 2.69001389 -0.49332711 12 8 4797 4.04800000 1293117246 1293117246 -7.00000000
3.01430559 2.71599865 0.64263278 10 9 4798 4.10800000 1293117249 1293117249 9.00000000
2.98549962 2.69004369 -0.35158625 11 10 4798 4.03400000 1293117251 1293117251 -5.00000000
3.01961875 2.71983147 0.78994924 44 11 4799 4.14000000 1293117253 1293117253 11.00000000
2.99819064 2.69958282 -0.21143727 7 12 4800 4.04000000 1293117256 1293117256 -3.00000000
3.00982451 2.70910716 0.93489659 12 13 4801 4.15600000 1293117258 1293117258 13.00000000
2.99238539 2.69246507 -0.07026339 8 14 4802 4.02600000 1293117260 1293117260 -1.00000000
3.01293087 2.71095133 1.08600473 62 15 4802 4.19600000 1293117262 1293117262 15.00000000
1.69815934 1.52367115 -0.61133057 4 0 4810 2.36200000 1293117283 1293117283 -15.00000000
2.99214506 2.68375587 0.07015868 8 1 4811 4.02000000 1293117286 1293117286 1.00000000
2.02548981 1.81609225 -0.62806332 3 2 4812 2.79200000 1293117288 1293117288 -13.00000000
3.01769352 2.70477080 0.21237931 10 3 4813 4.05800000 1293117290 1293117290 3.00000000
2.43854785 2.18568039 -0.63653880 4 4 4813 3.33600000 1293117292 1293117292 -11.00000000
3.01525831 2.70163918 0.35420093 6 5 4814 4.06400000 1293117295 1293117295 5.00000000
2.97820735 2.66750503 -0.63324672 9 6 4815 4.04800000 1293117297 1293117297 -9.00000000
3.01994348 2.70393729 0.49771440 7 7 4816 4.08400000 1293117299 1293117299 7.00000000
2.99379086 2.67957997 -0.49332711 10 8 4817 4.04800000 1293117302 1293117302 -7.00000000
3.01935148 2.70150876 0.64169419 8 9 4818 4.10200000 1293117304 1293117304 9.00000000
2.99338675 2.67827749 -0.35141197 11 10 4818 4.03200000 1293117306 1293117306 -5.00000000
3.01153445 2.69356847 0.78536981 68 11 4819 4.11600000 1293117309 1293117309 11.00000000
2.98972869 2.67312598 -0.21018121 9 12 4820 4.01600000 1293117311 1293117311 -3.00000000
3.01926279 2.69858432 0.93489659 30 13 4821 4.15600000 1293117313 1293117313 13.00000000
3.00922155 2.68866515 -0.07043792 8 14 4822 4.03600000 1293117315 1293117315 -1.00000000
3.01564264 2.69345570 1.08341658 66 15 4823 4.18600000 1293117318 1293117318 15.00000000
1.71041346 1.52445841 -0.61391878 4 0 4829 2.37200000 1293117339 1293117339 -15.00000000
2.98908401 2.66317677 0.06987944 8 1 4830 4.00400000 1293117341 1293117341 1.00000000
2.01985931 1.79899669 -0.62446415 3 2 4831 2.77600000 1293117343 1293117343 -13.00000000
3.01620436 2.68545198 0.21164660 10 3 4832 4.04400000 1293117345 1293117345 3.00000000
2.45164776 2.18280387 -0.63806528 4 4 4832 3.34400000 1293117348 1293117348 -11.00000000
3.02717733 2.69427466 0.35454956 6 5 4833 4.06800000 1293117350 1293117350 5.00000000
2.97523022 2.64710999 -0.63074374 9 6 4834 4.03200000 1293117352 1293117352 -9.00000000
3.01406050 2.68071556 0.49527702 7 7 4835 4.06400000 1293117355 1293117355 7.00000000
2.98337436 2.65249062 -0.49015850 10 8 4836 4.02200000 1293117357 1293117357 -7.00000000
3.01648140 2.68098330 0.63919121 8 9 4837 4.08600000 1293117359 1293117359 9.00000000
2.98735952 2.65510035 -0.34966883 13 10 4837 4.01200000 1293117362 1293117362 -5.00000000
3.00870872 2.67313528 0.78231686 64 11 4838 4.10000000 1293117364 1293117364 11.00000000
2.98364353 2.64993405 -0.20913447 8 12 4839 3.99600000 1293117366 1293117366 -3.00000000
3.01070762 2.67303133 0.92949778 62 13 4840 4.13200000 1293117368 1293117368 13.00000000
3.00466061 2.66672492 -0.07012377 8 14 4841 4.01800000 1293117371 1293117371 -1.00000000
3.01686525 2.67755675 1.08082831 68 15 4841 4.17600000 1293117373 1293117373 15.00000000
1.72151101 1.52359998 -0.61598933 4 0 4849 2.38000000 1293117394 1293117394 -15.00000000
2.99087358 2.64610147 0.06970491 8 1 4850 3.99400000 1293117396 1293117396 1.00000000
2.03196573 1.79709923 -0.62626374 3 2 4851 2.78400000 1293117398 1293117398 -13.00000000
3.01209307 2.66300106 0.21070457 8 3 4852 4.02600000 1293117401 1293117401 3.00000000
2.45042706 2.16643023 -0.63577557 4 4 4852 3.33200000 1293117403 1293117403 -11.00000000
3.01864886 2.66785836 0.35245782 6 5 4853 4.04400000 1293117405 1293117405 5.00000000
2.98445225 2.63670826 -0.63074374 9 6 4854 4.03200000 1293117408 1293117408 -9.00000000
3.01744819 2.66492176 0.49430206 7 7 4855 4.05600000 1293117410 1293117410 7.00000000
2.97773385 2.62892246 -0.48772112 8 8 4856 4.00200000 1293117412 1293117412 -7.00000000
3.01545382 2.66128755 0.63700116 8 9 4857 4.07200000 1293117415 1293117415 9.00000000
2.98764658 2.63674617 -0.34862298 13 10 4857 4.00000000 1293117417 1293117417 -5.00000000
3.01507688 2.66001892 0.78155363 62 11 4858 4.09600000 1293117419 1293117419 11.00000000
2.98688364 2.63421869 -0.20871580 8 12 4859 3.98800000 1293117421 1293117421 -3.00000000
3.00101709 2.64575243 0.92364901 56 13 4860 4.10600000 1293117424 1293117424 13.00000000
2.98994732 2.63506579 -0.06956529 8 14 4861 3.98600000 1293117426 1293117426 -1.00000000
3.02619314 2.66700959 1.08082831 72 15 4861 4.17600000 1293117428 1293117428 15.00000000
1.71811223 1.50992990 -0.61288351 4 0 4869 2.36800000 1293117450 1293117450 -15.00000000
2.99558496 2.63168573 0.06960019 8 1 4870 3.98800000 1293117452 1293117452 1.00000000
2.04115486 1.79256713 -0.62716353 3 2 4871 2.78800000 1293117455 1293117455 -13.00000000
3.00740099 2.64113665 0.20976251 7 3 4871 4.00800000 1293117457 1293117457 3.00000000
2.45207286 2.15268254 -0.63424909 4 4 4872 3.32400000 1293117459 1293117459 -11.00000000
3.02195311 2.65204835 0.35176057 6 5 4873 4.03600000 1293117462 1293117462 5.00000000
2.98769832 2.62106371 -0.62949228 9 6 4874 4.02400000 1293117464 1293117464 -9.00000000
3.01926970 2.64782834 0.49308336 7 7 4875 4.04600000 1293117466 1293117466 7.00000000
2.97793627 2.61066055 -0.48625869 9 8 4876 3.99000000 1293117468 1293117468 -7.00000000
3.00643778 2.63564706 0.63324672 8 9 4876 4.04800000 1293117471 1293117471 9.00000000
2.98334646 2.61448288 -0.34705415 10 10 4877 3.98200000 1293117473 1293117473 -5.00000000
3.02434373 2.64947820 0.78155363 64 11 4878 4.09600000 1293117475 1293117475 11.00000000
2.99305534 2.62114477 -0.20850645 8 12 4879 3.98400000 1293117478 1293117478 -3.00000000
3.00730157 2.63269353 0.92274922 58 13 4880 4.10200000 1293117480 1293117480 13.00000000
2.98257399 2.61012673 -0.06918134 9 14 4881 3.96400000 1293117482 1293117482 -1.00000000
3.01367784 2.63734651 1.07306373 66 15 4881 4.14600000 1293117485 1293117485 15.00000000
1.72337246 1.50392330 -0.61288351 4 0 4889 2.36800000 1293117505 1293117505 -15.00000000
2.99269795 2.61069679 0.06932096 8 1 4890 3.97200000 1293117508 1293117508 1.00000000
2.05327439 1.79055452 -0.62896317 3 2 4891 2.79600000 1293117510 1293117510 -13.00000000
3.01103902 2.62484646 0.20934382 8 3 4892 4.00000000 1293117512 1293117512 3.00000000
2.46845150 2.15185070 -0.63653880 4 4 4892 3.33600000 1293117515 1293117515 -11.00000000
3.01166487 2.62446713 0.34949452 8 5 4893 4.01000000 1293117517 1293117517 5.00000000
2.98193455 2.59764338 -0.62636358 9 6 4894 4.00400000 1293117519 1293117519 -9.00000000
3.02400279 2.63336205 0.49235216 7 7 4895 4.04000000 1293117521 1293117521 7.00000000
2.98403645 2.59764290 -0.48577121 7 8 4896 3.98600000 1293117524 1293117524 -7.00000000
3.01905799 2.62720370 0.63387245 8 9 4897 4.05200000 1293117526 1293117526 9.00000000
2.97892761 2.59228206 -0.34548536 10 10 4897 3.96400000 1293117528 1293117528 -5.00000000
3.02172375 2.62859678 0.77850068 64 11 4898 4.08000000 1293117531 1293117531 11.00000000
2.99314404 2.60281777 -0.20787841 8 12 4899 3.97200000 1293117533 1293117533 -3.00000000
3.00911951 2.61578751 0.92049974 54 13 4900 4.09200000 1293117535 1293117535 13.00000000
2.99468565 2.60232306 -0.06925115 11 14 4901 3.96800000 1293117538 1293117538 -1.00000000
3.01311493 2.61741471 1.06944025 68 15 4902 4.13200000 1293117540 1293117540 15.00000000
1.72251105 1.49313867 -0.61081296 4 0 4908 2.36000000 1293117561 1293117561 -15.00000000
2.98320389 2.58504367 0.06890210 8 1 4909 3.94800000 1293117563 1293117563 1.00000000
2.05330896 1.77863204 -0.62716353 3 2 4910 2.78800000 1293117565 1293117565 -13.00000000
3.00870299 2.60622025 0.20861112 8 3 4910 3.98600000 1293117568 1293117568 3.00000000
2.47557378 2.14365315 -0.63653880 5 4 4911 3.33600000 1293117570 1293117570 -11.00000000
3.00980663 2.60533786 0.34827435 6 5 4912 3.99600000 1293117572 1293117572 5.00000000
2.97260690 2.57222986 -0.62260920 8 6 4913 3.98000000 1293117574 1293117574 -9.00000000
3.02070808 2.61293030 0.49040225 7 7 4914 4.02400000 1293117577 1293117577 7.00000000
2.98662782 2.58253956 -0.48479626 5 8 4915 3.97800000 1293117579 1293117579 -7.00000000
3.01579785 2.60684323 0.63136947 8 9 4916 4.03600000 1293117581 1293117581 9.00000000
2.99655151 2.59020686 -0.34653124 8 10 4916 3.97600000 1293117584 1293117584 -5.00000000
3.01556897 2.60572600 0.77468455 68 11 4917 4.06000000 1293117586 1293117586 11.00000000
2.98059845 2.57459974 -0.20641302 5 12 4918 3.94400000 1293117588 1293117588 -3.00000000
3.01040220 2.59942651 0.91825020 54 13 4919 4.08200000 1293117591 1293117591 13.00000000
2.99270248 2.58323169 -0.06900682 4 14 4920 3.95400000 1293117593 1293117593 -1.00000000
3.01401091 2.60162425 1.06685209 66 15 4920 4.12200000 1293117595 1293117595 15.00000000
1.73356926 1.49215794 -0.61288351 4 0 4928 2.36800000 1293117616 1293117616 -15.00000000
2.99069333 2.57331038 0.06886720 4 1 4929 3.94600000 1293117618 1293117618 1.00000000
2.05359554 1.76637077 -0.62536395 3 2 4930 2.78000000 1293117620 1293117620 -13.00000000
3.01323938 2.59179473 0.20829710 4 3 4930 3.98000000 1293117623 1293117623 3.00000000
2.48601866 2.13755870 -0.63730204 4 4 4931 3.34000000 1293117625 1293117625 -11.00000000
2.99621820 2.57533526 0.34565967 4 5 4932 3.96600000 1293117627 1293117627 5.00000000
2.97557449 2.55668831 -0.62135768 8 6 4933 3.97200000 1293117630 1293117630 -9.00000000
3.00722241 2.58296871 0.48674616 6 7 4934 3.99400000 1293117632 1293117632 7.00000000
2.97152686 2.55140805 -0.48089644 31 8 4935 3.94600000 1293117634 1293117634 -7.00000000
3.02338004 2.59501362 0.63105661 8 9 4936 4.03400000 1293117637 1293117637 9.00000000
2.97684956 2.55507565 -0.34321931 25 10 4936 3.93800000 1293117639 1293117639 -5.00000000
3.01868629 2.59007001 0.77315807 66 11 4937 4.05200000 1293117641 1293117641 11.00000000
2.96834302 2.54597569 -0.20494761 19 12 4938 3.91600000 1293117644 1293117644 -3.00000000
3.00910187 2.58002329 0.91510087 57 13 4939 4.06800000 1293117646 1293117646 13.00000000
2.98651838 2.55975580 -0.06865776 19 14 4940 3.93400000 1293117648 1293117648 -1.00000000
3.01867342 2.58731604 1.06529915 72 15 4940 4.11600000 1293117650 1293117650 15.00000000
1.74464154 1.49111819 -0.61495405 4 0 4948 2.37600000 1293117671 1293117671 -15.00000000
2.98445415 2.54986572 0.06851815 24 1 4949 3.92600000 1293117673 1293117673 1.00000000
2.06567597 1.76425397 -0.62716353 3 2 4950 2.78800000 1293117676 1293117676 -13.00000000
2.98930168 2.55220270 0.20599432 27 3 4951 3.93600000 1293117678 1293117678 3.00000000
2.48898578 2.12504339 -0.63615721 5 4 4951 3.33400000 1293117680 1293117680 -11.00000000
3.00822067 2.56744766 0.34600830 25 5 4952 3.97000000 1293117683 1293117683 5.00000000
2.98147535 2.54372191 -0.62073195 8 6 4953 3.96800000 1293117685 1293117685 -9.00000000
3.00262690 2.56086254 0.48455250 19 7 4954 3.97600000 1293117687 1293117687 7.00000000
3.02144647 2.57600236 0.62886655 8 9 4955 4.02000000 1293117692 1293117692 9.00000000
2.98726654 2.54596138 -0.34339362 17 10 4956 3.94000000 1293117694 1293117694 -5.00000000
3.02173138 2.57442427 0.77163160 72 11 4957 4.04400000 1293117697 1293117697 11.00000000
2.97265053 2.53171372 -0.20463359 15 12 4958 3.91000000 1293117699 1293117699 -3.00000000
3.01512194 2.56697726 0.91420108 59 13 4959 4.06400000 1293117701 1293117701 13.00000000
2.97411561 2.53117085 -0.06816910 13 14 4960 3.90600000 1293117703 1293117703 -1.00000000
3.02519345 2.57373095 1.06426394 70 15 4961 4.11200000 1293117706 1293117706 15.00000000
1.74689007 1.48251915 -0.61391878 4 0 4968 2.37200000 1293117726 1293117726 -15.00000000
3.00858545 2.55236888 0.06886720 3 1 4969 3.94600000 1293117729 1293117729 1.00000000
2.07776690 1.76207447 -0.62896317 3 2 4970 2.79600000 1293117731 1293117731 -13.00000000
2.98860908 2.53452492 0.20536630 4 3 4970 3.92400000 1293117733 1293117733 3.00000000
2.48440814 2.10618591 -0.63310426 5 4 4971 3.31800000 1293117736 1293117736 -11.00000000
2.97677135 2.52180719 -0.61791611 8 6 4973 3.95000000 1293117740 1293117740 -9.00000000
3.01306248 2.55164862 0.48479626 4 7 4974 3.97800000 1293117743 1293117743 7.00000000
2.96957040 2.51392674 -0.47772783 3 8 4975 3.92000000 1293117745 1293117745 -7.00000000
3.00975704 2.54704595 0.62448639 7 9 4976 3.99200000 1293117747 1293117747 9.00000000
3.02770162 2.56132483 0.77086836 68 11 4977 4.04000000 1293117752 1293117752 11.00000000
3.01513457 2.54888844 0.91150165 47 13 4979 4.05200000 1293117756 1293117756 13.00000000
3.01940131 2.55068874 1.05908751 56 15 4981 4.09200000 1293117761 1293117761 15.00000000
1.75500894 1.47890210 -0.61495405 4 0 4988 2.37600000 1293117782 1293117782 -15.00000000
2.98230076 2.51222014 0.06806438 1 1 4989 3.90000000 1293117784 1293117784 1.00000000
2.08688617 1.75732136 -0.62986296 3 2 4990 2.80000000 1293117786 1293117786 -13.00000000
2.99896574 2.52536368 0.20547096 1 3 4990 3.92600000 1293117789 1293117789 3.00000000
2.50676441 2.11014414 -0.63692045 5 4 4991 3.33800000 1293117791 1293117791 -11.00000000
2.98491073 2.51174784 0.34130189 3 5 4992 3.91600000 1293117793 1293117793 5.00000000
2.97648597 2.50377154 -0.61603892 8 6 4993 3.93800000 1293117796 1293117796 -9.00000000
3.01891255 2.53856039 0.48430878 3 7 4994 3.97400000 1293117798 1293117798 7.00000000
2.97224927 2.49843645 -0.47675288 7 8 4995 3.91200000 1293117800 1293117800 -7.00000000
3.01365066 2.53323793 0.62354779 13 9 4995 3.98600000 1293117803 1293117803 9.00000000
2.96530843 2.49171901 -0.33886153 8 10 4996 3.88800000 1293117805 1293117805 -5.00000000
2.97648668 2.49934006 -0.20369154 10 12 4998 3.89200000 1293117809 1293117809 -3.00000000
3.01505780 2.53083086 0.90880227 10 13 4999 4.04000000 1293117812 1293117812 13.00000000
2.97639537 2.49749231 -0.06782005 11 14 5000 3.88600000 1293117814 1293117814 -1.00000000
3.01200533 2.52647686 1.05339348 10 15 5001 4.07000000 1293117816 1293117816 15.00000000
1.75571573 1.46904778 -0.61340111 3 0 5008 2.37000000 1293117837 1293117837 -15.00000000
2.98645020 2.49794579 0.06795967 8 1 5009 3.89400000 1293117839 1293117839 1.00000000
2.08702779 1.74502599 -0.62806332 3 2 5010 2.79200000 1293117842 1293117842 -13.00000000
3.00163388 2.50975537 0.20505227 8 3 5010 3.91800000 1293117844 1293117844 3.00000000
2.50808954 2.09634471 -0.63539398 5 4 5011 3.33000000 1293117846 1293117846 -11.00000000
3.00283360 2.50897813 0.34234777 6 5 5012 3.92800000 1293117849 1293117849 5.00000000
2.98520756 2.49336624 -0.61603892 8 6 5013 3.93800000 1293117851 1293117851 -9.00000000
3.01251745 2.51528430 0.48187140 6 7 5014 3.95400000 1293117853 1293117853 7.00000000
2.99924040 2.50331020 -0.47967774 1 8 5015 3.93600000 1293117856 1293117856 -7.00000000
3.03764033 2.53536081 0.62667644 14 9 5015 4.00600000 1293117858 1293117858 9.00000000
2.98775649 2.49284077 -0.34043032 4 10 5016 3.90600000 1293117860 1293117860 -5.00000000
3.02289391 2.52126288 0.76514405 14 11 5017 4.01000000 1293117862 1293117862 11.00000000
2.99439692 2.49660897 -0.20431957 3 12 5018 3.90400000 1293117865 1293117865 -3.00000000
3.03584957 2.53027225 0.91240150 10 13 5019 4.05600000 1293117867 1293117867 13.00000000
2.98970413 2.49092746 -0.06792477 1 14 5020 3.89200000 1293117869 1293117869 -1.00000000
3.02822828 2.52212930 1.05598176 12 15 5021 4.08000000 1293117872 1293117872 15.00000000
1.75909185 1.46198273 -0.61288351 4 0 5027 2.36800000 1293117892 1293117892 -15.00000000
3.00548410 2.49697375 0.06820401 1 1 5028 3.90800000 1293117895 1293117895 1.00000000
2.08380818 1.73062527 -0.62536395 3 2 5029 2.78000000 1293117897 1293117897 -13.00000000
3.00686693 2.49723577 0.20484294 1 3 5029 3.91400000 1293117899 1293117899 3.00000000
2.52106953 2.09303236 -0.63692045 5 4 5030 3.33800000 1293117902 1293117902 -11.00000000
3.02340269 2.50918603 0.34374225 1 5 5031 3.94400000 1293117904 1293117904 5.00000000
3.01170301 2.49858856 -0.61979336 8 6 5032 3.96200000 1293117906 1293117906 -9.00000000
3.02389789 2.50781488 0.48235887 4 7 5033 3.95800000 1293117908 1293117908 7.00000000
3.02280736 2.50602007 -0.48211512 5 8 5034 3.95600000 1293117911 1293117911 -7.00000000
3.04451036 2.52401280 0.62636358 10 9 5034 4.00400000 1293117913 1293117913 9.00000000
3.02515364 2.50707459 -0.34374225 4 10 5035 3.94400000 1293117915 1293117915 -5.00000000
3.04484463 2.52249718 0.76857865 8 11 5036 4.02800000 1293117918 1293117918 11.00000000
2.99189186 2.47774792 -0.20358688 1 12 5037 3.89000000 1293117920 1293117920 -3.00000000
3.05172896 2.52640462 0.91465098 9 13 5038 4.06600000 1293117922 1293117922 13.00000000
3.03954315 2.51542258 -0.06886720 1 14 5039 3.94600000 1293117925 1293117925 -1.00000000
3.05399632 2.52738357 1.06219339 8 15 5039 4.10400000 1293117927 1293117927 15.00000000
1.77610457 1.46567023 -0.61702460 4 0 5047 2.38400000 1293117948 1293117948 -15.00000000
3.01109672 2.48392248 0.06813420 6 1 5048 3.90400000 1293117950 1293117950 1.00000000
2.08983636 1.72334087 -0.62536395 3 2 5049 2.78000000 1293117952 1293117952 -13.00000000
3.02635193 2.49561930 0.20557563 1 3 5049 3.92800000 1293117955 1293117955 3.00000000
2.52533054 2.08172178 -0.63615721 5 4 5050 3.33400000 1293117957 1293117957 -11.00000000
3.03521800 2.50115108 0.34409088 3 5 5051 3.94800000 1293117959 1293117959 5.00000000
3.03870273 2.50313210 -0.62354779 8 6 5052 3.98600000 1293117961 1293117961 -9.00000000
3.05715179 2.51743412 0.48625869 6 7 5053 3.99000000 1293117964 1293117964 7.00000000
3.02234077 2.48788381 -0.48065269 20 8 5054 3.94400000 1293117966 1293117966 -7.00000000
3.07312894 2.52969074 0.63043088 8 9 5054 4.03000000 1293117968 1293117968 9.00000000
3.03234792 2.49523354 -0.34356794 29 10 5055 3.94200000 1293117971 1293117971 -5.00000000
3.06879330 2.52432513 0.77239484 8 11 5056 4.04800000 1293117973 1293117973 11.00000000
3.02057743 2.48378015 -0.20494761 19 12 5057 3.91600000 1293117975 1293117975 -3.00000000
3.06655097 2.52068639 0.91645062 8 13 5058 4.07400000 1293117978 1293117978 13.00000000
3.03285503 2.49210191 -0.06851815 21 14 5059 3.92600000 1293117980 1293117980 -1.00000000
3.07667446 2.52720881 1.06685209 8 15 5060 4.12200000 1293117982 1293117982 15.00000000
1.77199066 1.45242453 -0.61391878 4 0 5066 2.37200000 1293118003 1293118003 -15.00000000
3.05179954 2.50053859 0.06886720 17 1 5067 3.94600000 1293118005 1293118005 1.00000000
2.10157013 1.72134054 -0.62716353 3 2 5068 2.78800000 1293118008 1293118008 -13.00000000
3.05049825 2.49769306 0.20662236 26 3 5069 3.94800000 1293118010 1293118010 3.00000000
2.52310562 2.06587362 -0.63386750 5 4 5069 3.32200000 1293118012 1293118012 -11.00000000
3.06199694 2.50621557 0.34618261 19 5 5070 3.97200000 1293118014 1293118014 5.00000000
3.05615973 2.50054717 -0.62542498 8 6 5071 3.99800000 1293118017 1293118017 -9.00000000
3.07316613 2.51356649 0.48747736 10 7 5072 4.00000000 1293118019 1293118019 7.00000000
3.06899428 2.50926042 -0.48674616 7 8 5073 3.99400000 1293118021 1293118021 -7.00000000
3.07232523 2.51198387 0.62855369 8 9 5073 4.01800000 1293118024 1293118024 9.00000000
3.06374598 2.50407720 -0.34618261 6 10 5074 3.97200000 1293118026 1293118026 -5.00000000
3.09691167 2.53028297 0.77735585 8 11 5075 4.07400000 1293118028 1293118028 11.00000000
3.05354762 2.49396443 -0.20662236 7 12 5076 3.94800000 1293118031 1293118031 -3.00000000
3.08244038 2.51666570 0.91870010 8 13 5077 4.08400000 1293118033 1293118033 13.00000000
3.04884863 2.48835278 -0.06869267 4 14 5078 3.93600000 1293118035 1293118035 -1.00000000
3.09208202 2.52363825 1.06944025 8 15 5078 4.13200000 1293118038 1293118038 15.00000000
1.76506293 1.43647492 -0.60977769 4 0 5086 2.35600000 1293118058 1293118058 -15.00000000
3.07447028 2.50122833 0.06918134 8 1 5087 3.96400000 1293118061 1293118061 1.00000000
2.11663723 1.72137153 -0.62986296 3 2 5088 2.80000000 1293118063 1293118063 -13.00000000
3.09019327 2.51222754 0.20871580 4 3 5089 3.98800000 1293118065 1293118065 3.00000000
2.53030157 2.05705380 -0.63386750 5 4 5089 3.32200000 1293118067 1293118067 -11.00000000
3.08928084 2.51059055 0.34827435 4 5 5090 3.99600000 1293118070 1293118070 5.00000000
3.07253551 2.49609160 -0.62698936 9 6 5091 4.00800000 1293118072 1293118072 -9.00000000
3.10965872 2.52534914 0.49186468 7 7 5092 4.03600000 1293118074 1293118074 7.00000000
3.08389926 2.50353694 -0.48772112 8 8 5093 4.00200000 1293118077 1293118077 -7.00000000
3.10145140 2.51688814 0.63262099 8 9 5094 4.04400000 1293118079 1293118079 9.00000000
3.08484459 2.50341129 -0.34757710 8 10 5094 3.98800000 1293118081 1293118081 -5.00000000
3.10877442 2.52193093 0.77811909 8 11 5095 4.07800000 1293118084 1293118084 11.00000000
3.09946537 2.51348233 -0.20913447 7 12 5096 3.99600000 1293118086 1293118086 -3.00000000
3.11391377 2.52429843 0.92544866 7 13 5097 4.11400000 1293118088 1293118088 13.00000000
3.09324908 2.50665212 -0.06949548 8 14 5098 3.98200000 1293118091 1293118091 -1.00000000
3.11031747 2.51958442 1.07254612 8 15 5099 4.14400000 1293118093 1293118093 15.00000000
1.77908194 1.43759000 -0.61288351 4 0 5106 2.36800000 1293118114 1293118114 -15.00000000
3.08473802 2.49173760 0.06921624 6 1 5107 3.96600000 1293118116 1293118116 1.00000000
2.10443902 1.69928133 -0.62446415 3 2 5108 2.77600000 1293118118 1293118118 -13.00000000
3.11293101 2.51271582 0.20965785 7 3 5109 4.00600000 1293118120 1293118120 3.00000000
2.54052186 2.05067492 -0.63463074 5 4 5109 3.32600000 1293118123 1293118123 -11.00000000
3.11353135 2.51230311 0.35001746 6 5 5110 4.01600000 1293118125 1293118125 5.00000000
3.09199262 2.49403262 -0.62917942 9 6 5111 4.02200000 1293118127 1293118127 -9.00000000
3.12463617 2.51946306 0.49283963 7 7 5112 4.04400000 1293118130 1293118130 7.00000000
3.10498381 2.50272298 -0.48967102 8 8 5113 4.01800000 1293118132 1293118132 -7.00000000
3.12362242 2.51774645 0.63543677 8 9 5113 4.06200000 1293118134 1293118134 9.00000000
3.09666729 2.49512792 -0.34792572 8 10 5114 3.99200000 1293118137 1293118137 -5.00000000
3.12367463 2.51599002 0.77964556 8 11 5115 4.08600000 1293118139 1293118139 11.00000000
3.10510874 2.50014281 -0.20892514 7 12 5116 3.99200000 1293118141 1293118141 -3.00000000
3.13181472 2.52074480 0.92814803 7 13 5117 4.12600000 1293118144 1293118144 13.00000000
3.12535000 2.51464272 -0.07001905 7 14 5118 4.01200000 1293118146 1293118146 -1.00000000
3.13370705 2.52136660 1.07772255 8 15 5118 4.16400000 1293118148 1293118148 15.00000000
1.78559613 1.43258011 -0.61340111 4 0 5126 2.37000000 1293118169 1293118169 -15.00000000
3.11525655 2.49847031 0.06970491 6 1 5127 3.99400000 1293118171 1293118171 1.00000000
2.11948037 1.69923902 -0.62716353 3 2 5128 2.78800000 1293118173 1293118173 -13.00000000
3.13103390 2.50932860 0.21028587 7 3 5129 4.01800000 1293118176 1293118176 3.00000000
2.55838847 2.05038881 -0.63730204 5 4 5129 3.34000000 1293118178 1293118178 -11.00000000
3.13627625 2.51263094 0.35158625 6 5 5130 4.03400000 1293118180 1293118180 5.00000000
3.11301446 2.49310303 -0.63168240 9 6 5131 4.03800000 1293118183 1293118183 -9.00000000
3.14116001 2.51474380 0.49405831 7 7 5132 4.05400000 1293118185 1293118185 7.00000000
3.11680079 2.49434996 -0.49015850 8 8 5133 4.02200000 1293118187 1293118187 -7.00000000
3.15596700 2.52479100 0.64012980 8 9 5134 4.09200000 1293118190 1293118190 9.00000000
3.13025069 2.50421762 -0.35071471 9 10 5134 4.02400000 1293118192 1293118192 -5.00000000
3.14470410 2.51488042 0.78269851 8 11 5135 4.10200000 1293118194 1293118194 11.00000000
3.12317729 2.49677157 -0.20955317 7 12 5136 4.00400000 1293118196 1293118196 -3.00000000
3.14820647 2.51588011 0.93039757 8 13 5137 4.13600000 1293118199 1293118199 13.00000000
3.14504528 2.51245475 -0.07026339 7 14 5138 4.02600000 1293118201 1293118201 -1.00000000
3.16406131 2.52674127 1.08496940 8 15 5139 4.19200000 1293118203 1293118203 15.00000000
1.79789102 1.43267059 -0.61598933 4 0 5145 2.38000000 1293118224 1293118224 -15.00000000
3.13603759 2.49809337 0.06998415 8 1 5146 4.01000000 1293118226 1293118226 1.00000000
2.12510347 1.69220114 -0.62716353 3 2 5147 2.78800000 1293118229 1293118229 -13.00000000
3.15496445 2.51137066 0.21133259 7 3 5148 4.03800000 1293118231 1293118231 3.00000000
2.55902958 2.03700304 -0.63577557 5 4 5148 3.33200000 1293118233 1293118233 -11.00000000
3.16485882 2.51834416 0.35385230 6 5 5149 4.06000000 1293118236 1293118236 5.00000000
3.13981605 2.49752259 -0.63543677 9 6 5150 4.06200000 1293118238 1293118238 -9.00000000
3.16657329 2.51790380 0.49673945 7 7 5151 4.07600000 1293118240 1293118240 7.00000000
3.14681101 2.50129342 -0.49357083 8 8 5152 4.05000000 1293118243 1293118243 -7.00000000
3.16542983 2.51609302 0.64044273 8 9 5152 4.09400000 1293118245 1293118245 9.00000000
3.15413690 2.50621843 -0.35245782 9 10 5153 4.04400000 1293118247 1293118247 -5.00000000
3.17608595 2.52275467 0.78842276 8 11 5154 4.13200000 1293118249 1293118249 11.00000000
3.15177369 2.50254631 -0.21091390 7 12 5155 4.03000000 1293118252 1293118252 -3.00000000
3.16874290 2.51511860 0.93399680 8 13 5156 4.15200000 1293118254 1293118254 13.00000000
3.15962577 2.50698328 -0.07040301 7 14 5157 4.03400000 1293118256 1293118256 -1.00000000
3.18106389 2.52399325 1.08807528 8 15 5157 4.20400000 1293118259 1293118259 15.00000000
1.79379094 1.41919410 -0.61288351 4 0 5165 2.36800000 1293118279 1293118279 -15.00000000
3.16826510 2.50573850 0.07050772 7 1 5166 4.04000000 1293118282 1293118282 1.00000000
2.13099742 1.68477285 -0.62716353 3 2 5167 2.78800000 1293118284 1293118284 -13.00000000
3.16841245 2.50405765 0.21164660 7 3 5168 4.04400000 1293118286 1293118286 3.00000000
2.55226183 2.01710200 -0.63234103 5 4 5168 3.31400000 1293118289 1293118289 -11.00000000
3.18770027 2.51839757 0.35542113 6 5 5169 4.07800000 1293118291 1293118291 5.00000000
3.16401720 2.49879026 -0.63856548 9 6 5170 4.08200000 1293118293 1293118293 -9.00000000
3.19092369 2.51913548 0.49917683 7 7 5171 4.09600000 1293118296 1293118296 7.00000000
3.16798925 2.50013208 -0.49552074 10 8 5172 4.06600000 1293118298 1293118298 -7.00000000
3.18083382 2.50936818 0.64169419 8 9 5173 4.10200000 1293118300 1293118300 9.00000000
3.16599441 2.49766111 -0.35280645 9 10 5173 4.04800000 1293118302 1293118302 -5.00000000
3.20028830 2.52380967 0.79223895 8 11 5174 4.15200000 1293118305 1293118305 11.00000000
3.16990089 2.49894834 -0.21154194 7 12 5175 4.04200000 1293118307 1293118307 -3.00000000
3.19127846 2.51489806 0.93804592 9 13 5176 4.17000000 1293118309 1293118309 13.00000000
3.18092394 2.50583839 -0.07068224 7 14 5177 4.05000000 1293118312 1293118312 -1.00000000
3.19939971 2.51948833 1.09118104 8 15 5178 4.21600000 1293118314 1293118314 15.00000000
1.80329144 1.41650403 -0.61443639 3 0 5185 2.37400000 1293118335 1293118335 -15.00000000
3.17856526 2.49589872 0.07054263 7 1 5186 4.04200000 1293118337 1293118337 1.00000000
2.13993120 1.67973053 -0.62806332 3 2 5187 2.79200000 1293118339 1293118339 -13.00000000
3.20070314 2.51147652 0.21321669 7 3 5188 4.07400000 1293118342 1293118342 3.00000000
2.56546545 2.01302838 -0.63386750 5 4 5188 3.32200000 1293118344 1293118344 -11.00000000
3.20274258 2.51217365 0.35611835 6 5 5189 4.08600000 1293118346 1293118346 5.00000000
3.17738390 2.49138713 -0.63950408 9 6 5190 4.08800000 1293118349 1293118349 -9.00000000
3.21688366 2.52145243 0.50185794 7 7 5191 4.11800000 1293118351 1293118351 7.00000000
3.19544768 2.50375032 -0.49844560 8 8 5192 4.09000000 1293118353 1293118353 -7.00000000
3.20313215 2.50977135 0.64450997 8 9 5192 4.12000000 1293118355 1293118355 9.00000000
3.18410468 2.49396586 -0.35385230 9 10 5193 4.06000000 1293118358 1293118358 -5.00000000
3.21371603 2.51625419 0.79338378 8 11 5194 4.15800000 1293118360 1293118360 11.00000000
3.19747782 2.50264025 -0.21279800 7 12 5195 4.06600000 1293118362 1293118362 -3.00000000
3.22152472 2.52055478 0.94434452 9 13 5196 4.19800000 1293118365 1293118365 13.00000000
3.20540309 2.50703931 -0.07103129 7 14 5197 4.07000000 1293118367 1293118367 -1.00000000
3.22295403 2.52076650 1.09635746 8 15 5197 4.23600000 1293118369 1293118369 15.00000000
1.80974841 1.41138875 -0.61495405 4 0 5205 2.37600000 1293118390 1293118390 -15.00000000
3.20776010 2.50077176 0.07099639 7 1 5206 4.06800000 1293118392 1293118392 1.00000000
2.14578152 1.67225051 -0.62806332 3 2 5207 2.79200000 1293118395 1293118395 -13.00000000
3.23308396 2.51870012 0.21478677 7 3 5208 4.10400000 1293118397 1293118397 3.00000000
2.57867169 2.00888705 -0.63539398 5 4 5208 3.33000000 1293118399 1293118399 -11.00000000
3.22721148 2.51322031 0.35786149 6 5 5209 4.10600000 1293118402 1293118402 5.00000000
3.18606114 2.48028088 -0.63950408 9 6 5210 4.08800000 1293118404 1293118404 -9.00000000
3.23193192 2.51508451 0.50283289 7 7 5211 4.12600000 1293118406 1293118406 7.00000000
3.21826935 2.50355077 -0.50063926 10 8 5212 4.10800000 1293118408 1293118408 -7.00000000
3.23725939 2.51741648 0.64951593 8 9 5213 4.15200000 1293118411 1293118411 9.00000000
3.21166444 2.49751306 -0.35594407 9 10 5213 4.08400000 1293118413 1293118413 -5.00000000
3.22867990 2.50984073 0.79491025 8 11 5214 4.16600000 1293118415 1293118415 11.00000000
3.21407962 2.49759126 -0.21332136 7 12 5215 4.07600000 1293118418 1293118418 -3.00000000
3.24415421 2.52005339 0.94839364 8 13 5216 4.21600000 1293118420 1293118420 13.00000000
3.22361135 2.50319386 -0.07124072 7 14 5217 4.08200000 1293118422 1293118422 -1.00000000
3.24438000 2.51841331 1.10049856 8 15 5218 4.25200000 1293118425 1293118425 15.00000000
1.81160903 1.40269756 -0.61391878 4 0 5225 2.37200000 1293118445 1293118445 -15.00000000
3.22912073 2.49935102 0.07127563 7 1 5226 4.08400000 1293118448 1293118448 1.00000000
2.13927555 1.65521002 -0.62446415 3 2 5227 2.77600000 1293118450 1293118450 -13.00000000
3.24975538 2.51350904 0.21531013 7 3 5228 4.11400000 1293118452 1293118452 3.00000000
2.58877420 2.00227594 -0.63615721 5 4 5228 3.33400000 1293118455 1293118455 -11.00000000
3.25172687 2.51412678 0.35960460 6 5 5229 4.12600000 1293118457 1293118457 5.00000000
3.20876622 2.48001623 -0.64231992 9 6 5230 4.10600000 1293118459 1293118459 -9.00000000
3.25482941 2.51471066 0.50502658 7 7 5231 4.14400000 1293118461 1293118461 7.00000000
3.23484421 2.49836850 -0.50185794 8 8 5232 4.11800000 1293118464 1293118464 -7.00000000
3.26122332 2.51874185 0.65264457 8 9 5232 4.17200000 1293118466 1293118466 9.00000000
3.23613358 2.49846268 -0.35768718 9 10 5233 4.10400000 1293118468 1293118468 -5.00000000
3.26073432 2.51654768 0.80063456 8 11 5234 4.19600000 1293118471 1293118471 11.00000000
3.23226643 2.49367666 -0.21394938 7 12 5235 4.08800000 1293118473 1293118473 -3.00000000
3.26218987 2.51585436 0.95109308 8 13 5236 4.22800000 1293118475 1293118475 13.00000000
3.24499893 2.50169349 -0.07151996 7 14 5237 4.09800000 1293118478 1293118478 -1.00000000
3.27719283 2.52651286 1.10878074 8 15 5237 4.28400000 1293118480 1293118480 15.00000000
1.81955755 1.39872003 -0.61495405 4 0 5245 2.37600000 1293118501 1293118501 -15.00000000
3.25368142 2.50024843 0.07162467 7 1 5246 4.10400000 1293118503 1293118503 1.00000000
2.14813113 1.65010679 -0.62536395 3 2 5247 2.78000000 1293118505 1293118505 -13.00000000
3.25850940 2.50214982 0.21531013 7 3 5248 4.11400000 1293118508 1293118508 3.00000000
2.59263325 1.99083579 -0.63539398 6 4 5248 3.33000000 1293118510 1293118510 -11.00000000
3.28418970 2.52095819 0.36221927 7 5 5249 4.15600000 1293118512 1293118512 5.00000000
3.22837377 2.47721815 -0.64450997 9 6 5250 4.12000000 1293118514 1293118514 -9.00000000
3.27776337 2.51420736 0.50722021 7 7 5251 4.16200000 1293118517 1293118517 7.00000000
3.25929856 2.49914050 -0.50429535 8 8 5252 4.13800000 1293118519 1293118519 -7.00000000
3.29194188 2.52417064 0.65702474 8 9 5252 4.20000000 1293118521 1293118521 9.00000000
3.27013588 2.50654435 -0.36047617 9 10 5253 4.13600000 1293118524 1293118524 -5.00000000
3.27884912 2.51231456 0.80292428 8 11 5254 4.20800000 1293118526 1293118526 11.00000000
3.25680709 2.49452353 -0.21499611 7 12 5255 4.10800000 1293118528 1293118528 -3.00000000
3.28178287 2.51274490 0.95424235 9 13 5256 4.24200000 1293118531 1293118531 13.00000000
3.26800346 2.50128961 -0.07183410 7 14 5257 4.11600000 1293118533 1293118533 -1.00000000
3.30286694 2.52797389 1.11447477 8 15 5257 4.30600000 1293118535 1293118535 15.00000000
1.82750034 1.39470410 -0.61598933 4 0 5265 2.38000000 1293118556 1293118556 -15.00000000
3.28941679 2.50949526 0.07221806 7 1 5266 4.13800000 1293118558 1293118558 1.00000000
2.15387797 1.64259839 -0.62536395 3 2 5267 2.78000000 1293118561 1293118561 -13.00000000
3.28310704 2.50286889 0.21635684 7 3 5268 4.13400000 1293118563 1293118563 3.00000000
2.59800553 1.98058343 -0.63501233 5 4 5268 3.32800000 1293118565 1293118565 -11.00000000
3.29455423 2.51068664 0.36239359 7 5 5269 4.15800000 1293118567 1293118567 5.00000000
3.25114346 2.47670746 -0.64732581 9 6 5270 4.13800000 1293118570 1293118570 -9.00000000
3.31494689 2.52439857 0.51160753 7 7 5271 4.19800000 1293118572 1293118572 7.00000000
3.28063822 2.49736738 -0.50624526 8 8 5272 4.15400000 1293118574 1293118574 -7.00000000
3.29331136 2.50610685 0.65546042 8 9 5273 4.19000000 1293118577 1293118577 9.00000000
3.28045106 2.49632049 -0.36065045 9 10 5273 4.13800000 1293118579 1293118579 -5.00000000
3.31259966 2.51987195 0.80903012 8 11 5274 4.24000000 1293118581 1293118581 11.00000000
3.28775239 2.50006509 -0.21646151 7 12 5275 4.13600000 1293118584 1293118584 -3.00000000
3.31535649 2.52014256 0.96144080 8 13 5276 4.27400000 1293118586 1293118586 13.00000000
3.27989888 2.49228668 -0.07190391 7 14 5277 4.12000000 1293118588 1293118588 -1.00000000
3.32243824 2.52461100 1.11809826 8 15 5277 4.32000000 1293118590 1293118590 15.00000000
1.81849945 1.37781668 -0.61133057 3 0 5285 2.36200000 1293118611 1293118611 -15.00000000
3.30453277 2.50282693 0.07235768 7 1 5286 4.14600000 1293118614 1293118614 1.00000000
2.17202806 1.64448035 -0.62896317 3 2 5287 2.79600000 1293118616 1293118616 -13.00000000
3.31730485 2.51067877 0.21803160 7 3 5288 4.16600000 1293118618 1293118618 3.00000000
2.60646868 1.97268736 -0.63539398 6 4 5288 3.33000000 1293118620 1293118620 -11.00000000
3.31600928 2.50878787 0.36378807 7 5 5289 4.17400000 1293118623 1293118623 5.00000000
3.25661778 2.46296072 -0.64670008 11 6 5290 4.13400000 1293118625 1293118625 -9.00000000
3.33640647 2.52238917 0.51355743 7 7 5291 4.21400000 1293118627 1293118627 7.00000000
3.31150746 2.50265694 -0.50965762 8 8 5292 4.18200000 1293118630 1293118630 -7.00000000
3.33513832 2.51960135 0.66203064 8 9 5293 4.23200000 1293118632 1293118632 9.00000000
3.29709339 2.49085951 -0.36152202 9 10 5293 4.14800000 1293118634 1293118634 -5.00000000
3.33390880 2.51775861 0.81208307 8 11 5294 4.25600000 1293118637 1293118637 11.00000000
3.31239939 2.50060701 -0.21750824 7 12 5295 4.15600000 1293118639 1293118639 -3.00000000
3.33968830 2.52029324 0.96593982 8 13 5296 4.29400000 1293118641 1293118641 13.00000000
3.30773544 2.49527383 -0.07232277 7 14 5297 4.14400000 1293118643 1293118643 -1.00000000
3.33938122 2.51823235 1.12068641 8 15 5298 4.33000000 1293118646 1293118646 15.00000000
1.82947326 1.37610555 -0.61340111 4 0 5305 2.37000000 1293118667 1293118667 -15.00000000
3.31324911 2.49127674 0.07235768 7 1 5306 4.14600000 1293118669 1293118669 1.00000000
2.17152405 1.63220501 -0.62716353 3 2 5307 2.78800000 1293118671 1293118671 -13.00000000
3.33882260 2.50868177 0.21886897 7 3 5308 4.18200000 1293118673 1293118673 3.00000000
2.60235167 1.95532179 -0.63272262 6 4 5308 3.31600000 1293118676 1293118676 -11.00000000
3.33908391 2.50796652 0.36535686 7 5 5309 4.19200000 1293118678 1293118678 5.00000000
3.26993442 2.45513606 -0.64763868 11 6 5310 4.14000000 1293118680 1293118680 -9.00000000
3.35630441 2.51906872 0.51526356 7 7 5311 4.22800000 1293118683 1293118683 7.00000000
3.33927751 2.50537825 -0.51258248 8 8 5312 4.20600000 1293118685 1293118685 -7.00000000
3.35655546 2.51742601 0.66453362 8 9 5313 4.24800000 1293118687 1293118687 9.00000000
3.33445835 2.50085306 -0.36465964 9 10 5313 4.18400000 1293118690 1293118690 -5.00000000
3.35681438 2.51670480 0.81551766 8 11 5314 4.27400000 1293118692 1293118692 11.00000000
3.33069730 2.49621630 -0.21813627 7 12 5315 4.16800000 1293118694 1293118694 -3.00000000
3.35938263 2.51679921 0.96908915 8 13 5316 4.30800000 1293118696 1293118696 13.00000000
3.33883357 2.50049448 -0.07281144 7 14 5317 4.17200000 1293118699 1293118699 -1.00000000
3.36008406 2.51640892 1.12482762 8 15 5317 4.34600000 1293118701 1293118701 15.00000000
1.83116984 1.36739933 -0.61236584 3 0 5325 2.36600000 1293118722 1293118722 -15.00000000
3.34756470 2.49883533 0.07291616 7 1 5326 4.17800000 1293118724 1293118724 1.00000000
2.16783714 1.61762249 -0.62446415 3 2 5327 2.77600000 1293118726 1293118726 -13.00000000
3.36196756 2.50775933 0.21981102 7 3 5328 4.20000000 1293118729 1293118729 3.00000000
2.62175059 1.95561671 -0.63577557 5 4 5328 3.33200000 1293118731 1293118731 -11.00000000
3.36858225 2.51177859 0.36762291 7 5 5329 4.21800000 1293118733 1293118733 5.00000000
3.28006816 2.44488764 -0.64795154 11 6 5330 4.14200000 1293118736 1293118736 -9.00000000
3.37462807 2.51445413 0.51672602 7 7 5331 4.24000000 1293118738 1293118738 7.00000000
3.34800267 2.49370670 -0.51258248 8 8 5332 4.20600000 1293118740 1293118740 -7.00000000
3.38275123 2.51867080 0.66797519 8 9 5333 4.27000000 1293118743 1293118743 9.00000000
3.36234450 2.50347686 -0.36675137 9 10 5333 4.20800000 1293118745 1293118745 -5.00000000
3.37187862 2.50966096 0.81704414 8 11 5334 4.28200000 1293118747 1293118747 11.00000000
3.34580016 2.48934364 -0.21855496 7 12 5335 4.17600000 1293118749 1293118749 -3.00000000
3.38378429 2.51668715 0.97358817 8 13 5336 4.32800000 1293118752 1293118752 13.00000000
3.37161326 2.50672102 -0.07333501 7 14 5337 4.20200000 1293118754 1293118754 -1.00000000
3.38124990 2.51388574 1.12896872 8 15 5337 4.36200000 1293118756 1293118756 15.00000000
1.83569419 1.36131942 -0.61236584 3 0 5344 2.36600000 1293118777 1293118777 -15.00000000
3.37832284 2.50439262 0.07340482 7 1 5345 4.20600000 1293118779 1293118779 1.00000000
2.17632103 1.61274529 -0.62536395 3 2 5346 2.78000000 1293118782 1293118782 -13.00000000
3.38106203 2.50550914 0.22054371 7 3 5346 4.21400000 1293118784 1293118784 3.00000000
2.62348866 1.94340611 -0.63463074 6 4 5347 3.32600000 1293118786 1293118786 -11.00000000
3.40091085 2.51837921 0.37023759 7 5 5348 4.24800000 1293118789 1293118789 5.00000000
3.28657007 2.43282175 -0.64763868 9 6 5349 4.14000000 1293118791 1293118791 -9.00000000
3.39571357 2.51269579 0.51867592 7 7 5350 4.25600000 1293118793 1293118793 7.00000000
3.37380886 2.49557614 -0.51526356 8 8 5351 4.22800000 1293118795 1293118795 -7.00000000
3.39858770 2.51390481 0.66953951 8 9 5351 4.28000000 1293118798 1293118798 9.00000000
3.38825011 2.50534320 -0.36866879 9 10 5352 4.23000000 1293118800 1293118800 -5.00000000
3.41017938 2.52063775 0.82429487 8 11 5353 4.32000000 1293118802 1293118802 11.00000000
3.38455701 2.50078583 -0.22054371 8 12 5354 4.21400000 1293118805 1293118805 -3.00000000
3.40151644 2.51239896 0.97628760 8 13 5355 4.34000000 1293118807 1293118807 13.00000000
3.39438558 2.50621653 -0.07364915 7 14 5356 4.22000000 1293118809 1293118809 -1.00000000
3.41287971 2.51987171 1.13673329 8 15 5356 4.39200000 1293118812 1293118812 15.00000000
1.84510219 1.35833931 -0.61391878 4 0 5364 2.37200000 1293118832 1293118832 -15.00000000
3.40637112 2.50680780 0.07382368 7 1 5365 4.23000000 1293118835 1293118835 1.00000000
2.18193722 1.60513866 -0.62536395 3 2 5366 2.78000000 1293118837 1293118837 -13.00000000
3.40148568 2.50138283 0.22127642 7 3 5367 4.22800000 1293118839 1293118839 3.00000000
2.62392998 1.92958415 -0.63310426 5 4 5367 3.31800000 1293118842 1293118842 -11.00000000
3.41610217 2.51121283 0.37093484 7 5 5368 4.25600000 1293118844 1293118844 5.00000000
3.31414390 2.43537140 -0.65139312 9 6 5369 4.16400000 1293118846 1293118846 -9.00000000
3.43166113 2.52080584 0.52281946 7 7 5370 4.29000000 1293118848 1293118848 7.00000000
3.39689994 2.49435854 -0.51745725 8 8 5371 4.24600000 1293118851 1293118851 -7.00000000
3.41255617 2.50493813 0.67047811 8 9 5372 4.28600000 1293118853 1293118853 9.00000000
3.39858079 2.49467969 -0.36884311 9 10 5372 4.23200000 1293118855 1293118855 -5.00000000
3.43795133 2.52265596 0.82887429 8 11 5373 4.34400000 1293118858 1293118858 11.00000000
3.41259146 2.50313163 -0.22179978 8 12 5374 4.23800000 1293118860 1293118860 -3.00000000
3.42283797 2.50972867 0.97988677 8 13 5375 4.35600000 1293118862 1293118862 13.00000000
3.41117764 2.50026345 -0.07382368 7 14 5376 4.23000000 1293118865 1293118865 -1.00000000
3.44390917 2.52333069 1.14398015 8 15 5377 4.42000000 1293118867 1293118867 15.00000000
1.84827268 1.35075057 -0.61340111 3 0 5384 2.37000000 1293118888 1293118888 -15.00000000
3.41833019 2.49726152 0.07389349 7 1 5385 4.23400000 1293118890 1293118890 1.00000000
2.19067430 1.59981108 -0.62626374 3 2 5386 2.78400000 1293118892 1293118892 -13.00000000
3.43234301 2.50657988 0.22274183 7 3 5386 4.25600000 1293118895 1293118895 3.00000000
2.63382077 1.92272830 -0.63386750 5 4 5387 3.32200000 1293118897 1293118897 -11.00000000
3.43450356 2.50632000 0.37198070 7 5 5388 4.26800000 1293118899 1293118899 5.00000000
3.31943297 2.42145967 -0.65076739 9 6 5389 4.16000000 1293118901 1293118901 -9.00000000
3.45327091 2.51816845 0.52476937 7 7 5390 4.30600000 1293118904 1293118904 7.00000000
3.42483592 2.49651790 -0.52038211 8 8 5391 4.27000000 1293118906 1293118906 -7.00000000
3.44841957 2.51278758 0.67579687 8 9 5392 4.32000000 1293118908 1293118908 9.00000000
3.41692948 2.48984146 -0.36988896 9 10 5392 4.24400000 1293118911 1293118911 -5.00000000
3.45308375 2.51526356 0.83040076 8 11 5393 4.35200000 1293118913 1293118913 11.00000000
3.43745422 2.50296068 -0.22284651 8 12 5394 4.25800000 1293118915 1293118915 -3.00000000
3.45836234 2.51726127 0.98753512 9 13 5395 4.39000000 1293118918 1293118918 13.00000000
3.44090486 2.50363588 -0.07427744 7 14 5396 4.25600000 1293118920 1293118920 -1.00000000
3.46163058 2.51871610 1.14708602 8 15 5396 4.43200000 1293118922 1293118922 15.00000000
1.85141277 1.34315622 -0.61288351 4 0 5404 2.36800000 1293118943 1293118943 -15.00000000
3.43188286 2.48883605 0.07399821 7 1 5405 4.24000000 1293118945 1293118945 1.00000000
2.19624543 1.59215438 -0.62626374 3 2 5406 2.78400000 1293118947 1293118947 -13.00000000
3.47017860 2.51568437 0.22462593 7 3 5406 4.29200000 1293118950 1293118950 3.00000000
2.64051628 1.91352284 -0.63386750 5 4 5407 3.32200000 1293118952 1293118952 -11.00000000
3.46259356 2.50834203 0.37407246 7 5 5408 4.29200000 1293118954 1293118954 5.00000000
3.31826568 2.40290642 -0.64889014 9 6 5409 4.14800000 1293118957 1293118957 -9.00000000
3.47168803 2.51308298 0.52623183 7 7 5410 4.31800000 1293118959 1293118959 7.00000000
3.45604444 2.50083995 -0.52379441 8 8 5411 4.29800000 1293118961 1293118961 -7.00000000
3.46997428 2.50999689 0.67829984 8 9 5412 4.33600000 1293118964 1293118964 9.00000000
3.45465779 2.49891782 -0.37302658 9 10 5412 4.28000000 1293118966 1293118966 -5.00000000
3.47138810 2.51009703 0.83269048 8 11 5413 4.36400000 1293118968 1293118968 11.00000000
3.45750093 2.49913645 -0.22357920 8 12 5414 4.27200000 1293118971 1293118971 -3.00000000
3.48766232 2.52001095 0.99338388 9 13 5415 4.41600000 1293118973 1293118973 13.00000000
3.46421289 2.50214744 -0.07459158 7 14 5416 4.27400000 1293118975 1293118975 -1.00000000
3.48762822 2.51906013 1.15278006 8 15 5416 4.45400000 1293118977 1293118977 15.00000000
1.86549580 1.34345925 -0.61598933 4 0 5424 2.38000000 1293118998 1293118998 -15.00000000
3.46813893 2.49670267 0.07459158 7 1 5425 4.27400000 1293119000 1293119000 1.00000000
2.18913579 1.57537222 -0.62266451 3 2 5426 2.76800000 1293119003 1293119003 -13.00000000
3.48261833 2.50528121 0.22483526 7 3 5427 4.29600000 1293119005 1293119005 3.00000000
2.65355444 1.90888000 -0.63539398 5 4 5427 3.33000000 1293119007 1293119007 -11.00000000
3.49720931 2.51485133 0.37686142 7 5 5428 4.32400000 1293119010 1293119010 5.00000000
3.33304882 2.39592075 -0.65014166 9 6 5429 4.15600000 1293119012 1293119012 -9.00000000
3.49011159 2.50789952 0.52769428 7 7 5430 4.33000000 1293119014 1293119014 7.00000000
3.46958971 2.49223495 -0.52452564 8 8 5431 4.30400000 1293119017 1293119017 -7.00000000
3.49913549 2.51345801 0.68236715 8 9 5431 4.36200000 1293119019 1293119019 9.00000000
3.47306991 2.49381614 -0.37407246 9 10 5432 4.29200000 1293119021 1293119021 -5.00000000
3.49926805 2.51170182 0.83726984 8 11 5433 4.38800000 1293119024 1293119024 11.00000000
3.46782637 2.48821664 -0.22368388 8 12 5434 4.27400000 1293119026 1293119026 -3.00000000
3.50435519 2.51350045 0.99563336 9 13 5435 4.42600000 1293119028 1293119028 13.00000000
3.49567771 2.50635266 -0.07508025 7 14 5436 4.30200000 1293119030 1293119030 -1.00000000
3.51882052 2.52201581 1.16002691 8 15 5437 4.48200000 1293119033 1293119033 15.00000000
1.87174559 1.33806264 -0.61650699 4 0 5444 2.38200000 1293119053 1293119053 -15.00000000
3.49310255 2.49620795 0.07494064 7 1 5445 4.29400000 1293119056 1293119056 1.00000000
2.20096421 1.57225204 -0.62446415 3 2 5446 2.77600000 1293119058 1293119058 -13.00000000
3.50553370 2.50416732 0.22577731 7 3 5446 4.31400000 1293119060 1293119060 3.00000000
2.65061522 1.89276028 -0.63310426 5 4 5447 3.31800000 1293119063 1293119063 -11.00000000
3.52218294 2.51420403 0.37860456 7 5 5448 4.34400000 1293119065 1293119065 5.00000000
3.33495998 2.37968206 -0.64889014 9 6 5449 4.14800000 1293119067 1293119067 -9.00000000
3.51500535 2.50722909 0.53013164 7 7 5450 4.35000000 1293119070 1293119070 7.00000000
3.49119854 2.48932838 -0.52647555 8 8 5451 4.32000000 1293119072 1293119072 -7.00000000
3.52280140 2.51093507 0.68518293 8 9 5452 4.38000000 1293119074 1293119074 9.00000000
3.50446796 2.49786758 -0.37651280 10 10 5452 4.32000000 1293119077 1293119077 -5.00000000
3.53199792 2.51656032 0.84299415 8 11 5453 4.41800000 1293119079 1293119079 11.00000000
3.49438548 2.48884201 -0.22483526 8 12 5454 4.29600000 1293119081 1293119081 -3.00000000
3.52580762 2.51029468 0.99923259 9 13 5455 4.44200000 1293119083 1293119083 13.00000000
3.49951768 2.49065661 -0.07497554 7 14 5456 4.29600000 1293119086 1293119086 -1.00000000
3.54964018 2.52539635 1.16727388 8 15 5457 4.51000000 1293119088 1293119088 15.00000000
1.86514544 1.32402062 -0.61288351 4 0 5463 2.36800000 1293119109 1293119109 -15.00000000
3.52745414 2.50312662 0.07549911 7 1 5464 4.32600000 1293119111 1293119111 1.00000000
2.20934486 1.56719971 -0.62536395 3 2 5465 2.78000000 1293119113 1293119113 -13.00000000
3.52847981 2.50292873 0.22671936 7 3 5465 4.33200000 1293119116 1293119116 3.00000000
2.64246392 1.87373972 -0.62966967 5 4 5466 3.30000000 1293119118 1293119118 -11.00000000
