# .PCD v0.7 - Point Cloud Data file format
VERSION 0.7
FIELDS x y z intensity laser_id azimuth distance_m adjustedtime timestamp vertical_angle
SIZE 4 4 4 1 1 2 8 8 4 8
TYPE F F F U U U F U U F
COUNT 1 1 1 1 1 1 1 1 1 1
WIDTH 529
HEIGHT 1
VIEWPOINT 0 0 0 1 0 0 0
POINTS 529
DATA ascii
2.62153172 0.08788127 -0.60556823 6 2 8808 2.69200000 1294528444 1294528444 -13.00000000
8.13625717 0.27275071 0.42664272 13 3 8808 8.15200000 1294528446 1294528446 3.00000000
3.15319681 0.10515326 -0.61326009 5 4 8809 3.21400000 1294528449 1294528449 -11.00000000
8.12248802 0.26945069 0.71101654 76 5 8810 8.15800000 1294528451 1294528451 5.00000000
3.95650125 0.13055937 -0.62698936 9 6 8811 4.00800000 1294528453 1294528453 -9.00000000
8.13251305 0.26694140 0.99908489 87 7 8812 8.19800000 1294528456 1294528456 7.00000000
5.29538965 0.17289051 -0.65053856 4 8 8813 5.33800000 1294528458 1294528458 -7.00000000
8.21323776 0.26672104 1.30153477 10 9 8814 8.32000000 1294528460 1294528460 9.00000000
6.60328245 0.21443851 -0.57801688 44 10 8814 6.63200000 1294528463 1294528463 -5.00000000
8.10469055 0.26036403 -0.42496797 21 12 8816 8.12000000 1294528467 1294528467 -3.00000000
8.11067009 0.25772208 -0.14164373 20 14 8818 8.11600000 1294528472 1294528472 -1.00000000
8.18696404 0.25871602 2.19478559 54 15 8819 8.48000000 1294528474 1294528474 15.00000000
2.23990273 0.06843521 -0.60046017 4 0 8825 2.32000000 1294528495 1294528495 -15.00000000
8.10902309 0.24633648 0.14160882 21 1 8826 8.11400000 1294528497 1294528497 1.00000000
2.61401725 0.07895214 -0.60376865 6 2 8827 2.68400000 1294528499 1294528499 -13.00000000
8.12913227 0.24552722 0.42622402 13 3 8827 8.14400000 1294528502 1294528502 3.00000000
3.15745306 0.09481416 -0.61402333 5 4 8828 3.21800000 1294528504 1294528504 -11.00000000
8.13130283 0.24275188 0.71171379 76 5 8829 8.16600000 1294528506 1294528506 5.00000000
3.96678495 0.11773143 -0.62855369 6 6 8830 4.01800000 1294528509 1294528509 -9.00000000
8.12343311 0.23967882 0.99786621 92 7 8831 8.18800000 1294528511 1294528511 7.00000000
5.26220179 0.15434006 -0.64639497 6 8 8832 5.30400000 1294528513 1294528513 -7.00000000
8.21205997 0.24085921 1.30122185 10 9 8832 8.31800000 1294528516 1294528516 9.00000000
6.61192322 0.19277231 -0.57871413 12 10 8833 6.64000000 1294528518 1294528518 -5.00000000
8.10550976 0.23348647 -0.42496797 17 12 8835 8.12000000 1294528522 1294528522 -3.00000000
8.10748291 0.23071094 -0.14157392 20 14 8837 8.11200000 1294528527 1294528527 -1.00000000
8.19163895 0.23167488 2.19582081 56 15 8838 8.48400000 1294528529 1294528529 15.00000000
2.24785256 0.06082510 -0.60253072 4 0 8845 2.32800000 1294528550 1294528550 -15.00000000
8.10783482 0.21797545 0.14157392 18 1 8846 8.11200000 1294528552 1294528552 1.00000000
2.61817288 0.06993110 -0.60466844 6 2 8847 2.68800000 1294528555 1294528555 -13.00000000
8.12195301 0.21693645 0.42580533 13 3 8847 8.13600000 1294528557 1294528557 3.00000000
3.15383959 0.08368786 -0.61326009 5 4 8848 3.21400000 1294528559 1294528559 -11.00000000
8.12413406 0.21415685 0.71101654 76 5 8849 8.15800000 1294528562 1294528562 5.00000000
3.97112131 0.10398747 -0.62917942 6 6 8850 4.02200000 1294528564 1294528564 -9.00000000
8.12818909 0.21142451 0.99835366 90 7 8851 8.19200000 1294528566 1294528566 7.00000000
5.24683332 0.13556044 -0.64444506 6 8 8852 5.28800000 1294528569 1294528569 -7.00000000
8.20890141 0.21209027 1.30059612 10 9 8852 8.31400000 1294528571 1294528571 9.00000000
6.60857248 0.16958900 -0.57836550 16 10 8853 6.63600000 1294528573 1294528573 -5.00000000
8.10827160 0.20524208 -0.42507264 17 12 8855 8.12200000 1294528578 1294528578 -3.00000000
8.10224152 0.20225942 -0.14146921 16 14 8857 8.10600000 1294528582 1294528582 -1.00000000
8.20012283 0.20327081 2.19789124 51 15 8858 8.49200000 1294528585 1294528585 15.00000000
2.23646331 0.05270518 -0.59942490 4 0 8865 2.31600000 1294528605 1294528605 -15.00000000
8.12254047 0.18999985 0.14181826 18 1 8866 8.12600000 1294528608 1294528608 1.00000000
2.62619400 0.06097247 -0.60646802 7 2 8867 2.69600000 1294528610 1294528610 -13.00000000
8.12266064 0.18858422 0.42580533 15 3 8867 8.13600000 1294528612 1294528612 3.00000000
3.14626169 0.07249749 -0.61173362 5 4 8868 3.20600000 1294528615 1294528615 -11.00000000
8.12682438 0.18584257 0.71119088 76 5 8869 8.16000000 1294528617 1294528617 5.00000000
3.97146010 0.09012504 -0.62917942 6 6 8870 4.02200000 1294528619 1294528619 -9.00000000
8.14078522 0.18331869 0.99981612 90 7 8871 8.20400000 1294528621 1294528621 7.00000000
5.25124359 0.11733343 -0.64493257 6 8 8872 5.29200000 1294528624 1294528624 -7.00000000
8.20169258 0.18325806 1.29934466 10 9 8872 8.30600000 1294528626 1294528626 9.00000000
6.60713196 0.14647558 -0.57819122 56 10 8873 6.63400000 1294528628 1294528628 -5.00000000
8.11093616 0.17698124 -0.42517731 29 12 8875 8.12400000 1294528633 1294528633 -3.00000000
8.10489750 0.17401902 -0.14150411 18 14 8877 8.10800000 1294528638 1294528638 -1.00000000
8.18336964 0.17570388 2.19323254 47 15 8877 8.47400000 1294528640 1294528640 15.00000000
2.23663354 0.04489814 -0.59942490 4 0 8885 2.31600000 1294528661 1294528661 -15.00000000
8.11715603 0.16152637 0.14171354 18 1 8886 8.12000000 1294528663 1294528663 1.00000000
2.62444258 0.05176654 -0.60601813 6 2 8887 2.69400000 1294528665 1294528665 -13.00000000
8.12726307 0.16030847 0.42601469 13 3 8887 8.14000000 1294528668 1294528668 3.00000000
3.15042114 0.06159130 -0.61249685 5 4 8888 3.21000000 1294528670 1294528670 -11.00000000
8.11148739 0.15716475 0.70979637 76 5 8889 8.14400000 1294528672 1294528672 5.00000000
3.96187544 0.07607190 -0.62761509 9 6 8890 4.01200000 1294528674 1294528674 -9.00000000
8.13542080 0.15478764 0.99908489 90 7 8891 8.19800000 1294528677 1294528677 7.00000000
5.25559044 0.09907728 -0.64542001 6 8 8892 5.29600000 1294528679 1294528679 -7.00000000
8.20623207 0.15470216 1.29997039 10 9 8892 8.31000000 1294528681 1294528681 9.00000000
6.59764290 0.12322546 -0.57731962 100 10 8893 6.62400000 1294528684 1294528684 -5.00000000
8.10950756 0.14863113 -0.42507264 17 12 8895 8.12200000 1294528688 1294528688 -3.00000000
8.09945679 0.14561875 -0.14139940 18 14 8897 8.10200000 1294528693 1294528693 -1.00000000
8.16464329 0.14536525 2.18805623 47 15 8898 8.45400000 1294528695 1294528695 15.00000000
2.23292637 0.03624707 -0.59838963 4 0 8907 2.31200000 1294528716 1294528716 -15.00000000
8.09572315 0.13000444 0.14132959 15 1 8908 8.09800000 1294528718 1294528718 1.00000000
2.61682796 0.04156525 -0.60421854 6 2 8909 2.68600000 1294528721 1294528721 -13.00000000
8.13582993 0.12780783 0.42643338 15 3 8910 8.14800000 1294528723 1294528723 3.00000000
3.15456057 0.04955580 -0.61326009 5 4 8910 3.21400000 1294528725 1294528725 -11.00000000
8.11203098 0.12601781 0.70979637 76 5 8911 8.14400000 1294528727 1294528727 5.00000000
3.96213818 0.06085886 -0.62761509 9 6 8912 4.01200000 1294528730 1294528730 -9.00000000
8.13000107 0.12345839 0.99835366 90 7 8913 8.19200000 1294528732 1294528732 7.00000000
5.24402285 0.07871781 -0.64395761 6 8 8914 5.28400000 1294528734 1294528734 -7.00000000
8.20676517 0.12319142 1.29997039 10 9 8914 8.31000000 1294528737 1294528737 9.00000000
6.60205173 0.09795060 -0.57766825 100 10 8915 6.62800000 1294528739 1294528739 -5.00000000
8.10202980 0.11737610 -0.42465395 17 12 8917 8.11400000 1294528744 1294528744 -3.00000000
8.11395264 0.11471595 -0.14164373 20 14 8919 8.11600000 1294528748 1294528748 -1.00000000
8.17284775 0.11554861 2.19012666 47 15 8919 8.46200000 1294528751 1294528751 15.00000000
2.23497105 0.02847709 -0.59890729 4 0 8927 2.31400000 1294528771 1294528771 -15.00000000
8.10212612 0.10181968 0.14143430 18 1 8928 8.10400000 1294528774 1294528774 1.00000000
2.61111116 0.03235812 -0.60286885 7 2 8929 2.68000000 1294528776 1294528776 -13.00000000
8.12424374 0.09926130 0.42580533 15 3 8930 8.13600000 1294528778 1294528778 3.00000000
3.15078807 0.03849605 -0.61249685 5 4 8930 3.21000000 1294528780 1294528780 -11.00000000
8.11640549 0.09774875 0.71014500 76 5 8931 8.14800000 1294528783 1294528783 5.00000000
3.95245028 0.04691083 -0.62605071 6 6 8932 4.00200000 1294528785 1294528785 -9.00000000
8.13038254 0.09507863 0.99835366 92 7 8933 8.19200000 1294528787 1294528787 7.00000000
5.26014566 0.06059521 -0.64590752 8 8 8934 5.30000000 1294528790 1294528790 -7.00000000
8.21901321 0.09324575 1.30184758 10 9 8935 8.32200000 1294528792 1294528792 9.00000000
6.59637690 0.07483673 -0.57714534 36 10 8935 6.62200000 1294528794 1294528794 -5.00000000
8.09440136 0.08900619 -0.42423525 17 12 8937 8.10600000 1294528799 1294528799 -3.00000000
8.11030483 0.08634969 -0.14157392 20 14 8939 8.11200000 1294528804 1294528804 -1.00000000
8.17707920 0.08563331 2.19116211 47 15 8940 8.46600000 1294528806 1294528806 15.00000000
2.24857163 0.02158540 -0.60253072 4 0 8945 2.32800000 1294528827 1294528827 -15.00000000
8.11240387 0.07645987 0.14160882 15 1 8946 8.11400000 1294528829 1294528829 1.00000000
2.61899471 0.02422703 -0.60466844 7 2 8947 2.68800000 1294528831 1294528831 -13.00000000
8.11652660 0.07366528 0.42538664 15 3 8948 8.12800000 1294528833 1294528833 3.00000000
3.14304090 0.02852612 -0.61097038 5 4 8948 3.20200000 1294528836 1294528836 -11.00000000
8.12065792 0.07228534 0.71049362 76 5 8949 8.15200000 1294528838 1294528838 5.00000000
3.94072652 0.03439020 -0.62417352 2 6 8950 3.99000000 1294528840 1294528840 -9.00000000
8.13064098 0.06953586 0.99835366 90 7 8951 8.19200000 1294528843 1294528843 7.00000000
5.25236988 0.04400318 -0.64493257 8 8 8952 5.29200000 1294528845 1294528845 -7.00000000
8.20147610 0.06871013 1.29903185 10 9 8952 8.30400000 1294528847 1294528847 9.00000000
6.61251783 0.05424402 -0.57853985 20 10 8953 6.63800000 1294528850 1294528850 -5.00000000
8.10462761 0.06365490 -0.42475861 25 12 8955 8.11600000 1294528854 1294528854 -3.00000000
8.10453701 0.06082501 -0.14146921 18 14 8957 8.10600000 1294528859 1294528859 -1.00000000
8.18502522 0.06142908 2.19323254 47 15 8957 8.47400000 1294528861 1294528861 15.00000000
2.23511076 0.01365368 -0.59890729 4 0 8965 2.31400000 1294528882 1294528882 -15.00000000
8.11262131 0.04814183 0.14160882 15 1 8966 8.11400000 1294528884 1294528884 1.00000000
2.62296081 0.01510734 -0.60556823 7 2 8967 2.69200000 1294528886 1294528886 -13.00000000
8.11873150 0.04534402 0.42549133 15 3 8968 8.13000000 1294528889 1294528889 3.00000000
3.13330507 0.01749986 -0.60906231 5 4 8968 3.19200000 1294528891 1294528891 -11.00000000
8.11289120 0.04389539 0.70979637 76 5 8969 8.14400000 1294528893 1294528893 5.00000000
3.94279790 0.02064463 -0.62448639 2 6 8970 3.99200000 1294528896 1294528896 -9.00000000
8.13083363 0.04115420 0.99835366 90 7 8971 8.19200000 1294528898 1294528898 7.00000000
5.24852133 0.02564932 -0.64444506 6 8 8972 5.28800000 1294528900 1294528900 -7.00000000
8.19574642 0.03862183 1.29809320 10 9 8973 8.29800000 1294528903 1294528903 9.00000000
6.60071278 0.03110536 -0.57749397 24 10 8973 6.62600000 1294528905 1294528905 -5.00000000
8.10879421 0.03538151 -0.42496797 25 12 8975 8.12000000 1294528909 1294528909 -3.00000000
8.10070038 0.03251847 -0.14139940 18 14 8977 8.10200000 1294528914 1294528914 -1.00000000
8.17746735 0.03139938 2.19116211 47 15 8978 8.46600000 1294528916 1294528916 15.00000000
2.22934914 0.00583644 -0.59735435 4 0 8985 2.30800000 1294528937 1294528937 -15.00000000
8.10474110 0.01980366 0.14146921 28 1 8986 8.10600000 1294528939 1294528939 1.00000000
2.62689495 0.00596025 -0.60646802 7 2 8987 2.69600000 1294528942 1294528942 -13.00000000
8.12682915 0.01702082 0.42591003 15 3 8988 8.13800000 1294528944 1294528944 3.00000000
3.14316344 0.00658304 -0.61097038 5 4 8988 3.20200000 1294528946 1294528946 -11.00000000
8.10900974 0.01556820 0.70944774 76 5 8989 8.14000000 1294528949 1294528949 5.00000000
3.94679666 0.00688847 -0.62511212 2 6 8990 3.99600000 1294528951 1294528951 -9.00000000
8.13489819 0.01277828 0.99884117 92 7 8991 8.19600000 1294528953 1294528953 7.00000000
5.24460888 0.00732286 -0.64395761 6 8 8992 5.28400000 1294528956 1294528956 -7.00000000
8.19780540 0.01144630 1.29840600 10 9 8992 8.30000000 1294528958 1294528958 9.00000000
6.59679651 0.00805951 -0.57714534 12 10 8993 6.62200000 1294528960 1294528960 -5.00000000
8.11086559 0.00707807 -0.42507264 17 12 8995 8.12200000 1294528965 1294528965 -3.00000000
8.09276581 0.00423736 -0.14125977 18 14 8997 8.09400000 1294528969 1294528969 -1.00000000
8.16979980 0.00427770 2.18909144 47 15 8997 8.45800000 1294528972 1294528972 15.00000000
-3.94437838 -0.00000000 -0.48430878 3 8 27000 3.97400000 1294578888 1294578888 -7.00000000
-5.20212841 0.00090794 -0.45512730 9 10 27001 5.22200000 1294578893 1294578893 -5.00000000
-7.65149832 0.00400632 -0.40099809 28 12 27003 7.66200000 1294578897 1294578897 -3.00000000
-10.18664837 0.01066744 2.72950554 42 15 27006 10.54600000 1294578904 1294578904 15.00000000
-1.94730222 0.00407843 -0.52177918 5 0 27012 2.01600000 1294578925 1294578925 -15.00000000
-2.24299312 0.00548068 -0.51783735 4 2 27014 2.30200000 1294578929 1294578929 -13.00000000
-2.61308265 0.00684105 -0.50793356 3 4 27015 2.66200000 1294578934 1294578934 -11.00000000
-3.15466261 0.00936010 -0.49965167 3 6 27017 3.19400000 1294578939 1294578939 -9.00000000
-3.94435668 0.01308003 -0.48430878 3 8 27019 3.97400000 1294578943 1294578943 -7.00000000
-5.18615818 0.01810318 -0.45373279 6 10 27020 5.20600000 1294578948 1294578948 -5.00000000
-7.65743494 0.02940258 -0.40131211 16 12 27022 7.66800000 1294578952 1294578952 -3.00000000
-10.17882919 0.04441381 2.72743511 45 15 27025 10.53800000 1294578959 1294578959 15.00000000
-1.94341242 0.01085418 -0.52074391 5 0 27032 2.01200000 1294578980 1294578980 -15.00000000
-2.24880648 0.01334484 -0.51918703 4 2 27034 2.30800000 1294578985 1294578985 -13.00000000
-2.61696935 0.01598636 -0.50869679 3 4 27035 2.66600000 1294578989 1294578989 -11.00000000
-3.16053677 0.02041014 -0.50059026 3 6 27037 3.20000000 1294578994 1294578994 -9.00000000
-3.95222712 0.02690237 -0.48528373 3 8 27039 3.98200000 1294578999 1294578999 -7.00000000
-5.17809391 0.03615050 -0.45303556 9 10 27040 5.19800000 1294579003 1294579003 -5.00000000
-7.65728569 0.05613184 -0.40131211 16 12 27042 7.66800000 1294579008 1294579008 -3.00000000
-10.15736294 0.07977738 2.72174096 42 15 27045 10.51600000 1294579015 1294579015 15.00000000
-1.94529760 0.01731590 -0.52126157 4 0 27051 2.01400000 1294579035 1294579035 -15.00000000
-2.24095535 0.02072998 -0.51738745 4 2 27053 2.30000000 1294579040 1294579040 -13.00000000
-2.61297560 0.02462744 -0.50793356 3 4 27054 2.66200000 1294579045 1294579045 -11.00000000
-3.14464951 0.03073629 -0.49808735 3 6 27056 3.18400000 1294579049 1294579049 -9.00000000
-3.95410132 0.04002838 -0.48552746 5 8 27058 3.98400000 1294579054 1294579054 -7.00000000
-5.18193007 0.05336251 -0.45338416 6 10 27059 5.20200000 1294579058 1294579058 -5.00000000
-7.64906883 0.08143895 -0.40089342 16 12 27061 7.66000000 1294579063 1294579063 -3.00000000
-10.15706158 0.11168723 2.72174096 40 15 27063 10.51600000 1294579070 1294579070 15.00000000
-1.95488381 0.02422584 -0.52384973 5 0 27071 2.02400000 1294579091 1294579091 -15.00000000
-2.23112631 0.02842810 -0.51513791 4 2 27073 2.29000000 1294579095 1294579095 -13.00000000
-2.63054132 0.03397648 -0.51136810 3 4 27074 2.68000000 1294579100 1294579100 -11.00000000
-3.14847350 0.04176538 -0.49871308 3 6 27076 3.18800000 1294579104 1294579104 -9.00000000
-3.93805814 0.05361434 -0.48357755 7 8 27078 3.96800000 1294579109 1294579109 -7.00000000
-5.20561886 0.07178015 -0.45547593 6 10 27079 5.22600000 1294579114 1294579114 -5.00000000
-7.65073490 0.10816693 -0.40099809 16 12 27081 7.66200000 1294579118 1294579118 -3.00000000
-10.15272141 0.14885733 2.72070575 42 15 27084 10.51200000 1294579125 1294579125 15.00000000
-1.95671892 0.03108019 -0.52436739 4 0 27091 2.02600000 1294579146 1294579146 -15.00000000
-2.22711658 0.03615275 -0.51423812 4 2 27093 2.28600000 1294579151 1294579151 -13.00000000
-2.63433290 0.04322299 -0.51213133 3 4 27094 2.68400000 1294579155 1294579155 -11.00000000
-3.14830852 0.05275535 -0.49871308 3 6 27096 3.18800000 1294579160 1294579160 -9.00000000
-3.92990780 0.06722459 -0.48260260 5 8 27098 3.96000000 1294579164 1294579164 -7.00000000
-5.20533657 0.08995071 -0.45547593 9 10 27099 5.22600000 1294579169 1294579169 -5.00000000
-7.64831400 0.13483711 -0.40089342 12 12 27101 7.66000000 1294579174 1294579174 -3.00000000
-10.15796661 0.18262833 2.72225881 45 15 27103 10.51800000 1294579181 1294579181 15.00000000
-1.95466697 0.03787281 -0.52384973 5 0 27111 2.02400000 1294579201 1294579201 -15.00000000
-2.24840879 0.04434936 -0.51918703 4 2 27113 2.30800000 1294579206 1294579206 -13.00000000
-2.61846304 0.05210579 -0.50907838 3 4 27114 2.66800000 1294579210 1294579210 -11.00000000
-3.16785479 0.06414458 -0.50184178 3 6 27116 3.20800000 1294579215 1294579215 -9.00000000
-3.95346522 0.08143268 -0.48552746 7 8 27118 3.98400000 1294579220 1294579220 -7.00000000
-5.19303894 0.10787190 -0.45443004 9 10 27119 5.21400000 1294579224 1294579224 -5.00000000
-7.64579964 0.16149171 -0.40078875 12 12 27121 7.65800000 1294579229 1294579229 -3.00000000
-10.14177704 0.21952346 2.71811771 42 15 27124 10.50200000 1294579236 1294579236 15.00000000
-1.94486618 0.04447481 -0.52126157 5 0 27131 2.01400000 1294579257 1294579257 -15.00000000
-2.23460269 0.05188088 -0.51603770 4 2 27133 2.29400000 1294579261 1294579261 -13.00000000
-2.61630249 0.06119970 -0.50869679 3 4 27134 2.66600000 1294579266 1294579266 -11.00000000
-3.15181303 0.07482699 -0.49933881 3 6 27136 3.19200000 1294579270 1294579270 -9.00000000
-3.96109509 0.09542358 -0.48650241 7 8 27138 3.99200000 1294579275 1294579275 -7.00000000
-5.18864727 0.12590168 -0.45408142 9 10 27139 5.21000000 1294579280 1294579280 -5.00000000
-7.65716934 0.18847442 -0.40141678 12 12 27141 7.67000000 1294579284 1294579284 -3.00000000
-10.14678764 0.25329822 2.71967053 42 15 27143 10.50800000 1294579291 1294579291 15.00000000
-1.95435500 0.05151792 -0.52384973 4 0 27151 2.02400000 1294579312 1294579312 -15.00000000
-2.23830414 0.05978485 -0.51693749 4 2 27153 2.29800000 1294579316 1294579316 -13.00000000
-2.62588549 0.07059574 -0.51060486 3 4 27154 2.67600000 1294579321 1294579321 -11.00000000
-3.15153265 0.08582842 -0.49933881 3 6 27156 3.19200000 1294579326 1294579326 -9.00000000
-3.95676923 0.10914033 -0.48601493 7 8 27158 3.98800000 1294579330 1294579330 -7.00000000
-5.18419266 0.14390211 -0.45373279 9 10 27159 5.20600000 1294579335 1294579335 -5.00000000
-7.66045761 0.21531402 -0.40162614 12 12 27161 7.67400000 1294579339 1294579339 -3.00000000
-10.14192867 0.29037580 2.71863532 40 15 27164 10.50400000 1294579346 1294579346 15.00000000
-1.95222199 0.05862266 -0.52333212 5 0 27172 2.02200000 1294579367 1294579367 -15.00000000
-2.23027849 0.06775156 -0.51513791 4 2 27174 2.29000000 1294579372 1294579372 -13.00000000
-2.63738322 0.08057935 -0.51289457 3 4 27175 2.68800000 1294579376 1294579376 -11.00000000
-3.15119696 0.09737879 -0.49933881 3 6 27177 3.19200000 1294579381 1294579381 -9.00000000
-3.95237422 0.12351787 -0.48552746 7 8 27179 3.98400000 1294579386 1294579386 -7.00000000
-5.21151018 0.16377831 -0.45617315 9 10 27180 5.23400000 1294579390 1294579390 -5.00000000
-7.66161346 0.24345298 -0.40173081 16 12 27182 7.67600000 1294579395 1294579395 -3.00000000
-10.14471531 0.32590002 2.71967053 45 15 27184 10.50800000 1294579402 1294579402 15.00000000
-1.95586705 0.06556628 -0.52436739 4 0 27192 2.02600000 1294579422 1294579422 -15.00000000
-2.23197603 0.07560224 -0.51558781 4 2 27194 2.29200000 1294579427 1294579427 -13.00000000
-2.61942673 0.08918380 -0.50946003 3 4 27195 2.67000000 1294579432 1294579432 -11.00000000
-3.15873456 0.10864955 -0.50059026 3 6 27197 3.20000000 1294579436 1294579436 -9.00000000
-3.94001555 0.13689989 -0.48406503 7 8 27199 3.97200000 1294579441 1294579441 -7.00000000
-5.21488905 0.18210794 -0.45652178 9 10 27200 5.23800000 1294579445 1294579445 -5.00000000
-7.65672493 0.27005473 -0.40152144 12 12 27202 7.67200000 1294579450 1294579450 -3.00000000
-10.15889740 0.36363292 2.72381163 42 15 27205 10.52400000 1294579457 1294579457 15.00000000
-1.94984722 0.07183842 -0.52281445 5 0 27211 2.02000000 1294579478 1294579478 -15.00000000
-2.23560786 0.08314818 -0.51648760 4 2 27213 2.29600000 1294579482 1294579482 -13.00000000
-2.62304044 0.09801626 -0.51022327 3 4 27214 2.67400000 1294579487 1294579487 -11.00000000
-3.17414880 0.11971931 -0.50309324 3 6 27216 3.21600000 1294579492 1294579492 -9.00000000
-3.94549108 0.15019122 -0.48479626 7 8 27218 3.97800000 1294579496 1294579496 -7.00000000
-5.21027470 0.19924787 -0.45617315 9 10 27219 5.23400000 1294579501 1294579501 -5.00000000
-7.64979982 0.29521278 -0.40120745 16 12 27221 7.66600000 1294579505 1294579505 -3.00000000
-10.14805317 0.39517033 2.72122335 42 15 27223 10.51400000 1294579512 1294579512 15.00000000
-1.94186342 0.07833276 -0.52074391 4 0 27231 2.01200000 1294579533 1294579533 -15.00000000
-2.24503970 0.09134753 -0.51873714 4 2 27233 2.30600000 1294579538 1294579538 -13.00000000
-2.62464380 0.10725194 -0.51060486 3 4 27234 2.67600000 1294579542 1294579542 -11.00000000
-3.16581678 0.13047306 -0.50184178 3 6 27236 3.20800000 1294579547 1294579547 -9.00000000
-3.95882630 0.16453968 -0.48650241 7 8 27238 3.99200000 1294579551 1294579551 -7.00000000
-5.18565941 0.21643688 -0.45408142 9 10 27239 5.21000000 1294579556 1294579556 -5.00000000
-7.65470934 0.32216573 -0.40152144 20 12 27241 7.67200000 1294579561 1294579561 -3.00000000
-10.13109589 0.43170419 2.71708226 42 15 27244 10.49800000 1294579568 1294579568 15.00000000
-1.95124304 0.08519311 -0.52333212 4 0 27250 2.02200000 1294579588 1294579588 -15.00000000
-2.24277759 0.09870616 -0.51828724 4 2 27252 2.30400000 1294579593 1294579593 -13.00000000
-2.63604188 0.11647496 -0.51289457 3 4 27253 2.68800000 1294579598 1294579598 -11.00000000
-3.15352607 0.14044325 -0.49996457 3 6 27255 3.19600000 1294579602 1294579602 -9.00000000
-3.96619129 0.17802277 -0.48747736 8 8 27257 4.00000000 1294579607 1294579607 -7.00000000
-5.20481682 0.23452881 -0.45582452 6 10 27258 5.23000000 1294579611 1294579611 -5.00000000
-7.64960861 0.34736669 -0.40131211 32 12 27260 7.66800000 1294579616 1294579616 -3.00000000
-10.13547897 0.46379471 2.71863532 42 15 27262 10.50400000 1294579623 1294579623 15.00000000
-1.95865262 0.09236772 -0.52540267 4 0 27270 2.03000000 1294579644 1294579644 -15.00000000
-2.23268676 0.10607193 -0.51603770 4 2 27272 2.29400000 1294579648 1294579648 -13.00000000
-2.62777519 0.12530172 -0.51136810 3 4 27273 2.68000000 1294579653 1294579653 -11.00000000
-3.15696287 0.15163980 -0.50059026 3 6 27275 3.20000000 1294579657 1294579657 -9.00000000
-3.94571805 0.19090694 -0.48503998 7 8 27277 3.98000000 1294579662 1294579662 -7.00000000
-5.20794678 0.25288886 -0.45617315 9 10 27278 5.23400000 1294579667 1294579667 -5.00000000
-7.64834929 0.37406668 -0.40131211 24 12 27280 7.66800000 1294579671 1294579671 -3.00000000
-10.14344597 0.49964651 2.72122335 42 15 27282 10.51400000 1294579678 1294579678 15.00000000
-1.94288325 0.09842222 -0.52126157 4 0 27290 2.01400000 1294579699 1294579699 -15.00000000
-2.22841048 0.11366627 -0.51513791 4 2 27292 2.29000000 1294579704 1294579704 -13.00000000
-2.62340045 0.13427290 -0.51060486 3 4 27293 2.67600000 1294579708 1294579708 -11.00000000
-3.16825080 0.16326870 -0.50246751 3 6 27295 3.21200000 1294579713 1294579713 -9.00000000
-3.96088696 0.20550174 -0.48698989 5 8 27297 3.99600000 1294579717 1294579717 -7.00000000
-5.21897030 0.27168792 -0.45721903 6 10 27298 5.24600000 1294579722 1294579722 -5.00000000
-7.64300776 0.40055308 -0.40110278 28 12 27300 7.66400000 1294579727 1294579727 -3.00000000
-10.13392353 0.53464359 2.71915293 45 15 27302 10.50600000 1294579733 1294579733 15.00000000
-1.95603108 0.10593486 -0.52488500 4 0 27310 2.02800000 1294579754 1294579754 -15.00000000
-2.23967505 0.12208057 -0.51783735 4 2 27312 2.30200000 1294579759 1294579759 -13.00000000
-2.61899495 0.14321506 -0.50984162 3 4 27313 2.67200000 1294579763 1294579763 -11.00000000
-3.16371679 0.17410988 -0.50184178 3 6 27315 3.20800000 1294579768 1294579768 -9.00000000
-3.96410966 0.21954611 -0.48747736 6 8 27317 4.00000000 1294579773 1294579773 -7.00000000
-5.20207548 0.28901967 -0.45582452 6 10 27318 5.23000000 1294579777 1294579777 -5.00000000
-7.64355707 0.42734119 -0.40120745 32 12 27320 7.66600000 1294579782 1294579782 -3.00000000
-10.12996674 0.57167387 2.71863532 42 15 27323 10.50400000 1294579789 1294579789 15.00000000
-1.93829155 0.11176119 -0.52022630 4 0 27330 2.01000000 1294579810 1294579810 -15.00000000
-2.24312639 0.13012347 -0.51873714 4 2 27332 2.30600000 1294579814 1294579814 -13.00000000
-2.62239909 0.15258427 -0.51060486 3 4 27333 2.67600000 1294579819 1294579819 -11.00000000
-3.16308975 0.18515225 -0.50184178 3 6 27335 3.20800000 1294579823 1294579823 -9.00000000
-3.97520900 0.23408224 -0.48893979 6 8 27337 4.01200000 1294579828 1294579828 -7.00000000
-5.20501280 0.30741149 -0.45617315 6 10 27338 5.23400000 1294579833 1294579833 -5.00000000
-7.65398169 0.45473030 -0.40183547 36 12 27340 7.67800000 1294579837 1294579837 -3.00000000
-10.12415886 0.60503238 2.71759987 40 15 27342 10.50000000 1294579844 1294579844 15.00000000
-1.95331562 0.11946990 -0.52436739 4 0 27350 2.02600000 1294579865 1294579865 -15.00000000
-2.23876834 0.13771336 -0.51783735 4 2 27352 2.30200000 1294579869 1294579869 -13.00000000
-2.63556719 0.16258338 -0.51327622 3 4 27353 2.69000000 1294579874 1294579874 -11.00000000
-3.15453792 0.19570310 -0.50059026 3 6 27355 3.20000000 1294579879 1294579879 -9.00000000
-3.96644282 0.24746245 -0.48796484 6 8 27357 4.00400000 1294579883 1294579883 -7.00000000
-5.21583939 0.32632494 -0.45721903 6 10 27358 5.24600000 1294579888 1294579888 -5.00000000
-7.64437437 0.48094326 -0.40141678 32 12 27360 7.67000000 1294579892 1294579892 -3.00000000
-10.11812878 0.64012468 2.71656466 45 15 27362 10.49600000 1294579899 1294579899 15.00000000
-1.94898689 0.12671852 -0.52333212 4 0 27372 2.02200000 1294579920 1294579920 -15.00000000
-2.23044467 0.14580011 -0.51603770 4 2 27374 2.29400000 1294579925 1294579925 -13.00000000
-2.62316918 0.17193159 -0.51098651 3 4 27375 2.67800000 1294579929 1294579929 -11.00000000
-3.16953206 0.20885326 -0.50309324 3 6 27377 3.21600000 1294579934 1294579934 -9.00000000
-3.97338629 0.26321548 -0.48893979 6 8 27379 4.01200000 1294579938 1294579938 -7.00000000
-5.21454763 0.34634990 -0.45721903 9 10 27380 5.24600000 1294579943 1294579943 -5.00000000
-7.65044260 0.51082420 -0.40183547 28 12 27382 7.67800000 1294579948 1294579948 -3.00000000
-10.12716198 0.67974693 2.71967053 42 15 27384 10.50800000 1294579955 1294579955 15.00000000
-1.95238733 0.13378511 -0.52436739 4 0 27392 2.02600000 1294579975 1294579975 -15.00000000
-2.23381042 0.15385273 -0.51693749 4 2 27394 2.29800000 1294579980 1294579980 -13.00000000
-2.62255311 0.18108711 -0.51098651 3 4 27395 2.67800000 1294579985 1294579985 -11.00000000
-3.16878366 0.21991572 -0.50309324 3 6 27397 3.21600000 1294579989 1294579989 -9.00000000
-3.94471955 0.27514982 -0.48552746 5 8 27399 3.98400000 1294579994 1294579994 -7.00000000
-5.22125721 0.36510587 -0.45791626 6 10 27400 5.25400000 1294579998 1294579998 -5.00000000
-7.64462805 0.53724605 -0.40162614 32 12 27402 7.67400000 1294580003 1294580003 -3.00000000
-10.13616467 0.71767890 2.72277641 42 15 27405 10.52000000 1294580010 1294580010 15.00000000
-1.95003057 0.13977993 -0.52384973 4 0 27410 2.02400000 1294580031 1294580031 -15.00000000
-2.24109077 0.16142972 -0.51873714 4 2 27412 2.30600000 1294580035 1294580035 -13.00000000
-2.60826397 0.18833545 -0.50831515 3 4 27413 2.66400000 1294580040 1294580040 -11.00000000
-3.17201757 0.23015556 -0.50371897 4 6 27415 3.22000000 1294580044 1294580044 -9.00000000
-3.98145247 0.29028374 -0.49015850 6 8 27417 4.02200000 1294580049 1294580049 -7.00000000
-5.21213579 0.38092619 -0.45721903 6 10 27418 5.24600000 1294580054 1294580054 -5.00000000
-7.64887810 0.56169850 -0.40194014 40 12 27420 7.68000000 1294580058 1294580058 -3.00000000
-10.12243080 0.74689740 2.71967053 40 15 27422 10.50800000 1294580065 1294580065 15.00000000
-1.93411934 0.14542717 -0.51970863 4 0 27430 2.00800000 1294580086 1294580086 -15.00000000
-2.24828649 0.16983877 -0.52053672 4 2 27432 2.31400000 1294580090 1294580090 -13.00000000
-2.62325191 0.19862466 -0.51136810 3 4 27433 2.68000000 1294580095 1294580095 -11.00000000
-3.16725540 0.24092689 -0.50309324 3 6 27435 3.21600000 1294580100 1294580100 -9.00000000
-3.97447705 0.30372608 -0.48942727 6 8 27437 4.01600000 1294580104 1294580104 -7.00000000
-5.20878792 0.39896548 -0.45704472 3 10 27438 5.24400000 1294580109 1294580109 -5.00000000
-7.65085363 0.58870113 -0.40214950 40 12 27440 7.68400000 1294580114 1294580114 -3.00000000
-10.11398315 0.78178006 2.71811771 45 15 27442 10.50200000 1294580120 1294580120 15.00000000
-1.94317591 0.15361378 -0.52229685 4 0 27452 2.01800000 1294580141 1294580141 -15.00000000
-2.23790479 0.17769903 -0.51828724 4 2 27454 2.30400000 1294580146 1294580146 -13.00000000
-2.62638402 0.20900722 -0.51213133 3 4 27455 2.68400000 1294580150 1294580150 -11.00000000
-3.15449238 0.25214213 -0.50121605 3 6 27457 3.20400000 1294580155 1294580155 -9.00000000
-3.97328138 0.31898469 -0.48942727 6 8 27459 4.01600000 1294580160 1294580160 -7.00000000
-5.20920372 0.41912258 -0.45721903 6 10 27460 5.24600000 1294580164 1294580164 -5.00000000
-7.64256477 0.61759126 -0.40183547 20 12 27462 7.67800000 1294580169 1294580169 -3.00000000
-10.11268902 0.82253039 2.71863532 42 15 27465 10.50400000 1294580176 1294580176 15.00000000
-1.94840384 0.16087270 -0.52384973 4 0 27472 2.02400000 1294580196 1294580196 -15.00000000
-2.22756028 0.18470453 -0.51603770 4 2 27474 2.29400000 1294580201 1294580201 -13.00000000
-2.63542104 0.21898660 -0.51403946 3 4 27475 2.69400000 1294580206 1294580206 -11.00000000
-3.15753031 0.26348037 -0.50184178 3 6 27477 3.20800000 1294580210 1294580210 -9.00000000
-3.95829678 0.33169174 -0.48772112 4 8 27479 4.00200000 1294580215 1294580215 -7.00000000
-5.20969439 0.43747026 -0.45739335 6 10 27480 5.24800000 1294580220 1294580220 -5.00000000
-7.64235258 0.64443284 -0.40194014 32 12 27482 7.68000000 1294580224 1294580224 -3.00000000
-10.11553097 0.85831523 2.72018814 45 15 27485 10.51000000 1294580231 1294580231 15.00000000
-1.94981360 0.16715799 -0.52436739 4 0 27490 2.02600000 1294580252 1294580252 -15.00000000
-2.23085237 0.19203596 -0.51693749 4 2 27492 2.29800000 1294580256 1294580256 -13.00000000
-2.61711621 0.22574645 -0.51060486 3 4 27493 2.67600000 1294580261 1294580261 -11.00000000
-3.15275097 0.27305782 -0.50121605 3 6 27495 3.20400000 1294580266 1294580266 -9.00000000
-3.95130229 0.34360951 -0.48698989 5 8 27497 3.99600000 1294580270 1294580270 -7.00000000
-5.19836998 0.45297003 -0.45652178 6 10 27498 5.23800000 1294580275 1294580275 -5.00000000
-7.64227962 0.66861284 -0.40204480 32 12 27500 7.68200000 1294580279 1294580279 -3.00000000
-10.11470890 0.89025921 2.72070575 42 15 27503 10.51200000 1294580286 1294580286 15.00000000
-1.94152141 0.17327617 -0.52229685 4 0 27510 2.01800000 1294580307 1294580307 -15.00000000
-2.23016834 0.19982192 -0.51693749 4 2 27512 2.29800000 1294580312 1294580312 -13.00000000
-2.61435676 0.23470497 -0.51022327 3 4 27513 2.67400000 1294580316 1294580316 -11.00000000
-5.59792900 0.50354129 0.49173269 8 5 27514 5.64200000 1294580319 1294580319 5.00000000
-3.17538738 0.28618911 -0.50497043 3 6 27515 3.22800000 1294580321 1294580321 -9.00000000
-3.95798683 0.35811555 -0.48796484 6 8 27517 4.00400000 1294580326 1294580326 -7.00000000
-5.22255230 0.47345144 -0.45878783 3 10 27518 5.26400000 1294580330 1294580330 -5.00000000
-7.63791037 0.69510430 -0.40194014 36 12 27520 7.68000000 1294580335 1294580335 -3.00000000
-7.59919024 0.69425517 -0.13319677 2 14 27522 7.63200000 1294580339 1294580339 -1.00000000
-10.11153984 0.92556071 2.72070575 42 15 27523 10.51200000 1294580342 1294580342 15.00000000
-1.93513393 0.17951696 -0.52074391 4 0 27530 2.01200000 1294580362 1294580362 -15.00000000
-7.09632969 0.65955579 0.12440075 3 1 27531 7.12800000 1294580365 1294580365 1.00000000
-2.24498010 0.20905091 -0.52053672 4 2 27532 2.31400000 1294580367 1294580367 -13.00000000
-2.61352158 0.24382935 -0.51022327 3 4 27533 2.67400000 1294580372 1294580372 -11.00000000
-5.55646229 0.51937020 0.48824647 8 5 27534 5.60200000 1294580374 1294580374 5.00000000
-3.17043543 0.29690316 -0.50434470 3 6 27535 3.22400000 1294580376 1294580376 -9.00000000
-3.98042917 0.37415868 -0.49088973 6 8 27537 4.02800000 1294580381 1294580381 -7.00000000
-5.20103168 0.48981059 -0.45704472 3 10 27538 5.24400000 1294580385 1294580385 -5.00000000
-7.10898542 0.67450076 -0.12464508 4 14 27542 7.14200000 1294580395 1294580395 -1.00000000
-10.10264587 0.95853931 2.71915293 42 15 27542 10.50600000 1294580397 1294580397 15.00000000
-1.94026446 0.18682621 -0.52229685 4 0 27550 2.01800000 1294580418 1294580418 -15.00000000
-2.24229693 0.21669863 -0.52008682 4 2 27552 2.31200000 1294580422 1294580422 -13.00000000
-2.62242532 0.25389671 -0.51213133 3 4 27553 2.68400000 1294580427 1294580427 -11.00000000
-5.55064917 0.53837800 0.48789784 11 5 27554 5.59800000 1294580429 1294580429 5.00000000
-3.16151524 0.30720407 -0.50309324 3 6 27555 3.21600000 1294580431 1294580431 -9.00000000
-3.97514749 0.38766533 -0.49040225 6 8 27557 4.02400000 1294580436 1294580436 -7.00000000
-5.20523930 0.50854379 -0.45756766 6 10 27558 5.25000000 1294580441 1294580441 -5.00000000
-7.28104401 0.71391261 -0.38341323 3 12 27560 7.32600000 1294580445 1294580445 -3.00000000
-6.52946377 0.64252073 -0.11452269 4 14 27562 6.56200000 1294580450 1294580450 -1.00000000
-10.11059952 0.99669802 2.72225881 45 15 27563 10.51800000 1294580452 1294580452 15.00000000
-1.95305657 0.19494095 -0.52592027 4 0 27570 2.03200000 1294580473 1294580473 -15.00000000
-5.84396410 0.58433533 0.10251544 5 1 27571 5.87400000 1294580475 1294580475 1.00000000
-2.22407556 0.22277635 -0.51603770 4 2 27572 2.29400000 1294580478 1294580478 -13.00000000
-6.25595617 0.62773585 0.32950717 2 3 27573 6.29600000 1294580480 1294580480 3.00000000
-2.62542987 0.26344118 -0.51289457 3 4 27573 2.68800000 1294580482 1294580482 -11.00000000
-5.53882408 0.55675381 0.48702630 11 5 27574 5.58800000 1294580484 1294580484 5.00000000
-3.16435456 0.31863374 -0.50371897 3 6 27575 3.22000000 1294580487 1294580487 -9.00000000
-3.96982002 0.40113968 -0.48991477 6 8 27577 4.02000000 1294580491 1294580491 -7.00000000
-5.20541477 0.52691102 -0.45774198 6 10 27578 5.25200000 1294580496 1294580496 -5.00000000
-7.30235195 0.74174583 -0.38466927 3 12 27580 7.35000000 1294580501 1294580501 -3.00000000
-6.26060295 0.63813686 -0.10984544 4 14 27582 6.29400000 1294580505 1294580505 -1.00000000
-10.09378529 1.02884924 2.71863532 40 15 27582 10.50400000 1294580508 1294580508 15.00000000
-1.96389389 0.20294869 -0.52902615 4 0 27590 2.04400000 1294580528 1294580528 -15.00000000
-5.54949617 0.57446355 0.09738443 2 1 27591 5.58000000 1294580531 1294580531 1.00000000
-2.22716093 0.23094046 -0.51693749 4 2 27592 2.29800000 1294580533 1294580533 -13.00000000
-5.77694988 0.60004693 0.30438593 4 3 27593 5.81600000 1294580535 1294580535 3.00000000
-2.61863613 0.27199554 -0.51174974 3 4 27593 2.68200000 1294580537 1294580537 -11.00000000
-5.52892017 0.57525975 0.48632905 11 5 27594 5.58000000 1294580540 1294580540 5.00000000
-3.16715240 0.33008701 -0.50434470 3 6 27595 3.22400000 1294580542 1294580542 -9.00000000
-3.96444678 0.41458157 -0.48942727 6 8 27597 4.01600000 1294580547 1294580547 -7.00000000
-4.93999767 0.51747131 -0.43455854 3 10 27598 4.98600000 1294580551 1294580551 -5.00000000
-5.11079597 0.53716630 -0.26932085 2 12 27600 5.14600000 1294580556 1294580556 -3.00000000
-5.12678528 0.54065627 -0.08998461 2 14 27602 5.15600000 1294580561 1294580561 -1.00000000
-10.07457733 1.06421435 2.71449423 42 15 27603 10.48800000 1294580563 1294580563 15.00000000
-1.93820167 0.20713399 -0.52229685 4 0 27610 2.01800000 1294580584 1294580584 -15.00000000
-5.15575504 0.55190140 0.09050818 9 1 27611 5.18600000 1294580586 1294580586 1.00000000
-2.23796701 0.23995984 -0.51963693 4 2 27612 2.31000000 1294580588 1294580588 -13.00000000
-5.43325567 0.58352500 0.28638235 4 3 27613 5.47200000 1294580590 1294580590 3.00000000
-2.61181450 0.28050569 -0.51060486 3 4 27613 2.67600000 1294580593 1294580593 -11.00000000
-5.51895475 0.59370339 0.48563179 23 5 27614 5.57200000 1294580595 1294580595 5.00000000
-3.16990900 0.34156367 -0.50497043 3 6 27615 3.22800000 1294580597 1294580597 -9.00000000
-3.97284365 0.42948431 -0.49064597 4 8 27617 4.02600000 1294580602 1294580602 -7.00000000
-4.78365803 0.51798213 -0.42096224 5 10 27618 4.83000000 1294580607 1294580607 -5.00000000
-4.92621660 0.53515840 -0.25969100 2 12 27620 4.96200000 1294580611 1294580611 -3.00000000
-4.92607450 0.53688282 -0.08649413 2 14 27622 4.95600000 1294580616 1294580616 -1.00000000
-10.09595966 1.10033810 2.72122335 47 15 27622 10.51400000 1294580618 1294580618 15.00000000
-1.94514751 0.21474628 -0.52436739 4 0 27630 2.02600000 1294580639 1294580639 -15.00000000
-4.77416897 0.52791661 0.08384136 2 1 27631 4.80400000 1294580641 1294580641 1.00000000
-2.24486351 0.24862842 -0.52143657 4 2 27632 2.31800000 1294580643 1294580643 -13.00000000
-4.90910912 0.54457259 0.25885364 6 3 27633 4.94600000 1294580646 1294580646 3.00000000
-2.61862469 0.29048675 -0.51213133 3 4 27633 2.68400000 1294580648 1294580648 -11.00000000
-5.49704695 0.61076432 0.48388869 11 5 27634 5.55200000 1294580650 1294580650 5.00000000
-3.17262387 0.35306358 -0.50559622 3 6 27635 3.23200000 1294580653 1294580653 -9.00000000
-3.95751023 0.44180781 -0.48893979 4 8 27637 4.01200000 1294580657 1294580657 -7.00000000
-4.74419975 0.53047049 -0.41765031 5 10 27638 4.79200000 1294580662 1294580662 -5.00000000
-4.65239954 0.52185017 -0.24535096 2 12 27640 4.68800000 1294580666 1294580666 -3.00000000
-4.66584063 0.52500707 -0.08195650 1 14 27642 4.69600000 1294580671 1294580671 -1.00000000
-10.07842064 1.13581979 2.71759987 42 15 27643 10.50000000 1294580673 1294580673 15.00000000
-1.93666983 0.22099806 -0.52229685 4 0 27651 2.01800000 1294580694 1294580694 -15.00000000
-4.57352591 0.52270472 0.08035088 6 1 27652 4.60400000 1294580696 1294580696 1.00000000
-2.23038435 0.25530326 -0.51828724 4 2 27653 2.30400000 1294580699 1294580699 -13.00000000
-4.79199266 0.54936779 0.25278267 6 3 27654 4.83000000 1294580701 1294580701 3.00000000
-2.62924528 0.30142418 -0.51442105 3 4 27654 2.69600000 1294580703 1294580703 -11.00000000
-3.15168405 0.36243272 -0.50246751 3 6 27656 3.21200000 1294580708 1294580708 -9.00000000
-3.95586443 0.45630985 -0.48893979 4 8 27658 4.01200000 1294580713 1294580713 -7.00000000
-4.72836924 0.54625469 -0.41643015 5 10 27659 4.77800000 1294580717 1294580717 -5.00000000
-4.62863159 0.53636962 -0.24419957 4 12 27661 4.66600000 1294580722 1294580722 -3.00000000
-4.58840466 0.53333133 -0.08063012 1 14 27663 4.62000000 1294580726 1294580726 -1.00000000
-10.08015156 1.17166221 2.71915293 42 15 27663 10.50600000 1294580729 1294580729 15.00000000
-1.94931686 0.22933702 -0.52592027 4 0 27671 2.03200000 1294580749 1294580749 -15.00000000
-4.56372976 0.53773010 0.08021126 8 1 27672 4.59600000 1294580752 1294580752 1.00000000
-2.22754431 0.26285884 -0.51783735 4 2 27673 2.30200000 1294580754 1294580754 -13.00000000
-4.74839354 0.56116909 0.25058457 4 3 27674 4.78800000 1294580756 1294580756 3.00000000
-2.62427759 0.31013930 -0.51365781 3 4 27674 2.69200000 1294580759 1294580759 -11.00000000
-3.16020799 0.37459457 -0.50403184 3 6 27676 3.22200000 1294580763 1294580763 -9.00000000
-3.96410346 0.47128737 -0.49015850 4 8 27678 4.02200000 1294580768 1294580768 -7.00000000
-4.72247696 0.56228536 -0.41608152 5 10 27679 4.77400000 1294580772 1294580772 -5.00000000
-4.60491610 0.54991817 -0.24304818 4 12 27681 4.64400000 1294580777 1294580777 -3.00000000
-4.50709486 0.53983212 -0.07923392 5 14 27683 4.54000000 1294580782 1294580782 -1.00000000
-10.07578945 1.20859993 2.71915293 42 15 27684 10.50600000 1294580784 1294580784 15.00000000
-1.95238137 0.23626411 -0.52695560 4 0 27690 2.03600000 1294580805 1294580805 -15.00000000
-4.54008436 0.55021459 0.07982731 6 1 27691 4.57400000 1294580807 1294580807 1.00000000
-2.23826766 0.27165294 -0.52053672 4 2 27692 2.31400000 1294580809 1294580809 -13.00000000
-4.68702650 0.56968272 0.24744441 4 3 27693 4.72800000 1294580812 1294580812 3.00000000
-2.60959244 0.31718186 -0.51098651 3 4 27693 2.67800000 1294580814 1294580814 -11.00000000
-5.34399271 0.65047997 0.47098964 2 5 27694 5.40400000 1294580816 1294580816 5.00000000
-3.17071366 0.38650629 -0.50590909 3 6 27695 3.23400000 1294580819 1294580819 -9.00000000
-3.96645975 0.48491201 -0.49064597 4 8 27697 4.02600000 1294580823 1294580823 -7.00000000
-4.73245192 0.57939529 -0.41712737 5 10 27698 4.78600000 1294580828 1294580828 -5.00000000
-4.60504961 0.56542903 -0.24315286 4 12 27700 4.64600000 1294580832 1294580832 -3.00000000
-4.46161652 0.54939854 -0.07846602 5 14 27702 4.49600000 1294580837 1294580837 -1.00000000
-10.08344650 1.24166465 2.72225881 42 15 27702 10.51800000 1294580839 1294580839 15.00000000
-1.94004250 0.24164507 -0.52384973 4 0 27710 2.02400000 1294580860 1294580860 -15.00000000
-4.50440264 0.56185144 0.07923392 4 1 27711 4.54000000 1294580862 1294580862 1.00000000
-2.23343825 0.27898121 -0.51963693 4 2 27712 2.31000000 1294580865 1294580865 -13.00000000
-4.64735508 0.58132988 0.24545564 2 3 27713 4.69000000 1294580867 1294580867 3.00000000
-2.61236548 0.32677647 -0.51174974 3 4 27713 2.68200000 1294580869 1294580869 -11.00000000
-5.26261234 0.65922433 0.46401718 5 5 27714 5.32400000 1294580872 1294580872 5.00000000
-3.17522526 0.39830941 -0.50684768 3 6 27715 3.24000000 1294580874 1294580874 -9.00000000
-3.96080375 0.49825904 -0.49015850 4 8 27717 4.02200000 1294580878 1294580878 -7.00000000
-4.71063280 0.59342086 -0.41538426 8 10 27718 4.76600000 1294580883 1294580883 -5.00000000
-4.43983316 0.56245595 -0.07811697 1 14 27722 4.47600000 1294580892 1294580892 -1.00000000
-10.06349659 1.27666891 2.71811771 42 15 27723 10.50200000 1294580895 1294580895 15.00000000
-1.94689548 0.24905770 -0.52592027 5 0 27729 2.03200000 1294580915 1294580915 -15.00000000
-4.41524172 0.56560546 0.07769811 4 1 27730 4.45200000 1294580918 1294580918 1.00000000
-2.23636675 0.28688192 -0.52053672 4 2 27731 2.31400000 1294580920 1294580920 -13.00000000
-4.55427647 0.58503217 0.24064073 1 3 27732 4.59800000 1294580922 1294580922 3.00000000
-2.60737300 0.33493730 -0.51098651 3 4 27732 2.67800000 1294580925 1294580925 -11.00000000
-5.20111418 0.66904622 0.45878783 7 5 27733 5.26400000 1294580927 1294580927 5.00000000
-3.14449906 0.40505111 -0.50215465 3 6 27734 3.21000000 1294580929 1294580929 -9.00000000
-6.36310053 0.82077658 0.78776342 2 7 27735 6.46400000 1294580931 1294580931 7.00000000
-3.97094202 0.51291656 -0.49162093 4 8 27736 4.03400000 1294580934 1294580934 -7.00000000
-4.70863914 0.60903859 -0.41538426 5 10 27737 4.76600000 1294580938 1294580938 -5.00000000
-4.37845373 0.56943893 -0.07706983 1 14 27741 4.41600000 1294580948 1294580948 -1.00000000
-10.05368900 1.30753052 2.71656466 42 15 27741 10.49600000 1294580950 1294580950 15.00000000
-1.94601429 0.25585210 -0.52592027 4 0 27749 2.03200000 1294580971 1294580971 -15.00000000
-4.39143181 0.57814294 0.07731416 3 1 27750 4.43000000 1294580973 1294580973 1.00000000
-2.23535180 0.29468656 -0.52053672 4 2 27751 2.31400000 1294580975 1294580975 -13.00000000
-4.50864458 0.59517550 0.23833795 1 3 27752 4.55400000 1294580978 1294580978 3.00000000
-2.62370515 0.34634912 -0.51442105 3 4 27752 2.69600000 1294580980 1294580980 -11.00000000
-5.15134192 0.68093121 0.45460436 7 5 27753 5.21600000 1294580982 1294580982 5.00000000
-3.16264892 0.41861707 -0.50528330 3 6 27754 3.23000000 1294580984 1294580984 -9.00000000
-5.63995171 0.74752140 0.69855505 2 7 27755 5.73200000 1294580987 1294580987 7.00000000
-3.96519184 0.52625233 -0.49113345 4 8 27756 4.03000000 1294580989 1294580989 -7.00000000
-4.71833467 0.62704593 -0.41643015 5 10 27757 4.77800000 1294580994 1294580994 -5.00000000
-4.33085108 0.57862830 -0.07626702 1 14 27761 4.37000000 1294581003 1294581003 -1.00000000
-10.05672264 1.34363985 2.71863532 40 15 27761 10.50400000 1294581005 1294581005 15.00000000
-1.94702375 0.26290193 -0.52643794 4 0 27769 2.03400000 1294581026 1294581026 -15.00000000
-4.34182692 0.58703804 0.07647645 3 1 27770 4.38200000 1294581028 1294581028 1.00000000
-2.23430943 0.30248758 -0.52053672 4 2 27771 2.31400000 1294581031 1294581031 -13.00000000
-4.45310259 0.60366601 0.23551181 3 3 27772 4.50000000 1294581033 1294581033 3.00000000
-2.61664391 0.35471424 -0.51327622 3 4 27772 2.69000000 1294581035 1294581035 -11.00000000
-5.11931944 0.69488877 0.45198968 10 5 27773 5.18600000 1294581037 1294581037 5.00000000
-3.15725374 0.42912212 -0.50465757 3 6 27774 3.22600000 1294581040 1294581040 -9.00000000
-5.56256342 0.75703168 0.68929303 2 7 27775 5.65600000 1294581042 1294581042 7.00000000
-3.97119832 0.54116231 -0.49210840 6 8 27776 4.03800000 1294581044 1294581044 -7.00000000
-4.71611738 0.64351219 -0.41643015 8 10 27777 4.77800000 1294581049 1294581049 -5.00000000
-4.27729511 0.58667713 -0.07535949 3 14 27781 4.31800000 1294581058 1294581058 -1.00000000
-10.04814339 1.37821114 2.71759987 45 15 27781 10.50000000 1294581060 1294581060 15.00000000
-1.94800782 0.26996189 -0.52695560 4 0 27789 2.03600000 1294581081 1294581081 -15.00000000
-4.30409861 0.59724301 0.07584815 5 1 27790 4.34600000 1294581084 1294581084 1.00000000
-2.22551918 0.30921221 -0.51873714 4 2 27791 2.30600000 1294581086 1294581086 -13.00000000
-4.39162207 0.61095047 0.23237164 5 3 27792 4.44000000 1294581088 1294581088 3.00000000
-2.61927891 0.36438692 -0.51403946 3 4 27792 2.69400000 1294581090 1294581090 -11.00000000
-5.09120941 0.70918095 0.44972363 10 5 27793 5.16000000 1294581093 1294581093 5.00000000
-3.17530084 0.44286910 -0.50778627 3 6 27794 3.24600000 1294581095 1294581095 -9.00000000
-5.54415894 0.77424759 0.68734312 2 7 27795 5.64000000 1294581097 1294581097 7.00000000
-3.95552349 0.55309683 -0.49040225 6 8 27796 4.02400000 1294581100 1294581100 -7.00000000
-4.71778870 0.66052312 -0.41677877 5 10 27797 4.78200000 1294581104 1294581104 -5.00000000
-4.34538126 0.60993010 -0.22996420 2 12 27799 4.39400000 1294581109 1294581109 -3.00000000
-4.24155807 0.59686708 -0.07476611 5 14 27801 4.28400000 1294581113 1294581113 -1.00000000
-10.05258942 1.41637778 2.72018814 45 15 27802 10.51000000 1294581116 1294581116 15.00000000
-1.94126749 0.27628329 -0.52540267 5 0 27810 2.03000000 1294581137 1294581137 -15.00000000
-4.26030684 0.60709012 0.07511516 5 1 27811 4.30400000 1294581139 1294581139 1.00000000
-2.23015857 0.31819284 -0.52008682 3 2 27812 2.31200000 1294581141 1294581141 -13.00000000
-4.35771799 0.62252325 0.23069690 5 3 27813 4.40800000 1294581143 1294581143 3.00000000
-2.60820818 0.37259641 -0.51213133 3 4 27813 2.68400000 1294581146 1294581146 -11.00000000
-5.04912949 0.72219425 0.44623742 10 5 27814 5.12000000 1294581148 1294581148 5.00000000
-3.17365646 0.45450419 -0.50778627 3 6 27815 3.24600000 1294581150 1294581150 -9.00000000
-5.60023403 0.80301553 0.69465524 2 7 27816 5.70000000 1294581153 1294581153 7.00000000
-3.96525931 0.56928343 -0.49186468 6 8 27817 4.03600000 1294581155 1294581155 -7.00000000
-4.70350313 0.67610931 -0.41573289 8 10 27818 4.77000000 1294581160 1294581160 -5.00000000
-4.32927847 0.62385857 -0.22923149 2 12 27820 4.38000000 1294581164 1294581164 -3.00000000
-4.19975901 0.60669100 -0.07406801 5 14 27822 4.24400000 1294581169 1294581169 -1.00000000
-10.03802395 1.45007825 2.71759987 42 15 27822 10.50000000 1294581171 1294581171 15.00000000
-1.93264484 0.28194240 -0.52333212 5 0 27830 2.02200000 1294581192 1294581192 -15.00000000
-4.22254515 0.61675543 0.07448687 5 1 27831 4.26800000 1294581194 1294581194 1.00000000
