# .PCD v0.7 - Point Cloud Data file format
VERSION 0.7
FIELDS x y z intensity laser_id azimuth distance_m adjustedtime timestamp vertical_angle
SIZE 4 4 4 1 1 2 8 8 4 8
TYPE F F F U U U F U U F
COUNT 1 1 1 1 1 1 1 1 1 1
WIDTH 541
HEIGHT 1
VIEWPOINT 0 0 0 1 0 0 0
POINTS 541
DATA ascii
2.16093850 1.64619398 -0.62716353 3 2 5270 2.78800000 1293418652 1293418652 -13.00000000
3.29554009 2.50961995 0.21708955 7 3 5271 4.14800000 1293418655 1293418655 3.00000000
2.59591842 1.97684395 -0.63424909 5 4 5271 3.32400000 1293418657 1293418657 -11.00000000
3.30220962 2.51378846 0.36309081 7 5 5272 4.16600000 1293418659 1293418659 5.00000000
3.23986387 2.46543503 -0.64482284 9 6 5273 4.12200000 1293418662 1293418662 -9.00000000
3.31468844 2.52146077 0.51136374 7 7 5274 4.19600000 1293418664 1293418664 7.00000000
3.29458666 2.50526190 -0.50819516 8 8 5275 4.17000000 1293418666 1293418666 -7.00000000
3.30877662 2.51514101 0.65827620 8 9 5276 4.20800000 1293418669 1293418669 9.00000000
3.28334379 2.49580836 -0.36082476 9 10 5276 4.14000000 1293418671 1293418671 -5.00000000
3.30766582 2.51338577 0.80750364 8 11 5277 4.23200000 1293418673 1293418673 11.00000000
3.28269911 2.49351072 -0.21604283 7 12 5278 4.12800000 1293418675 1293418675 -3.00000000
3.32133174 2.52194166 0.96279049 8 13 5279 4.28000000 1293418678 1293418678 13.00000000
3.29076028 2.49782300 -0.07211334 7 14 5280 4.13200000 1293418680 1293418680 -1.00000000
3.32529855 2.52403903 1.11861587 8 15 5280 4.32200000 1293418682 1293418682 15.00000000
1.82846308 1.38385940 -0.61443639 4 0 5288 2.37400000 1293418703 1293418703 -15.00000000
3.29946399 2.49627042 0.07221806 7 1 5289 4.13800000 1293418705 1293418705 1.00000000
2.15112877 1.62688589 -0.62266451 3 2 5290 2.76800000 1293418708 1293418708 -13.00000000
3.31977391 2.51072526 0.21813627 7 3 5290 4.16800000 1293418710 1293418710 3.00000000
2.60906720 1.97250640 -0.63577557 5 4 5291 3.33200000 1293418712 1293418712 -11.00000000
3.32209086 2.51065516 0.36431101 7 5 5292 4.18000000 1293418715 1293418715 5.00000000
3.25948310 2.46244597 -0.64701295 11 6 5293 4.13600000 1293418717 1293418717 -9.00000000
3.33139014 2.51585650 0.51258248 7 7 5294 4.20600000 1293418719 1293418719 7.00000000
3.30964875 2.49853039 -0.50917011 8 8 5295 4.17800000 1293418721 1293418721 -7.00000000
3.34705377 2.52676845 0.66422075 8 9 5295 4.24600000 1293418724 1293418724 9.00000000
3.31430078 2.50113440 -0.36326513 9 10 5296 4.16800000 1293418726 1293418726 -5.00000000
3.33836126 2.51837730 0.81284630 8 11 5297 4.26000000 1293418728 1293418728 11.00000000
3.30254579 2.49045467 -0.21677554 7 12 5298 4.14200000 1293418731 1293418731 -3.00000000
3.33945155 2.51737118 0.96548992 8 13 5299 4.29200000 1293418733 1293418733 13.00000000
3.32660890 2.50677943 -0.07270672 7 14 5300 4.16600000 1293418735 1293418735 -1.00000000
3.34334588 2.51939178 1.12172174 8 15 5300 4.33400000 1293418738 1293418738 15.00000000
1.83482695 1.37862885 -0.61495405 4 0 5308 2.37600000 1293418758 1293418758 -15.00000000
3.33374023 2.50395298 0.07277653 7 1 5309 4.17000000 1293418761 1293418761 1.00000000
2.15991139 1.62170732 -0.62356430 3 2 5310 2.77200000 1293418763 1293418763 -13.00000000
3.33853817 2.50573444 0.21876429 7 3 5311 4.18000000 1293418765 1293418765 3.00000000
2.60965586 1.95867300 -0.63424909 5 4 5311 3.32400000 1293418768 1293418768 -11.00000000
3.35314631 2.51578355 0.36675137 7 5 5312 4.20800000 1293418770 1293418770 5.00000000
3.26963902 2.45223856 -0.64732581 11 6 5313 4.13800000 1293418772 1293418772 -9.00000000
3.35444641 2.51492953 0.51477611 7 7 5314 4.22400000 1293418774 1293418774 7.00000000
3.33105803 2.49648643 -0.51112002 8 8 5315 4.19400000 1293418777 1293418777 -7.00000000
3.35629225 2.51448369 0.66422075 8 9 5316 4.24600000 1293418779 1293418779 9.00000000
3.34852362 2.50866365 -0.36605412 9 10 5316 4.20000000 1293418781 1293418781 -5.00000000
3.36284614 2.51847744 0.81666249 8 11 5317 4.28000000 1293418784 1293418784 11.00000000
3.33680058 2.49806285 -0.21845028 7 12 5318 4.17400000 1293418786 1293418786 -3.00000000
3.36070013 2.51503992 0.96908915 8 13 5319 4.30800000 1293418788 1293418788 13.00000000
3.34814858 2.50473523 -0.07298596 7 14 5320 4.18200000 1293418791 1293418791 -1.00000000
3.37576389 2.52447510 1.12948632 8 15 5321 4.36400000 1293418793 1293418793 15.00000000
1.83498263 1.36875057 -0.61340111 3 0 5328 2.37000000 1293418814 1293418814 -15.00000000
3.35849118 2.50425410 0.07312559 7 1 5329 4.19000000 1293418816 1293418816 1.00000000
2.17180872 1.61881638 -0.62536395 3 2 5330 2.78000000 1293418818 1293418818 -13.00000000
3.35964012 2.50419855 0.21960168 7 3 5330 4.19600000 1293418821 1293418821 3.00000000
2.60860562 1.94368660 -0.63234103 5 4 5331 3.31400000 1293418823 1293418823 -11.00000000
3.37469053 2.51358485 0.36814585 7 5 5332 4.22400000 1293418825 1293418825 5.00000000
3.28768563 2.44788861 -0.64920300 11 6 5333 4.15000000 1293418827 1293418827 -9.00000000
3.38549876 2.51979828 0.51818848 7 7 5334 4.25200000 1293418830 1293418830 7.00000000
3.35408568 2.49550819 -0.51331365 8 8 5335 4.21200000 1293418832 1293418832 -7.00000000
3.37614441 2.51100492 0.66641080 8 9 5336 4.26000000 1293418834 1293418834 9.00000000
3.36685228 2.50409412 -0.36710000 9 10 5336 4.21200000 1293418837 1293418837 -5.00000000
3.38737178 2.51843739 0.82047868 8 11 5337 4.30000000 1293418839 1293418839 11.00000000
3.36473632 2.50069642 -0.21970634 8 12 5338 4.19800000 1293418841 1293418841 -3.00000000
3.38510156 2.51491499 0.97358817 8 13 5339 4.32800000 1293418844 1293418844 13.00000000
3.37131977 2.50376320 -0.07330011 7 14 5340 4.20000000 1293418846 1293418846 -1.00000000
3.38411665 2.51326680 1.12948632 8 15 5340 4.36400000 1293418848 1293418848 15.00000000
1.83353913 1.35773826 -0.61133057 4 0 5348 2.36200000 1293418869 1293418869 -15.00000000
3.38007045 2.50203347 0.07340482 7 1 5349 4.20600000 1293418871 1293418871 1.00000000
2.18371224 1.61586213 -0.62716353 3 2 5350 2.78800000 1293418873 1293418873 -13.00000000
3.39404893 2.51146412 0.22127642 7 3 5350 4.22800000 1293418876 1293418876 3.00000000
2.61853123 1.93690407 -0.63310426 8 4 5351 3.31800000 1293418878 1293418878 -11.00000000
3.38825011 2.50534320 0.36866879 7 5 5352 4.23000000 1293418880 1293418880 5.00000000
3.29621029 2.43639755 -0.64920300 9 6 5353 4.15000000 1293418883 1293418883 -9.00000000
3.40704632 2.51740265 0.52013838 7 7 5354 4.26800000 1293418885 1293418885 7.00000000
3.38513088 2.50029659 -0.51672602 8 8 5355 4.24000000 1293418887 1293418887 -7.00000000
3.39919114 2.50976467 0.66922665 8 9 5356 4.27800000 1293418890 1293418890 9.00000000
3.38038135 2.49587655 -0.36762291 9 10 5356 4.21800000 1293418892 1293418892 -5.00000000
3.41193819 2.51825643 0.82429487 8 11 5357 4.32000000 1293418894 1293418894 11.00000000
3.39915943 2.50790858 -0.22138110 8 12 5358 4.23000000 1293418897 1293418897 -3.00000000
3.40954280 2.51465034 0.97808719 8 13 5359 4.34800000 1293418899 1293418899 13.00000000
3.39291549 2.50147295 -0.07357935 7 14 5360 4.21600000 1293418901 1293418901 -1.00000000
3.40530849 2.51061010 1.13362741 8 15 5360 4.38000000 1293418903 1293418903 15.00000000
1.84402001 1.35655046 -0.61340111 3 0 5366 2.37000000 1293418924 1293418924 -15.00000000
3.39435792 2.49614120 0.07354444 7 1 5367 4.21400000 1293418926 1293418926 1.00000000
2.18877792 1.60899377 -0.62716353 3 2 5368 2.78800000 1293418929 1293418929 -13.00000000
3.42006254 2.51320481 0.22242782 7 3 5369 4.25000000 1293418931 1293418931 3.00000000
2.61985707 1.92518044 -0.63195938 5 4 5369 3.31200000 1293418933 1293418933 -11.00000000
3.41697836 2.51002026 0.37093484 7 5 5370 4.25600000 1293418936 1293418936 5.00000000
3.30225611 2.42486095 -0.64889014 9 6 5371 4.14800000 1293418938 1293418938 -9.00000000
3.42774010 2.51608372 0.52208829 7 7 5372 4.28400000 1293418940 1293418940 7.00000000
3.40417242 2.49786997 -0.51843220 8 8 5373 4.25400000 1293418943 1293418943 -7.00000000
3.42891955 2.51602864 0.67360681 8 9 5373 4.30600000 1293418945 1293418945 9.00000000
3.40587759 2.49820685 -0.36954036 9 10 5374 4.24000000 1293418947 1293418947 -5.00000000
3.42933226 2.51449037 0.82658458 8 11 5375 4.33200000 1293418950 1293418950 11.00000000
3.41024327 2.49957871 -0.22159044 8 12 5376 4.23400000 1293418952 1293418952 -3.00000000
3.43943334 2.52005124 0.98438579 9 13 5377 4.37600000 1293418954 1293418954 13.00000000
3.41850305 2.50379896 -0.07396330 7 14 5378 4.23800000 1293418956 1293418956 -1.00000000
3.43699622 2.51642227 1.14139199 8 15 5379 4.41000000 1293418959 1293418959 15.00000000
1.84874403 1.35010529 -0.61340111 3 0 5386 2.37000000 1293418979 1293418979 -15.00000000
3.42566204 2.50078440 0.07403311 7 1 5387 4.24200000 1293418982 1293418982 1.00000000
2.17863941 1.58985639 -0.62266451 3 2 5388 2.76800000 1293418984 1293418984 -13.00000000
3.43967128 2.51009107 0.22316052 7 3 5388 4.26400000 1293418986 1293418986 3.00000000
2.63607788 1.92296588 -0.63424909 5 4 5389 3.32400000 1293418989 1293418989 -11.00000000
3.44503713 2.51216435 0.37302658 7 5 5390 4.28000000 1293418991 1293418991 5.00000000
3.31070018 2.41331911 -0.64889014 9 6 5391 4.14800000 1293418993 1293418993 -9.00000000
3.44452381 2.50994873 0.52330697 7 7 5392 4.29400000 1293418996 1293418996 7.00000000
3.43212533 2.49999738 -0.52135706 8 8 5393 4.27800000 1293418998 1293418998 -7.00000000
3.46207166 2.52088571 0.67829984 8 9 5394 4.33600000 1293419000 1293419000 9.00000000
3.42585182 2.49451256 -0.37076053 9 10 5394 4.25400000 1293419003 1293419003 -5.00000000
3.44602513 2.50828123 0.82849264 8 11 5395 4.34200000 1293419005 1293419005 11.00000000
3.42056274 2.48883462 -0.22169511 8 12 5396 4.23600000 1293419007 1293419007 -3.00000000
3.45766473 2.51490760 0.98708522 8 13 5397 4.38800000 1293419009 1293419009 13.00000000
3.44663072 2.50596237 -0.07438216 7 14 5398 4.26200000 1293419012 1293419012 -1.00000000
3.46451163 2.51803899 1.14760363 8 15 5399 4.43400000 1293419014 1293419014 15.00000000
1.85344553 1.34364378 -0.61340111 3 0 5406 2.37000000 1293419035 1293419035 -15.00000000
3.45056295 2.50054550 0.07438216 7 1 5407 4.26200000 1293419037 1293419037 1.00000000
2.19364476 1.58910120 -0.62536395 3 2 5408 2.78000000 1293419039 1293419039 -13.00000000
3.45164704 2.50041246 0.22336987 7 3 5408 4.26800000 1293419042 1293419042 3.00000000
2.63482356 1.90799510 -0.63234103 5 4 5409 3.31400000 1293419044 1293419044 -11.00000000
3.47315240 2.51414299 0.37511832 7 5 5410 4.30400000 1293419046 1293419046 5.00000000
3.31910419 2.40174794 -0.64889014 9 6 5411 4.14800000 1293419049 1293419049 -9.00000000
3.47256494 2.51187110 0.52623183 7 7 5412 4.31800000 1293419051 1293419051 7.00000000
3.44726562 2.49265432 -0.52233201 8 8 5413 4.28600000 1293419053 1293419053 -7.00000000
3.47361374 2.51170611 0.67892557 8 9 5413 4.34000000 1293419056 1293419056 9.00000000
3.44907093 2.49304318 -0.37232932 9 10 5414 4.27200000 1293419058 1293419058 -5.00000000
3.48022079 2.51463413 0.83459854 8 11 5415 4.37400000 1293419060 1293419060 11.00000000
3.45189667 2.49325180 -0.22316052 8 12 5416 4.26400000 1293419062 1293419062 -3.00000000
3.48222208 2.51423049 0.99158424 9 13 5417 4.40800000 1293419065 1293419065 13.00000000
3.46184301 2.49859738 -0.07452177 7 14 5418 4.27000000 1293419067 1293419067 -1.00000000
3.50148010 2.52627611 1.15692115 8 15 5419 4.47000000 1293419069 1293419069 15.00000000
1.86126053 1.33942270 -0.61443639 4 0 5426 2.37400000 1293419090 1293419090 -15.00000000
3.47874999 2.50249863 0.07480101 7 1 5427 4.28600000 1293419092 1293419092 1.00000000
2.19601417 1.57915890 -0.62446415 3 2 5428 2.77600000 1293419095 1293419095 -13.00000000
3.48467708 2.50583935 0.22493994 7 3 5428 4.29800000 1293419097 1293419097 3.00000000
2.63349700 1.89305663 -0.63043290 5 4 5429 3.30400000 1293419099 1293419099 -11.00000000
3.49485111 2.51130533 0.37651280 7 5 5430 4.32000000 1293419102 1293419102 5.00000000
3.33388495 2.39475727 -0.65014166 9 6 5431 4.15600000 1293419104 1293419104 -9.00000000
3.49904919 2.51247025 0.52891296 7 7 5432 4.34000000 1293419106 1293419106 7.00000000
3.47368479 2.49333882 -0.52501315 8 8 5433 4.30800000 1293419109 1293419109 -7.00000000
3.49840784 2.51108456 0.68205428 8 9 5433 4.36000000 1293419111 1293419111 9.00000000
3.48041558 2.49724960 -0.37476969 9 10 5434 4.30000000 1293419113 1293419113 -5.00000000
3.51290727 2.51963425 0.84032279 8 11 5435 4.40400000 1293419115 1293419115 11.00000000
3.47681046 2.49282503 -0.22420724 8 12 5436 4.28400000 1293419118 1293419118 -3.00000000
3.50523233 2.51227713 0.99563336 9 13 5437 4.42600000 1293419120 1293419120 13.00000000
3.48192263 2.49465060 -0.07476611 7 14 5438 4.28400000 1293419122 1293419122 -1.00000000
3.51655936 2.51853776 1.15899169 8 15 5439 4.47800000 1293419125 1293419125 15.00000000
1.86254847 1.33099675 -0.61340111 4 0 5445 2.37000000 1293419145 1293419145 -15.00000000
3.50004697 2.50024772 0.07508025 7 1 5446 4.30200000 1293419148 1293419148 1.00000000
2.21392584 1.58092773 -0.62806332 3 2 5447 2.79200000 1293419150 1293419150 -13.00000000
3.51572323 2.51051927 0.22640535 7 3 5447 4.32600000 1293419152 1293419152 3.00000000
2.64295602 1.88659453 -0.63119614 5 4 5448 3.30800000 1293419155 1293419155 -11.00000000
3.51613426 2.50896025 0.37790731 7 5 5449 4.33600000 1293419157 1293419157 5.00000000
3.33537531 2.37910008 -0.64889014 9 6 5450 4.14800000 1293419159 1293419159 -9.00000000
3.53322220 2.51929259 0.53281277 7 7 5451 4.37200000 1293419161 1293419161 7.00000000
3.50618148 2.49908876 -0.52866924 8 8 5452 4.33800000 1293419164 1293419164 -7.00000000
3.52119279 2.50978851 0.68487006 8 9 5452 4.37800000 1293419166 1293419166 9.00000000
3.49192286 2.48800683 -0.37511832 9 10 5453 4.30400000 1293419168 1293419168 -5.00000000
3.53243709 2.51594377 0.84299415 8 11 5454 4.41800000 1293419171 1293419171 11.00000000
3.50946307 2.49865770 -0.22577731 8 12 5455 4.31400000 1293419173 1293419173 -3.00000000
3.53577185 2.51645923 1.00193202 8 13 5456 4.45400000 1293419175 1293419175 13.00000000
3.50972867 2.49700117 -0.07518496 7 14 5457 4.30800000 1293419178 1293419178 -1.00000000
3.53862143 2.51755691 1.16365039 8 15 5457 4.49600000 1293419180 1293419180 15.00000000
1.86875880 1.32560492 -0.61391878 4 0 5465 2.37200000 1293419201 1293419201 -15.00000000
3.52017164 2.49611187 0.07532459 7 1 5466 4.31600000 1293419203 1293419203 1.00000000
2.20353246 1.56192076 -0.62356430 3 2 5467 2.77200000 1293419205 1293419205 -13.00000000
3.54727721 2.51440167 0.22787075 7 3 5467 4.35400000 1293419208 1293419208 3.00000000
2.66073871 1.88530266 -0.63386750 5 4 5468 3.32200000 1293419210 1293419210 -11.00000000
3.53950357 2.50703573 0.37947610 7 5 5469 4.35400000 1293419212 1293419212 5.00000000
3.33398652 2.36059403 -0.64701295 9 6 5470 4.13600000 1293419214 1293419214 -9.00000000
3.55333686 2.51497173 0.53451896 7 7 5471 4.38600000 1293419217 1293419217 7.00000000
3.53757071 2.50288630 -0.53208154 8 8 5472 4.36600000 1293419219 1293419219 -7.00000000
3.54928303 2.51117301 0.68862450 8 9 5472 4.40200000 1293419221 1293419221 9.00000000
3.52010632 2.48960805 -0.37721005 10 10 5473 4.32800000 1293419224 1293419224 -5.00000000
3.54921317 2.50926495 0.84490222 8 11 5474 4.42800000 1293419226 1293419226 11.00000000
3.52794981 2.49330831 -0.22640535 8 12 5475 4.32600000 1293419228 1293419228 -3.00000000
3.56840849 2.52096796 1.00868058 8 13 5476 4.48400000 1293419231 1293419231 13.00000000
3.52495718 2.48934889 -0.07532459 7 14 5477 4.31600000 1293419233 1293419233 -1.00000000
3.56360698 2.51571155 1.16882682 8 15 5478 4.51600000 1293419235 1293419235 15.00000000
1.87021554 1.31684923 -0.61288351 4 0 5485 2.36800000 1293419256 1293419256 -15.00000000
3.54685092 2.49646974 0.07570854 7 1 5486 4.33800000 1293419258 1293419258 1.00000000
2.20259595 1.54973400 -0.62176472 3 2 5487 2.76400000 1293419261 1293419261 -13.00000000
3.56136990 2.50483036 0.22818477 7 3 5488 4.36000000 1293419263 1293419263 3.00000000
2.66730332 1.87600350 -0.63386750 5 4 5488 3.32200000 1293419265 1293419265 -11.00000000
3.57431126 2.51300001 0.38226509 7 5 5489 4.38600000 1293419267 1293419267 5.00000000
3.33574152 2.34439850 -0.64576149 9 6 5490 4.12800000 1293419270 1293419270 -9.00000000
3.56534266 2.50483537 0.53500640 7 7 5491 4.39000000 1293419272 1293419272 7.00000000
3.54953480 2.49280429 -0.53256905 8 8 5492 4.37000000 1293419274 1293419274 -7.00000000
3.58550858 2.51806831 0.69394326 8 9 5492 4.43600000 1293419277 1293419277 9.00000000
3.55160451 2.49333239 -0.37965041 10 10 5493 4.35600000 1293419279 1293419279 -5.00000000
3.58687687 2.51716018 0.85177135 9 11 5494 4.46400000 1293419281 1293419281 11.00000000
3.54480696 2.48671341 -0.22692871 8 12 5495 4.33600000 1293419284 1293419284 -3.00000000
3.58516431 2.51409101 1.01093006 8 13 5496 4.49400000 1293419286 1293419286 13.00000000
3.55654955 2.49309921 -0.07581326 7 14 5497 4.34400000 1293419288 1293419288 -1.00000000
3.58458495 2.51275158 1.17296791 8 15 5497 4.53200000 1293419291 1293419291 15.00000000
1.87955105 1.31363297 -0.61443639 3 0 5505 2.37400000 1293419311 1293419311 -15.00000000
3.56865764 2.49323583 0.07598778 7 1 5506 4.35400000 1293419314 1293419314 1.00000000
2.21438289 1.54649925 -0.62356430 3 2 5507 2.77200000 1293419316 1293419316 -13.00000000
3.58646846 2.50381660 0.22923149 7 3 5508 4.38000000 1293419318 1293419318 3.00000000
2.67383552 1.86668146 -0.63386750 5 4 5508 3.32200000 1293419320 1293419320 -11.00000000
3.59940004 2.51191020 0.38400820 7 5 5509 4.40600000 1293419323 1293419323 5.00000000
3.34390473 2.33274031 -0.64576149 9 6 5510 4.12800000 1293419325 1293419325 -9.00000000
3.60174513 2.51167774 0.53915000 7 7 5511 4.42400000 1293419327 1293419327 7.00000000
3.56798553 2.48721004 -0.53403145 8 8 5512 4.38200000 1293419330 1293419330 -7.00000000
3.59147215 2.50265098 0.69331753 8 9 5513 4.43200000 1293419332 1293419332 9.00000000
3.58971024 2.50142336 -0.38278803 10 10 5513 4.39200000 1293419334 1293419334 -5.00000000
3.61336207 2.51696777 0.85596913 9 11 5514 4.48600000 1293419337 1293419337 11.00000000
3.57477331 2.48916149 -0.22828944 8 12 5515 4.36200000 1293419339 1293419339 -3.00000000
3.60671377 2.51046729 1.01452923 8 13 5516 4.51000000 1293419341 1293419341 13.00000000
3.58821082 2.49665880 -0.07630192 7 14 5517 4.37200000 1293419344 1293419344 -1.00000000
3.61280203 2.51283360 1.17917955 8 15 5518 4.55600000 1293419346 1293419346 15.00000000
1.87936318 1.30376065 -0.61288351 4 0 5525 2.36800000 1293419367 1293419367 -15.00000000
3.60691738 2.50127530 0.07661606 7 1 5526 4.39000000 1293419369 1293419369 1.00000000
2.22937703 1.54542148 -0.62626374 3 2 5527 2.78400000 1293419371 1293419371 -13.00000000
3.61160278 2.50265789 0.23027821 7 3 5528 4.40000000 1293419373 1293419373 3.00000000
2.67226672 1.85174561 -0.63195938 5 4 5528 3.31200000 1293419376 1293419376 -11.00000000
3.61469769 2.50386882 0.38470545 7 5 5529 4.41400000 1293419378 1293419378 5.00000000
3.35852337 2.32555175 -0.64701295 9 6 5530 4.13600000 1293419380 1293419380 -9.00000000
3.63334179 2.51490712 0.54256231 7 7 5531 4.45200000 1293419383 1293419383 7.00000000
3.60276461 2.49281240 -0.53793126 8 8 5532 4.41400000 1293419385 1293419385 -7.00000000
3.62086916 2.50533915 0.69738483 8 9 5532 4.45800000 1293419387 1293419387 9.00000000
3.60497451 2.49341106 -0.38348526 10 10 5533 4.40000000 1293419390 1293419390 -5.00000000
3.64150429 2.51773763 0.86054856 9 11 5534 4.51000000 1293419392 1293419392 11.00000000
3.61301470 2.49710822 -0.23017353 8 12 5535 4.39800000 1293419394 1293419394 -3.00000000
3.63629794 2.51226234 1.02037799 8 13 5536 4.53600000 1293419397 1293419397 13.00000000
3.60513115 2.48980021 -0.07647645 7 14 5537 4.38200000 1293419399 1293419399 -1.00000000
3.63065267 2.50742626 1.18228543 8 15 5537 4.56800000 1293419401 1293419401 15.00000000
1.87753820 1.29281008 -0.61081296 4 0 5545 2.36000000 1293419422 1293419422 -15.00000000
3.63045120 2.49887347 0.07693021 7 1 5546 4.40800000 1293419424 1293419424 1.00000000
2.23154712 1.53542089 -0.62536395 4 2 5547 2.78000000 1293419426 1293419426 -13.00000000
3.64170957 2.50474977 0.23163894 7 3 5548 4.42600000 1293419429 1293419429 3.00000000
2.68194938 1.84463143 -0.63272262 6 4 5548 3.31600000 1293419431 1293419431 -11.00000000
3.63983345 2.50252366 0.38644856 7 5 5549 4.43400000 1293419433 1293419433 5.00000000
3.36173677 2.31045771 -0.64607435 6 6 5550 4.13000000 1293419436 1293419436 -9.00000000
3.65845990 2.51344991 0.54499972 7 7 5551 4.47200000 1293419438 1293419438 7.00000000
3.63271689 2.49483061 -0.54109991 8 8 5552 4.44000000 1293419440 1293419440 -7.00000000
3.65282702 2.50770354 0.70176500 8 9 5553 4.48600000 1293419443 1293419443 9.00000000
3.63008165 2.49208856 -0.38522840 10 10 5553 4.42000000 1293419445 1293419445 -5.00000000
3.66322064 2.51389813 0.86360151 9 11 5554 4.52600000 1293419447 1293419447 11.00000000
3.64476705 2.50029874 -0.23163894 8 12 5555 4.42600000 1293419449 1293419449 -3.00000000
3.66111684 2.51057506 1.02487695 8 13 5556 4.55600000 1293419452 1293419452 13.00000000
3.64843726 2.50094390 -0.07720944 7 14 5557 4.42400000 1293419454 1293419454 -1.00000000
3.66053557 2.50829816 1.18901467 8 15 5558 4.59400000 1293419456 1293419456 15.00000000
1.88500452 1.28875744 -0.61184824 4 0 5564 2.36400000 1293419477 1293419477 -15.00000000
3.64367080 2.49020576 0.07703492 7 1 5565 4.41400000 1293419479 1293419479 1.00000000
2.23823571 1.52911162 -0.62581384 4 2 5566 2.78200000 1293419482 1293419482 -13.00000000
3.66648889 2.50392342 0.23268566 7 3 5567 4.44600000 1293419484 1293419484 3.00000000
2.68480921 1.83351326 -0.63195938 5 4 5567 3.31200000 1293419486 1293419486 -11.00000000
3.66456747 2.50167322 0.38819167 7 5 5568 4.45400000 1293419489 1293419489 5.00000000
3.36938000 2.29929709 -0.64607435 6 6 5569 4.13000000 1293419491 1293419491 -9.00000000
3.67497420 2.50689745 0.54621840 7 7 5570 4.48200000 1293419493 1293419493 7.00000000
3.65737081 2.49395394 -0.54353726 8 8 5571 4.46000000 1293419496 1293419496 -7.00000000
3.67374349 2.50511861 0.70426798 8 9 5571 4.50200000 1293419498 1293419498 9.00000000
3.64820361 2.48677015 -0.38627425 10 10 5572 4.43200000 1293419500 1293419500 -5.00000000
3.67964888 2.50726414 0.86550963 9 11 5573 4.53600000 1293419502 1293419502 11.00000000
3.66129184 2.49382019 -0.23216230 8 12 5574 4.43600000 1293419505 1293419505 -3.00000000
3.69680572 2.51706553 1.03252530 9 13 5575 4.59000000 1293419507 1293419507 13.00000000
3.67324185 2.50008321 -0.07755850 7 14 5576 4.44400000 1293419509 1293419509 -1.00000000
3.69395018 2.51417756 1.19729686 8 15 5576 4.62600000 1293419512 1293419512 15.00000000
1.89588583 1.28650868 -0.61391878 4 0 5584 2.37200000 1293419532 1293419532 -15.00000000
3.67550945 2.49318767 0.07752359 7 1 5585 4.44200000 1293419535 1293419535 1.00000000
2.23226929 1.51363373 -0.62266451 3 2 5586 2.76800000 1293419537 1293419537 -13.00000000
3.69008636 2.50119519 0.23362771 7 3 5587 4.46400000 1293419539 1293419539 3.00000000
2.69606829 1.82743502 -0.63310426 5 4 5587 3.31800000 1293419542 1293419542 -11.00000000
3.69472003 2.50339484 0.39045772 8 5 5588 4.48000000 1293419544 1293419544 5.00000000
3.37738538 2.28752160 -0.64607435 6 6 5589 4.13000000 1293419546 1293419546 -9.00000000
3.68863368 2.49739289 0.54694963 7 7 5590 4.48800000 1293419549 1293419549 7.00000000
3.67756176 2.48896050 -0.54524344 8 8 5591 4.47400000 1293419551 1293419551 -7.00000000
3.70580626 2.50713348 0.70864815 8 9 5592 4.53000000 1293419553 1293419553 9.00000000
3.68326521 2.49188352 -0.38906324 10 10 5592 4.46400000 1293419555 1293419555 -5.00000000
3.70789361 2.50760245 0.87008899 9 11 5593 4.56000000 1293419558 1293419558 11.00000000
3.67659307 2.48549914 -0.23258099 8 12 5594 4.44400000 1293419560 1293419560 -3.00000000
3.72494507 2.51723933 1.03792417 9 13 5595 4.61400000 1293419562 1293419562 13.00000000
3.69520259 2.49620080 -0.07783774 7 14 5596 4.46000000 1293419565 1293419565 -1.00000000
3.72875643 2.51791954 1.20557916 8 15 5597 4.65800000 1293419567 1293419567 15.00000000
1.90356970 1.28204131 -0.61495405 4 0 5604 2.37600000 1293419588 1293419588 -15.00000000
3.70409560 2.49374366 0.07794245 8 1 5605 4.46600000 1293419590 1293419590 1.00000000
2.24077272 1.50800848 -0.62356430 3 2 5606 2.77200000 1293419592 1293419592 -13.00000000
3.70708060 2.49387312 0.23415107 7 3 5607 4.47400000 1293419595 1293419595 3.00000000
2.69265723 1.81143773 -0.63081455 5 4 5607 3.30600000 1293419597 1293419597 -11.00000000
3.73319578 2.51049542 0.39359534 8 5 5608 4.51600000 1293419599 1293419599 5.00000000
3.39354682 2.28122854 -0.64763868 9 6 5609 4.14000000 1293419602 1293419602 -9.00000000
3.72204351 2.50110960 0.55060571 8 7 5610 4.51800000 1293419604 1293419604 7.00000000
3.70105815 2.48607039 -0.54743707 8 8 5611 4.49200000 1293419606 1293419606 -7.00000000
3.73213744 2.50694680 0.71208966 8 9 5611 4.55200000 1293419608 1293419608 9.00000000
3.70682788 2.48900723 -0.39063203 10 10 5612 4.48200000 1293419611 1293419611 -5.00000000
3.73944569 2.50996208 0.87543166 9 11 5613 4.58800000 1293419613 1293419613 11.00000000
3.70846605 2.48822951 -0.23404640 8 12 5614 4.47200000 1293419615 1293419615 -3.00000000
3.74018288 2.50856352 1.03972375 9 13 5615 4.62200000 1293419618 1293419618 13.00000000
3.71884203 2.49330926 -0.07815187 7 14 5616 4.47800000 1293419620 1293419620 -1.00000000
3.75954986 2.52060199 1.21282601 8 15 5616 4.68600000 1293419622 1293419622 15.00000000
1.90160894 1.27109456 -0.61288351 4 0 5624 2.36800000 1293419643 1293419643 -15.00000000
3.73938060 2.49857426 0.07850093 8 1 5625 4.49800000 1293419645 1293419645 1.00000000
2.24926400 1.50234234 -0.62446415 3 2 5626 2.77600000 1293419648 1293419648 -13.00000000
3.74233985 2.49866247 0.23582582 7 3 5627 4.50600000 1293419650 1293419650 3.00000000
2.69733095 1.80093741 -0.63043290 5 4 5627 3.30400000 1293419652 1293419652 -11.00000000
3.75519395 2.50629735 0.39498982 8 5 5628 4.53200000 1293419655 1293419655 5.00000000
3.39491630 2.26498389 -0.64638722 9 6 5629 4.13200000 1293419657 1293419657 -9.00000000
3.76213002 2.50902891 0.55523676 8 7 5630 4.55600000 1293419659 1293419659 7.00000000
3.72457886 2.48304629 -0.54963076 8 8 5631 4.51000000 1293419661 1293419661 -7.00000000
3.74787593 2.49763298 0.71334118 8 9 5632 4.56000000 1293419664 1293419664 9.00000000
3.73207331 2.48710179 -0.39237514 10 10 5632 4.50200000 1293419666 1293419666 -5.00000000
3.77596068 2.51539731 0.88191921 9 11 5633 4.62200000 1293419668 1293419668 11.00000000
3.73874021 2.48966050 -0.23540713 8 12 5634 4.49800000 1293419671 1293419671 -3.00000000
3.77649403 2.51384974 1.04737210 9 13 5635 4.65600000 1293419673 1293419673 13.00000000
3.73917627 2.48806739 -0.07839621 7 14 5636 4.49200000 1293419675 1293419675 -1.00000000
3.79289079 2.52285433 1.22059059 8 15 5637 4.71600000 1293419678 1293419678 15.00000000
1.89959490 1.26017714 -0.61081296 4 0 5644 2.36000000 1293419698 1293419698 -15.00000000
3.75807881 2.49213719 0.07871035 8 1 5645 4.51000000 1293419701 1293419701 1.00000000
2.26424003 1.50094211 -0.62716353 3 2 5646 2.78800000 1293419703 1293419703 -13.00000000
3.77601266 2.50213265 0.23739590 7 3 5647 4.53600000 1293419705 1293419705 3.00000000
2.69869137 1.78825760 -0.62928808 5 4 5647 3.29800000 1293419708 1293419708 -11.00000000
3.77222490 2.49867511 0.39586139 8 5 5648 4.54200000 1293419710 1293419710 5.00000000
3.40280175 2.25311947 -0.64638722 9 6 5649 4.13200000 1293419712 1293419712 -9.00000000
3.79403996 2.51122022 0.55864906 8 7 5650 4.58400000 1293419714 1293419714 7.00000000
3.76633430 2.49193692 -0.55450553 8 8 5651 4.55000000 1293419717 1293419717 -7.00000000
3.78743887 2.50590062 0.71928567 8 9 5651 4.59800000 1293419719 1293419719 9.00000000
3.75735021 2.48505020 -0.39411828 10 10 5652 4.52200000 1293419721 1293419721 -5.00000000
8.65195370 5.72009087 2.01608777 21 11 5653 10.56600000 1293419724 1293419724 11.00000000
3.77406812 2.49421382 -0.23708189 8 12 5654 4.53000000 1293419726 1293419726 -3.00000000
3.76619387 2.48712158 -0.07878016 7 14 5656 4.51400000 1293419731 1293419731 -1.00000000
6.23705769 4.11883211 2.00274181 9 15 5656 7.73800000 1293419733 1293419733 15.00000000
1.91366351 1.25991261 -0.61391878 4 0 5664 2.37200000 1293419754 1293419754 -15.00000000
8.23507881 5.41972923 0.17208073 13 1 5665 9.86000000 1293419756 1293419756 1.00000000
2.25969744 1.48660302 -0.62446415 3 2 5666 2.77600000 1293419758 1293419758 -13.00000000
2.71475911 1.78529894 -0.63157779 6 4 5667 3.31000000 1293419763 1293419763 -11.00000000
8.27108288 5.43722010 0.86597943 77 5 5668 9.93600000 1293419765 1293419765 5.00000000
3.41229677 2.24231267 -0.64670008 6 6 5669 4.13400000 1293419767 1293419767 -9.00000000
8.32563877 5.46892214 1.22308075 2 7 5670 10.03600000 1293419770 1293419770 7.00000000
3.79492188 2.49184966 -0.55743039 4 8 5671 4.57400000 1293419772 1293419772 -7.00000000
3.79598331 2.49159861 -0.39725587 5 10 5672 4.55800000 1293419777 1293419777 -5.00000000
8.67186832 5.68985510 2.01608777 40 11 5673 10.56600000 1293419779 1293419779 11.00000000
8.23186874 5.39910412 -0.51592785 12 12 5674 9.85800000 1293419781 1293419781 -3.00000000
8.30334377 5.44391060 2.29225135 60 13 5675 10.19000000 1293419784 1293419784 13.00000000
8.23877907 5.39952421 -0.17194110 14 14 5676 9.85200000 1293419786 1293419786 -1.00000000
6.27563381 4.11291981 2.01050639 9 15 5676 7.76800000 1293419788 1293419788 15.00000000
1.92128420 1.25533831 -0.61495405 4 0 5684 2.37600000 1293419809 1293419809 -15.00000000
8.22883415 5.37454796 0.17155716 13 1 5685 9.83000000 1293419811 1293419811 1.00000000
2.26487279 1.47870612 -0.62446415 3 2 5686 2.77600000 1293419814 1293419814 -13.00000000
8.25915051 5.39023685 0.51686990 84 3 5687 9.87600000 1293419816 1293419816 3.00000000
2.72590685 1.77903080 -0.63272262 11 4 5687 3.31600000 1293419818 1293419818 -11.00000000
8.25496960 5.38545418 0.86231893 69 5 5688 9.89400000 1293419820 1293419820 5.00000000
3.41182995 2.22499251 -0.64513576 9 6 5689 4.12400000 1293419823 1293419823 -9.00000000
8.33802605 5.43549109 1.22210574 2 7 5690 10.02800000 1293419825 1293419825 7.00000000
4.60522938 3.00096607 -0.67491245 4 8 5691 5.53800000 1293419827 1293419827 -7.00000000
7.06340742 4.60106468 -0.73751187 13 10 5692 8.46200000 1293419832 1293419832 -5.00000000
8.67686939 5.64990854 2.01265335 43 11 5693 10.54800000 1293419834 1293419834 11.00000000
8.23727322 5.36162043 -0.51509047 12 12 5694 9.84200000 1293419837 1293419837 -3.00000000
8.31086254 5.40745401 2.28910184 78 13 5695 10.17600000 1293419839 1293419839 13.00000000
8.24751854 5.36419106 -0.17173168 12 14 5696 9.84000000 1293419841 1293419841 -1.00000000
7.40089655 4.81354761 2.36560607 36 15 5696 9.14000000 1293419843 1293419843 15.00000000
1.92241263 1.24652207 -0.61391878 4 0 5704 2.37200000 1293419864 1293419864 -15.00000000
8.24083233 5.34144020 0.17141753 13 1 5705 9.82200000 1293419867 1293419867 1.00000000
2.26674962 1.46867192 -0.62356430 3 2 5706 2.77200000 1293419869 1293419869 -13.00000000
8.25444698 5.34617376 0.51540452 99 3 5707 9.84800000 1293419871 1293419871 3.00000000
2.72221303 1.76310122 -0.63043290 8 4 5707 3.30400000 1293419873 1293419873 -11.00000000
8.26033878 5.34794378 0.86092442 81 5 5708 9.87800000 1293419876 1293419876 5.00000000
3.41791749 2.21199632 -0.64482284 6 6 5709 4.12200000 1293419878 1293419878 -9.00000000
8.34194851 5.39664841 1.21991217 2 7 5710 10.01000000 1293419880 1293419880 7.00000000
4.59067297 2.96870327 -0.67125636 9 8 5711 5.50800000 1293419883 1293419883 -7.00000000
7.08611774 4.58070755 -0.73820913 13 10 5712 8.47000000 1293419887 1293419887 -5.00000000
8.68664455 5.61319304 2.01036358 43 11 5713 10.53600000 1293419890 1293419890 11.00000000
8.23916149 5.32199717 -0.51404375 12 12 5714 9.82200000 1293419892 1293419892 -3.00000000
8.29530716 5.35621214 2.27965403 75 13 5715 10.13400000 1293419894 1293419894 13.00000000
8.23931122 5.31801844 -0.17117320 12 14 5716 9.80800000 1293419896 1293419896 -1.00000000
7.42822933 4.79267359 2.36871195 40 15 5717 9.15200000 1293419899 1293419899 15.00000000
1.92003810 1.23595774 -0.61184824 4 0 5723 2.36400000 1293419920 1293419920 -15.00000000
8.24841022 5.30759096 0.17120811 13 1 5724 9.81000000 1293419922 1293419922 1.00000000
2.27488542 1.46325552 -0.62446415 3 2 5725 2.77600000 1293419924 1293419924 -13.00000000
8.25197029 5.30580950 0.51414841 99 3 5726 9.82400000 1293419926 1293419926 3.00000000
2.71483397 1.74557006 -0.62737995 9 4 5726 3.28800000 1293419929 1293419929 -11.00000000
8.25288677 5.30436325 0.85830975 81 5 5727 9.84800000 1293419931 1293419931 5.00000000
3.43520546 2.20705652 -0.64670008 6 6 5728 4.13400000 1293419933 1293419933 -9.00000000
8.34810638 5.36144686 1.21820593 2 7 5729 9.99600000 1293419936 1293419936 7.00000000
4.62220860 2.96740532 -0.67442495 4 8 5730 5.53400000 1293419938 1293419938 -7.00000000
7.08785486 4.54857492 -0.73681468 13 10 5731 8.45400000 1293419943 1293419943 -5.00000000
8.71182060 5.58859634 2.01188993 43 11 5732 10.54400000 1293419945 1293419945 11.00000000
8.23995209 5.28386450 -0.51299703 12 12 5733 9.80200000 1293419947 1293419947 -3.00000000
8.29825783 5.31920958 2.27560496 78 13 5734 10.11600000 1293419949 1293419949 13.00000000
8.22659397 5.27124739 -0.17054492 12 14 5735 9.77200000 1293419952 1293419952 -1.00000000
7.42860985 4.75993347 2.36405325 45 15 5735 9.13400000 1293419954 1293419954 15.00000000
1.92759681 1.23132801 -0.61288351 4 0 5743 2.36800000 1293419975 1293419975 -15.00000000
8.23317814 5.25724220 0.17051001 13 1 5744 9.77000000 1293419977 1293419977 1.00000000
2.28983521 1.46159673 -0.62716353 3 2 5745 2.78800000 1293419979 1293419979 -13.00000000
8.25697041 5.26837826 0.51331109 99 3 5746 9.80800000 1293419982 1293419982 3.00000000
2.73415112 1.74453104 -0.63043290 6 4 5746 3.30400000 1293419984 1293419984 -11.00000000
8.24783516 5.26052380 0.85586941 81 5 5747 9.82000000 1293419986 1293419986 5.00000000
3.44288874 2.19505191 -0.64670008 6 6 5748 4.13400000 1293419989 1293419989 -9.00000000
8.35002995 5.32160473 1.21576858 2 7 5749 9.97600000 1293419991 1293419991 7.00000000
4.64425802 2.95871878 -0.67613113 6 8 5750 5.54800000 1293419993 1293419993 -7.00000000
7.09696674 4.51952553 -0.73611742 13 10 5751 8.44600000 1293419998 1293419998 -5.00000000
8.71305847 5.54655552 2.00769234 37 11 5752 10.52200000 1293420000 1293420000 11.00000000
8.23138523 5.23791361 -0.51132232 17 12 5753 9.77000000 1293420002 1293420002 -3.00000000
8.29868793 5.27870607 2.27065587 71 13 5754 10.09400000 1293420005 1293420005 13.00000000
8.22975731 5.23284245 -0.17023078 16 14 5755 9.75400000 1293420007 1293420007 -1.00000000
7.44191933 4.73190069 2.36301780 45 15 5755 9.13000000 1293420009 1293420009 15.00000000
1.92861986 1.22252333 -0.61184824 4 0 5763 2.36400000 1293420030 1293420030 -15.00000000
8.22783184 5.21348667 0.17002134 13 1 5764 9.74200000 1293420032 1293420032 1.00000000
2.27516770 1.44108176 -0.62176472 3 2 5765 2.76400000 1293420035 1293420035 -13.00000000
8.26258469 5.23348713 0.51257837 100 3 5765 9.79400000 1293420037 1293420037 3.00000000
2.73193026 1.72972524 -0.62852484 5 4 5766 3.29400000 1293420039 1293420039 -11.00000000
8.24931145 5.22104597 0.85412627 81 5 5767 9.80000000 1293420042 1293420042 5.00000000
3.43717504 2.17457151 -0.64419711 6 6 5768 4.11800000 1293420044 1293420044 -9.00000000
8.35009956 5.28075409 1.21308744 2 7 5769 9.95400000 1293420046 1293420046 7.00000000
4.63274479 2.92869973 -0.67296249 4 8 5770 5.52200000 1293420048 1293420048 -7.00000000
7.11606836 4.49685335 -0.73646605 13 10 5771 8.45000000 1293420053 1293420053 -5.00000000
8.72406673 5.51086473 2.00578427 28 11 5772 10.51200000 1293420055 1293420055 11.00000000
8.21922112 5.18995476 -0.50943822 17 12 5773 9.73400000 1293420058 1293420058 -3.00000000
8.30882359 5.24450493 2.26840639 68 13 5774 10.08400000 1293420060 1293420060 13.00000000
8.23782539 5.19768095 -0.17002134 16 14 5775 9.74200000 1293420062 1293420062 -1.00000000
7.46002531 4.70692539 2.36353540 45 15 5775 9.13200000 1293420065 1293420065 15.00000000
1.94105184 1.22092664 -0.61443639 4 0 5783 2.37400000 1293420085 1293420085 -15.00000000
8.22905159 5.17409039 0.16967230 13 1 5784 9.72200000 1293420088 1293420088 1.00000000
2.27688432 1.43105721 -0.62086493 3 2 5785 2.76000000 1293420090 1293420090 -13.00000000
8.24450493 5.17979240 0.51027560 91 3 5786 9.75000000 1293420092 1293420092 3.00000000
2.74626350 1.72540069 -0.63043290 5 4 5786 3.30400000 1293420095 1293420095 -11.00000000
8.25230122 5.18268204 0.85255748 81 5 5787 9.78200000 1293420097 1293420097 5.00000000
3.43972588 2.15940952 -0.64325851 6 6 5788 4.11200000 1293420099 1293420099 -9.00000000
8.35334969 5.24207830 1.21089375 2 7 5789 9.93600000 1293420101 1293420101 7.00000000
4.64966583 2.91672993 -0.67393744 4 8 5790 5.53000000 1293420104 1293420104 -7.00000000
7.14016151 4.47727871 -0.73733759 13 10 5791 8.46000000 1293420108 1293420108 -5.00000000
8.21359253 5.14638615 -0.50797278 17 12 5793 9.70600000 1293420113 1293420113 -3.00000000
8.30395794 5.20098829 2.26210785 68 13 5794 10.05600000 1293420115 1293420115 13.00000000
8.23557949 5.15615988 -0.16960248 14 14 5795 9.71800000 1293420118 1293420118 -1.00000000
7.48050213 4.68160105 2.36457086 45 15 5796 9.13600000 1293420120 1293420120 15.00000000
1.94366300 1.21312082 -0.61391878 4 0 5803 2.37200000 1293420141 1293420141 -15.00000000
8.23348904 5.13686609 0.16939306 13 1 5804 9.70600000 1293420143 1293420143 1.00000000
2.29178691 1.42928803 -0.62356430 3 2 5805 2.77200000 1293420145 1293420145 -13.00000000
8.24638462 5.14291239 0.50933355 94 3 5805 9.73200000 1293420148 1293420148 3.00000000
2.74727130 1.71268809 -0.62928808 5 4 5806 3.29800000 1293420150 1293420150 -11.00000000
8.25512314 5.14436102 0.85098869 77 5 5807 9.76400000 1293420152 1293420152 5.00000000
3.45059586 2.14947820 -0.64388424 4 6 5808 4.11600000 1293420154 1293420154 -9.00000000
4.64633656 2.89208984 -0.67198753 4 8 5810 5.51400000 1293420159 1293420159 -7.00000000
7.15743828 4.45338011 -0.73751187 13 10 5811 8.46200000 1293420164 1293420164 -5.00000000
8.21793747 5.10924768 -0.50713539 17 12 5813 9.69000000 1293420168 1293420168 -3.00000000
8.29557991 5.15551233 2.25490928 72 13 5814 10.02400000 1293420171 1293420171 13.00000000
8.23314476 5.11471796 -0.16918363 14 14 5815 9.69400000 1293420173 1293420173 -1.00000000
7.49926758 4.65880823 2.36560607 45 15 5815 9.14000000 1293420175 1293420175 15.00000000
1.95117044 1.20836306 -0.61495405 4 0 5823 2.37600000 1293420196 1293420196 -15.00000000
8.22926712 5.09441137 0.16893929 13 1 5824 9.68000000 1293420198 1293420198 1.00000000
2.29344797 1.41922855 -0.62266451 3 2 5825 2.76800000 1293420200 1293420200 -13.00000000
8.25069904 5.10568762 0.50849617 84 3 5825 9.71600000 1293420203 1293420203 3.00000000
2.74989390 1.70102227 -0.62852484 5 4 5826 3.29400000 1293420205 1293420205 -11.00000000
8.24930573 5.10084391 0.84854829 77 5 5827 9.73600000 1293420207 1293420207 5.00000000
3.47152042 2.14572906 -0.64638722 4 6 5828 4.13200000 1293420210 1293420210 -9.00000000
4.67329311 2.88628459 -0.67442495 4 8 5830 5.53400000 1293420214 1293420214 -7.00000000
7.16954947 4.42627573 -0.73716325 13 10 5831 8.45800000 1293420219 1293420219 -5.00000000
8.22042370 5.07109308 -0.50619334 12 12 5833 9.67200000 1293420224 1293420224 -3.00000000
8.30191517 5.11936378 2.25176001 74 13 5834 10.01000000 1293420226 1293420226 13.00000000
8.22711658 5.07125759 -0.16869496 14 14 5835 9.66600000 1293420228 1293420228 -1.00000000
7.51055050 4.62956142 2.36405325 42 15 5835 9.13400000 1293420230 1293420230 15.00000000
1.93562531 1.18940806 -0.60874242 4 0 5843 2.35200000 1293420251 1293420251 -15.00000000
8.22825623 5.05414200 0.16855533 13 1 5844 9.65800000 1293420253 1293420253 1.00000000
2.31831622 1.42345023 -0.62806332 3 2 5845 2.79200000 1293420256 1293420256 -13.00000000
8.25063324 5.06392097 0.50734478 81 3 5846 9.69400000 1293420258 1293420258 3.00000000
2.75246835 1.68935907 -0.62776160 5 4 5846 3.29000000 1293420260 1293420260 -11.00000000
8.23988914 5.05534697 0.84575933 77 5 5847 9.70400000 1293420263 1293420263 5.00000000
3.47225356 2.12946725 -0.64513576 4 6 5848 4.12400000 1293420265 1293420265 -9.00000000
4.68333960 2.86995411 -0.67442495 4 8 5850 5.53400000 1293420270 1293420270 -7.00000000
7.18155861 4.39914083 -0.73681468 13 10 5851 8.45400000 1293420274 1293420274 -5.00000000
8.22785378 5.03611135 -0.50556535 12 12 5853 9.66000000 1293420279 1293420279 -3.00000000
8.29812431 5.07713175 2.24591136 75 13 5854 9.98400000 1293420281 1293420281 13.00000000
8.22429657 5.02998877 -0.16827610 14 14 5855 9.64200000 1293420283 1293420283 -1.00000000
7.52417183 4.59998751 2.36301780 42 15 5856 9.13000000 1293420286 1293420286 15.00000000
1.94636321 1.18666673 -0.61081296 4 0 5863 2.36000000 1293420306 1293420306 -15.00000000
8.21852779 5.00873852 0.16799687 13 1 5864 9.62600000 1293420309 1293420309 1.00000000
2.30662847 1.40521061 -0.62356430 3 2 5865 2.77200000 1293420311 1293420311 -13.00000000
8.25202942 5.02718115 0.50640273 84 3 5865 9.67600000 1293420313 1293420313 3.00000000
2.76673245 1.68484640 -0.62966967 5 4 5866 3.30000000 1293420316 1293420316 -11.00000000
8.24216843 5.01723003 0.84419054 81 5 5867 9.68600000 1293420318 1293420318 5.00000000
3.47629070 2.11528015 -0.64450997 6 6 5868 4.12000000 1293420320 1293420320 -9.00000000
4.68824053 2.85049486 -0.67369372 4 8 5870 5.52800000 1293420325 1293420325 -7.00000000
6.67587614 4.05740070 -0.68347532 4 10 5871 7.84200000 1293420330 1293420330 -5.00000000
8.22319126 4.99388313 -0.50420463 17 12 5873 9.63400000 1293420334 1293420334 -3.00000000
8.30580139 5.04206753 2.24321198 80 13 5874 9.97200000 1293420336 1293420336 13.00000000
8.22470951 4.99087620 -0.16792706 14 14 5875 9.62200000 1293420339 1293420339 -1.00000000
7.54348660 4.57569885 2.36405325 42 15 5876 9.13400000 1293420341 1293420341 15.00000000
1.95669198 1.18454814 -0.61288351 4 0 5881 2.36800000 1293420362 1293420362 -15.00000000
8.22737885 4.97875357 0.16785724 13 1 5882 9.61800000 1293420364 1293420364 1.00000000
2.31103158 1.39795721 -0.62356430 3 2 5883 2.77200000 1293420366 1293420366 -13.00000000
8.24727440 4.98882675 0.50514662 76 3 5883 9.65200000 1293420369 1293420369 3.00000000
2.78209186 1.68224120 -0.63195938 5 4 5884 3.31200000 1293420371 1293420371 -11.00000000
8.24595451 4.98409748 0.84297037 81 5 5885 9.67200000 1293420373 1293420373 5.00000000
3.47277427 2.09821963 -0.64263278 4 6 5886 4.10800000 1293420376 1293420376 -9.00000000
4.70057154 2.83780432 -0.67418122 4 8 5888 5.53200000 1293420380 1293420380 -7.00000000
6.69882488 4.04258442 -0.68452120 8 10 5889 7.85400000 1293420385 1293420385 -5.00000000
8.31289196 5.01465702 1.88710093 3 11 5890 9.89000000 1293420387 1293420387 11.00000000
8.22173500 4.95771074 -0.50315785 17 12 5891 9.61400000 1293420389 1293420389 -3.00000000
8.28822041 4.99582911 2.23421383 80 13 5892 9.93200000 1293420392 1293420392 13.00000000
8.22835827 4.95778847 -0.16768272 16 14 5893 9.60800000 1293420394 1293420394 -1.00000000
7.55782413 4.55197763 2.36405325 42 15 5894 9.13400000 1293420396 1293420396 15.00000000
1.96412718 1.17970014 -0.61391878 4 0 5901 2.37200000 1293420417 1293420417 -15.00000000
8.22413445 4.93765211 0.16743839 13 1 5902 9.59400000 1293420419 1293420419 1.00000000
2.30253005 1.38185918 -0.61996508 3 2 5903 2.75600000 1293420422 1293420422 -13.00000000
8.22525024 4.93636942 0.50273919 49 3 5903 9.60600000 1293420424 1293420424 3.00000000
2.77279520 1.66342986 -0.62852484 5 4 5904 3.29400000 1293420426 1293420426 -11.00000000
8.24963188 4.94708586 0.84157586 85 5 5905 9.65600000 1293420429 1293420429 5.00000000
3.49024320 2.09217834 -0.64450997 4 6 5906 4.12000000 1293420431 1293420431 -9.00000000
4.68830967 2.80811858 -0.67101258 4 8 5908 5.50600000 1293420436 1293420436 -7.00000000
8.33596992 4.99292755 1.53900230 2 9 5908 9.83800000 1293420438 1293420438 9.00000000
6.69922018 4.01098871 -0.68312669 12 10 5909 7.83800000 1293420440 1293420440 -5.00000000
8.32360744 4.98157597 1.88557446 3 11 5910 9.88200000 1293420442 1293420442 11.00000000
8.22699356 4.92180395 -0.50242519 12 12 5911 9.60000000 1293420445 1293420445 -3.00000000
8.28219414 4.95286512 2.22791529 76 13 5912 9.90400000 1293420447 1293420447 13.00000000
8.22330093 4.91569757 -0.16722895 16 14 5913 9.58200000 1293420449 1293420449 -1.00000000
6.89374542 4.11928797 2.15182161 13 15 5914 8.31400000 1293420452 1293420452 15.00000000
1.96511829 1.17051613 -0.61288351 4 0 5922 2.36800000 1293420472 1293420472 -15.00000000
8.23186779 4.90133810 0.16722895 13 1 5923 9.58200000 1293420475 1293420475 1.00000000
2.33102345 1.38736415 -0.62626374 3 2 5924 2.78400000 1293420477 1293420477 -13.00000000
8.22440910 4.89495277 0.50158781 36 3 5924 9.58400000 1293420479 1293420479 3.00000000
2.77887344 1.65325594 -0.62852484 5 4 5925 3.29400000 1293420482 1293420482 -11.00000000
8.24715900 4.90459538 0.83948410 85 5 5926 9.63200000 1293420484 1293420484 5.00000000
3.50467992 2.08340931 -0.64576149 4 6 5927 4.12800000 1293420486 1293420486 -9.00000000
4.69174385 2.78686118 -0.67003763 4 8 5929 5.49800000 1293420491 1293420491 -7.00000000
6.68646574 3.97013283 -0.68033773 17 10 5930 7.80600000 1293420495 1293420495 -5.00000000
8.36206913 4.96305943 1.89015388 3 11 5931 9.90600000 1293420498 1293420498 11.00000000
8.22092915 4.87735033 -0.50095975 12 12 5932 9.57200000 1293420500 1293420500 -3.00000000
8.28855801 4.91551781 2.22476602 74 13 5933 9.89000000 1293420502 1293420502 13.00000000
8.21890068 4.87226820 -0.16677520 12 14 5934 9.55600000 1293420505 1293420505 -1.00000000
7.58941841 4.49910355 2.36405325 33 15 5934 9.13400000 1293420507 1293420507 15.00000000
1.95921314 1.15775251 -0.60977769 4 0 5942 2.35600000 1293420528 1293420528 -15.00000000
8.22482204 4.85833502 0.16674030 13 1 5943 9.55400000 1293420530 1293420530 1.00000000
2.32578373 1.37327397 -0.62356430 3 2 5944 2.77200000 1293420532 1293420532 -13.00000000
8.22940636 4.85910606 0.50085509 23 3 5944 9.57000000 1293420535 1293420535 3.00000000
2.78800893 1.64554155 -0.62928808 5 4 5945 3.29800000 1293420537 1293420537 -11.00000000
8.23505688 4.85856676 0.83652079 89 5 5946 9.59800000 1293420539 1293420539 5.00000000
3.51533413 2.07316995 -0.64638722 4 6 5947 4.13200000 1293420541 1293420541 -9.00000000
8.31260967 4.90041065 1.18481374 6 7 5948 9.72200000 1293420544 1293420544 7.00000000
4.70999432 2.77550602 -0.67125636 6 8 5949 5.50800000 1293420546 1293420546 -7.00000000
8.35227394 4.91790199 1.88404799 3 11 5951 9.87400000 1293420553 1293420553 11.00000000
8.22585583 4.84153223 -0.50022709 17 12 5952 9.55800000 1293420555 1293420555 -3.00000000
8.28886986 4.87667370 2.22026682 74 13 5953 9.87000000 1293420558 1293420558 13.00000000
8.22034454 4.83442593 -0.16646105 14 14 5954 9.53800000 1293420560 1293420560 -1.00000000
7.60086155 4.46831989 2.36250019 42 15 5955 9.12800000 1293420562 1293420562 15.00000000
1.96783948 1.15452456 -0.61133057 4 0 5960 2.36200000 1293420583 1293420583 -15.00000000
8.21761990 4.81932116 0.16628653 13 1 5961 9.52800000 1293420585 1293420585 1.00000000
2.33681107 1.36990273 -0.62536395 3 2 5962 2.78000000 1293420588 1293420588 -13.00000000
8.23858166 4.82775068 0.50043643 21 3 5963 9.56200000 1293420590 1293420590 3.00000000
2.79316473 1.63677466 -0.62928808 5 4 5963 3.29800000 1293420592 1293420592 -11.00000000
8.23308849 4.82260132 0.83477771 81 5 5964 9.57800000 1293420594 1293420594 5.00000000
3.50819254 2.05413103 -0.64388424 4 6 5965 4.11600000 1293420597 1293420597 -9.00000000
8.34680939 4.88530159 1.18749487 13 7 5966 9.74400000 1293420599 1293420599 7.00000000
4.72554398 2.76470518 -0.67223132 6 8 5967 5.51600000 1293420601 1293420601 -7.00000000
8.21515846 4.80055141 -0.49865699 17 12 5970 9.52800000 1293420611 1293420611 -3.00000000
8.29573631 4.84569502 2.21801734 66 13 5971 9.86000000 1293420613 1293420613 13.00000000
8.22167683 4.80051088 -0.16618182 14 14 5972 9.52200000 1293420615 1293420615 -1.00000000
