# .PCD v0.7 - Point Cloud Data file format
VERSION 0.7
FIELDS x y z intensity laser_id azimuth distance_m adjustedtime timestamp vertical_angle
SIZE 4 4 4 1 1 2 8 8 4 8
TYPE F F F U U U F U U F
COUNT 1 1 1 1 1 1 1 1 1 1
WIDTH 524
HEIGHT 1
VIEWPOINT 0 0 0 1 0 0 0
POINTS 524
DATA ascii
-1.51018322 1.44518089 -0.56008440 4 0 31374 2.16400000 1411590794 1411590794 -15.00000000
-1.75229323 1.67804205 -0.56012815 3 2 31376 2.49000000 1411590798 1411590798 -13.00000000
-2.06276846 1.97605145 -0.55525416 3 4 31377 2.91000000 1411590803 1411590803 -11.00000000
-2.53540468 2.43051648 -0.55628097 3 6 31379 3.55600000 1411590808 1411590808 -9.00000000
-3.34207106 3.20605087 -0.56864238 8 8 31381 4.66600000 1411590812 1411590812 -7.00000000
-4.45207977 4.27237511 -0.53984267 3 10 31382 6.19400000 1411590817 1411590817 -5.00000000
-7.22737360 6.94049406 -0.52513897 4 12 31384 10.03400000 1411590821 1411590821 -3.00000000
-8.07511520 7.75729609 2.58513761 42 13 31385 11.49200000 1411590824 1411590824 13.00000000
-6.93262625 6.66209936 2.57628489 45 15 31386 9.95400000 1411590828 1411590828 15.00000000
-1.50259995 1.44750035 -0.55904913 4 0 31393 2.16000000 1411590849 1411590849 -15.00000000
-1.74391305 1.68113863 -0.55922830 3 2 31395 2.48600000 1411590854 1411590854 -13.00000000
-2.06468344 1.99105787 -0.55754387 3 4 31396 2.92200000 1411590858 1411590858 -11.00000000
-2.53017378 2.44165421 -0.55690670 3 6 31398 3.56000000 1411590863 1411590863 -9.00000000
-3.26145124 3.14954686 -0.55669916 4 8 31400 4.56800000 1411590867 1411590867 -7.00000000
-4.46511412 4.31341696 -0.54315460 3 10 31401 6.23200000 1411590872 1411590872 -5.00000000
-7.21724176 6.97691631 -0.52608103 4 12 31403 10.05200000 1411590877 1411590877 -3.00000000
-8.04374313 7.77861261 2.58333802 40 13 31404 11.48400000 1411590879 1411590879 13.00000000
-6.91188431 6.68639565 2.57680249 45 15 31405 9.95600000 1411590884 1411590884 15.00000000
-1.50447118 1.45946229 -0.56163734 4 0 31413 2.17000000 1411590904 1411590904 -15.00000000
-1.73803413 1.68721581 -0.55922830 3 2 31415 2.48600000 1411590909 1411590909 -13.00000000
-2.05490375 1.99551737 -0.55678064 3 4 31416 2.91800000 1411590914 1411590914 -11.00000000
-2.52588534 2.45460129 -0.55784529 1 6 31418 3.56600000 1411590918 1411590918 -9.00000000
-3.24332166 3.15399265 -0.55548048 2 8 31420 4.55800000 1411590923 1411590923 -7.00000000
-4.45288658 4.33175516 -0.54350322 3 10 31421 6.23600000 1411590927 1411590927 -5.00000000
-7.19856834 7.00763941 -0.52649975 4 12 31423 10.06000000 1411590932 1411590932 -3.00000000
-8.01095772 7.80120468 2.58153820 41 13 31424 11.47600000 1411590934 1411590934 13.00000000
-6.89148140 6.71572876 2.57835531 45 15 31426 9.96200000 1411590939 1411590939 15.00000000
-1.49245799 1.45795512 -0.55904913 4 0 31433 2.16000000 1411590960 1411590960 -15.00000000
-1.73770809 1.69872141 -0.56102794 3 2 31435 2.49400000 1411590964 1411590964 -13.00000000
-2.04792571 2.00267816 -0.55678064 3 4 31436 2.91800000 1411590969 1411590969 -11.00000000
-2.52718472 2.47307467 -0.56003541 1 6 31438 3.58000000 1411590973 1411590973 -9.00000000
-3.23371077 3.16668367 -0.55572420 2 8 31440 4.56000000 1411590978 1411590978 -7.00000000
-4.44058514 4.35006094 -0.54385185 3 10 31441 6.24000000 1411590983 1411590983 -5.00000000
-7.19403124 7.05229855 -0.52796513 4 12 31443 10.08800000 1411590987 1411590987 -3.00000000
-7.97811174 7.82366276 2.57973862 40 13 31444 11.46800000 1411590990 1411590990 13.00000000
-6.86503601 6.73448610 2.57680249 42 15 31445 9.95600000 1411590994 1411590994 15.00000000
-1.48735964 1.46315587 -0.55904913 4 0 31453 2.16000000 1411591015 1411591015 -15.00000000
-1.73454535 1.70751095 -0.56192774 3 2 31455 2.49800000 1411591019 1411591019 -13.00000000
-2.03812480 2.00705957 -0.55601740 3 4 31456 2.91400000 1411591024 1411591024 -11.00000000
-2.51572275 2.47910810 -0.55940962 1 6 31458 3.57600000 1411591029 1411591029 -9.00000000
-3.23535824 3.19049668 -0.55791783 2 8 31460 4.57800000 1411591033 1411591033 -7.00000000
-4.42111826 4.36133718 -0.54332888 7 10 31461 6.23400000 1411591038 1411591038 -5.00000000
-7.19211197 7.09981728 -0.52963990 4 12 31463 10.12000000 1411591043 1411591043 -3.00000000
-7.95075369 7.85146427 2.57973862 41 13 31464 11.46800000 1411591045 1411591045 13.00000000
-6.83324051 6.75026274 2.57369661 42 15 31465 9.94400000 1411591049 1411591049 15.00000000
-1.48275566 1.46782136 -0.55904913 4 0 31471 2.16000000 1411591070 1411591070 -15.00000000
-1.72917247 1.71295178 -0.56192774 3 2 31473 2.49800000 1411591075 1411591075 -13.00000000
-2.04296565 2.02450776 -0.55907035 3 4 31474 2.93000000 1411591079 1411591079 -11.00000000
-2.50511670 2.48421717 -0.55878389 1 6 31476 3.57200000 1411591084 1411591084 -9.00000000
-3.20981956 3.18526411 -0.55523676 2 8 31478 4.55600000 1411591089 1411591089 -7.00000000
-4.41870689 4.38643408 -0.54472339 3 10 31479 6.25000000 1411591093 1411591093 -5.00000000
-7.17543936 7.12800741 -0.53005856 4 12 31481 10.12800000 1411591098 1411591098 -3.00000000
-7.93157768 7.88189793 2.58153820 42 13 31482 11.47600000 1411591100 1411591100 13.00000000
-6.81218815 6.77424765 2.57421422 45 15 31484 9.94600000 1411591105 1411591105 15.00000000
-1.48583210 1.48117149 -0.56215495 4 0 31491 2.17200000 1411591125 1411591125 -15.00000000
-1.71766400 1.71347213 -0.56012815 3 2 31493 2.49000000 1411591130 1411591130 -13.00000000
-2.03588629 2.03162670 -0.55907035 2 4 31494 2.93000000 1411591135 1411591135 -11.00000000
-2.50621438 2.50271726 -0.56097400 1 6 31496 3.58600000 1411591139 1411591139 -9.00000000
-3.20851040 3.20627117 -0.55694288 2 8 31498 4.57000000 1411591144 1411591144 -7.00000000
-4.40055037 4.39901447 -0.54437476 7 10 31499 6.24600000 1411591149 1411591149 -5.00000000
-7.17169476 7.17419863 -0.53162867 4 12 31501 10.15800000 1411591153 1411591153 -3.00000000
-7.89299631 7.89850855 2.57793903 44 13 31502 11.46000000 1411591155 1411591155 13.00000000
-6.78713512 6.79661846 2.57369661 42 15 31504 9.94400000 1411591160 1411591160 15.00000000
-1.48337948 1.48908627 -0.56319022 4 0 31511 2.17600000 1411591181 1411591181 -15.00000000
-1.71992147 1.72774398 -0.56282753 3 2 31513 2.50200000 1411591185 1411591185 -13.00000000
-2.03432155 2.04428744 -0.56059682 3 4 31514 2.93800000 1411591190 1411591190 -11.00000000
-2.48492670 2.49884415 -0.55815816 1 6 31516 3.56800000 1411591195 1411591195 -9.00000000
-3.19170189 3.21181917 -0.55596793 2 8 31518 4.56200000 1411591199 1411591199 -7.00000000
-4.41746378 4.44685888 -0.54838395 3 10 31519 6.29200000 1411591204 1411591204 -5.00000000
-7.19726372 7.25021696 -0.53539681 4 12 31521 10.23000000 1411591208 1411591208 -3.00000000
-7.85027790 7.91079664 2.57299018 47 13 31522 11.43800000 1411591211 1411591211 13.00000000
-6.77153063 6.82849884 2.57680249 45 15 31524 9.95600000 1411591215 1411591215 15.00000000
-1.47273815 1.48876154 -0.56111968 4 0 31531 2.16800000 1411591236 1411591236 -15.00000000
-1.71114004 1.73096538 -0.56192774 3 2 31533 2.49800000 1411591241 1411591241 -13.00000000
-2.02441335 2.04858327 -0.55983359 3 4 31534 2.93400000 1411591245 1411591245 -11.00000000
-2.49562097 2.52718067 -0.56253833 1 6 31536 3.59600000 1411591250 1411591250 -9.00000000
-3.18465400 3.22717953 -0.55669916 2 8 31538 4.56800000 1411591255 1411591255 -7.00000000
-4.38932133 4.44948626 -0.54681516 3 10 31539 6.27400000 1411591259 1411591259 -5.00000000
-7.21678019 7.32081079 -0.53874636 4 12 31541 10.29400000 1411591264 1411591264 -3.00000000
-7.83082342 7.94647884 2.57568955 46 13 31542 11.45000000 1411591266 1411591266 13.00000000
-6.73816538 6.84245872 2.57317901 45 15 31544 9.94200000 1411591271 1411591271 15.00000000
-1.46211720 1.48838079 -0.55904913 4 0 31551 2.16000000 1411591291 1411591291 -15.00000000
-1.70781767 1.73970914 -0.56282753 3 2 31553 2.50200000 1411591296 1411591296 -13.00000000
-2.00899959 2.04722977 -0.55754387 3 4 31554 2.92200000 1411591301 1411591301 -11.00000000
-2.47433662 2.52318311 -0.55972254 1 6 31556 3.57800000 1411591305 1411591305 -9.00000000
-3.17753792 3.24252987 -0.55743039 2 8 31558 4.57400000 1411591310 1411591310 -7.00000000
-4.37515736 4.46620369 -0.54698944 3 10 31559 6.27600000 1411591314 1411591314 -5.00000000
-7.21493340 7.37022066 -0.54052573 4 12 31561 10.32800000 1411591319 1411591319 -3.00000000
-7.80167437 7.97237253 2.57523966 53 13 31562 11.44800000 1411591321 1411591321 13.00000000
-6.71138477 6.86062288 2.57162595 45 15 31563 9.93600000 1411591326 1411591326 15.00000000
-1.46230888 1.49900687 -0.56111968 4 0 31571 2.16800000 1411591347 1411591347 -15.00000000
-1.69629335 1.74007821 -0.56102794 3 2 31573 2.49400000 1411591351 1411591351 -13.00000000
-2.01006222 2.06266618 -0.55983359 3 4 31574 2.93400000 1411591356 1411591356 -11.00000000
-2.46689200 2.53322005 -0.56003541 3 6 31576 3.58000000 1411591360 1411591360 -9.00000000
-3.15789342 3.24506593 -0.55596793 2 8 31578 4.56200000 1411591365 1411591365 -7.00000000
-4.36092997 4.48287678 -0.54716372 3 10 31579 6.27800000 1411591370 1411591370 -5.00000000
-7.13904476 7.34380484 -0.53675759 8 12 31581 10.25600000 1411591374 1411591374 -3.00000000
-7.77923059 8.00514698 2.57703924 55 13 31582 11.45600000 1411591377 1411591377 13.00000000
-6.68619442 6.88517523 2.57162595 42 15 31584 9.93600000 1411591381 1411591381 15.00000000
-1.46539629 1.51217175 -0.56422549 4 0 31590 2.18000000 1411591402 1411591402 -15.00000000
-1.69322515 1.74849367 -0.56192774 3 2 31592 2.49800000 1411591407 1411591407 -13.00000000
-2.01140428 2.07778406 -0.56212330 3 4 31593 2.94600000 1411591411 1411591411 -11.00000000
-2.45847821 2.54138660 -0.56003541 3 6 31595 3.58000000 1411591416 1411591416 -9.00000000
-3.16229177 3.27121949 -0.55864906 2 8 31597 4.58400000 1411591420 1411591420 -7.00000000
-4.34465551 4.49588108 -0.54698944 3 10 31598 6.27600000 1411591425 1411591425 -5.00000000
-7.11326504 7.36600161 -0.53665292 8 12 31600 10.25400000 1411591430 1411591430 -3.00000000
-7.74587440 8.02388954 2.57478976 53 13 31601 11.44600000 1411591432 1411591432 13.00000000
-6.66989708 6.91170692 2.57369661 42 15 31602 9.94400000 1411591437 1411591437 15.00000000
-1.46278799 1.52006161 -0.56526077 4 0 31610 2.18400000 1411591457 1411591457 -15.00000000
-1.68981290 1.75720274 -0.56282753 3 2 31612 2.50200000 1411591462 1411591462 -13.00000000
-1.99597573 2.07630038 -0.55983359 3 4 31613 2.93400000 1411591466 1411591466 -11.00000000
-2.45369744 2.55422640 -0.56097400 1 6 31615 3.58600000 1411591471 1411591471 -9.00000000
-3.15085387 3.28223825 -0.55864906 2 8 31617 4.58400000 1411591476 1411591476 -7.00000000
-4.35928488 4.54264545 -0.55082428 7 10 31618 6.32000000 1411591480 1411591480 -5.00000000
-7.13727570 7.44268227 -0.54042107 8 12 31620 10.32600000 1411591485 1411591485 -3.00000000
-7.71377277 8.04665852 2.57344007 55 13 31621 11.44000000 1411591487 1411591487 13.00000000
-6.64986515 6.94168711 2.57576704 45 15 31623 9.95200000 1411591492 1411591492 15.00000000
-1.44920027 1.51703143 -0.56215495 4 0 31631 2.17200000 1411591513 1411591513 -15.00000000
-1.68066990 1.76056528 -0.56192774 3 2 31633 2.49800000 1411591517 1411591517 -13.00000000
-1.98021996 2.07508016 -0.55754387 3 4 31634 2.92200000 1411591522 1411591522 -11.00000000
-2.45658851 2.57606864 -0.56378978 1 6 31636 3.60400000 1411591526 1411591526 -9.00000000
-3.14701939 3.30238700 -0.56011152 2 8 31638 4.59600000 1411591531 1411591531 -7.00000000
-4.34123182 4.55714989 -0.55065000 3 10 31639 6.31800000 1411591536 1411591536 -5.00000000
-7.27520037 7.64238358 -0.55298173 12 12 31641 10.56600000 1411591540 1411591540 -3.00000000
-7.68422842 8.07487679 2.57344007 56 13 31642 11.44000000 1411591543 1411591543 13.00000000
-6.61760473 6.95645905 2.57266140 42 15 31643 9.94000000 1411591547 1411591547 15.00000000
-1.44123685 1.51927781 -0.56111968 4 0 31651 2.16800000 1411591568 1411591568 -15.00000000
-1.68523955 1.77773523 -0.56552696 4 2 31653 2.51400000 1411591572 1411591572 -13.00000000
-1.98781908 2.09765530 -0.56174171 3 4 31654 2.94400000 1411591577 1411591577 -11.00000000
-2.43807364 2.57458782 -0.56159973 1 6 31656 3.59000000 1411591582 1411591582 -9.00000000
-3.13410830 3.31191015 -0.55986774 2 8 31658 4.59400000 1411591586 1411591586 -7.00000000
-4.31982136 4.56648636 -0.54995275 3 10 31659 6.31000000 1411591591 1411591591 -5.00000000
-7.19085360 7.60677338 -0.54858547 12 12 31661 10.48200000 1411591595 1411591595 -3.00000000
-7.65331793 8.09881783 2.57254028 56 13 31662 11.43600000 1411591598 1411591598 13.00000000
-6.58145237 6.96943092 2.56852031 42 15 31664 9.92400000 1411591602 1411591602 15.00000000
-1.44149041 1.52967250 -0.56319022 4 0 31670 2.17600000 1411591623 1411591623 -15.00000000
-1.66864729 1.77196431 -0.56192774 3 2 31672 2.49800000 1411591628 1411591628 -13.00000000
-1.97816074 2.10137653 -0.56097847 3 4 31673 2.94000000 1411591632 1411591632 -11.00000000
-2.42140174 2.57402587 -0.55972254 1 6 31675 3.57800000 1411591637 1411591637 -9.00000000
-3.13126636 3.33096313 -0.56133020 2 8 31677 4.60600000 1411591642 1411591642 -7.00000000
-4.31966305 4.59675694 -0.55187017 7 10 31678 6.33200000 1411591646 1411591646 -5.00000000
-7.11500216 7.57670784 -0.54471260 8 12 31680 10.40800000 1411591651 1411591651 -3.00000000
-7.62641954 8.12415314 2.57254028 59 13 31681 11.43600000 1411591653 1411591653 13.00000000
-6.56216860 6.99288988 2.56955552 40 15 31682 9.92800000 1411591658 1411591658 15.00000000
-1.44142210 1.54033720 -0.56526077 4 0 31690 2.18400000 1411591678 1411591678 -15.00000000
-1.67043793 1.78631830 -0.56462717 3 2 31692 2.51000000 1411591683 1411591683 -13.00000000
-1.97885764 2.11687398 -0.56326813 3 4 31693 2.95200000 1411591688 1411591688 -11.00000000
-2.41375041 2.58390594 -0.56003541 1 6 31695 3.58000000 1411591692 1411591692 -9.00000000
-3.11420155 3.33606863 -0.56035525 2 8 31697 4.59800000 1411591697 1411591697 -7.00000000
-4.29951286 4.60743761 -0.55134726 3 10 31698 6.32600000 1411591701 1411591701 -5.00000000
-7.87441874 8.44132614 2.24391389 3 11 31699 11.76000000 1411591704 1411591704 11.00000000
-7.05037165 7.56059790 -0.54178184 8 12 31700 10.35200000 1411591706 1411591706 -3.00000000
-7.59004164 8.14217186 2.56984091 59 13 31701 11.42400000 1411591708 1411591708 13.00000000
-6.54176140 7.02254868 2.57162595 42 15 31703 9.93600000 1411591713 1411591713 15.00000000
-1.43866658 1.54818964 -0.56629604 4 0 31710 2.18800000 1411591734 1411591734 -15.00000000
-1.65888822 1.78642642 -0.56282753 3 2 31712 2.50200000 1411591738 1411591738 -13.00000000
-1.96344233 2.11513543 -0.56097847 3 4 31713 2.94000000 1411591743 1411591743 -11.00000000
-2.42352390 2.61259079 -0.56441557 1 6 31715 3.60800000 1411591748 1411591748 -9.00000000
-3.09444046 3.33818412 -0.55889279 2 8 31717 4.58600000 1411591752 1411591752 -7.00000000
-4.30236292 4.64287710 -0.55378759 3 10 31718 6.35400000 1411591757 1411591757 -5.00000000
-7.01850891 7.57930040 -0.54136312 4 12 31720 10.34400000 1411591761 1411591761 -3.00000000
-7.55363131 8.16003609 2.56714153 55 13 31721 11.41200000 1411591764 1411591764 13.00000000
-6.51581383 7.04136753 2.57059073 42 15 31722 9.93200000 1411591768 1411591768 15.00000000
-1.42146266 1.54042435 -0.56163734 4 0 31730 2.17000000 1411591789 1411591789 -15.00000000
-1.66056859 1.80080187 -0.56552696 3 2 31732 2.51400000 1411591794 1411591794 -13.00000000
-1.95338583 2.11908913 -0.56021523 2 4 31733 2.93600000 1411591798 1411591798 -11.00000000
-2.41840458 2.62539315 -0.56535417 1 6 31735 3.61400000 1411591803 1411591803 -9.00000000
-3.09218025 3.35918903 -0.56059897 2 8 31737 4.60000000 1411591807 1411591807 -7.00000000
-4.29287529 4.66519785 -0.55465913 3 10 31738 6.36400000 1411591812 1411591812 -5.00000000
-7.02039957 7.63462687 -0.54356122 8 12 31740 10.38600000 1411591817 1411591817 -3.00000000
-7.52510118 8.18635368 2.56714153 59 13 31741 11.41200000 1411591819 1411591819 13.00000000
-6.48734856 7.06235647 2.56955552 45 15 31743 9.92800000 1411591824 1411591824 15.00000000
-1.41711211 1.54704845 -0.56215495 4 0 31751 2.17200000 1411591844 1411591844 -15.00000000
-1.65132558 1.80400109 -0.56462717 3 2 31753 2.51000000 1411591849 1411591849 -13.00000000
-1.96150994 2.14361501 -0.56479460 2 4 31754 2.96000000 1411591854 1411591854 -11.00000000
-2.39276958 2.61674595 -0.56159973 1 6 31756 3.59000000 1411591858 1411591858 -9.00000000
-3.09189892 3.38368869 -0.56279260 2 8 31758 4.61800000 1411591863 1411591863 -7.00000000
-4.28381014 4.68972683 -0.55570501 3 10 31759 6.37600000 1411591867 1411591867 -5.00000000
-7.00314188 7.67210770 -0.54439861 8 12 31761 10.40200000 1411591872 1411591872 -3.00000000
-7.49504614 8.21387959 2.56714153 56 13 31762 11.41200000 1411591874 1411591874 13.00000000
-6.46005297 7.08210421 2.56852031 42 15 31763 9.92400000 1411591879 1411591879 15.00000000
-1.41690290 1.55770206 -0.56422549 4 0 31771 2.18000000 1411591900 1411591900 -15.00000000
-1.64239681 1.80687022 -0.56372732 3 2 31773 2.50600000 1411591904 1411591904 -13.00000000
-1.95401537 2.15044904 -0.56479460 3 4 31774 2.96000000 1411591909 1411591909 -11.00000000
-2.39026046 2.63239455 -0.56316406 1 6 31776 3.60000000 1411591913 1411591913 -9.00000000
-3.08407068 3.39887118 -0.56352383 2 8 31778 4.62400000 1411591918 1411591918 -7.00000000
-4.26875257 4.70612717 -0.55587935 3 10 31779 6.37800000 1411591923 1411591923 -5.00000000
-6.97229481 7.69206715 -0.54408461 4 12 31781 10.39600000 1411591927 1411591927 -3.00000000
-7.46894598 8.24287987 2.56804132 57 13 31782 11.41600000 1411591930 1411591930 13.00000000
-6.43529224 7.10461044 2.56852031 40 15 31783 9.92400000 1411591934 1411591934 15.00000000
-1.41431987 1.56525886 -0.56526077 4 0 31790 2.18400000 1411591955 1411591955 -15.00000000
-1.63117206 1.80652118 -0.56192774 3 2 31792 2.49800000 1411591960 1411591960 -13.00000000
-1.95476627 2.16566110 -0.56708431 2 4 31793 2.97200000 1411591964 1411591964 -11.00000000
-2.37490273 2.63297224 -0.56159973 1 6 31795 3.59000000 1411591969 1411591969 -9.00000000
-3.07809901 3.41497755 -0.56449878 2 8 31797 4.63200000 1411591973 1411591973 -7.00000000
-4.27046108 4.73949909 -0.55814540 7 10 31798 6.40400000 1411591978 1411591978 -5.00000000
-6.97748613 7.74928379 -0.54649204 4 12 31800 10.44200000 1411591983 1411591983 -3.00000000
-7.43244457 8.25746346 2.56489182 53 13 31801 11.40200000 1411591985 1411591985 13.00000000
-6.41428137 7.12878418 2.56955552 40 15 31802 9.92800000 1411591989 1411591989 15.00000000
-1.40755737 1.56874835 -0.56474316 4 0 31810 2.18200000 1411592010 1411592010 -15.00000000
-1.62745810 1.81510592 -0.56282753 3 2 31812 2.50200000 1411592015 1411592015 -13.00000000
-1.93933260 2.16369963 -0.56479460 3 4 31813 2.96000000 1411592019 1411592019 -11.00000000
-2.38151264 2.65890360 -0.56535417 1 6 31815 3.61400000 1411592024 1411592024 -9.00000000
-3.05424452 3.41238904 -0.56230515 2 8 31817 4.61400000 1411592029 1411592029 -7.00000000
-4.25521946 4.75586176 -0.55831969 7 10 31818 6.40600000 1411592033 1411592033 -5.00000000
-6.96237469 7.78699255 -0.54743409 4 12 31820 10.46000000 1411592038 1411592038 -3.00000000
-7.37240791 8.24848652 2.55409431 21 13 31821 11.35400000 1411592040 1411592040 13.00000000
-6.38553619 7.14936399 2.56852031 42 15 31823 9.92400000 1411592045 1411592045 15.00000000
-1.40721333 1.57942164 -0.56681371 4 0 31830 2.19000000 1411592066 1411592066 -15.00000000
-1.62370396 1.82368660 -0.56372732 3 2 31832 2.50600000 1411592070 1411592070 -13.00000000
-1.91871560 2.15579081 -0.56097847 3 4 31833 2.94000000 1411592075 1411592075 -11.00000000
-2.37090397 2.66572428 -0.56504130 1 6 31835 3.61200000 1411592079 1411592079 -9.00000000
-3.05682063 3.43935084 -0.56498629 2 8 31837 4.63600000 1411592084 1411592084 -7.00000000
-4.23726940 4.76919699 -0.55814540 7 10 31838 6.40400000 1411592089 1411592089 -5.00000000
-6.94973707 7.82767725 -0.54858547 4 12 31840 10.48200000 1411592093 1411592093 -3.00000000
-6.32165337 7.12275314 2.19867158 18 13 31841 9.77400000 1411592095 1411592095 13.00000000
-6.36179304 7.17049980 2.56852031 40 15 31842 9.92400000 1411592100 1411592100 15.00000000
-1.39273095 1.57419598 -0.56319022 4 0 31850 2.17600000 1411592121 1411592121 -15.00000000
-1.62507284 1.83810318 -0.56642675 3 2 31852 2.51800000 1411592125 1411592125 -13.00000000
-1.91897953 2.17130160 -0.56326813 3 4 31853 2.95200000 1411592130 1411592130 -11.00000000
-2.35504627 2.66658115 -0.56347692 1 6 31855 3.60200000 1411592135 1411592135 -9.00000000
-3.05005050 3.45595360 -0.56596124 2 8 31857 4.64400000 1411592139 1411592139 -7.00000000
-4.23377705 4.79889917 -0.55988848 7 10 31858 6.42400000 1411592144 1411592144 -5.00000000
-6.92765427 7.85788155 -0.54900420 4 12 31860 10.49000000 1411592148 1411592148 -3.00000000
-6.27355957 7.11846066 2.19057345 15 13 31861 9.73800000 1411592151 1411592151 13.00000000
-6.32650805 7.18106651 2.56437922 42 15 31862 9.90800000 1411592155 1411592155 15.00000000
-1.38495255 1.57590365 -0.56215495 4 0 31869 2.17200000 1411592176 1411592176 -15.00000000
-1.61382484 1.83762503 -0.56462717 3 2 31871 2.51000000 1411592181 1411592181 -13.00000000
-1.91176867 2.17765331 -0.56326813 3 4 31872 2.95200000 1411592185 1411592185 -11.00000000
-2.34228253 2.66992116 -0.56253833 1 6 31874 3.59600000 1411592190 1411592190 -9.00000000
-3.03333902 3.46007824 -0.56498629 2 8 31876 4.63600000 1411592194 1411592194 -7.00000000
-4.21652651 4.81141424 -0.55971420 3 10 31877 6.42200000 1411592199 1411592199 -5.00000000
-6.90419006 7.88381624 -0.54921353 4 12 31879 10.49400000 1411592204 1411592204 -3.00000000
-6.28739309 7.18456125 2.55816746 40 15 31881 9.88400000 1411592211 1411592211 15.00000000
-1.39341545 1.59673941 -0.56784898 4 0 31889 2.19400000 1411592231 1411592231 -15.00000000
-1.60611963 1.84177840 -0.56417722 4 2 31891 2.50800000 1411592236 1411592236 -13.00000000
-1.91705644 2.19911218 -0.56708431 3 4 31892 2.97200000 1411592241 1411592241 -11.00000000
-2.34981632 2.69744420 -0.56660563 1 6 31894 3.62200000 1411592245 1411592245 -9.00000000
-3.02384925 3.47363997 -0.56547374 2 8 31896 4.64000000 1411592250 1411592250 -7.00000000
-4.21670914 4.84564209 -0.56198025 3 10 31897 6.44800000 1411592254 1411592254 -5.00000000
-6.90546131 7.94102478 -0.55151629 4 12 31899 10.53800000 1411592259 1411592259 -3.00000000
-6.12268162 7.04333973 2.15458131 29 13 31900 9.57800000 1411592261 1411592261 13.00000000
-6.14953136 7.07921553 2.51261520 45 15 31902 9.70800000 1411592266 1411592266 15.00000000
-1.38783336 1.60159361 -0.56784898 4 0 31909 2.19400000 1411592287 1411592287 -15.00000000
-1.60861051 1.85768580 -0.56732655 4 2 31911 2.52200000 1411592291 1411592291 -13.00000000
-1.90679860 2.20282173 -0.56632107 2 4 31912 2.96800000 1411592296 1411592296 -11.00000000
-2.32875538 2.69218421 -0.56378978 1 6 31914 3.60400000 1411592300 1411592300 -9.00000000
-3.00910926 3.48117042 -0.56498629 2 8 31916 4.63600000 1411592305 1411592305 -7.00000000
-4.20758486 4.86937714 -0.56302607 3 10 31917 6.46000000 1411592310 1411592310 -5.00000000
-6.90641689 7.99833822 -0.55381906 4 12 31919 10.58200000 1411592314 1411592314 -3.00000000
-6.14771891 7.12220097 2.17212749 19 13 31920 9.65600000 1411592317 1411592317 13.00000000
-6.23834467 7.22974253 2.55868506 40 15 31921 9.88600000 1411592321 1411592321 15.00000000
-1.37719417 1.60057080 -0.56577843 4 0 31929 2.18600000 1411592342 1411592342 -15.00000000
-1.59957516 1.86033440 -0.56642675 4 2 31931 2.51800000 1411592346 1411592346 -13.00000000
-1.89909768 2.20946431 -0.56632107 3 4 31932 2.96800000 1411592351 1411592351 -11.00000000
-2.32964039 2.71228456 -0.56629276 1 6 31934 3.62000000 1411592356 1411592356 -9.00000000
-3.01245427 3.50972891 -0.56791115 2 8 31936 4.66000000 1411592360 1411592360 -7.00000000
-4.18666983 4.87949848 -0.56250316 7 10 31937 6.45400000 1411592365 1411592365 -5.00000000
-6.89665556 8.04362488 -0.55528450 4 12 31939 10.61000000 1411592370 1411592370 -3.00000000
-6.09872484 7.11550426 2.16357923 21 13 31940 9.61800000 1411592372 1411592372 13.00000000
-6.22941065 7.27054596 2.56541443 42 15 31941 9.91200000 1411592376 1411592376 15.00000000
-1.37633705 1.61148369 -0.56784898 4 0 31950 2.19400000 1411592397 1411592397 -15.00000000
-1.59654129 1.87063146 -0.56777644 4 2 31952 2.52400000 1411592402 1411592402 -13.00000000
-1.88334131 2.20744872 -0.56403136 3 4 31953 2.95600000 1411592406 1411592406 -11.00000000
-2.31583905 2.71629548 -0.56535417 1 6 31955 3.61400000 1411592411 1411592411 -9.00000000
-2.98927116 3.50865793 -0.56596124 2 8 31957 4.64400000 1411592416 1411592416 -7.00000000
-4.17909193 4.90694523 -0.56389767 7 10 31958 6.47000000 1411592420 1411592420 -5.00000000
-6.04016352 7.09465933 1.81115901 12 11 31959 9.49200000 1411592423 1411592423 11.00000000
-6.85677242 8.05668068 -0.55444711 4 12 31960 10.59400000 1411592425 1411592425 -3.00000000
-6.06629038 7.13038826 2.16132975 20 13 31961 9.60800000 1411592427 1411592427 13.00000000
-6.19394016 7.28558016 2.56230855 42 15 31963 9.90000000 1411592432 1411592432 15.00000000
-1.36195707 1.60596466 -0.56422549 4 0 31970 2.18000000 1411592452 1411592452 -15.00000000
-1.58118248 1.86578619 -0.56462717 4 2 31972 2.51000000 1411592457 1411592457 -13.00000000
-1.88070047 2.22000122 -0.56555784 3 4 31973 2.96400000 1411592462 1411592462 -11.00000000
-2.30634332 2.72436261 -0.56535417 1 6 31975 3.61400000 1411592466 1411592466 -9.00000000
-2.98469806 3.52816439 -0.56742364 2 8 31977 4.65600000 1411592471 1411592471 -7.00000000
-4.16322470 4.92302418 -0.56407195 7 10 31978 6.47200000 1411592476 1411592476 -5.00000000
-6.01662922 7.11719942 1.81154060 25 11 31979 9.49400000 1411592478 1411592478 11.00000000
-6.84536648 8.10039711 -0.55580783 4 12 31980 10.62000000 1411592480 1411592480 -3.00000000
-6.02878809 7.13663340 2.15683079 15 13 31981 9.58800000 1411592482 1411592482 13.00000000
-6.16847086 7.30715704 2.56230855 42 15 31983 9.90000000 1411592487 1411592487 15.00000000
-1.36437428 1.61909914 -0.56733137 4 0 31988 2.19200000 1411592508 1411592508 -15.00000000
-1.58033407 1.87670696 -0.56642675 4 2 31990 2.51800000 1411592512 1411592512 -13.00000000
-1.88888872 2.24392223 -0.57013726 3 4 31991 2.98800000 1411592517 1411592517 -11.00000000
-2.30540252 2.74066472 -0.56723136 1 6 31993 3.62600000 1411592522 1411592522 -9.00000000
-2.96338081 3.52536726 -0.56547374 2 8 31995 4.64000000 1411592526 1411592526 -7.00000000
-4.14261103 4.92997742 -0.56337470 7 10 31996 6.46400000 1411592531 1411592531 -5.00000000
-6.01318169 7.15861511 1.81726491 12 11 31997 9.52400000 1411592533 1411592533 11.00000000
-6.81731606 8.11880398 -0.55559850 4 12 31998 10.61600000 1411592535 1411592535 -3.00000000
-5.98378611 7.12867165 2.14873242 13 13 31999 9.55200000 1411592538 1411592538 13.00000000
-6.14672613 7.32797956 2.56282616 45 15 32001 9.90200000 1411592542 1411592542 15.00000000
-1.36119366 1.62681508 -0.56836665 4 0 32008 2.19600000 1411592563 1411592563 -15.00000000
-1.57377350 1.88221192 -0.56642675 4 2 32010 2.51800000 1411592568 1411592568 -13.00000000
-1.87097192 2.23845100 -0.56708431 3 4 32011 2.97200000 1411592572 1411592572 -11.00000000
-2.29582191 2.74869537 -0.56723136 1 6 32013 3.62600000 1411592577 1411592577 -9.00000000
-2.95868897 3.54483390 -0.56693619 2 8 32015 4.65200000 1411592582 1411592582 -7.00000000
-4.14069366 4.96276617 -0.56546646 7 10 32016 6.48800000 1411592586 1411592586 -5.00000000
-6.03091145 7.23082256 1.83023989 6 11 32017 9.59200000 1411592588 1411592588 11.00000000
-6.79021358 8.14408493 -0.55570316 4 12 32018 10.61800000 1411592591 1411592591 -3.00000000
-5.98506689 7.18095160 2.15818048 21 13 32019 9.59400000 1411592593 1411592593 13.00000000
-6.05929232 7.27516985 2.53694439 45 15 32021 9.80200000 1411592598 1411592598 15.00000000
-1.34781635 1.62287629 -0.56526077 4 0 32029 2.18400000 1411592618 1411592618 -15.00000000
-1.57184231 1.89396572 -0.56822634 4 2 32031 2.52600000 1411592623 1411592623 -13.00000000
-1.85774088 2.23924971 -0.56555784 2 4 32032 2.96400000 1411592628 1411592628 -11.00000000
-2.29581785 2.76925755 -0.56973433 1 6 32034 3.64200000 1411592632 1411592632 -9.00000000
-2.93807817 3.54648232 -0.56547374 2 8 32036 4.64000000 1411592637 1411592637 -7.00000000
-4.12628889 4.98251247 -0.56598938 3 10 32037 6.49400000 1411592641 1411592641 -5.00000000
-6.01563597 7.26648903 1.83367443 12 11 32038 9.61000000 1411592644 1411592644 11.00000000
-6.76923180 8.17968845 -0.55643588 8 12 32039 10.63200000 1411592646 1411592646 -3.00000000
-7.04809380 8.51968193 2.55274463 39 13 32040 11.34800000 1411592648 1411592648 13.00000000
-6.08433723 7.35731459 2.55816746 40 15 32041 9.88400000 1411592653 1411592653 15.00000000
-1.34583044 1.63204241 -0.56681371 4 0 32049 2.19000000 1411592674 1411592674 -15.00000000
-1.56770015 1.90244877 -0.56912619 4 2 32051 2.53000000 1411592678 1411592678 -13.00000000
-1.85740268 2.25481272 -0.56784755 2 4 32052 2.97600000 1411592683 1411592683 -11.00000000
-2.27232766 2.76047802 -0.56629276 1 6 32054 3.62000000 1411592687 1411592687 -9.00000000
-2.94333553 3.57817936 -0.56888610 2 8 32056 4.66800000 1411592692 1411592692 -7.00000000
-4.11519861 5.00458002 -0.56686097 4 10 32057 6.50400000 1411592697 1411592697 -5.00000000
-6.76853371 8.23721695 -0.55873865 8 12 32059 10.67600000 1411592701 1411592701 -3.00000000
-7.01831150 8.54423237 2.55274463 51 13 32060 11.34800000 1411592704 1411592704 13.00000000
-6.06345892 7.38703156 2.56075573 40 15 32062 9.89400000 1411592708 1411592708 15.00000000
-1.34502077 1.64270926 -0.56888425 5 0 32069 2.19800000 1411592729 1411592729 -15.00000000
-1.56351793 1.91092598 -0.57002598 4 2 32071 2.53400000 1411592734 1411592734 -13.00000000
-1.84952056 2.26128244 -0.56784755 3 4 32072 2.97600000 1411592738 1411592738 -11.00000000
-2.27517891 2.78368831 -0.56942147 1 6 32074 3.64000000 1411592743 1411592743 -9.00000000
-2.92831612 3.58535695 -0.56839859 2 8 32076 4.66400000 1411592747 1411592747 -7.00000000
-4.09392452 5.01428461 -0.56633800 7 10 32077 6.49800000 1411592752 1411592752 -5.00000000
-6.73595142 8.25615025 -0.55842465 8 12 32079 10.67000000 1411592757 1411592757 -3.00000000
-6.98967552 8.57018852 2.55319452 59 13 32080 11.35000000 1411592759 1411592759 13.00000000
-6.03648806 7.40410328 2.55972028 40 15 32081 9.89000000 1411592764 1411592764 15.00000000
-1.34049714 1.64889324 -0.56940192 5 0 32089 2.20000000 1411592784 1411592784 -15.00000000
-1.55069423 1.90880942 -0.56777644 4 2 32091 2.52400000 1411592789 1411592789 -13.00000000
-1.84409130 2.27077293 -0.56861079 3 4 32092 2.98000000 1411592793 1411592793 -11.00000000
-2.26046920 2.78547764 -0.56816995 1 6 32094 3.63200000 1411592798 1411592798 -9.00000000
-2.91828370 3.59864044 -0.56888610 2 8 32096 4.66800000 1411592803 1411592803 -7.00000000
-4.09270668 5.04866457 -0.56860405 8 10 32097 6.52400000 1411592807 1411592807 -5.00000000
-6.71463442 8.28892422 -0.55905271 8 12 32099 10.68200000 1411592812 1411592812 -3.00000000
-6.95358515 8.58696270 2.55094504 59 13 32100 11.34000000 1411592814 1411592814 13.00000000
-6.01660109 7.43518877 2.56282616 40 15 32102 9.90200000 1411592819 1411592819 15.00000000
-1.34230375 1.66234756 -0.57250774 5 0 32108 2.21200000 1411592840 1411592840 -15.00000000
-1.54435587 1.91394114 -0.56777644 4 2 32110 2.52400000 1411592844 1411592844 -13.00000000
-1.83901608 2.27993178 -0.56937402 2 4 32111 2.98400000 1411592849 1411592849 -11.00000000
-2.25121975 2.79295826 -0.56816995 1 6 32113 3.63200000 1411592853 1411592853 -9.00000000
-2.90633416 3.60829806 -0.56888610 2 8 32115 4.66800000 1411592858 1411592858 -7.00000000
-4.08843756 5.07772779 -0.57034719 8 10 32116 6.54400000 1411592863 1411592863 -5.00000000
-6.71841145 8.35004807 -0.56166947 4 12 32118 10.73200000 1411592867 1411592867 -3.00000000
-6.92018652 8.60390091 2.54914546 56 13 32119 11.33200000 1411592870 1411592870 13.00000000
-5.99200296 7.45254850 2.56230855 42 15 32120 9.90000000 1411592874 1411592874 15.00000000
-1.32199204 1.64893591 -0.56629604 5 0 32128 2.18800000 1411592895 1411592895 -15.00000000
-1.55106831 1.93604970 -0.57272536 4 2 32130 2.54600000 1411592899 1411592899 -13.00000000
-1.81877398 2.27101326 -0.56555784 2 4 32131 2.96400000 1411592904 1411592904 -11.00000000
-2.25873685 2.82239175 -0.57255012 1 6 32133 3.66000000 1411592909 1411592909 -9.00000000
-2.88876176 3.61221981 -0.56791115 2 8 32135 4.66000000 1411592913 1411592913 -7.00000000
-4.06944418 5.09041166 -0.57017285 8 10 32136 6.54200000 1411592918 1411592918 -5.00000000
-6.70044279 8.38749313 -0.56261152 4 12 32138 10.75000000 1411592922 1411592922 -3.00000000
-6.89011097 8.62800407 2.54914546 55 13 32139 11.33200000 1411592925 1411592925 13.00000000
-5.96223783 7.47144032 2.56127334 42 15 32141 9.89600000 1411592929 1411592929 15.00000000
-1.31622815 1.65354049 -0.56629604 4 0 32148 2.18800000 1411592950 1411592950 -15.00000000
-1.53823519 1.93382668 -0.57047588 4 2 32150 2.53600000 1411592955 1411592955 -13.00000000
-1.82061076 2.28964162 -0.56861079 2 4 32151 2.98000000 1411592959 1411592959 -11.00000000
-2.22675109 2.80242038 -0.56691849 1 6 32153 3.62400000 1411592964 1411592964 -9.00000000
-2.87983847 3.62694526 -0.56864238 2 8 32155 4.66600000 1411592969 1411592969 -7.00000000
-4.05784369 5.11238861 -0.57104445 4 10 32156 6.55200000 1411592973 1411592973 -5.00000000
-6.68353510 8.42647839 -0.56365824 4 12 32158 10.77000000 1411592978 1411592978 -3.00000000
-6.86116219 8.65352917 2.54959536 57 13 32159 11.33400000 1411592980 1411592980 13.00000000
-5.93142891 7.48360062 2.55868506 40 15 32160 9.88600000 1411592985 1411592985 15.00000000
-1.30565679 1.65206230 -0.56422549 4 0 32168 2.18000000 1411593005 1411593005 -15.00000000
-1.53026772 1.93765509 -0.57002598 4 2 32170 2.53400000 1411593010 1411593010 -13.00000000
-1.81747341 2.30214643 -0.57013726 3 4 32171 2.98800000 1411593015 1411593015 -11.00000000
-2.21206117 2.80397248 -0.56566703 1 6 32173 3.61600000 1411593019 1411593019 -9.00000000
-2.87330532 3.64477038 -0.56986105 2 8 32175 4.67600000 1411593024 1411593024 -7.00000000
-4.04860592 5.13747597 -0.57226461 8 10 32176 6.56600000 1411593028 1411593028 -5.00000000
-6.65408087 8.44975758 -0.56365824 4 12 32178 10.77000000 1411593033 1411593033 -3.00000000
-6.82609272 8.67130184 2.54779553 56 13 32179 11.32600000 1411593035 1411593035 13.00000000
-5.90276575 7.50377178 2.55816746 42 15 32181 9.88400000 1411593040 1411593040 15.00000000
-1.29988205 1.65660989 -0.56422549 4 0 32188 2.18000000 1411593061 1411593061 -15.00000000
-1.52229226 1.94145131 -0.56957608 4 2 32190 2.53200000 1411593065 1411593065 -13.00000000
-1.81669307 2.31774759 -0.57242697 4 4 32191 3.00000000 1411593070 1411593070 -11.00000000
-2.21687675 2.83033848 -0.56942147 1 6 32193 3.64000000 1411593075 1411593075 -9.00000000
-2.87157679 3.66884685 -0.57205468 2 8 32195 4.69400000 1411593079 1411593079 -7.00000000
-4.03678656 5.15942287 -0.57313615 8 10 32196 6.57600000 1411593084 1411593084 -5.00000000
-6.63315630 8.48394680 -0.56439096 4 12 32198 10.78400000 1411593088 1411593088 -3.00000000
-6.79818249 8.69814682 2.54869556 57 13 32199 11.33000000 1411593091 1411593091 13.00000000
-5.88498592 7.53243876 2.56127334 42 15 32200 9.89600000 1411593095 1411593095 15.00000000
-1.30358946 1.67332900 -0.56836665 3 0 32208 2.19600000 1411593116 1411593116 -15.00000000
-1.52029443 1.95290422 -0.57137567 4 2 32210 2.54000000 1411593121 1411593121 -13.00000000
-1.80618012 2.32097602 -0.57166374 2 4 32211 2.99600000 1411593125 1411593125 -11.00000000
-2.20698357 2.83805966 -0.56942147 1 6 32213 3.64000000 1411593130 1411593130 -9.00000000
-2.85266232 3.67101073 -0.57083601 2 8 32215 4.68400000 1411593134 1411593134 -7.00000000
-4.02975273 5.18764353 -0.57470495 8 10 32216 6.59400000 1411593139 1411593139 -5.00000000
-6.62677050 8.53702641 -0.56637973 4 12 32218 10.82200000 1411593144 1411593144 -3.00000000
-6.76061106 8.71258640 2.54599595 55 13 32219 11.31800000 1411593146 1411593146 13.00000000
-5.85733891 7.55395794 2.56127334 45 15 32221 9.89600000 1411593151 1411593151 15.00000000
-1.29301286 1.67175674 -0.56629604 3 0 32228 2.18800000 1411593171 1411593171 -15.00000000
-1.51585162 1.96128285 -0.57227546 4 2 32230 2.54400000 1411593176 1411593176 -13.00000000
-1.79326618 2.32105231 -0.57013726 2 4 32231 2.98800000 1411593181 1411593181 -11.00000000
-2.19947791 2.84887338 -0.57004720 1 6 32233 3.64400000 1411593185 1411593185 -9.00000000
-2.84710622 3.69037628 -0.57229841 2 8 32235 4.69600000 1411593190 1411593190 -7.00000000
-4.01040316 5.20010042 -0.57453066 8 10 32236 6.59200000 1411593194 1411593194 -5.00000000
-6.62619019 8.59807301 -0.56889182 4 12 32238 10.87000000 1411593199 1411593199 -3.00000000
-6.73015738 8.73613262 2.54599595 59 13 32239 11.31800000 1411593201 1411593201 13.00000000
-5.82989931 7.57027864 2.56023788 42 15 32240 9.89200000 1411593206 1411593206 15.00000000
-1.29305232 1.68392122 -0.56888425 4 0 32248 2.19800000 1411593227 1411593227 -15.00000000
-1.50899625 1.96656227 -0.57227546 4 2 32250 2.54400000 1411593231 1411593231 -13.00000000
-1.78993273 2.33352900 -0.57166374 2 4 32251 2.99600000 1411593236 1411593236 -11.00000000
-2.19432688 2.86280489 -0.57129866 1 6 32253 3.65200000 1411593240 1411593240 -9.00000000
-2.83662105 3.70344400 -0.57278591 2 8 32255 4.70000000 1411593245 1411593245 -7.00000000
-3.96800208 5.18242884 -0.57104445 4 10 32256 6.55200000 1411593250 1411593250 -5.00000000
-6.59006882 8.61321926 -0.56836849 4 12 32258 10.86000000 1411593254 1411593254 -3.00000000
-6.70198917 8.76266766 2.54689574 59 13 32259 11.32200000 1411593257 1411593257 13.00000000
-5.79757166 7.58290911 2.55764985 40 15 32260 9.88200000 1411593261 1411593261 15.00000000
-1.28248155 1.68227923 -0.56681371 4 0 32268 2.19000000 1411593282 1411593282 -15.00000000
-1.49739885 1.96561694 -0.57047588 4 2 32270 2.53600000 1411593287 1411593287 -13.00000000
-1.78177631 2.33976269 -0.57166374 2 4 32271 2.99600000 1411593291 1411593291 -11.00000000
-2.19628263 2.88616681 -0.57442737 1 6 32273 3.67200000 1411593296 1411593296 -9.00000000
-2.82728124 3.71806335 -0.57351714 2 8 32275 4.70600000 1411593300 1411593300 -7.00000000
-3.97761917 5.23272991 -0.57505357 4 10 32276 6.59800000 1411593305 1411593305 -5.00000000
-6.56962776 8.64889431 -0.56920588 4 12 32278 10.87600000 1411593310 1411593310 -3.00000000
-6.67607498 8.79221725 2.54869556 59 13 32279 11.33000000 1411593312 1411593312 13.00000000
-5.77340317 7.60617781 2.55868506 40 15 32280 9.88600000 1411593316 1411593316 15.00000000
-1.28592825 1.69906890 -0.57095480 4 0 32288 2.20600000 1411593337 1411593337 -15.00000000
-1.48817742 1.96772325 -0.56957608 4 2 32290 2.53200000 1411593342 1411593342 -13.00000000
-1.77951801 2.35379839 -0.57357186 4 4 32291 3.00600000 1411593346 1411593346 -11.00000000
-2.17785954 2.88278270 -0.57223725 1 6 32293 3.65800000 1411593351 1411593351 -9.00000000
-2.82744193 3.74533725 -0.57619828 2 8 32295 4.72800000 1411593356 1411593356 -7.00000000
-3.96052957 5.24817276 -0.57522792 4 10 32296 6.60000000 1411593360 1411593360 -5.00000000
-6.54300499 8.67655754 -0.56951988 4 12 32298 10.88200000 1411593365 1411593365 -3.00000000
-6.63830519 8.80613041 2.54599595 59 13 32299 11.31800000 1411593367 1411593367 13.00000000
-5.74664879 7.62883043 2.55920267 40 15 32301 9.88800000 1411593372 1411593372 15.00000000
-1.28115010 1.70509171 -0.57147247 4 0 32308 2.20800000 1411593393 1411593393 -15.00000000
-1.48363984 1.97602272 -0.57047588 4 2 32310 2.53600000 1411593397 1411593397 -13.00000000
-1.76421988 2.35057449 -0.57128215 3 4 32311 2.99400000 1411593402 1411593402 -11.00000000
-2.16896868 2.89194751 -0.57255012 1 6 32313 3.66000000 1411593406 1411593406 -9.00000000
-2.80720806 3.74565315 -0.57473582 2 8 32315 4.71600000 1411593411 1411593411 -7.00000000
-3.93860197 5.25718212 -0.57470495 4 10 32316 6.59400000 1411593416 1411593416 -5.00000000
-6.51507235 8.70254230 -0.56972921 4 12 32318 10.88600000 1411593420 1411593420 -3.00000000
-6.59701729 8.81520653 2.54194689 54 13 32319 11.30000000 1411593422 1411593422 13.00000000
-5.71784735 7.64320421 2.55764985 40 15 32320 9.88200000 1411593427 1411593427 15.00000000
-1.27288020 1.70645642 -0.57043719 4 0 32328 2.20400000 1411593448 1411593448 -15.00000000
-1.48605013 1.99368918 -0.57407510 4 2 32330 2.55200000 1411593452 1411593452 -13.00000000
-1.75365806 2.35356998 -0.57051891 3 4 32331 2.99000000 1411593457 1411593457 -11.00000000
-2.15886068 2.89950109 -0.57255012 1 6 32333 3.66000000 1411593462 1411593462 -9.00000000
-2.78819132 3.74746633 -0.57351714 2 8 32335 4.70600000 1411593466 1411593466 -7.00000000
-3.92379403 5.27569437 -0.57522792 4 10 32336 6.60000000 1411593471 1411593471 -5.00000000
-6.51801348 8.77011585 -0.57266003 4 12 32338 10.94200000 1411593475 1411593475 -3.00000000
-6.57201672 8.84600258 2.54419637 57 13 32339 11.31000000 1411593478 1411593478 13.00000000
-5.68998098 7.66156578 2.55713224 40 15 32340 9.88000000 1411593482 1411593482 15.00000000
-1.27211368 1.71665537 -0.57250774 4 0 32346 2.21200000 1411593503 1411593503 -15.00000000
-1.48209882 2.00148010 -0.57497489 4 2 32348 2.55600000 1411593508 1411593508 -13.00000000
-1.75793612 2.37484741 -0.57433510 4 4 32349 3.01000000 1411593512 1411593512 -11.00000000
-2.14151812 2.89515209 -0.57036006 1 6 32351 3.64600000 1411593517 1411593517 -9.00000000
-2.78230429 3.76418877 -0.57473582 2 8 32353 4.71600000 1411593521 1411593521 -7.00000000
-3.92732859 5.31523657 -0.57819122 4 10 32354 6.63400000 1411593526 1411593526 -5.00000000
-6.50941086 8.81625748 -0.57433480 4 12 32356 10.97400000 1411593531 1411593531 -3.00000000
-6.55113745 8.87601280 2.54689574 60 13 32357 11.32200000 1411593533 1411593533 13.00000000
-5.66358948 7.67629480 2.55609679 42 15 32358 9.87600000 1411593538 1411593538 15.00000000
-1.26153469 1.71486080 -0.57043719 4 0 32366 2.20400000 1411593558 1411593558 -15.00000000
-1.47164071 2.00193095 -0.57362521 4 2 32368 2.55000000 1411593563 1411593563 -13.00000000
-1.74266028 2.37147689 -0.57204539 2 4 32369 2.99800000 1411593568 1411593568 -11.00000000
-2.13958311 2.91375542 -0.57255012 1 6 32371 3.66000000 1411593572 1411593572 -9.00000000
-2.77384543 3.78027987 -0.57571077 2 8 32373 4.72400000 1411593577 1411593577 -7.00000000
-3.89578867 5.31124115 -0.57627380 4 10 32374 6.61200000 1411593581 1411593581 -5.00000000
-6.48568058 8.84859085 -0.57496279 4 12 32376 10.98600000 1411593586 1411593586 -3.00000000
-6.52472162 8.90511417 2.54869556 57 13 32377 11.33000000 1411593588 1411593588 13.00000000
-5.63313389 7.69388342 2.55506158 40 15 32379 9.87200000 1411593593 1411593593 15.00000000
-1.25296283 1.71635246 -0.56940192 4 0 32387 2.20000000 1411593614 1411593614 -15.00000000
-1.45625412 1.99629092 -0.57047588 4 2 32389 2.53600000 1411593618 1411593618 -13.00000000
-1.73858368 2.38419342 -0.57357186 4 4 32390 3.00600000 1411593623 1411593623 -11.00000000
-2.12888932 2.92157769 -0.57255012 1 6 32392 3.66000000 1411593627 1411593627 -9.00000000
-2.76113987 3.79202580 -0.57595450 2 8 32394 4.72600000 1411593632 1411593632 -7.00000000
-3.87981343 5.33031702 -0.57679671 4 10 32395 6.61800000 1411593637 1411593637 -5.00000000
-6.47200251 8.89814568 -0.57663757 4 12 32397 11.01800000 1411593641 1411593641 -3.00000000
-6.48516273 8.91951180 2.54599595 59 13 32398 11.31800000 1411593644 1411593644 13.00000000
-5.61305761 7.72287607 2.55816746 40 15 32399 9.88400000 1411593648 1411593648 15.00000000
-1.25830007 1.73635852 -0.57457829 4 0 32407 2.22000000 1411593669 1411593669 -15.00000000
-1.45384872 2.00767541 -0.57227546 4 2 32409 2.54400000 1411593673 1411593673 -13.00000000
-1.73255312 2.39342833 -0.57433510 4 4 32410 3.01000000 1411593678 1411593678 -11.00000000
-2.12330914 2.93539333 -0.57380164 1 6 32412 3.66800000 1411593683 1411593683 -9.00000000
-2.74207187 3.79359674 -0.57473582 2 8 32414 4.71600000 1411593687 1411593687 -7.00000000
-3.86935163 5.35513210 -0.57801688 4 10 32415 6.63200000 1411593692 1411593692 -5.00000000
-6.44324112 8.92392159 -0.57684690 4 12 32417 11.02200000 1411593697 1411593697 -3.00000000
-6.44942665 8.93577385 2.54419637 56 13 32418 11.31000000 1411593699 1411593699 13.00000000
-5.58606577 7.74242258 2.55816746 42 15 32419 9.88400000 1411593703 1411593703 15.00000000
-1.24350786 1.72797728 -0.57043719 4 0 32426 2.20400000 1411593724 1411593724 -15.00000000
-1.44832075 2.01406765 -0.57272536 4 2 32428 2.54600000 1411593729 1411593729 -13.00000000
-1.71314752 2.38321924 -0.57051891 3 4 32429 2.99000000 1411593733 1411593733 -11.00000000
-2.11702061 2.94723129 -0.57474023 1 6 32431 3.67400000 1411593738 1411593738 -9.00000000
-2.72484660 3.79621816 -0.57376087 2 8 32433 4.70800000 1411593743 1411593743 -7.00000000
-3.85041046 5.36631489 -0.57784259 4 10 32434 6.63000000 1411593747 1411593747 -5.00000000
-6.42292309 8.95822430 -0.57768428 4 12 32436 11.03800000 1411593752 1411593752 -3.00000000
-6.41975880 8.95711231 2.54419637 59 13 32437 11.31000000 1411593754 1411593754 13.00000000
-5.55450630 7.75559187 2.55609679 42 15 32439 9.87600000 1411593759 1411593759 15.00000000
-1.24196017 1.73859537 -0.57250774 4 0 32446 2.21200000 1411593779 1411593779 -15.00000000
-1.44694245 2.02704144 -0.57497489 4 2 32448 2.55600000 1411593784 1411593784 -13.00000000
-1.71394086 2.40196967 -0.57357186 4 4 32449 3.00600000 1411593789 1411593789 -11.00000000
-2.11360097 2.96425343 -0.57661742 1 6 32451 3.68600000 1411593793 1411593793 -9.00000000
-2.73692060 3.84127402 -0.57912314 2 8 32453 4.75200000 1411593798 1411593798 -7.00000000
-3.84090185 5.39270544 -0.57923704 4 10 32454 6.64600000 1411593803 1411593803 -5.00000000
-6.40435314 8.99848938 -0.57883567 4 12 32456 11.06000000 1411593807 1411593807 -3.00000000
-6.38845348 8.97946644 2.54419637 57 13 32457 11.31000000 1411593809 1411593809 13.00000000
-4.85354567 6.82707834 2.24447870 11 15 32459 8.67200000 1411593814 1411593814 15.00000000
-1.23364902 1.73976827 -0.57147247 4 0 32466 2.20800000 1411593835 1411593835 -15.00000000
-1.42859149 2.01617956 -0.57047588 4 2 32468 2.53600000 1411593839 1411593839 -13.00000000
-1.70781553 2.41114187 -0.57433510 2 4 32469 3.01000000 1411593844 1411593844 -11.00000000
-2.09525251 2.96032667 -0.57442737 1 6 32471 3.67200000 1411593849 1411593849 -9.00000000
-2.71432543 3.83783865 -0.57717323 2 8 32473 4.73600000 1411593853 1411593853 -7.00000000
-3.83815694 5.42885590 -0.58167744 4 10 32474 6.67400000 1411593858 1411593858 -5.00000000
-6.38558006 9.03873348 -0.57998705 4 12 32476 11.08200000 1411593862 1411593862 -3.00000000
-6.35707045 9.00171185 2.54419637 59 13 32477 11.31000000 1411593865 1411593865 13.00000000
-4.82411575 6.83608675 2.24189067 33 15 32479 8.66200000 1411593869 1411593869 15.00000000
-1.22534466 1.74090433 -0.57043719 4 0 32486 2.20400000 1411593890 1411593890 -15.00000000
-1.41481841 2.01159000 -0.56777644 4 2 32488 2.52400000 1411593895 1411593895 -13.00000000
-1.71068025 2.43314910 -0.57815129 4 4 32489 3.03000000 1411593899 1411593899 -11.00000000
-2.08944869 2.97408795 -0.57567883 1 6 32491 3.68000000 1411593904 1411593904 -9.00000000
-2.70775580 3.85703802 -0.57863563 2 8 32493 4.74800000 1411593909 1411593909 -7.00000000
-3.82032800 5.44385147 -0.58185172 4 10 32494 6.67600000 1411593913 1411593913 -5.00000000
-6.34825659 9.05279255 -0.57946372 8 12 32496 11.07200000 1411593918 1411593918 -3.00000000
-6.32337284 9.02065563 2.54329658 59 13 32497 11.30600000 1411593920 1411593920 13.00000000
-4.80687380 6.86237812 2.24499631 38 15 32499 8.67400000 1411593925 1411593925 15.00000000
-1.22368598 1.75150549 -0.57250774 4 0 32506 2.21200000 1411593945 1411593945 -15.00000000
-1.42117429 2.03569102 -0.57317531 4 2 32508 2.54800000 1411593950 1411593950 -13.00000000
-1.68869400 2.41978598 -0.57357186 2 4 32509 3.00600000 1411593955 1411593955 -11.00000000
-2.09035349 2.99756622 -0.57880753 1 6 32511 3.70000000 1411593959 1411593959 -9.00000000
-2.69200587 3.86320901 -0.57814819 2 8 32513 4.74400000 1411593964 1411593964 -7.00000000
-3.78991413 5.44080496 -0.58010864 4 10 32514 6.65600000 1411593968 1411593968 -5.00000000
