# .PCD v0.7 - Point Cloud Data file format
VERSION 0.7
FIELDS x y z intensity laser_id azimuth distance_m adjustedtime timestamp vertical_angle
SIZE 4 4 4 1 1 2 8 8 4 8
TYPE F F F U U U F U U F
COUNT 1 1 1 1 1 1 1 1 1 1
WIDTH 533
HEIGHT 1
VIEWPOINT 0 0 0 1 0 0 0
POINTS 533
DATA ascii
8.13596725 0.58319336 0.71363121 79 5 8590 8.18800000 1412127564 1412127564 5.00000000
3.98009872 0.28459880 -0.63199526 6 6 8591 4.04000000 1412127567 1412127567 -9.00000000
8.13607216 0.58034641 1.00152230 95 7 8592 8.21800000 1412127569 1412127569 7.00000000
5.27296925 0.37519613 -0.64907610 8 8 8593 5.32600000 1412127571 1412127571 -7.00000000
6.61005735 0.46917662 -0.57976002 40 10 8594 6.65200000 1412127576 1412127576 -5.00000000
8.12856770 0.57410771 -0.42706141 17 12 8596 8.16000000 1412127581 1412127581 -3.00000000
8.11873627 0.57056522 -0.14206259 16 14 8598 8.14000000 1412127585 1412127585 -1.00000000
8.18246078 0.57504362 2.19789124 49 15 8598 8.49200000 1412127588 1412127588 15.00000000
2.23757887 0.15411228 -0.60097784 4 0 8606 2.32200000 1412127608 1412127608 -15.00000000
8.13159180 0.55863398 0.14227201 25 1 8607 8.15200000 1412127611 1412127611 1.00000000
2.61492348 0.17918465 -0.60511833 5 2 8608 2.69000000 1412127613 1412127613 -13.00000000
8.13981247 0.55634403 0.42758477 21 3 8609 8.17000000 1412127615 1412127615 3.00000000
3.14760637 0.21513419 -0.61326009 4 4 8609 3.21400000 1412127617 1412127617 -11.00000000
8.12403870 0.55384141 0.71241105 76 5 8610 8.17400000 1412127620 1412127620 5.00000000
3.98500943 0.27097195 -0.63262099 6 6 8611 4.04400000 1412127622 1412127622 -9.00000000
8.14795113 0.55261427 1.00274098 99 7 8612 8.22800000 1412127624 1412127624 7.00000000
5.27622747 0.35692173 -0.64931989 8 8 8613 5.32800000 1412127627 1412127627 -7.00000000
8.19498348 0.55293047 1.30090904 7 9 8614 8.31600000 1412127629 1412127629 9.00000000
6.62159395 0.44677097 -0.58063155 16 10 8614 6.66200000 1412127631 1412127631 -5.00000000
8.24273014 0.55470687 1.60584855 6 11 8615 8.41600000 1412127634 1412127634 11.00000000
8.12255192 0.54519516 -0.42664272 17 12 8616 8.15200000 1412127636 1412127636 -3.00000000
8.11469269 0.54182237 -0.14195788 16 14 8618 8.13400000 1412127641 1412127641 -1.00000000
8.17680264 0.54453611 2.19582081 49 15 8619 8.48400000 1412127643 1412127643 15.00000000
2.24003100 0.14642675 -0.60149544 4 0 8626 2.32400000 1412127664 1412127664 -15.00000000
8.12351513 0.52959555 0.14209749 21 1 8627 8.14200000 1412127666 1412127666 1.00000000
2.63109016 0.17106725 -0.60871756 6 2 8628 2.70600000 1412127668 1412127668 -13.00000000
8.13572598 0.52753973 0.42727074 23 3 8629 8.16400000 1412127670 1412127670 3.00000000
3.14050150 0.20363754 -0.61173362 4 4 8629 3.20600000 1412127673 1412127673 -11.00000000
8.11598110 0.52483696 0.71153951 79 5 8630 8.16400000 1412127675 1412127675 5.00000000
3.97804594 0.25655150 -0.63136947 6 6 8631 4.03600000 1412127677 1412127677 -9.00000000
8.14785004 0.52404183 1.00249720 92 7 8632 8.22600000 1412127680 1412127680 7.00000000
5.28140306 0.33875620 -0.64980733 8 8 8633 5.33200000 1412127682 1412127682 -7.00000000
6.60521841 0.42250991 -0.57906276 16 10 8634 6.64400000 1412127687 1412127687 -5.00000000
8.13437080 0.51747286 -0.42716607 17 12 8636 8.16200000 1412127691 1412127691 -3.00000000
8.12052536 0.51374602 -0.14202769 16 14 8638 8.13800000 1412127696 1412127696 -1.00000000
8.17470741 0.51717389 2.19478559 47 15 8638 8.48000000 1412127698 1412127698 15.00000000
2.23281574 0.13812956 -0.59942490 4 0 8646 2.31600000 1412127719 1412127719 -15.00000000
8.11333942 0.50049722 0.14188807 21 1 8647 8.13000000 1412127721 1412127721 1.00000000
2.62194586 0.16128375 -0.60646802 6 2 8648 2.69600000 1412127723 1412127723 -13.00000000
8.13751793 0.49913752 0.42727074 21 3 8649 8.16400000 1412127726 1412127726 3.00000000
3.14903140 0.19315469 -0.61326009 4 4 8649 3.21400000 1412127728 1412127728 -11.00000000
8.11776352 0.49650371 0.71153951 76 5 8650 8.16400000 1412127730 1412127730 5.00000000
3.96708703 0.24194247 -0.62949228 6 6 8651 4.02400000 1412127733 1412127733 -9.00000000
8.14566612 0.49535635 1.00200975 92 7 8652 8.22200000 1412127735 1412127735 7.00000000
5.29642344 0.32115966 -0.65151352 9 8 8653 5.34600000 1412127737 1412127737 -7.00000000
6.61460781 0.39993179 -0.57976002 28 10 8654 6.65200000 1412127742 1412127742 -5.00000000
8.12017822 0.48811671 -0.42632869 17 12 8656 8.14600000 1412127746 1412127746 -3.00000000
8.11628151 0.48503911 -0.14192297 16 14 8658 8.13200000 1412127751 1412127751 -1.00000000
8.17847729 0.48732352 2.19530320 51 15 8659 8.48200000 1412127753 1412127753 15.00000000
2.24099851 0.13078494 -0.60149544 4 0 8666 2.32400000 1412127774 1412127774 -15.00000000
8.11503696 0.47217336 0.14188807 21 1 8667 8.13000000 1412127776 1412127776 1.00000000
2.62054729 0.15201761 -0.60601813 6 2 8668 2.69400000 1412127779 1412127779 -13.00000000
8.13322926 0.47038329 0.42695674 21 3 8669 8.15800000 1412127781 1412127781 3.00000000
3.14968657 0.18216135 -0.61326009 4 4 8669 3.21400000 1412127783 1412127783 -11.00000000
8.12342548 0.46839377 0.71188813 79 5 8670 8.16800000 1412127786 1412127786 5.00000000
3.97185159 0.22832000 -0.63011801 9 6 8671 4.02800000 1412127788 1412127788 -9.00000000
8.13149166 0.46601102 1.00005984 97 7 8672 8.20600000 1412127790 1412127790 7.00000000
5.27571201 0.30142418 -0.64883238 8 8 8673 5.32400000 1412127793 1412127793 -7.00000000
8.20615959 0.46885329 1.30184758 5 9 8673 8.32200000 1412127795 1412127795 9.00000000
6.63386583 0.37785980 -0.58132881 56 10 8674 6.67000000 1412127797 1412127797 -5.00000000
8.11585045 0.45943037 -0.42601469 17 12 8676 8.14000000 1412127802 1412127802 -3.00000000
8.12391472 0.45704204 -0.14202769 16 14 8678 8.13800000 1412127806 1412127806 -1.00000000
8.18776321 0.46063408 2.19737363 51 15 8678 8.49000000 1412127809 1412127809 15.00000000
2.23758364 0.12274996 -0.60046017 4 0 8686 2.32000000 1412127829 1412127829 -15.00000000
8.12262535 0.44417128 0.14199278 18 1 8687 8.13600000 1412127832 1412127832 1.00000000
2.62106204 0.14286928 -0.60601813 7 2 8688 2.69400000 1412127834 1412127834 -13.00000000
8.12285519 0.44134000 0.42632869 15 3 8689 8.14600000 1412127836 1412127836 3.00000000
3.15030313 0.17116578 -0.61326009 4 4 8689 3.21400000 1412127839 1412127839 -11.00000000
8.13296890 0.44046587 0.71258533 79 5 8690 8.17600000 1412127841 1412127841 5.00000000
3.98248696 0.21498668 -0.63168240 9 6 8691 4.03800000 1412127843 1412127843 -9.00000000
8.13306808 0.43762398 1.00005984 92 7 8692 8.20600000 1412127846 1412127846 7.00000000
5.25690937 0.28194353 -0.64639497 6 8 8693 5.30400000 1412127848 1412127848 -7.00000000
8.20585060 0.43866763 1.30153477 7 9 8694 8.32000000 1412127850 1412127850 9.00000000
6.62718630 0.35427555 -0.58063155 60 10 8694 6.66200000 1412127852 1412127852 -5.00000000
8.10344410 0.43035653 -0.42528197 17 12 8696 8.12600000 1412127857 1412127857 -3.00000000
8.10948467 0.42783865 -0.14174844 18 14 8698 8.12200000 1412127862 1412127862 -1.00000000
8.18360901 0.43031701 2.19582081 49 15 8699 8.48400000 1412127864 1412127864 15.00000000
2.23221040 0.11464133 -0.59890729 4 0 8706 2.31400000 1412127885 1412127885 -15.00000000
8.12412643 0.41581529 0.14199278 25 1 8707 8.13600000 1412127887 1412127887 1.00000000
2.62738347 0.13401701 -0.60736787 6 2 8708 2.70000000 1412127889 1412127889 -13.00000000
8.13033009 0.41328743 0.42664272 18 3 8709 8.15200000 1412127892 1412127892 3.00000000
3.14107800 0.15966977 -0.61135203 5 4 8709 3.20400000 1412127894 1412127894 -11.00000000
8.12649822 0.41167063 0.71188813 79 5 8710 8.16800000 1412127896 1412127896 5.00000000
3.97926736 0.20088470 -0.63105661 9 6 8711 4.03400000 1412127899 1412127899 -9.00000000
8.13851166 0.40943110 1.00054729 92 7 8712 8.21000000 1412127901 1412127901 7.00000000
5.27768755 0.26458570 -0.64883238 6 8 8713 5.32400000 1412127903 1412127903 -7.00000000
8.20528698 0.41135472 1.30122185 10 9 8713 8.31800000 1412127905 1412127905 9.00000000
6.61047363 0.33024549 -0.57906276 72 10 8714 6.64400000 1412127908 1412127908 -5.00000000
8.12285042 0.40295821 -0.42622402 25 12 8716 8.14400000 1412127912 1412127912 -3.00000000
8.11292648 0.39962706 -0.14178336 18 14 8718 8.12400000 1412127917 1412127917 -1.00000000
8.18113232 0.40298674 2.19478559 49 15 8718 8.48000000 1412127919 1412127919 15.00000000
2.23452663 0.10694112 -0.59942490 4 0 8726 2.31600000 1412127940 1412127940 -15.00000000
8.11953640 0.38716856 0.14188807 15 1 8727 8.13000000 1412127942 1412127942 1.00000000
2.62783527 0.12484491 -0.60736787 6 2 8728 2.70000000 1412127945 1412127945 -13.00000000
8.13770866 0.38518807 0.42695674 18 3 8729 8.15800000 1412127947 1412127947 3.00000000
3.15142131 0.14916852 -0.61326009 5 4 8729 3.21400000 1412127949 1412127949 -11.00000000
8.11992455 0.38292593 0.71119088 79 5 8730 8.16000000 1412127952 1412127952 5.00000000
3.97205162 0.18662241 -0.62980515 9 6 8731 4.02600000 1412127954 1412127954 -9.00000000
8.14782333 0.38139117 1.00152230 92 7 8732 8.21800000 1412127956 1412127956 7.00000000
5.27857924 0.24616154 -0.64883238 6 8 8733 5.32400000 1412127958 1412127958 -7.00000000
8.22055244 0.38191980 1.30341196 10 9 8734 8.33200000 1412127961 1412127961 9.00000000
6.59765434 0.30652136 -0.57784259 80 10 8734 6.63000000 1412127963 1412127963 -5.00000000
8.13019276 0.37487772 -0.42653805 17 12 8736 8.15000000 1412127968 1412127968 -3.00000000
8.10428333 0.37084818 -0.14160882 16 14 8738 8.11400000 1412127972 1412127972 -1.00000000
8.17097473 0.37247086 2.19167972 47 15 8739 8.46800000 1412127975 1412127975 15.00000000
2.24065876 0.09978842 -0.60097784 4 0 8745 2.32200000 1412127995 1412127995 -15.00000000
8.11078644 0.35979795 0.14171354 28 1 8746 8.12000000 1412127998 1412127998 1.00000000
2.62434101 0.11595796 -0.60646802 6 2 8747 2.69600000 1412128000 1412128000 -13.00000000
8.14093685 0.35828814 0.42706141 13 3 8748 8.16000000 1412128002 1412128002 3.00000000
3.15189862 0.13871720 -0.61326009 5 4 8748 3.21400000 1412128005 1412128005 -11.00000000
8.11915970 0.35590991 0.71101654 83 5 8749 8.15800000 1412128007 1412128007 5.00000000
3.96080756 0.17293260 -0.62792796 9 6 8750 4.01400000 1412128009 1412128009 -9.00000000
8.13317680 0.35367998 0.99957234 90 7 8751 8.20200000 1412128011 1412128011 7.00000000
5.28729916 0.22899936 -0.64980733 6 8 8752 5.33200000 1412128014 1412128014 -7.00000000
8.20789719 0.35549399 1.30122185 10 9 8752 8.31800000 1412128016 1412128016 9.00000000
6.60460615 0.28489867 -0.57836550 64 10 8753 6.63600000 1412128018 1412128018 -5.00000000
8.11742306 0.34731731 -0.42580533 25 12 8755 8.13600000 1412128023 1412128023 -3.00000000
8.11745644 0.34448007 -0.14181826 20 14 8757 8.12600000 1412128028 1412128028 -1.00000000
8.17596531 0.34696299 2.19271493 47 15 8757 8.47200000 1412128030 1412128030 15.00000000
2.23906326 0.09188724 -0.60046017 4 0 8765 2.32000000 1412128051 1412128051 -15.00000000
8.11598969 0.33164713 0.14178336 25 1 8766 8.12400000 1412128053 1412128053 1.00000000
2.62083554 0.10663814 -0.60556823 6 2 8767 2.69200000 1412128055 1412128055 -13.00000000
8.12617302 0.32922199 0.42622402 13 3 8768 8.14400000 1412128058 1412128058 3.00000000
3.15040207 0.12763470 -0.61287850 5 4 8768 3.21200000 1412128060 1412128060 -11.00000000
8.13229656 0.32804844 0.71206242 83 5 8769 8.17000000 1412128062 1412128062 5.00000000
3.96928215 0.15942284 -0.62917942 9 6 8770 4.02200000 1412128064 1412128064 -9.00000000
8.12444496 0.32489115 0.99835366 90 7 8771 8.19200000 1412128067 1412128067 7.00000000
5.26624775 0.20967315 -0.64712620 6 8 8772 5.31000000 1412128069 1412128069 -7.00000000
8.22882557 0.32762679 1.30435061 10 9 8772 8.33800000 1412128071 1412128071 9.00000000
6.61153269 0.26207930 -0.57888842 52 10 8773 6.64200000 1412128074 1412128074 -5.00000000
8.10661125 0.31850964 -0.42517731 25 12 8775 8.12400000 1412128078 1412128078 -3.00000000
8.12060738 0.31622058 -0.14185315 20 14 8777 8.12800000 1412128083 1412128083 -1.00000000
8.18291759 0.31864694 2.19426775 51 15 8777 8.47800000 1412128085 1412128085 15.00000000
2.25288391 0.08457822 -0.60408366 4 0 8785 2.33400000 1412128106 1412128106 -15.00000000
8.11909580 0.30338970 0.14181826 18 1 8786 8.12600000 1412128108 1412128108 1.00000000
2.61924458 0.09741664 -0.60511833 7 2 8787 2.69000000 1412128111 1412128111 -13.00000000
8.12527657 0.30078048 0.42611936 13 3 8788 8.14200000 1412128113 1412128113 3.00000000
3.14690471 0.11649172 -0.61211526 5 4 8788 3.20800000 1412128115 1412128115 -11.00000000
8.12741947 0.29943934 0.71153951 76 5 8789 8.16400000 1412128117 1412128117 5.00000000
3.97376275 0.14571126 -0.62980515 9 6 8790 4.02600000 1412128120 1412128120 -9.00000000
8.12949657 0.29667434 0.99884117 90 7 8791 8.19600000 1412128122 1412128122 7.00000000
5.27488279 0.19157743 -0.64810115 4 8 8792 5.31800000 1412128124 1412128124 -7.00000000
8.20825672 0.29667956 1.30090904 10 9 8793 8.31600000 1412128127 1412128127 9.00000000
6.61439848 0.23907110 -0.57906276 44 10 8793 6.64400000 1412128129 1412128129 -5.00000000
8.11166573 0.29035324 -0.42538664 21 12 8795 8.12800000 1412128134 1412128134 -3.00000000
8.11366844 0.28758910 -0.14171354 20 14 8797 8.12000000 1412128138 1412128138 -1.00000000
8.18591022 0.29014972 2.19478559 58 15 8797 8.48000000 1412128140 1412128140 15.00000000
2.22613502 0.07579337 -0.59683675 4 0 8805 2.30600000 1412128161 1412128161 -15.00000000
8.12809944 0.27531770 0.14195788 21 1 8806 8.13400000 1412128164 1412128164 1.00000000
2.62346387 0.08840444 -0.60601813 6 2 8807 2.69400000 1412128166 1412128166 -13.00000000
8.13026905 0.27254996 0.42632869 13 3 8808 8.14600000 1412128168 1412128168 3.00000000
3.14729214 0.10550626 -0.61211526 5 4 8808 3.20800000 1412128170 1412128170 -11.00000000
8.11646748 0.27066910 0.71049362 76 5 8809 8.15200000 1412128173 1412128173 5.00000000
3.96832418 0.13164288 -0.62886655 6 6 8810 4.02000000 1412128175 1412128175 -9.00000000
8.13841915 0.26855719 0.99981612 90 7 8811 8.20400000 1412128177 1412128177 7.00000000
5.27155113 0.17303324 -0.64761370 4 8 8812 5.31400000 1412128180 1412128180 -7.00000000
8.20529366 0.26789668 1.30028331 10 9 8813 8.31200000 1412128182 1412128182 9.00000000
6.60324478 0.21559100 -0.57801688 44 10 8813 6.63200000 1412128184 1412128184 -5.00000000
8.12061501 0.26229438 -0.42580533 21 12 8815 8.13600000 1412128189 1412128189 -3.00000000
8.10263062 0.25888219 -0.14150411 20 14 8817 8.10800000 1412128193 1412128193 -1.00000000
8.18498802 0.26008356 2.19426775 58 15 8818 8.47800000 1412128196 1412128196 15.00000000
2.23410988 0.06825823 -0.59890729 4 0 8825 2.31400000 1412128217 1412128217 -15.00000000
8.11302090 0.24645790 0.14167863 21 1 8826 8.11800000 1412128219 1412128219 1.00000000
2.62960005 0.07942279 -0.60736787 6 2 8827 2.70000000 1412128221 1412128221 -13.00000000
8.13117123 0.24416837 0.42632869 13 3 8828 8.14600000 1412128223 1412128223 3.00000000
3.14764118 0.09451953 -0.61211526 5 4 8828 3.20800000 1412128226 1412128226 -11.00000000
8.11537075 0.24227625 0.71031928 76 5 8829 8.15000000 1412128228 1412128228 5.00000000
3.96481061 0.11767283 -0.62824082 6 6 8830 4.01600000 1412128230 1412128230 -9.00000000
8.14129066 0.24020571 1.00005984 92 7 8831 8.20600000 1412128233 1412128233 7.00000000
5.26617050 0.15445645 -0.64688247 6 8 8832 5.30800000 1412128235 1412128235 -7.00000000
8.21407700 0.23948351 1.30153477 10 9 8833 8.32000000 1412128237 1412128237 9.00000000
6.59798241 0.19236585 -0.57749397 12 10 8833 6.62600000 1412128240 1412128240 -5.00000000
8.10750580 0.23354398 -0.42507264 17 12 8835 8.12200000 1412128244 1412128244 -3.00000000
8.10748291 0.23071094 -0.14157392 22 14 8837 8.11200000 1412128249 1412128249 -1.00000000
8.17808151 0.23271993 2.19219732 58 15 8837 8.47000000 1412128251 1412128251 15.00000000
2.23433447 0.06045932 -0.59890729 4 0 8845 2.31400000 1412128272 1412128272 -15.00000000
8.10583591 0.21792170 0.14153902 18 1 8846 8.11000000 1412128274 1412128274 1.00000000
2.62596512 0.07013923 -0.60646802 6 2 8847 2.69600000 1412128276 1412128276 -13.00000000
8.13596725 0.21588975 0.42653805 13 3 8848 8.15000000 1412128279 1412128279 3.00000000
3.15580225 0.08373994 -0.61364174 5 4 8848 3.21600000 1412128281 1412128281 -11.00000000
8.11019230 0.21378933 0.70979637 76 5 8849 8.14400000 1412128283 1412128283 5.00000000
3.95927310 0.10367721 -0.62730223 6 6 8850 4.01000000 1412128286 1412128286 -9.00000000
8.13215733 0.21152775 0.99884117 87 7 8851 8.19600000 1412128288 1412128288 7.00000000
5.27858400 0.13638076 -0.64834493 6 8 8852 5.32000000 1412128290 1412128290 -7.00000000
8.22868538 0.21116430 1.30372488 10 9 8853 8.33400000 1412128293 1412128293 9.00000000
6.60458899 0.16948676 -0.57801688 16 10 8853 6.63200000 1412128295 1412128295 -5.00000000
8.12224865 0.20559585 -0.42580533 21 12 8855 8.13600000 1412128299 1412128299 -3.00000000
8.11023712 0.20245904 -0.14160882 16 14 8857 8.11400000 1412128304 1412128304 -1.00000000
8.18270588 0.20426810 2.19323254 51 15 8857 8.47400000 1412128306 1412128306 15.00000000
2.23839450 0.05275069 -0.59994256 4 0 8865 2.31800000 1412128327 1412128327 -15.00000000
8.10654736 0.18962574 0.14153902 15 1 8866 8.11000000 1412128329 1412128329 1.00000000
2.61060834 0.06061062 -0.60286885 6 2 8867 2.68000000 1412128332 1412128332 -13.00000000
8.12865162 0.18872330 0.42611936 15 3 8867 8.14200000 1412128334 1412128334 3.00000000
3.15607524 0.07272362 -0.61364174 5 4 8868 3.21600000 1412128336 1412128336 -11.00000000
8.11686516 0.18561482 0.71031928 76 5 8869 8.15000000 1412128339 1412128339 5.00000000
3.96158576 0.08990096 -0.62761509 6 6 8870 4.01200000 1412128341 1412128341 -9.00000000
8.12292385 0.18291648 0.99762243 90 7 8871 8.18600000 1412128343 1412128343 7.00000000
5.25918198 0.11751080 -0.64590752 6 8 8872 5.30000000 1412128345 1412128345 -7.00000000
8.22144127 0.18369932 1.30247331 10 9 8872 8.32600000 1412128348 1412128348 9.00000000
6.60912418 0.14651974 -0.57836550 52 10 8873 6.63600000 1412128350 1412128350 -5.00000000
8.10694218 0.17689411 -0.42496797 29 12 8875 8.12000000 1412128355 1412128355 -3.00000000
8.11489296 0.17423365 -0.14167863 18 14 8877 8.11800000 1412128359 1412128359 -1.00000000
8.18723202 0.17578682 2.19426775 51 15 8877 8.47800000 1412128362 1412128362 15.00000000
2.23470211 0.04485937 -0.59890729 4 0 8885 2.31400000 1412128382 1412128382 -15.00000000
8.10516071 0.16128767 0.14150411 18 1 8886 8.10800000 1412128385 1412128385 1.00000000
2.61275220 0.05153596 -0.60331875 6 2 8887 2.68200000 1412128387 1412128387 -13.00000000
8.12130070 0.15877287 0.42570066 13 3 8888 8.13400000 1412128389 1412128389 3.00000000
3.15238404 0.06162967 -0.61287850 5 4 8888 3.21200000 1412128392 1412128392 -11.00000000
8.12343884 0.15739633 0.71084225 76 5 8889 8.15600000 1412128394 1412128394 5.00000000
3.97372556 0.07629943 -0.62949228 9 6 8890 4.02400000 1412128396 1412128396 -9.00000000
8.12549686 0.15459883 0.99786621 90 7 8891 8.18800000 1412128398 1412128398 7.00000000
5.24368238 0.09885279 -0.64395761 6 8 8892 5.28400000 1412128401 1412128401 -7.00000000
8.21218395 0.15338056 1.30090904 10 9 8893 8.31600000 1412128403 1412128403 9.00000000
6.62553167 0.12374634 -0.57976002 100 10 8893 6.65200000 1412128405 1412128405 -5.00000000
8.10551357 0.14855792 -0.42486328 17 12 8895 8.11800000 1412128410 1412128410 -3.00000000
8.09745789 0.14558280 -0.14136449 18 14 8897 8.10000000 1412128415 1412128415 -1.00000000
8.19168472 0.14584671 2.19530320 56 15 8898 8.48200000 1412128417 1412128417 15.00000000
2.23870826 0.03712259 -0.59994256 4 0 8905 2.31800000 1412128438 1412128438 -15.00000000
8.12366867 0.13328965 0.14181826 15 1 8906 8.12600000 1412128440 1412128440 1.00000000
2.62265873 0.04257359 -0.60556823 6 2 8907 2.69200000 1412128442 1412128442 -13.00000000
8.12577629 0.13190563 0.42591003 13 3 8907 8.13800000 1412128445 1412128445 3.00000000
3.13295007 0.05031019 -0.60906231 5 4 8908 3.19200000 1412128447 1412128447 -11.00000000
8.11995506 0.12897600 0.71049362 79 5 8909 8.15200000 1412128449 1412128449 5.00000000
3.97199249 0.06239704 -0.62917942 9 6 8910 4.02200000 1412128451 1412128451 -9.00000000
8.13591194 0.12638879 0.99908489 90 7 8911 8.19800000 1412128454 1412128454 7.00000000
5.25788927 0.08076173 -0.64566380 6 8 8912 5.29800000 1412128456 1412128456 -7.00000000
8.20279408 0.12456378 1.29934466 10 9 8913 8.30600000 1412128458 1412128458 9.00000000
6.60002518 0.10022489 -0.57749397 100 10 8913 6.62600000 1412128461 1412128461 -5.00000000
8.09999180 0.12017461 -0.42454928 17 12 8915 8.11200000 1412128465 1412128465 -3.00000000
8.09591675 0.11728755 -0.14132959 20 14 8917 8.09800000 1412128470 1412128470 -1.00000000
8.18826008 0.11862534 2.19426775 54 15 8917 8.47800000 1412128472 1412128472 15.00000000
2.22337079 0.02910552 -0.59580141 4 0 8925 2.30200000 1412128493 1412128493 -15.00000000
8.11208725 0.10477698 0.14160882 18 1 8926 8.11400000 1412128495 1412128495 1.00000000
2.63253427 0.03354268 -0.60781777 7 2 8927 2.70200000 1412128497 1412128497 -13.00000000
8.12618732 0.10354058 0.42591003 15 3 8927 8.13800000 1412128500 1412128500 3.00000000
3.14488506 0.03952187 -0.61135203 5 4 8928 3.20400000 1412128502 1412128502 -11.00000000
8.11039448 0.10050783 0.70962209 76 5 8929 8.14200000 1412128504 1412128504 5.00000000
3.96033478 0.04838702 -0.62730223 6 6 8930 4.01000000 1412128507 1412128507 -9.00000000
8.13828850 0.09801228 0.99932861 90 7 8931 8.20000000 1412128509 1412128509 7.00000000
5.25615406 0.06238422 -0.64542001 8 8 8932 5.29600000 1412128511 1412128511 -7.00000000
8.20515347 0.09595303 1.29965758 10 9 8933 8.30800000 1412128514 1412128514 9.00000000
6.58838129 0.07704610 -0.57644808 40 10 8933 6.61400000 1412128516 1412128516 -5.00000000
8.11434174 0.09205823 -0.42528197 17 12 8935 8.12600000 1412128521 1412128521 -3.00000000
8.10027599 0.08907078 -0.14139940 20 14 8937 8.10200000 1412128525 1412128525 -1.00000000
8.18089676 0.08995729 2.19219732 56 15 8937 8.47000000 1412128527 1412128527 15.00000000
2.23504949 0.02145559 -0.59890729 4 0 8945 2.31400000 1412128548 1412128548 -15.00000000
8.10840511 0.07642218 0.14153902 15 1 8946 8.11000000 1412128550 1412128550 1.00000000
2.62094331 0.02424506 -0.60511833 7 2 8947 2.69000000 1412128553 1412128553 -13.00000000
8.14248943 0.07390092 0.42674738 13 3 8948 8.15400000 1412128555 1412128555 3.00000000
3.14107752 0.02850830 -0.61058879 5 4 8948 3.20000000 1412128557 1412128557 -11.00000000
8.11069584 0.07219666 0.70962209 76 5 8949 8.14200000 1412128560 1412128560 5.00000000
3.93677592 0.03435572 -0.62354779 2 6 8950 3.98600000 1412128562 1412128562 -9.00000000
8.13064098 0.06953586 0.99835366 87 7 8951 8.19200000 1412128564 1412128564 7.00000000
5.26031017 0.04406970 -0.64590752 6 8 8952 5.30000000 1412128567 1412128567 -7.00000000
8.20937729 0.06877633 1.30028331 10 9 8952 8.31200000 1412128569 1412128569 9.00000000
6.60056400 0.05414595 -0.57749397 20 10 8953 6.62600000 1412128571 1412128571 -5.00000000
8.10862160 0.06368627 -0.42496797 21 12 8955 8.12000000 1412128576 1412128576 -3.00000000
8.10253716 0.06081000 -0.14143430 18 14 8957 8.10400000 1412128580 1412128580 -1.00000000
8.17730808 0.05994387 2.19116211 51 15 8958 8.46600000 1412128583 1412128583 15.00000000
2.24090600 0.01368909 -0.60046017 4 0 8965 2.32000000 1412128603 1412128603 -15.00000000
8.10862160 0.04811810 0.14153902 15 1 8966 8.11000000 1412128606 1412128606 1.00000000
2.61321712 0.01505122 -0.60331875 7 2 8967 2.68200000 1412128608 1412128608 -13.00000000
8.12271786 0.04678401 0.42570066 15 3 8967 8.13400000 1412128610 1412128610 3.00000000
3.14115810 0.01754372 -0.61058879 5 4 8968 3.20000000 1412128613 1412128613 -11.00000000
8.11488342 0.04390617 0.70997065 76 5 8969 8.14600000 1412128615 1412128615 5.00000000
3.96452665 0.02075840 -0.62792796 2 6 8970 4.01400000 1412128617 1412128617 -9.00000000
8.12487888 0.04112406 0.99762243 90 7 8971 8.18600000 1412128620 1412128620 7.00000000
5.24455118 0.02562992 -0.64395761 8 8 8972 5.28400000 1412128622 1412128622 -7.00000000
8.20562363 0.03866838 1.29965758 10 9 8973 8.30800000 1412128624 1412128624 9.00000000
6.60469770 0.03112413 -0.57784259 24 10 8973 6.63000000 1412128627 1412128627 -5.00000000
8.10480022 0.03536409 -0.42475861 25 12 8975 8.11600000 1412128631 1412128631 -3.00000000
8.11069870 0.03255861 -0.14157392 18 14 8977 8.11200000 1412128636 1412128636 -1.00000000
8.18519497 0.03142905 2.19323254 54 15 8978 8.47400000 1412128638 1412128638 15.00000000
2.24673462 0.00627408 -0.60201311 4 0 8984 2.32600000 1412128659 1412128659 -15.00000000
8.10873699 0.02122867 0.14153902 28 1 8985 8.11000000 1412128661 1412128661 1.00000000
2.61715007 0.00639492 -0.60421854 7 2 8986 2.68600000 1412128663 1412128663 -13.00000000
8.11683655 0.01983321 0.42538664 15 3 8986 8.12800000 1412128666 1412128666 3.00000000
3.14905190 0.00714498 -0.61211526 5 4 8987 3.20800000 1412128668 1412128668 -11.00000000
8.12096119 0.01700853 0.71049362 79 5 8988 8.15200000 1412128670 1412128670 5.00000000
3.96654916 0.00761524 -0.62824082 2 6 8989 4.01600000 1412128673 1412128673 -9.00000000
8.12695599 0.01418423 0.99786621 90 7 8990 8.18800000 1412128675 1412128675 7.00000000
5.23666716 0.00822574 -0.64298266 6 8 8991 5.27600000 1412128677 1412128677 -7.00000000
8.21163082 0.01289881 1.30059612 10 9 8991 8.31400000 1412128680 1412128680 9.00000000
6.60874939 0.00922756 -0.57819122 12 10 8992 6.63400000 1412128682 1412128682 -5.00000000
8.10287571 0.00848531 -0.42465395 21 12 8994 8.11400000 1412128686 1412128686 -3.00000000
8.10276413 0.00565680 -0.14143430 18 14 8996 8.10400000 1412128691 1412128691 -1.00000000
8.18911839 0.00428781 2.19426775 51 15 8997 8.47800000 1412128693 1412128693 15.00000000
-1.95503342 0.00136487 -0.52384973 5 0 27004 2.02400000 1412178647 1412178647 -15.00000000
-2.23130631 0.00233662 -0.51513791 4 2 27006 2.29000000 1412178651 1412178651 -13.00000000
-1.39208853 0.00170076 0.07295632 76 3 27007 1.39400000 1412178653 1412178653 3.00000000
-2.61701608 0.00319729 -0.50869679 3 4 27007 2.66600000 1412178656 1412178656 -11.00000000
-3.16454959 0.00497087 -0.50121605 3 6 27009 3.20400000 1412178660 1412178660 -9.00000000
-1.24266589 0.00216886 0.15258043 74 7 27010 1.25200000 1412178663 1412178663 7.00000000
-1.24250925 0.00260231 0.19679455 56 9 27012 1.25800000 1412178667 1412178667 9.00000000
-1.43053246 0.00299610 -0.12515564 77 10 27012 1.43600000 1412178670 1412178670 -5.00000000
-1.23684704 0.00280632 0.24041933 63 11 27013 1.26000000 1412178672 1412178672 11.00000000
-1.42004693 0.00346984 -0.07442173 74 12 27014 1.42200000 1412178674 1412178674 -3.00000000
-1.15559888 0.00302536 0.26679194 71 13 27015 1.18600000 1412178676 1412178676 13.00000000
-1.41177940 0.00394244 -0.02464280 54 14 27016 1.41200000 1412178679 1412178679 -1.00000000
-1.13978803 0.00318290 0.30540648 100 15 27016 1.18000000 1412178681 1412178681 15.00000000
-1.95888042 0.00820539 -0.52488500 6 0 27024 2.02800000 1412178702 1412178702 -15.00000000
-2.23323321 0.01013416 -0.51558781 4 2 27026 2.29200000 1412178706 1412178706 -13.00000000
-1.38208795 0.00651298 0.07243297 87 3 27027 1.38400000 1412178709 1412178709 3.00000000
-2.61698890 0.01233236 -0.50869679 3 4 27027 2.66600000 1412178711 1412178711 -11.00000000
-3.16451287 0.01601718 -0.50121605 3 6 27029 3.20400000 1412178716 1412178716 -9.00000000
-1.24860597 0.00653775 0.15331164 58 7 27030 1.25800000 1412178718 1412178718 7.00000000
-3.92049980 0.02121215 -0.48138392 3 8 27031 3.95000000 1412178720 1412178720 -7.00000000
-1.22668982 0.00685120 0.19429161 53 9 27032 1.24200000 1412178723 1412178723 9.00000000
-1.43449795 0.00801183 -0.12550427 74 10 27032 1.44000000 1412178725 1412178725 -5.00000000
-1.23094010 0.00708978 0.23927449 59 11 27033 1.25400000 1412178727 1412178727 11.00000000
-1.42801511 0.00847411 -0.07484042 76 12 27034 1.43000000 1412178729 1412178729 -3.00000000
-1.14194036 0.00697580 0.26364264 63 13 27035 1.17200000 1412178732 1412178732 13.00000000
-1.41575634 0.00889558 -0.02471261 54 14 27036 1.41600000 1412178734 1412178734 -1.00000000
-1.14942908 0.00722217 0.30799466 94 15 27036 1.19000000 1412178736 1412178736 15.00000000
-1.94531977 0.01459974 -0.52126157 5 0 27043 2.01400000 1412178757 1412178757 -15.00000000
-2.23708463 0.01757038 -0.51648760 4 2 27045 2.29600000 1412178762 1412178762 -13.00000000
-1.37007749 0.01076078 0.07180493 53 3 27045 1.37200000 1412178764 1412178764 3.00000000
-2.61693382 0.02101054 -0.50869679 3 4 27046 2.66600000 1412178766 1412178766 -11.00000000
-3.16049170 0.02647789 -0.50059026 3 6 27048 3.20000000 1412178771 1412178771 -9.00000000
-1.24659240 0.01066126 0.15306790 54 7 27049 1.25600000 1412178773 1412178773 7.00000000
-3.93827319 0.03436879 -0.48357755 5 8 27050 3.96800000 1412178775 1412178775 -7.00000000
-1.21283507 0.01058425 0.19210152 53 9 27050 1.22800000 1412178778 1412178778 9.00000000
-1.42649424 0.01269782 -0.12480702 63 10 27051 1.43200000 1412178780 1412178780 -5.00000000
-1.22109389 0.01108260 0.23736639 53 11 27052 1.24400000 1412178782 1412178782 11.00000000
-1.43596780 0.01328343 -0.07525910 65 12 27053 1.43800000 1412178785 1412178785 -3.00000000
-1.14191103 0.01076258 0.26364264 63 13 27054 1.17200000 1412178787 1412178787 13.00000000
-1.41171992 0.01355195 -0.02464280 55 14 27055 1.41200000 1412178789 1412178789 -1.00000000
-1.14167178 0.01095960 0.30592412 97 15 27055 1.18200000 1412178792 1412178792 15.00000000
-1.94912052 0.02143256 -0.52229685 5 0 27063 2.01800000 1412178812 1412178812 -15.00000000
-2.25064993 0.02553391 -0.51963693 4 2 27065 2.31000000 1412178817 1412178817 -13.00000000
-1.34806037 0.01552923 0.07065354 53 3 27066 1.35000000 1412178819 1412178819 3.00000000
-2.61488128 0.03012260 -0.50831515 3 4 27066 2.66400000 1412178822 1412178822 -11.00000000
-3.14852858 0.03736924 -0.49871308 3 6 27068 3.18800000 1412178826 1412178826 -9.00000000
-1.24257767 0.01496480 0.15258043 54 7 27069 1.25200000 1412178828 1412178828 7.00000000
-3.94606900 0.04821273 -0.48455250 5 8 27070 3.97600000 1412178831 1412178831 -7.00000000
-1.21673858 0.01507840 0.19272727 53 9 27071 1.23200000 1412178833 1412178833 9.00000000
-1.41847229 0.01757838 -0.12410977 34 10 27071 1.42400000 1412178835 1412178835 -5.00000000
-1.21319544 0.01524627 0.23583992 48 11 27072 1.23600000 1412178838 1412178838 11.00000000
-1.43591273 0.01829582 -0.07525910 67 12 27073 1.43800000 1412178840 1412178840 -3.00000000
-1.13796937 0.01469819 0.26274282 71 13 27074 1.16800000 1412178842 1412178842 13.00000000
-1.40766490 0.01842734 -0.02457299 55 14 27075 1.40800000 1412178845 1412178845 -1.00000000
-1.12810206 0.01496459 0.30230063 92 15 27076 1.16800000 1412178847 1412178847 15.00000000
-1.95482874 0.02832009 -0.52384973 5 0 27083 2.02400000 1412178868 1412178868 -15.00000000
-2.23495889 0.03315872 -0.51603770 4 2 27085 2.29400000 1412178872 1412178872 -13.00000000
-1.28609335 0.01908098 0.06740871 42 3 27085 1.28800000 1412178875 1412178875 3.00000000
-2.61279726 0.03922059 -0.50793356 3 4 27086 2.66200000 1412178877 1412178877 -11.00000000
-3.14837909 0.04835944 -0.49871308 3 6 27088 3.18800000 1412178881 1412178881 -9.00000000
-1.24053299 0.01927128 0.15233667 58 7 27089 1.25000000 1412178884 1412178884 7.00000000
-3.94587660 0.06198679 -0.48455250 5 8 27090 3.97600000 1412178886 1412178886 -7.00000000
-1.21470344 0.01929414 0.19241439 50 9 27091 1.23000000 1412178888 1412178888 9.00000000
-1.20528281 0.01935492 0.23431344 51 11 27092 1.22800000 1412178893 1412178893 11.00000000
-1.43983412 0.02337281 -0.07546845 60 12 27093 1.44200000 1412178895 1412178895 -3.00000000
-1.14375651 0.01876626 0.26409253 79 13 27094 1.17400000 1412178898 1412178898 13.00000000
-1.41558969 0.02347352 -0.02471261 55 14 27095 1.41600000 1412178900 1412178900 -1.00000000
-1.13190949 0.01876949 0.30333593 94 15 27095 1.17200000 1412178902 1412178902 15.00000000
-1.95278645 0.03510881 -0.52333212 4 0 27103 2.02200000 1412178923 1412178923 -15.00000000
-2.23482966 0.04095998 -0.51603770 4 2 27105 2.29400000 1412178927 1412178927 -13.00000000
-1.27603424 0.02338717 0.06688535 65 3 27105 1.27800000 1412178930 1412178930 3.00000000
-2.62442183 0.04855863 -0.51022327 3 4 27106 2.67400000 1412178932 1412178932 -11.00000000
-3.16004133 0.05957243 -0.50059026 3 6 27108 3.20000000 1412178937 1412178937 -9.00000000
-1.22458029 0.02329934 0.15038677 49 7 27109 1.23400000 1412178939 1412178939 7.00000000
-3.95357513 0.07591252 -0.48552746 7 8 27110 3.98400000 1412178941 1412178941 -7.00000000
-1.21462870 0.02353413 0.19241439 50 9 27111 1.23000000 1412178944 1412178944 9.00000000
-5.17724848 0.10031218 -0.45303556 9 10 27111 5.19800000 1412178946 1412178946 -5.00000000
-1.19735634 0.02340853 0.23278697 58 11 27112 1.22000000 1412178948 1412178948 11.00000000
-1.43175626 0.02824107 -0.07504976 63 12 27113 1.43400000 1412178951 1412178951 -3.00000000
-1.13199389 0.02252598 0.26139313 79 13 27114 1.16200000 1412178953 1412178953 13.00000000
-1.43149352 0.02873578 -0.02499185 57 14 27115 1.43200000 1412178955 1412178955 -1.00000000
-1.13763142 0.02283679 0.30488884 100 15 27115 1.17800000 1412178957 1412178957 15.00000000
-1.96037757 0.04209097 -0.52540267 5 0 27123 2.03000000 1412178978 1412178978 -15.00000000
-2.23856950 0.04884576 -0.51693749 4 2 27125 2.29800000 1412178983 1412178983 -13.00000000
-1.24998188 0.02749297 0.06552462 54 3 27126 1.25200000 1412178985 1412178985 3.00000000
-2.62031078 0.05763293 -0.50946003 3 4 27126 2.67000000 1412178987 1412178987 -11.00000000
-3.17166328 0.07086743 -0.50246751 3 6 27128 3.21200000 1412178992 1412178992 -9.00000000
-1.22846067 0.02766316 0.15087424 47 7 27129 1.23800000 1412178994 1412178994 7.00000000
-3.92947102 0.08917218 -0.48260260 7 8 27130 3.96000000 1412178997 1412178997 -7.00000000
-1.20466959 0.02733778 0.19085005 50 9 27130 1.22000000 1412178999 1412178999 9.00000000
-5.18085051 0.11847464 -0.45338416 9 10 27131 5.20200000 1412179001 1412179001 -5.00000000
-1.20119286 0.02767839 0.23355021 56 11 27132 1.22400000 1412179004 1412179004 11.00000000
-1.43963587 0.03342409 -0.07546845 49 12 27133 1.44200000 1412179006 1412179006 -3.00000000
-1.12606370 0.02634052 0.26004341 81 13 27134 1.15600000 1412179008 1412179008 13.00000000
-1.42338789 0.03354400 -0.02485223 54 14 27135 1.42400000 1412179010 1412179010 -1.00000000
-1.14140272 0.02709797 0.30592412 100 15 27136 1.18200000 1412179013 1412179013 15.00000000
-1.94283748 0.04849982 -0.52074391 5 0 27143 2.01200000 1412179033 1412179033 -15.00000000
-2.23838544 0.05665953 -0.51693749 4 2 27145 2.29800000 1412179038 1412179038 -13.00000000
-1.24988377 0.03163791 0.06552462 64 3 27145 1.25200000 1412179040 1412179040 3.00000000
-2.61420584 0.06662911 -0.50831515 3 4 27146 2.66400000 1412179043 1412179043 -11.00000000
-3.15954828 0.08163205 -0.50059026 3 6 27148 3.20000000 1412179047 1412179047 -9.00000000
-1.22835672 0.03195112 0.15087424 45 7 27149 1.23800000 1412179050 1412179050 7.00000000
-3.94104242 0.10319982 -0.48406503 7 8 27150 3.97200000 1412179052 1412179052 -7.00000000
-1.19468784 0.03149266 0.18928570 52 9 27151 1.21000000 1412179054 1412179054 9.00000000
-5.18438864 0.13666347 -0.45373279 9 10 27151 5.20600000 1412179057 1412179057 -5.00000000
-1.20501399 0.03197533 0.23431344 58 11 27152 1.22800000 1412179059 1412179059 11.00000000
-1.45548272 0.03887578 -0.07630582 10 12 27153 1.45800000 1412179061 1412179061 -3.00000000
-1.13375711 0.03048054 0.26184303 81 13 27154 1.16400000 1412179063 1412179063 13.00000000
-1.41926420 0.03840416 -0.02478242 57 14 27155 1.42000000 1412179066 1412179066 -1.00000000
-1.12585211 0.03066131 0.30178300 100 15 27156 1.16600000 1412179068 1412179068 15.00000000
-1.95231175 0.05555604 -0.52333212 5 0 27163 2.02200000 1412179089 1412179089 -15.00000000
-2.24986172 0.06480928 -0.51963693 4 2 27165 2.31000000 1412179093 1412179093 -13.00000000
-1.24577296 0.03588561 0.06531528 54 3 27165 1.24800000 1412179096 1412179096 3.00000000
-2.61591983 0.07581086 -0.50869679 3 4 27166 2.66600000 1412179098 1412179098 -11.00000000
-3.17109132 0.09300791 -0.50246751 3 6 27168 3.21200000 1412179103 1412179103 -9.00000000
-1.22426915 0.03612160 0.15038677 47 7 27169 1.23400000 1412179105 1412179105 7.00000000
-3.94859505 0.11719156 -0.48503998 7 8 27170 3.98000000 1412179107 1412179107 -7.00000000
-1.20247495 0.03568862 0.19053718 43 9 27170 1.21800000 1412179110 1412179110 9.00000000
-5.19582891 0.15511625 -0.45477867 9 10 27171 5.21800000 1412179112 1412179112 -5.00000000
-1.19704556 0.03594570 0.23278697 58 11 27172 1.22000000 1412179114 1412179114 11.00000000
-1.14143515 0.03467460 0.26364264 86 13 27174 1.17200000 1412179119 1412179119 13.00000000
-1.41712272 0.04329702 -0.02474751 42 14 27175 1.41800000 1412179121 1412179121 -1.00000000
-1.12187636 0.03447241 0.30074772 100 15 27176 1.16200000 1412179123 1412179123 15.00000000
-1.95403671 0.06243224 -0.52384973 5 0 27183 2.02400000 1412179144 1412179144 -15.00000000
-2.22819662 0.07197034 -0.51468801 4 2 27185 2.28800000 1412179149 1412179149 -13.00000000
-1.25562119 0.04055633 0.06583863 49 3 27185 1.25800000 1412179151 1412179151 3.00000000
-2.61563921 0.08494166 -0.50869679 3 4 27186 2.66600000 1412179153 1412179153 -11.00000000
-3.16285014 0.10381730 -0.50121605 3 6 27188 3.20400000 1412179158 1412179158 -9.00000000
-1.22413564 0.04039488 0.15038677 47 7 27189 1.23400000 1412179160 1412179160 7.00000000
-3.96204996 0.13143472 -0.48674616 7 8 27190 3.99400000 1412179163 1412179163 -7.00000000
-1.20629156 0.04001682 0.19116291 43 9 27190 1.22200000 1412179165 1412179165 9.00000000
-5.19525576 0.17325214 -0.45477867 9 10 27191 5.21800000 1412179167 1412179167 -5.00000000
-1.18513989 0.03972929 0.23049727 58 11 27192 1.20800000 1412179169 1412179169 11.00000000
-1.15299296 0.03905456 0.26634204 90 13 27194 1.18400000 1412179174 1412179174 13.00000000
-1.30304635 0.04436491 -0.02275794 27 14 27195 1.30400000 1412179176 1412179176 -1.00000000
-1.12561059 0.03852043 0.30178300 97 15 27196 1.16600000 1412179179 1412179179 15.00000000
-1.95380688 0.06925272 -0.52384973 5 0 27203 2.02400000 1412179199 1412179199 -15.00000000
-2.23182678 0.07988718 -0.51558781 4 2 27205 2.29200000 1412179204 1412179204 -13.00000000
-1.24748802 0.04465324 0.06541994 52 3 27205 1.25000000 1412179206 1412179206 3.00000000
-2.62317467 0.09435371 -0.51022327 3 4 27206 2.67400000 1412179209 1412179209 -11.00000000
-3.15062404 0.11442690 -0.49933881 3 6 27208 3.19200000 1412179213 1412179213 -9.00000000
-1.21605206 0.04437808 0.14941181 45 7 27209 1.22600000 1412179215 1412179215 7.00000000
-3.94569683 0.14468214 -0.48479626 7 8 27210 3.97800000 1412179218 1412179218 -7.00000000
-1.19824839 0.04393777 0.18991144 48 9 27210 1.21400000 1412179220 1412179220 9.00000000
-5.19461966 0.19138591 -0.45477867 6 10 27211 5.21800000 1412179222 1412179222 -5.00000000
-1.18499398 0.04386596 0.23049727 56 11 27212 1.20800000 1412179225 1412179225 11.00000000
-1.13921785 0.04256964 0.26319274 78 13 27214 1.17000000 1412179229 1412179229 13.00000000
-1.26491606 0.04748774 -0.02209475 34 14 27215 1.26600000 1412179232 1412179232 -1.00000000
-1.12354612 0.04218040 0.30126536 94 15 27215 1.16400000 1412179234 1412179234 15.00000000
-1.96127486 0.07637303 -0.52592027 5 0 27223 2.03200000 1412179255 1412179255 -15.00000000
-2.23737621 0.08790675 -0.51693749 4 2 27225 2.29800000 1412179259 1412179259 -13.00000000
-1.24732459 0.04900751 0.06541994 68 3 27225 1.25000000 1412179262 1412179262 3.00000000
-2.62675285 0.10366456 -0.51098651 3 4 27226 2.67800000 1412179264 1412179264 -11.00000000
-3.15810061 0.12573828 -0.50059026 3 6 27228 3.20000000 1412179268 1412179268 -9.00000000
-1.20398879 0.04814671 0.14794938 45 7 27229 1.21400000 1412179271 1412179271 7.00000000
-3.94715118 0.15853398 -0.48503998 7 8 27230 3.98000000 1412179273 1412179273 -7.00000000
-1.20203531 0.04827872 0.19053718 43 9 27230 1.21800000 1412179275 1412179275 9.00000000
-5.20586443 0.20999917 -0.45582452 3 10 27231 5.23000000 1412179278 1412179278 -5.00000000
-1.18875694 0.04816104 0.23126051 54 11 27232 1.21200000 1412179280 1412179280 11.00000000
-1.26721096 0.05156105 -0.06646667 2 12 27233 1.27000000 1412179282 1412179282 -3.00000000
-1.11764407 0.04567077 0.25824380 75 13 27234 1.14800000 1412179285 1412179285 13.00000000
-1.24476254 0.05108288 -0.02174570 43 14 27235 1.24600000 1412179287 1412179287 -1.00000000
-1.13110483 0.04661632 0.30333593 94 15 27236 1.17200000 1412179289 1412179289 15.00000000
-1.94941556 0.08272725 -0.52281445 4 0 27243 2.02000000 1412179310 1412179310 -15.00000000
-2.23705578 0.09571611 -0.51693749 4 2 27245 2.29800000 1412179315 1412179315 -13.00000000
-1.24514115 0.05349313 0.06531528 73 3 27246 1.24800000 1412179317 1412179317 3.00000000
-2.61852908 0.11249594 -0.50946003 3 4 27246 2.67000000 1412179319 1412179319 -11.00000000
-3.16948366 0.13727419 -0.50246751 3 6 27248 3.21200000 1412179324 1412179324 -9.00000000
-1.21174622 0.05269409 0.14892434 45 7 27249 1.22200000 1412179326 1412179326 7.00000000
-3.95847297 0.17283067 -0.48650241 7 8 27250 3.99200000 1412179328 1412179328 -7.00000000
-1.19001842 0.05195733 0.18865997 48 9 27250 1.20600000 1412179331 1412179331 9.00000000
-1.20427239 0.05300085 0.23431344 54 11 27252 1.22800000 1412179335 1412179335 11.00000000
-1.27500451 0.05633678 -0.06688535 10 12 27253 1.27800000 1412179338 1412179338 -3.00000000
-1.13305247 0.05026269 0.26184303 84 13 27254 1.16400000 1412179340 1412179340 13.00000000
-1.23658574 0.05507172 -0.02160608 43 14 27255 1.23800000 1412179342 1412179342 -1.00000000
-1.12515426 0.05010909 0.30178300 97 15 27255 1.16600000 1412179345 1412179345 15.00000000
-1.94525528 0.08935419 -0.52177918 5 0 27263 2.01600000 1412179365 1412179365 -15.00000000
-2.24838781 0.10406491 -0.51963693 4 2 27265 2.31000000 1412179370 1412179370 -13.00000000
-1.24893701 0.05802454 0.06552462 64 3 27266 1.25200000 1412179372 1412179372 3.00000000
-2.61419821 0.12145340 -0.50869679 3 4 27266 2.66600000 1412179374 1412179374 -11.00000000
-3.16109228 0.14796746 -0.50121605 3 6 27268 3.20400000 1412179379 1412179379 -9.00000000
-1.20758903 0.05673723 0.14843686 45 7 27269 1.21800000 1412179381 1412179381 7.00000000
-3.95387983 0.18646024 -0.48601493 7 8 27270 3.98800000 1412179384 1412179384 -7.00000000
-1.18587363 0.05613182 0.18803422 48 9 27271 1.20200000 1412179386 1412179386 9.00000000
-1.19231379 0.05664522 0.23202375 54 11 27272 1.21600000 1412179391 1412179391 11.00000000
-1.27679503 0.06088216 -0.06699003 32 12 27273 1.28000000 1412179393 1412179393 -3.00000000
-1.14065611 0.05459011 0.26364264 90 13 27274 1.17200000 1412179395 1412179395 13.00000000
-1.23638594 0.05938788 -0.02160608 42 14 27275 1.23800000 1412179398 1412179398 -1.00000000
-1.11338532 0.05367451 0.29867718 100 15 27276 1.15400000 1412179400 1412179400 15.00000000
-1.94879055 0.09633461 -0.52281445 4 0 27283 2.02000000 1412179421 1412179421 -15.00000000
-2.23244023 0.11113746 -0.51603770 4 2 27285 2.29400000 1412179425 1412179425 -13.00000000
-1.26069546 0.06298172 0.06615265 73 3 27286 1.26400000 1412179427 1412179427 3.00000000
-2.62160158 0.13096975 -0.51022327 3 4 27286 2.67400000 1412179430 1412179430 -11.00000000
-3.16055655 0.15900083 -0.50121605 3 6 27288 3.20400000 1412179434 1412179434 -9.00000000
-1.21134877 0.06115232 0.14892434 42 7 27289 1.22200000 1412179437 1412179437 7.00000000
-3.96906543 0.20106417 -0.48796484 6 8 27290 4.00400000 1412179439 1412179439 -7.00000000
-1.19357240 0.06046377 0.18928570 48 9 27290 1.21000000 1412179441 1412179441 9.00000000
-1.17642319 0.06000674 0.22897080 56 11 27292 1.20000000 1412179446 1412179446 11.00000000
-1.25662827 0.06431772 -0.06594331 52 12 27293 1.26000000 1412179448 1412179448 -3.00000000
-1.14435101 0.05877131 0.26454243 86 13 27294 1.17600000 1412179451 1412179451 13.00000000
-1.23816812 0.06380622 -0.02164098 50 14 27295 1.24000000 1412179453 1412179453 -1.00000000
-1.12477696 0.05796286 0.30178300 97 15 27295 1.16600000 1412179455 1412179455 15.00000000
-1.94458413 0.10293234 -0.52177918 4 0 27303 2.01600000 1412179476 1412179476 -15.00000000
-2.22425485 0.11851470 -0.51423812 4 2 27305 2.28600000 1412179480 1412179480 -13.00000000
-1.25049591 0.06684890 0.06562929 68 3 27306 1.25400000 1412179483 1412179483 3.00000000
-2.63289118 0.14074886 -0.51251298 3 4 27306 2.68600000 1412179485 1412179485 -11.00000000
-3.15998220 0.17003226 -0.50121605 3 6 27308 3.20400000 1412179490 1412179490 -9.00000000
-1.19725251 0.06463131 0.14721817 45 7 27309 1.20800000 1412179492 1412179492 7.00000000
-3.94851732 0.21384406 -0.48552746 5 8 27310 3.98400000 1412179494 1412179494 -7.00000000
-1.19926012 0.06515954 0.19022430 45 9 27311 1.21600000 1412179497 1412179497 9.00000000
-1.28319848 0.06972016 -0.11243091 3 10 27311 1.29000000 1412179499 1412179499 -5.00000000
-1.18796861 0.06475399 0.23126051 51 11 27312 1.21200000 1412179501 1412179501 11.00000000
-1.24044192 0.06783135 -0.06510593 49 12 27313 1.24400000 1412179503 1412179503 -3.00000000
-1.13246405 0.06212502 0.26184303 82 13 27314 1.16400000 1412179506 1412179506 13.00000000
-1.23594129 0.06801796 -0.02160608 42 14 27315 1.23800000 1412179508 1412179508 -1.00000000
-1.12069917 0.06187200 0.30074772 97 15 27316 1.16200000 1412179510 1412179510 15.00000000
-1.95582414 0.10968997 -0.52488500 5 0 27321 2.02800000 1412179531 1412179531 -15.00000000
-2.22387147 0.12550181 -0.51423812 4 2 27323 2.28600000 1412179536 1412179536 -13.00000000
-1.23831534 0.07009982 0.06500126 68 3 27324 1.24200000 1412179538 1412179538 3.00000000
-2.61283493 0.14791003 -0.50869679 3 4 27324 2.66600000 1412179540 1412179540 -11.00000000
-3.16337681 0.18018346 -0.50184178 3 6 27326 3.20800000 1412179545 1412179545 -9.00000000
-1.19902539 0.06850550 0.14746191 45 7 27327 1.21000000 1412179547 1412179547 7.00000000
-3.99935389 0.22920065 -0.49186468 2 8 27328 4.03600000 1412179550 1412179550 -7.00000000
-1.18131232 0.06770032 0.18740849 48 9 27328 1.19800000 1412179552 1412179552 9.00000000
-1.28695130 0.07397979 -0.11277953 13 10 27329 1.29400000 1412179554 1412179554 -5.00000000
-1.17991936 0.06803373 0.22973403 54 11 27330 1.20400000 1412179556 1412179556 11.00000000
-1.24421060 0.07195861 -0.06531528 47 12 27331 1.24800000 1412179559 1412179559 -3.00000000
-1.12837231 0.06545673 0.26094323 69 13 27332 1.16000000 1412179561 1412179561 13.00000000
-1.23172879 0.07166813 -0.02153627 45 14 27333 1.23400000 1412179563 1412179563 -1.00000000
-1.13593936 0.06609462 0.30488884 100 15 27333 1.17800000 1412179566 1412179566 15.00000000
-1.94771552 0.11605677 -0.52281445 4 0 27341 2.02000000 1412179586 1412179586 -15.00000000
-2.24092722 0.13431312 -0.51828724 4 2 27343 2.30400000 1412179591 1412179591 -13.00000000
-1.24005675 0.07454176 0.06510593 64 3 27344 1.24400000 1412179593 1412179593 3.00000000
-2.61622214 0.15726523 -0.50946003 3 4 27344 2.67000000 1412179596 1412179596 -11.00000000
-3.16272855 0.19122460 -0.50184178 3 6 27346 3.20800000 1412179600 1412179600 -9.00000000
-1.21066773 0.07341135 0.14892434 42 7 27347 1.22200000 1412179603 1412179603 7.00000000
-1.18105626 0.07202959 0.18740849 52 9 27349 1.19800000 1412179607 1412179607 9.00000000
-1.28270793 0.07822906 -0.11243091 43 10 27349 1.29000000 1412179609 1412179609 -5.00000000
-1.19535148 0.07311083 0.23278697 49 11 27350 1.22000000 1412179612 1412179612 11.00000000
-1.24793875 0.07654583 -0.06552462 47 12 27351 1.25200000 1412179614 1412179614 -3.00000000
-1.13202703 0.06963438 0.26184303 65 13 27352 1.16400000 1412179616 1412179616 13.00000000
-1.22747934 0.07572098 -0.02146646 42 14 27353 1.23000000 1412179619 1412179619 -1.00000000
-1.12797689 0.06978048 0.30281827 100 15 27354 1.17000000 1412179621 1412179621 15.00000000
-1.93761563 0.12292303 -0.52022630 4 0 27363 2.01000000 1412179642 1412179642 -15.00000000
-2.23650527 0.14266855 -0.51738745 4 2 27365 2.30000000 1412179646 1412179646 -13.00000000
-1.24574089 0.07968517 0.06541994 68 3 27366 1.25000000 1412179649 1412179649 3.00000000
