# .PCD v0.7 - Point Cloud Data file format
VERSION 0.7
FIELDS x y z intensity laser_id azimuth distance_m adjustedtime timestamp vertical_angle
SIZE 4 4 4 1 1 2 8 8 4 8
TYPE F F F U U U F U U F
COUNT 1 1 1 1 1 1 1 1 1 1
WIDTH 544
HEIGHT 1
VIEWPOINT 0 0 0 1 0 0 0
POINTS 544
DATA ascii
0.12442640 3.75078654 -0.19667852 1 12 190 3.75800000 1410904210 1410904210 -3.00000000
0.34560299 10.36348534 2.39392900 54 13 191 10.64200000 1410904212 1410904212 13.00000000
0.29889938 8.91628265 2.39045262 42 15 192 9.23600000 1410904217 1410904217 15.00000000
0.07827538 2.24151349 -0.60097784 4 0 200 2.32200000 1410904237 1410904237 -15.00000000
0.13038498 3.71514654 0.06488805 64 1 201 3.71800000 1410904240 1410904240 1.00000000
0.09334953 2.64669204 -0.61141694 3 2 202 2.71800000 1410904242 1410904242 -13.00000000
0.13229960 3.73253059 0.19573648 78 3 203 3.74000000 1410904244 1410904244 3.00000000
0.11293931 3.18632412 -0.61974764 2 4 203 3.24800000 1410904247 1410904247 -11.00000000
0.13326521 3.74132705 0.32753128 46 5 204 3.75800000 1410904249 1410904249 5.00000000
0.14401001 4.02324104 -0.63762689 2 6 205 4.07600000 1410904251 1410904251 -9.00000000
0.15020481 4.17591858 0.51306993 17 7 206 4.21000000 1410904254 1410904254 7.00000000
0.25604942 7.08413887 -0.87039083 4 8 207 7.14200000 1410904256 1410904256 -7.00000000
0.14990593 4.12750196 -0.36134771 6 10 208 4.14600000 1410904260 1410904260 -5.00000000
0.39006862 10.68869495 2.07905483 43 11 209 10.89600000 1410904263 1410904263 11.00000000
0.13751833 3.75032926 -0.19667852 1 12 210 3.75800000 1410904265 1410904265 -3.00000000
0.38220668 10.37390041 2.39662862 54 13 211 10.65400000 1410904267 1410904267 13.00000000
0.13773923 3.72088432 -0.06499276 43 14 212 3.72400000 1410904270 1410904270 -1.00000000
0.33143356 8.91126633 2.38941741 40 15 213 9.23200000 1410904272 1410904272 15.00000000
0.08556043 2.23738074 -0.59994256 6 0 219 2.31800000 1410904293 1410904293 -15.00000000
0.14178297 3.69071507 0.06446919 70 1 220 3.69400000 1410904295 1410904295 1.00000000
0.10212576 2.64636803 -0.61141694 3 2 221 2.71800000 1410904297 1410904297 -13.00000000
0.14521797 3.74604154 0.19646917 53 3 222 3.75400000 1410904300 1410904300 3.00000000
0.12365703 3.18985558 -0.62051088 2 4 222 3.25200000 1410904302 1410904302 -11.00000000
0.14644642 3.76077318 0.32927439 52 5 223 3.77800000 1410904304 1410904304 5.00000000
0.15719634 4.01879358 -0.63700116 2 6 224 4.07200000 1410904307 1410904307 -9.00000000
0.16459736 4.18928289 0.51477611 36 7 225 4.22400000 1410904309 1410904309 7.00000000
0.27961814 7.08523417 -0.87063462 6 8 226 7.14400000 1410904311 1410904311 -7.00000000
0.16146168 4.07322979 -0.35664129 9 10 227 4.09200000 1410904316 1410904316 -5.00000000
0.42473042 10.66772556 2.07523870 40 11 228 10.87600000 1410904318 1410904318 11.00000000
0.14947529 3.73787880 -0.19605049 1 12 229 3.74600000 1410904320 1410904320 -3.00000000
0.41644928 10.36868095 2.39572883 53 13 230 10.65000000 1410904323 1410904323 13.00000000
0.14999677 3.71840906 -0.06495786 100 14 231 3.72200000 1410904325 1410904325 -1.00000000
0.35958320 8.91404152 2.39045262 40 15 231 9.23600000 1410904327 1410904327 15.00000000
0.09377263 2.24671936 -0.60253072 9 0 239 2.32800000 1410904348 1410904348 -15.00000000
0.15508379 3.70018721 0.06464371 55 1 240 3.70400000 1410904350 1410904350 1.00000000
0.11070713 2.63041925 -0.60781777 3 2 241 2.70200000 1410904353 1410904353 -13.00000000
0.15837754 3.74750733 0.19657385 55 3 242 3.75600000 1410904355 1410904355 3.00000000
0.13462515 3.18548155 -0.61974764 2 4 242 3.24800000 1410904357 1410904357 -11.00000000
0.16007993 3.77218270 0.33032027 57 5 243 3.79000000 1410904360 1410904360 5.00000000
0.17189638 4.03400898 -0.63950408 2 6 244 4.08800000 1410904362 1410904362 -9.00000000
0.17888026 4.18074942 0.51380116 40 7 245 4.21600000 1410904364 1410904364 7.00000000
0.30383730 7.07231569 -0.86917216 6 8 246 7.13200000 1410904366 1410904366 -7.00000000
0.17301711 4.01093483 -0.35123765 9 10 247 4.03000000 1410904371 1410904371 -5.00000000
0.46188018 10.66421604 2.07485700 43 11 248 10.87400000 1410904373 1410904373 11.00000000
0.16069981 3.69543123 -0.19385238 1 12 249 3.70400000 1410904376 1410904376 -3.00000000
0.45213017 10.35548306 2.39302921 54 13 250 10.63800000 1410904378 1410904378 13.00000000
0.16341339 3.72785163 -0.06513238 100 14 251 3.73200000 1410904380 1410904380 -1.00000000
0.39259213 8.92038345 2.39252329 40 15 252 9.24400000 1410904383 1410904383 15.00000000
0.10148338 2.25218558 -0.60408366 5 0 258 2.33400000 1410904403 1410904403 -15.00000000
0.16771466 3.70764327 0.06478333 61 1 259 3.71200000 1410904406 1410904406 1.00000000
0.12013651 2.64561152 -0.61141694 3 2 260 2.71800000 1410904408 1410904408 -13.00000000
0.17071290 3.74496627 0.19646917 61 3 261 3.75400000 1410904410 1410904410 3.00000000
0.14483024 3.17717266 -0.61822116 2 4 261 3.24000000 1410904413 1410904413 -11.00000000
0.17222375 3.76366997 0.32962301 49 5 262 3.78200000 1410904415 1410904415 5.00000000
0.18491012 4.02552366 -0.63825262 2 6 263 4.08000000 1410904417 1410904417 -9.00000000
0.19265170 4.17815018 0.51355743 35 7 264 4.21400000 1410904419 1410904419 7.00000000
0.32701293 7.06532001 -0.86844093 9 8 265 7.12600000 1410904422 1410904422 -7.00000000
0.18862852 4.06009483 -0.35559544 11 10 266 4.08000000 1410904426 1410904426 -5.00000000
0.49733293 10.66458702 2.07523870 43 11 267 10.87600000 1410904429 1410904429 11.00000000
0.17398068 3.71682405 -0.19500378 6 12 268 3.72600000 1410904431 1410904431 -3.00000000
0.48619333 10.34808731 2.39167953 57 13 269 10.63200000 1410904433 1410904433 13.00000000
0.17596290 3.73128414 -0.06520219 99 14 270 3.73600000 1410904436 1410904436 -1.00000000
0.42043236 8.91524696 2.39148808 42 15 270 9.24000000 1410904438 1410904438 15.00000000
0.10887587 2.24216986 -0.60149544 4 0 278 2.32400000 1410904459 1410904459 -15.00000000
0.18143442 3.72301388 0.06506257 55 1 279 3.72800000 1410904461 1410904461 1.00000000
0.12918030 2.64128327 -0.61051714 3 2 280 2.71400000 1410904463 1410904463 -13.00000000
0.18427379 3.75432181 0.19699255 63 3 281 3.76400000 1410904466 1410904466 3.00000000
0.15591976 3.17664790 -0.61822116 2 4 281 3.24000000 1410904468 1410904468 -11.00000000
0.18594849 3.77498579 0.33066890 57 5 282 3.79400000 1410904470 1410904470 5.00000000
0.20052117 4.05642128 -0.64325851 2 6 283 4.11200000 1410904472 1410904472 -9.00000000
0.20743170 4.18141747 0.51404488 33 7 284 4.21800000 1410904475 1410904475 7.00000000
0.35019299 7.03439617 -0.86478484 6 8 285 7.09600000 1410904477 1410904477 -7.00000000
0.20279975 4.05941200 -0.35559544 9 10 286 4.08000000 1410904482 1410904482 -5.00000000
0.53455627 10.66278648 2.07523870 43 11 287 10.87600000 1410904484 1410904484 11.00000000
0.18835868 3.74412036 -0.19646917 4 12 288 3.75400000 1410904486 1410904486 -3.00000000
0.52250844 10.35021973 2.39257932 55 13 289 10.63600000 1410904489 1410904489 13.00000000
0.18888527 3.72865009 -0.06516729 69 14 290 3.73400000 1410904491 1410904491 -1.00000000
0.45067018 8.89636040 2.38682914 40 15 290 9.22200000 1410904493 1410904493 15.00000000
0.11719387 2.24368477 -0.60201311 4 0 299 2.32600000 1410904514 1410904514 -15.00000000
0.19424148 3.70634818 0.06478333 61 1 300 3.71200000 1410904516 1410904516 1.00000000
0.13967885 2.65636039 -0.61411637 3 2 301 2.73000000 1410904519 1410904519 -13.00000000
0.19771716 3.74763775 0.19667852 58 3 302 3.75800000 1410904521 1410904521 3.00000000
0.16756171 3.17605495 -0.61822116 2 4 302 3.24000000 1410904523 1410904523 -11.00000000
0.19851948 3.75040364 0.32857716 54 5 303 3.77000000 1410904525 1410904525 5.00000000
0.21454927 4.03987837 -0.64075559 2 6 304 4.09600000 1410904528 1410904528 -9.00000000
0.22275597 4.18062925 0.51404488 38 7 305 4.21800000 1410904530 1410904530 7.00000000
0.37597299 7.03306532 -0.86478484 6 8 306 7.09600000 1410904532 1410904532 -7.00000000
0.21682325 4.04272509 -0.35420093 9 10 307 4.06400000 1410904537 1410904537 -5.00000000
0.57300079 10.64899254 2.07294893 43 11 308 10.86400000 1410904539 1410904539 11.00000000
0.20003474 3.70551205 -0.19448042 6 12 309 3.71600000 1410904542 1410904542 -3.00000000
0.56012422 10.34239769 2.39122963 53 13 310 10.63000000 1410904544 1410904544 13.00000000
0.20179075 3.71395540 -0.06492295 100 14 311 3.72000000 1410904546 1410904546 -1.00000000
0.48295951 8.88886166 2.38527632 40 15 311 9.21600000 1410904548 1410904548 15.00000000
0.12502508 2.24326205 -0.60201311 4 0 319 2.32600000 1410904569 1410904569 -15.00000000
0.20695461 3.70165443 0.06471352 60 1 320 3.70800000 1410904572 1410904572 1.00000000
0.14720449 2.62472582 -0.60691792 3 2 321 2.69800000 1410904574 1410904574 -13.00000000
0.21046109 3.74094248 0.19636451 55 3 322 3.75200000 1410904576 1410904576 3.00000000
0.17908829 3.18329144 -0.61974764 2 4 322 3.24800000 1410904578 1410904578 -11.00000000
0.21183413 3.75366616 0.32892576 51 5 323 3.77400000 1410904581 1410904581 5.00000000
0.22686344 4.00754929 -0.63574964 2 6 324 4.06400000 1410904583 1410904583 -9.00000000
0.23689757 4.17189884 0.51306993 35 7 325 4.21000000 1410904585 1410904585 7.00000000
0.40187532 7.05549240 -0.86770970 6 8 326 7.12000000 1410904588 1410904588 -7.00000000
0.22934259 4.01409531 -0.35176057 9 10 327 4.03600000 1410904592 1410904592 -5.00000000
0.60949528 10.63516808 2.07065916 46 11 328 10.85200000 1410904595 1410904595 11.00000000
0.21273892 3.70080328 -0.19427107 14 12 329 3.71200000 1410904597 1410904597 -3.00000000
0.59611034 10.33843327 2.39077973 56 13 330 10.62800000 1410904599 1410904599 13.00000000
0.21579278 3.73119569 -0.06523710 85 14 331 3.73800000 1410904601 1410904601 -1.00000000
0.51508808 8.87931728 2.38320565 42 15 332 9.20800000 1410904604 1410904604 15.00000000
0.13246332 2.24283528 -0.60201311 3 0 338 2.32600000 1410904625 1410904625 -15.00000000
0.21934685 3.70294404 0.06474843 66 1 339 3.71000000 1410904627 1410904627 1.00000000
0.15590759 2.62422323 -0.60691792 4 2 340 2.69800000 1410904629 1410904629 -13.00000000
0.22357814 3.75218630 0.19699255 66 3 341 3.76400000 1410904631 1410904631 3.00000000
0.19034414 3.19443870 -0.62203735 2 4 341 3.26000000 1410904634 1410904634 -11.00000000
0.22451830 3.75692081 0.32927439 51 5 342 3.77800000 1410904636 1410904636 5.00000000
0.24038808 4.01071882 -0.63637543 2 6 343 4.06800000 1410904638 1410904638 -9.00000000
0.25001612 4.15920115 0.51160753 33 7 344 4.19800000 1410904641 1410904641 7.00000000
0.42491159 7.04817677 -0.86697853 9 8 345 7.11400000 1410904643 1410904643 -7.00000000
0.24217157 4.00535774 -0.35106334 9 10 346 4.02800000 1410904648 1410904648 -5.00000000
0.64475942 10.63308811 2.07065916 43 11 347 10.85200000 1410904650 1410904650 11.00000000
0.22597992 3.71602607 -0.19510844 4 12 348 3.72800000 1410904652 1410904652 -3.00000000
0.63003463 10.33056450 2.38943005 54 13 349 10.62200000 1410904654 1410904654 13.00000000
0.22816469 3.73045969 -0.06523710 93 14 350 3.73800000 1410904657 1410904657 -1.00000000
0.54309863 8.87958336 2.38372350 40 15 350 9.21000000 1410904659 1410904659 15.00000000
0.14089461 2.25199962 -0.60460126 3 0 358 2.33600000 1410904680 1410904680 -15.00000000
0.23202078 3.69816422 0.06467862 73 1 359 3.70600000 1410904682 1410904682 1.00000000
0.16555634 2.63144255 -0.60871756 5 2 360 2.70600000 1410904684 1410904684 -13.00000000
0.23491377 3.72347689 0.19552714 55 3 361 3.73600000 1410904687 1410904687 3.00000000
0.20050472 3.17807984 -0.61898440 2 4 361 3.24400000 1410904689 1410904689 -11.00000000
0.23750523 3.75412583 0.32910007 52 5 362 3.77600000 1410904691 1410904691 5.00000000
0.25488690 4.01774073 -0.63762689 2 6 363 4.07600000 1410904694 1410904694 -9.00000000
0.26503703 4.16622734 0.51258248 36 7 364 4.20600000 1410904696 1410904696 7.00000000
0.44786885 7.02089643 -0.86380988 6 8 365 7.08800000 1410904698 1410904698 -7.00000000
0.31386137 4.90668440 0.77873075 4 9 366 4.97800000 1410904701 1410904701 9.00000000
0.26403689 4.12776423 -0.36187065 9 10 366 4.15200000 1410904703 1410904703 -5.00000000
0.68237454 10.63860989 2.07218575 46 11 367 10.86000000 1410904705 1410904705 11.00000000
0.23869352 3.71122837 -0.19489910 4 12 368 3.72400000 1410904707 1410904707 -3.00000000
0.66533870 10.31663418 2.38673067 54 13 369 10.61000000 1410904710 1410904710 13.00000000
0.24157216 3.73562694 -0.06534181 22 14 370 3.74400000 1410904712 1410904712 -1.00000000
0.57371682 8.87185001 2.38217044 42 15 370 9.20400000 1410904714 1410904714 15.00000000
0.14811790 2.24185586 -0.60201311 3 0 378 2.32600000 1410904735 1410904735 -15.00000000
0.24532491 3.70331788 0.06478333 57 1 379 3.71200000 1410904737 1410904737 1.00000000
0.17603227 2.65029311 -0.61321658 3 2 380 2.72600000 1410904740 1410904740 -13.00000000
0.24805416 3.73463464 0.19615516 55 3 380 3.74800000 1410904742 1410904742 3.00000000
0.21159707 3.17736077 -0.61898440 2 4 381 3.24400000 1410904744 1410904744 -11.00000000
0.24994443 3.74333405 0.32822853 51 5 382 3.76600000 1410904747 1410904747 5.00000000
0.26877794 4.01485538 -0.63731402 2 6 383 4.07400000 1410904749 1410904749 -9.00000000
0.27984414 4.16923809 0.51306993 36 7 384 4.21000000 1410904751 1410904751 7.00000000
0.47264022 7.02325153 -0.86429739 9 8 385 7.09200000 1410904753 1410904753 -7.00000000
0.27965102 4.14470816 -0.36343944 7 10 386 4.17000000 1410904758 1410904758 -5.00000000
0.71897602 10.62832737 2.07065916 43 11 387 10.85200000 1410904760 1410904760 11.00000000
0.25137636 3.70638728 -0.19468975 4 12 388 3.72000000 1410904763 1410904763 -3.00000000
0.70147860 10.31619358 2.38718057 57 13 389 10.61200000 1410904765 1410904765 13.00000000
0.25352240 3.71880054 -0.06506257 30 14 390 3.72800000 1410904767 1410904767 -1.00000000
0.60415632 8.86208439 2.38010001 40 15 390 9.19600000 1410904770 1410904770 15.00000000
0.15607662 2.24325228 -0.60253072 3 0 398 2.32800000 1410904790 1410904790 -15.00000000
0.25797212 3.69844913 0.06471352 58 1 399 3.70800000 1410904793 1410904793 1.00000000
0.18555433 2.65355062 -0.61411637 3 2 400 2.73000000 1410904795 1410904795 -13.00000000
0.26299766 3.75163174 0.19709721 61 3 401 3.76600000 1410904797 1410904797 3.00000000
0.22296143 3.18051958 -0.61974764 2 4 401 3.24800000 1410904800 1410904800 -11.00000000
0.26300958 3.74243879 0.32822853 54 5 402 3.76600000 1410904802 1410904802 5.00000000
0.28320724 4.01980448 -0.63825262 2 6 403 4.08000000 1410904804 1410904804 -9.00000000
0.29439580 4.16823578 0.51306993 35 7 404 4.21000000 1410904806 1410904806 7.00000000
0.50009727 7.06314182 -0.86941588 4 8 405 7.13400000 1410904809 1410904809 -7.00000000
0.29383489 4.13973236 -0.36309081 2 10 406 4.16600000 1410904813 1410904813 -5.00000000
0.75607145 10.62575340 2.07065916 46 11 407 10.85200000 1410904816 1410904816 11.00000000
0.26459676 3.70947146 -0.19489910 4 12 408 3.72400000 1410904818 1410904818 -3.00000000
0.73748457 10.31368160 2.38718057 55 13 409 10.61200000 1410904820 1410904820 13.00000000
0.26593000 3.70991468 -0.06492295 70 14 410 3.72000000 1410904823 1410904823 -1.00000000
0.63580263 8.84824944 2.37699413 45 15 411 9.18400000 1410904825 1410904825 15.00000000
0.16379562 2.24657583 -0.60356599 3 0 417 2.33200000 1410904846 1410904846 -15.00000000
0.27052671 3.70156217 0.06478333 57 1 418 3.71200000 1410904848 1410904848 1.00000000
0.19421043 2.65097713 -0.61366647 3 2 419 2.72800000 1410904850 1410904850 -13.00000000
0.27507427 3.75477076 0.19730656 58 3 419 3.77000000 1410904853 1410904853 3.00000000
0.23293205 3.17193079 -0.61822116 2 4 420 3.24000000 1410904855 1410904855 -11.00000000
0.27673492 3.75942922 0.32979733 52 5 421 3.78400000 1410904857 1410904857 5.00000000
0.29595438 4.01096296 -0.63700116 2 6 422 4.07200000 1410904859 1410904859 -9.00000000
0.30850938 4.17119598 0.51355743 33 7 423 4.21400000 1410904862 1410904862 7.00000000
0.51647192 6.96642113 -0.85771644 4 8 424 7.03800000 1410904864 1410904864 -7.00000000
0.30254093 4.07117987 -0.35716423 2 10 425 4.09800000 1410904869 1410904869 -5.00000000
0.78984523 10.60360909 2.06684303 43 11 426 10.83200000 1410904871 1410904871 11.00000000
0.27689636 3.70857358 -0.19489910 4 12 427 3.72400000 1410904873 1410904873 -3.00000000
0.77226371 10.31895256 2.38898015 55 13 428 10.62000000 1410904876 1410904876 13.00000000
0.27882940 3.71698880 -0.06506257 100 14 429 3.72800000 1410904878 1410904878 -1.00000000
0.66359705 8.84620762 2.37699413 42 15 429 9.18400000 1410904880 1410904880 15.00000000
0.17193103 2.24984288 -0.60460126 3 0 437 2.33600000 1410904901 1410904901 -15.00000000
0.28344592 3.70059538 0.06478333 60 1 438 3.71200000 1410904903 1410904903 1.00000000
0.20346287 2.65028310 -0.61366647 3 2 439 2.72800000 1410904905 1410904905 -13.00000000
0.28802633 3.75179648 0.19720188 55 3 439 3.76800000 1410904908 1410904908 3.00000000
0.24445458 3.17697096 -0.61936599 5 4 440 3.24600000 1410904910 1410904910 -11.00000000
0.28970289 3.75645375 0.32962301 49 5 441 3.78200000 1410904912 1410904912 5.00000000
0.30782214 3.98233247 -0.63262099 2 6 442 4.04400000 1410904915 1410904915 -9.00000000
0.32276103 4.16613531 0.51306993 33 7 443 4.21000000 1410904917 1410904917 7.00000000
0.53940308 6.94676352 -0.85552281 2 8 444 7.02000000 1410904919 1410904919 -7.00000000
0.82715923 10.60470200 2.06760621 46 11 446 10.83600000 1410904926 1410904926 11.00000000
0.28937301 3.70161104 -0.19458508 4 12 447 3.71800000 1410904929 1410904929 -3.00000000
0.80675668 10.29676628 2.38448119 62 13 448 10.60000000 1410904931 1410904931 13.00000000
0.29274169 3.72795415 -0.06527200 100 14 449 3.74000000 1410904933 1410904933 -1.00000000
0.69386709 8.83613396 2.37492347 42 15 449 9.17600000 1410904935 1410904935 15.00000000
0.17978340 2.24922895 -0.60460126 3 0 457 2.33600000 1410904956 1410904956 -15.00000000
0.29700041 3.70755649 0.06492295 61 1 458 3.72000000 1410904958 1410904958 1.00000000
0.21255690 2.64761424 -0.61321658 3 2 459 2.72600000 1410904961 1410904961 -13.00000000
0.30113471 3.74275231 0.19678320 61 3 460 3.76000000 1410904963 1410904963 3.00000000
0.25538534 3.17414117 -0.61898440 5 4 460 3.24400000 1410904965 1410904965 -11.00000000
0.30281359 3.75541973 0.32962301 49 5 461 3.78200000 1410904968 1410904968 5.00000000
0.32378966 4.00683022 -0.63668829 4 6 462 4.07000000 1410904970 1410904970 -9.00000000
0.33730161 4.16498327 0.51306993 33 7 463 4.21000000 1410904972 1410904972 7.00000000
0.56364852 6.94483852 -0.85552281 2 8 464 7.02000000 1410904975 1410904975 -7.00000000
0.42043790 5.16911936 -0.45373279 3 10 465 5.20600000 1410904979 1410904979 -5.00000000
0.86544752 10.61740398 2.07065916 43 11 466 10.85200000 1410904982 1410904982 11.00000000
0.30391839 3.72048473 -0.19563180 4 12 467 3.73800000 1410904984 1410904984 -3.00000000
0.84237617 10.29000282 2.38358140 59 13 468 10.59600000 1410904986 1410904986 13.00000000
0.30591640 3.72890258 -0.06530690 107 14 469 3.74200000 1410904988 1410904988 -1.00000000
0.72751480 8.84893417 2.37906456 42 15 470 9.19200000 1410904991 1410904991 15.00000000
0.18795487 2.25243807 -0.60563654 4 0 477 2.34000000 1410905011 1410905011 -15.00000000
0.30927384 3.69852638 0.06478333 57 1 478 3.71200000 1410905014 1410905014 1.00000000
0.22147205 2.64297223 -0.61231679 3 2 479 2.72200000 1410905016 1410905016 -13.00000000
0.31421158 3.74969411 0.19720188 61 3 479 3.76800000 1410905018 1410905018 3.00000000
0.26712072 3.18105602 -0.62051088 4 4 480 3.25200000 1410905021 1410905021 -11.00000000
0.31709006 3.76823735 0.33084321 54 5 481 3.79600000 1410905023 1410905023 5.00000000
0.33777413 4.00567579 -0.63668829 2 6 482 4.07000000 1410905025 1410905025 -9.00000000
0.35250664 4.17169285 0.51404488 35 7 483 4.21800000 1410905028 1410905028 7.00000000
0.44920602 5.30503321 -0.65370715 2 8 484 5.36400000 1410905030 1410905030 -7.00000000
0.34515688 4.06778860 -0.35716423 2 10 485 4.09800000 1410905035 1410905035 -5.00000000
0.90217125 10.61040592 2.06989598 46 11 486 10.84800000 1410905037 1410905037 11.00000000
0.31622523 3.71144080 -0.19521312 6 12 487 3.73000000 1410905039 1410905039 -3.00000000
0.87895298 10.29476643 2.38538098 59 13 488 10.60400000 1410905041 1410905041 13.00000000
0.31705576 3.70589542 -0.06492295 58 14 489 3.72000000 1410905044 1410905044 -1.00000000
0.75773889 8.83864212 2.37699413 42 15 490 9.18400000 1410905046 1410905046 15.00000000
0.19531411 2.24599457 -0.60408366 4 0 497 2.33400000 1410905067 1410905067 -15.00000000
0.32218221 3.69742417 0.06478333 57 1 498 3.71200000 1410905069 1410905069 1.00000000
0.23137441 2.64994860 -0.61411637 3 2 499 2.73000000 1410905071 1410905071 -13.00000000
0.32747227 3.75056434 0.19730656 66 3 499 3.77000000 1410905074 1410905074 3.00000000
0.27822307 3.18010402 -0.62051088 2 4 500 3.25200000 1410905076 1410905076 -11.00000000
0.32902378 3.75321412 0.32962301 54 5 501 3.78200000 1410905078 1410905078 5.00000000
0.35123593 3.99856877 -0.63574964 2 6 502 4.06400000 1410905081 1410905081 -9.00000000
0.36741450 4.17439175 0.51453239 33 7 503 4.22200000 1410905083 1410905083 7.00000000
0.46807009 5.30738783 -0.65419465 2 8 504 5.36800000 1410905085 1410905085 -7.00000000
0.35514486 4.01892710 -0.35298076 4 10 505 4.05000000 1410905090 1410905090 -5.00000000
0.93833721 10.59741402 2.06798792 50 11 506 10.83800000 1410905092 1410905092 11.00000000
0.33041418 3.72424054 -0.19594581 3 12 507 3.74400000 1410905094 1410905094 -3.00000000
0.91557324 10.29940033 2.38718057 59 13 508 10.61200000 1410905097 1410905097 13.00000000
0.33087689 3.71472502 -0.06509747 100 14 509 3.73000000 1410905099 1410905099 -1.00000000
0.78686959 8.81670094 2.37181783 45 15 510 9.16400000 1410905101 1410905101 15.00000000
0.20280474 2.24145103 -0.60304838 4 0 517 2.33000000 1410905122 1410905122 -15.00000000
0.33508667 3.69627714 0.06478333 60 1 518 3.71200000 1410905124 1410905124 1.00000000
0.24097562 2.65300608 -0.61501616 3 2 519 2.73400000 1410905127 1410905127 -13.00000000
0.34056216 3.74939823 0.19730656 71 3 519 3.77000000 1410905129 1410905129 3.00000000
0.28932199 3.17911363 -0.62051088 2 4 520 3.25200000 1410905131 1410905131 -11.00000000
0.34194201 3.75005865 0.32944870 57 5 521 3.78000000 1410905134 1410905134 5.00000000
0.36429280 3.98748231 -0.63418531 2 6 522 4.05400000 1410905136 1410905136 -9.00000000
0.38234550 4.17703772 0.51501983 35 7 523 4.22600000 1410905138 1410905138 7.00000000
0.48804384 5.32153606 -0.65614456 2 8 524 5.38400000 1410905141 1410905141 -7.00000000
0.36990061 4.02559948 -0.35367802 4 10 525 4.05800000 1410905145 1410905145 -5.00000000
0.97424346 10.58234501 2.06569815 50 11 526 10.82600000 1410905147 1410905147 11.00000000
0.34322873 3.72107577 -0.19584115 1 12 527 3.74200000 1410905150 1410905150 -3.00000000
0.95116067 10.29226017 2.38628078 59 13 528 10.60800000 1410905152 1410905152 13.00000000
0.34550098 3.73146820 -0.06541162 60 14 529 3.74800000 1410905154 1410905154 -1.00000000
0.81817615 8.81967163 2.37337065 45 15 530 9.17000000 1410905157 1410905157 15.00000000
0.21080843 2.24265289 -0.60356599 3 0 537 2.33200000 1410905177 1410905177 -15.00000000
0.34873703 3.70304847 0.06492295 61 1 538 3.72000000 1410905180 1410905180 1.00000000
0.24877043 2.63662791 -0.61141694 3 2 539 2.71800000 1410905182 1410905182 -13.00000000
0.35327271 3.74420977 0.19709721 61 3 539 3.76600000 1410905184 1410905184 3.00000000
0.30115646 3.18590236 -0.62203735 2 4 540 3.26000000 1410905187 1410905187 -11.00000000
0.35503006 3.74884200 0.32944870 52 5 541 3.78000000 1410905189 1410905189 5.00000000
0.38362047 4.04321623 -0.64325851 9 6 542 4.11200000 1410905191 1410905191 -9.00000000
0.39560881 4.16184425 0.51331365 31 7 543 4.21200000 1410905193 1410905193 7.00000000
0.51075673 5.36327505 -0.66150677 2 8 544 5.42800000 1410905196 1410905196 -7.00000000
0.38205799 4.00444984 -0.35193488 6 10 545 4.03800000 1410905200 1410905200 -5.00000000
1.01117682 10.57887936 2.06569815 53 11 546 10.82600000 1410905203 1410905203 11.00000000
0.35393098 3.69599700 -0.19458508 3 12 547 3.71800000 1410905205 1410905205 -3.00000000
0.98708153 10.28887749 2.38628078 60 13 548 10.60800000 1410905207 1410905207 13.00000000
0.35641965 3.70834351 -0.06502767 93 14 549 3.72600000 1410905210 1410905210 -1.00000000
0.84797323 8.82267857 2.37492347 45 15 549 9.17600000 1410905212 1410905212 15.00000000
0.21901049 2.24574876 -0.60460126 3 0 557 2.33600000 1410905233 1410905233 -15.00000000
0.36185539 3.70379877 0.06495786 64 1 558 3.72200000 1410905235 1410905235 1.00000000
0.25873175 2.64350128 -0.61321658 3 2 559 2.72600000 1410905237 1410905237 -13.00000000
0.36556208 3.73500276 0.19667852 100 3 559 3.75800000 1410905240 1410905240 3.00000000
0.31074286 3.16920066 -0.61898440 2 4 560 3.24400000 1410905242 1410905242 -11.00000000
0.36869812 3.75352859 0.32997164 51 5 561 3.78600000 1410905244 1410905244 5.00000000
0.39850539 4.04971600 -0.64450997 4 6 562 4.12000000 1410905246 1410905246 -9.00000000
0.41130242 4.17229080 0.51477611 31 7 563 4.22400000 1410905249 1410905249 7.00000000
0.52674371 5.33380270 -0.65809447 2 8 564 5.40000000 1410905251 1410905251 -7.00000000
0.39721075 4.01498795 -0.35298076 6 10 565 4.05000000 1410905256 1410905256 -5.00000000
1.04887235 10.58310032 2.06722474 53 11 566 10.83400000 1410905258 1410905258 11.00000000
0.36781687 3.70467639 -0.19510844 1 12 567 3.72800000 1410905260 1410905260 -3.00000000
1.02106166 10.26597786 2.38178182 59 13 568 10.58800000 1410905263 1410905263 13.00000000
0.36956027 3.70906663 -0.06506257 97 14 569 3.72800000 1410905265 1410905265 -1.00000000
0.88107175 8.82720089 2.37699413 42 15 570 9.18400000 1410905267 1410905267 15.00000000
0.22704250 2.24689269 -0.60511893 4 0 577 2.33800000 1410905288 1410905288 -15.00000000
0.37357354 3.69057584 0.06474843 69 1 578 3.71000000 1410905290 1410905290 1.00000000
0.26913729 2.65421486 -0.61591601 3 2 579 2.73800000 1410905293 1410905293 -13.00000000
0.37783626 3.71972871 0.19594581 63 3 580 3.74400000 1410905295 1410905295 3.00000000
0.32259712 3.17590952 -0.62051088 4 4 580 3.25200000 1410905297 1410905297 -11.00000000
0.38078967 3.74230790 0.32910007 48 5 581 3.77600000 1410905299 1410905299 5.00000000
0.41103664 4.03257895 -0.64200705 2 6 582 4.10400000 1410905302 1410905302 -9.00000000
0.42667049 4.17872906 0.51575106 31 7 583 4.23200000 1410905304 1410905304 7.00000000
0.54899466 5.36747789 -0.66248173 2 8 584 5.43600000 1410905306 1410905306 -7.00000000
0.40959865 3.99772096 -0.35158625 6 10 585 4.03400000 1410905311 1410905311 -5.00000000
1.08580780 10.57937431 2.06722474 50 11 586 10.83400000 1410905313 1410905313 11.00000000
0.38278902 3.72323775 -0.19615516 1 12 587 3.74800000 1410905316 1410905316 -3.00000000
1.05808830 10.27398205 2.38448119 60 13 588 10.60000000 1410905318 1410905318 13.00000000
0.38373634 3.71968889 -0.06527200 42 14 589 3.74000000 1410905320 1410905320 -1.00000000
0.90914947 8.81270027 2.37388825 42 15 589 9.17200000 1410905323 1410905323 15.00000000
0.23408052 2.23840094 -0.60304838 4 0 597 2.33000000 1410905343 1410905343 -15.00000000
0.38707876 3.69521594 0.06485314 54 1 598 3.71600000 1410905346 1410905346 1.00000000
0.27758715 2.64550686 -0.61411637 3 2 599 2.73000000 1410905348 1410905348 -13.00000000
0.39165330 3.72633243 0.19636451 45 3 600 3.75200000 1410905350 1410905350 3.00000000
0.33450201 3.18257403 -0.62203735 2 4 600 3.26000000 1410905352 1410905352 -11.00000000
0.39405906 3.74293733 0.32927439 52 5 601 3.77800000 1410905355 1410905355 5.00000000
0.42511046 4.03111935 -0.64200705 2 6 602 4.10400000 1410905357 1410905357 -9.00000000
0.44146290 4.17918825 0.51599479 26 7 603 4.23400000 1410905359 1410905359 7.00000000
0.56229651 5.31420279 -0.65614456 2 8 604 5.38400000 1410905362 1410905362 -7.00000000
0.42376080 3.99824810 -0.35176057 6 10 605 4.03600000 1410905366 1410905366 -5.00000000
1.12273014 10.57551956 2.06722474 53 11 606 10.83400000 1410905369 1410905369 11.00000000
0.39472720 3.71194863 -0.19563180 3 12 607 3.73800000 1410905371 1410905371 -3.00000000
1.09394467 10.27022552 2.38448119 59 13 608 10.60000000 1410905373 1410905373 13.00000000
0.39502093 3.70241952 -0.06499276 100 14 609 3.72400000 1410905376 1410905376 -1.00000000
0.94041711 8.79970455 2.37129998 45 15 610 9.16200000 1410905378 1410905378 15.00000000
0.24152543 2.24149609 -0.60408366 4 0 615 2.33400000 1410905399 1410905399 -15.00000000
0.39868569 3.69398165 0.06485314 61 1 616 3.71600000 1410905401 1410905401 1.00000000
0.28589687 2.64462161 -0.61411637 3 2 617 2.73000000 1410905403 1410905403 -13.00000000
0.40722814 3.76082516 0.19824859 58 3 618 3.78800000 1410905405 1410905405 3.00000000
0.34492141 3.18541121 -0.62280059 2 4 618 3.26400000 1410905408 1410905408 -11.00000000
0.40839386 3.76545024 0.33136612 57 5 619 3.80200000 1410905410 1410905410 5.00000000
0.43606576 4.01405334 -0.63950408 2 6 620 4.08800000 1410905412 1410905412 -9.00000000
0.45394582 4.17186069 0.51526356 22 7 621 4.22800000 1410905415 1410905415 7.00000000
0.58415061 5.35977221 -0.66199428 2 8 622 5.43200000 1410905417 1410905417 -7.00000000
0.43502226 3.98501325 -0.35071471 4 10 623 4.02400000 1410905422 1410905422 -5.00000000
1.15402794 10.55437565 2.06379008 53 11 624 10.81600000 1410905424 1410905424 11.00000000
0.40660411 3.71267557 -0.19573648 3 12 625 3.74000000 1410905426 1410905426 -3.00000000
1.12662911 10.27061272 2.38538098 60 13 626 10.60400000 1410905429 1410905429 13.00000000
0.96673316 8.79879570 2.37181783 45 15 627 9.16400000 1410905433 1410905433 15.00000000
0.24934822 2.24063921 -0.60408366 4 0 635 2.33400000 1410905454 1410905454 -15.00000000
0.41246372 3.70051694 0.06499276 57 1 636 3.72400000 1410905456 1410905456 1.00000000
0.29426175 2.63586092 -0.61231679 3 2 637 2.72200000 1410905458 1410905458 -13.00000000
0.42013144 3.75739598 0.19814393 63 3 638 3.78600000 1410905461 1410905461 3.00000000
0.35691109 3.19199228 -0.62432700 2 4 638 3.27200000 1410905463 1410905463 -11.00000000
0.42020479 3.75212169 0.33032027 54 5 639 3.79000000 1410905465 1410905465 5.00000000
0.45051515 4.01643276 -0.64012980 2 6 640 4.09200000 1410905468 1410905468 -9.00000000
0.46784070 4.16433239 0.51453239 21 7 641 4.22200000 1410905470 1410905470 7.00000000
0.60551977 5.38137197 -0.66491914 2 8 642 5.45600000 1410905472 1410905472 -7.00000000
0.46187124 4.09830236 -0.36082476 2 10 643 4.14000000 1410905477 1410905477 -5.00000000
1.19218385 10.56198788 2.06607985 53 11 644 10.82800000 1410905479 1410905479 11.00000000
0.41597146 3.67947984 -0.19406173 3 12 645 3.70800000 1410905481 1410905481 -3.00000000
1.16115785 10.25499916 2.38268161 59 13 646 10.59200000 1410905484 1410905484 13.00000000
1.00006592 8.80479050 2.37440586 45 15 648 9.17400000 1410905488 1410905488 15.00000000
0.25932452 2.25506401 -0.60822475 4 0 656 2.35000000 1410905509 1410905509 -15.00000000
0.42648163 3.70295334 0.06506257 57 1 657 3.72800000 1410905511 1410905511 1.00000000
0.30436730 2.63863635 -0.61321658 3 2 658 2.72600000 1410905514 1410905514 -13.00000000
0.43344176 3.75186276 0.19793458 66 3 659 3.78200000 1410905516 1410905516 3.00000000
0.36860794 3.19066262 -0.62432700 2 4 659 3.27200000 1410905518 1410905518 -11.00000000
0.43487015 3.75847292 0.33101752 54 5 660 3.79800000 1410905521 1410905521 5.00000000
0.46705216 4.03045273 -0.64263278 2 6 661 4.10800000 1410905523 1410905523 -9.00000000
0.48493141 4.17836475 0.51648229 15 7 662 4.23800000 1410905525 1410905525 7.00000000
0.62248909 5.35545492 -0.66199428 2 8 663 5.43200000 1410905528 1410905528 -7.00000000
0.48287907 4.14803648 -0.36535686 2 10 664 4.19200000 1410905532 1410905532 -5.00000000
1.23043275 10.55364799 2.06531668 56 11 665 10.82400000 1410905534 1410905534 11.00000000
0.43223429 3.70173597 -0.19531779 3 12 666 3.73200000 1410905537 1410905537 -3.00000000
1.19783115 10.24293232 2.38088202 62 13 667 10.58400000 1410905539 1410905539 13.00000000
0.43405524 3.70609999 -0.06513238 100 14 668 3.73200000 1410905541 1410905541 -1.00000000
1.03101909 8.80316544 2.37492347 45 15 668 9.17600000 1410905544 1410905544 15.00000000
0.26583019 2.24263453 -0.60511893 4 0 676 2.33800000 1410905564 1410905564 -15.00000000
0.43987623 3.70541382 0.06513238 58 1 677 3.73200000 1410905567 1410905567 1.00000000
0.31541651 2.65303874 -0.61681581 3 2 678 2.74200000 1410905569 1410905569 -13.00000000
0.44464645 3.73446083 0.19709721 55 3 679 3.76600000 1410905571 1410905571 3.00000000
0.37695777 3.16596270 -0.61974764 2 4 679 3.24800000 1410905574 1410905574 -11.00000000
0.44751522 3.75297546 0.33066890 51 5 680 3.79400000 1410905576 1410905576 5.00000000
0.48205516 4.03664351 -0.64388424 2 6 681 4.11600000 1410905578 1410905578 -9.00000000
0.49927792 4.17467546 0.51623851 15 7 682 4.23600000 1410905581 1410905581 7.00000000
0.63929069 5.33748102 -0.66004437 2 8 683 5.41600000 1410905583 1410905583 -7.00000000
0.49332160 4.11269617 -0.36239359 4 10 684 4.15800000 1410905587 1410905587 -5.00000000
1.26913762 10.56488228 2.06836963 53 11 685 10.84000000 1410905590 1410905590 11.00000000
0.44801584 3.72399998 -0.19657385 3 12 686 3.75600000 1410905592 1410905592 -3.00000000
1.23311210 10.23481941 2.37998223 59 13 687 10.58000000 1410905594 1410905594 13.00000000
1.06327736 8.79932690 2.37492347 42 15 689 9.17600000 1410905599 1410905599 15.00000000
0.27233052 2.23407006 -0.60304838 4 0 695 2.33000000 1410905620 1410905620 -15.00000000
0.45119214 3.69599485 0.06499276 57 1 696 3.72400000 1410905622 1410905622 1.00000000
0.32468551 2.65584683 -0.61771560 3 2 697 2.74600000 1410905624 1410905624 -13.00000000
0.45872691 3.74684310 0.19782992 61 3 698 3.78000000 1410905627 1410905627 3.00000000
0.38936305 3.18028498 -0.62280059 2 4 698 3.26400000 1410905629 1410905629 -11.00000000
0.45850328 3.73960519 0.32962301 49 5 699 3.78200000 1410905631 1410905631 5.00000000
0.49399409 4.02325916 -0.64200705 2 6 700 4.10400000 1410905634 1410905634 -9.00000000
0.51529932 4.19072914 0.51843220 13 7 701 4.25400000 1410905636 1410905636 7.00000000
0.65892780 5.35109329 -0.66199428 2 8 702 5.43200000 1410905638 1410905638 -7.00000000
0.50305551 4.07939911 -0.35960460 18 10 703 4.12600000 1410905643 1410905643 -5.00000000
1.30368376 10.55671883 2.06760621 53 11 704 10.83600000 1410905645 1410905645 11.00000000
0.45987234 3.71852970 -0.19636451 3 12 705 3.75200000 1410905647 1410905647 -3.00000000
1.26800323 10.23840904 2.38178182 62 13 706 10.58800000 1410905650 1410905650 13.00000000
1.08972704 8.78635693 2.37233543 45 15 707 9.16600000 1410905654 1410905654 15.00000000
0.28084859 2.23885632 -0.60460126 4 0 715 2.33600000 1410905675 1410905675 -15.00000000
0.46409082 3.69439745 0.06499276 57 1 716 3.72400000 1410905677 1410905677 1.00000000
0.33395419 2.65469742 -0.61771560 3 2 717 2.74600000 1410905680 1410905680 -13.00000000
0.47305122 3.75512695 0.19835328 63 3 718 3.79000000 1410905682 1410905682 3.00000000
0.40046197 3.17890644 -0.62280059 2 4 718 3.26400000 1410905684 1410905684 -11.00000000
0.47205287 3.74193549 0.32997164 43 5 719 3.78600000 1410905687 1410905687 5.00000000
0.50902522 4.02934933 -0.64325851 2 6 720 4.11200000 1410905689 1410905689 -9.00000000
0.52867883 4.17905807 0.51721346 7 7 721 4.24400000 1410905691 1410905691 7.00000000
0.67959845 5.36451578 -0.66394418 2 8 722 5.44800000 1410905693 1410905693 -7.00000000
0.51478475 4.05785275 -0.35786149 6 10 723 4.10600000 1410905698 1410905698 -5.00000000
1.34052563 10.55210400 2.06760621 53 11 724 10.83600000 1410905700 1410905700 11.00000000
0.47158936 3.70699525 -0.19584115 4 12 725 3.74200000 1410905703 1410905703 -3.00000000
1.30373430 10.23392105 2.38178182 59 13 726 10.58800000 1410905705 1410905705 13.00000000
0.47497848 3.72325373 -0.06551633 79 14 727 3.75400000 1410905707 1410905707 -1.00000000
1.12265778 8.78805351 2.37388825 42 15 728 9.17200000 1410905710 1410905710 15.00000000
0.29014480 2.24935818 -0.60770714 3 0 735 2.34800000 1410905730 1410905730 -15.00000000
0.47852084 3.70465422 0.06520219 61 1 736 3.73600000 1410905733 1410905733 1.00000000
0.34071898 2.63418913 -0.61321658 3 2 737 2.72600000 1410905735 1410905735 -13.00000000
0.48359069 3.73364568 0.19730656 56 3 738 3.77000000 1410905737 1410905737 3.00000000
0.41155598 3.17748904 -0.62280059 2 4 738 3.26400000 1410905740 1410905740 -11.00000000
0.48895580 3.76990247 0.33258632 54 5 739 3.81600000 1410905742 1410905742 5.00000000
0.52054292 4.00795889 -0.64012980 2 6 740 4.09200000 1410905744 1410905744 -9.00000000
0.54351926 4.17915535 0.51745725 7 7 741 4.24600000 1410905746 1410905746 7.00000000
0.69780725 5.35817385 -0.66345668 2 8 742 5.44400000 1410905749 1410905749 -7.00000000
0.63844550 4.89568663 -0.43194386 15 10 743 4.95600000 1410905753 1410905753 -5.00000000
1.37735128 10.54736042 2.06760621 53 11 744 10.83600000 1410905756 1410905756 11.00000000
0.48323148 3.69542456 -0.19531779 3 12 745 3.73200000 1410905758 1410905758 -3.00000000
1.33894336 10.22544289 2.38088202 62 13 746 10.58400000 1410905760 1410905760 13.00000000
0.48667228 3.71165943 -0.06534181 100 14 747 3.74400000 1410905763 1410905763 -1.00000000
1.15129149 8.78045082 2.37285304 45 15 747 9.16800000 1410905765 1410905765 15.00000000
0.29748711 2.24450135 -0.60667187 3 0 755 2.34400000 1410905786 1410905786 -15.00000000
0.49197575 3.70692587 0.06527200 57 1 756 3.74000000 1410905788 1410905788 1.00000000
0.35093886 2.64071059 -0.61501616 3 2 757 2.73400000 1410905790 1410905790 -13.00000000
0.49872828 3.74777341 0.19814393 63 3 758 3.78600000 1410905793 1410905793 3.00000000
0.42160907 3.16824889 -0.62127411 2 4 758 3.25600000 1410905795 1410905795 -11.00000000
0.50237536 3.77014756 0.33276063 52 5 759 3.81800000 1410905797 1410905797 5.00000000
0.53662020 4.02178144 -0.64263278 2 6 760 4.10800000 1410905799 1410905799 -9.00000000
0.55678952 4.16739464 0.51623851 7 7 761 4.23600000 1410905802 1410905802 7.00000000
0.71282136 5.32815933 -0.66004437 2 8 762 5.41600000 1410905804 1410905804 -7.00000000
0.65632433 4.89935255 -0.43246680 15 10 763 4.96200000 1410905809 1410905809 -5.00000000
1.41520405 10.55027103 2.06913280 53 11 764 10.84400000 1410905811 1410905811 11.00000000
0.49878675 3.71351004 -0.19636451 3 12 765 3.75200000 1410905813 1410905813 -3.00000000
1.37307012 10.20911884 2.37818265 60 13 766 10.57200000 1410905816 1410905816 13.00000000
0.50042611 3.71588349 -0.06544653 100 14 767 3.75000000 1410905818 1410905818 -1.00000000
1.18322325 8.78595161 2.37544131 45 15 767 9.17800000 1410905820 1410905820 15.00000000
0.30453852 2.23770666 -0.60511893 4 0 775 2.33800000 1410905841 1410905841 -15.00000000
0.50599235 3.71311140 0.06541162 58 1 776 3.74800000 1410905843 1410905843 1.00000000
0.36226222 2.65491629 -0.61861539 3 2 777 2.75000000 1410905846 1410905846 -13.00000000
0.51288891 3.75392509 0.19856262 63 3 778 3.79400000 1410905848 1410905848 3.00000000
0.43479189 3.18231916 -0.62432700 2 4 778 3.27200000 1410905850 1410905850 -11.00000000
0.51526254 3.76639700 0.33258632 54 5 779 3.81600000 1410905852 1410905852 5.00000000
0.55119175 4.02379799 -0.64325851 2 6 780 4.11200000 1410905855 1410905855 -9.00000000
0.57430029 4.18705940 0.51891965 5 7 781 4.25800000 1410905857 1410905857 7.00000000
0.73843819 5.37677097 -0.66638160 2 8 782 5.46800000 1410905859 1410905859 -7.00000000
0.67260796 4.89111042 -0.43194386 15 10 783 4.95600000 1410905864 1410905864 -5.00000000
1.45255840 10.54915714 2.06989598 53 11 784 10.84800000 1410905866 1410905866 11.00000000
0.51120073 3.70778918 -0.19615516 3 12 785 3.74800000 1410905869 1410905869 -3.00000000
1.40816522 10.20040321 2.37728286 60 13 786 10.56800000 1410905871 1410905871 13.00000000
1.21335566 8.77794075 2.37440586 45 15 787 9.17400000 1410905875 1410905875 15.00000000
0.31127894 2.22897696 -0.60304838 4 0 795 2.33000000 1410905896 1410905896 -15.00000000
0.51728892 3.69944000 0.06520219 55 1 796 3.73600000 1410905899 1410905899 1.00000000
0.37152740 2.65363574 -0.61861539 3 2 797 2.75000000 1410905901 1410905901 -13.00000000
0.52709848 3.76002359 0.19898130 69 3 798 3.80200000 1410905903 1410905903 3.00000000
0.44371718 3.16522813 -0.62127411 2 4 798 3.25600000 1410905905 1410905905 -11.00000000
0.52591407 3.74681807 0.33101752 49 5 799 3.79800000 1410905908 1410905908 5.00000000
0.56688356 4.03358650 -0.64513576 2 6 800 4.12400000 1410905910 1410905910 -9.00000000
0.59665757 4.24006939 0.52574432 1 7 801 4.31400000 1410905912 1410905912 7.00000000
0.75720215 5.37416077 -0.66638160 2 8 802 5.46800000 1410905915 1410905915 -7.00000000
0.59003848 4.18245077 -0.36954036 9 10 803 4.24000000 1410905919 1410905919 -5.00000000
1.48992205 10.54790974 2.07065916 53 11 804 10.85200000 1410905922 1410905922 11.00000000
0.52721679 3.72773552 -0.19730656 3 12 805 3.77000000 1410905924 1410905924 -3.00000000
1.44376266 10.19542503 2.37728286 57 13 806 10.56800000 1410905926 1410905926 13.00000000
0.52775908 3.72219896 -0.06562105 13 14 807 3.76000000 1410905928 1410905928 -1.00000000
1.24416256 8.76387119 2.37181783 45 15 808 9.16400000 1410905931 1410905931 15.00000000
0.31948939 2.23366952 -0.60460126 3 0 814 2.33600000 1410905952 1410905952 -15.00000000
0.52955389 3.69770432 0.06520219 60 1 815 3.73600000 1410905954 1410905954 1.00000000
0.37811232 2.63695693 -0.61501616 3 2 816 2.73400000 1410905956 1410905956 -13.00000000
0.53871280 3.75232410 0.19866729 65 3 817 3.79600000 1410905958 1410905958 3.00000000
0.45700100 3.18317270 -0.62509024 2 4 817 3.27600000 1410905961 1410905961 -11.00000000
0.53861958 3.74702573 0.33119181 48 5 818 3.80000000 1410905963 1410905963 5.00000000
0.57969350 4.02777386 -0.64450997 2 6 819 4.12000000 1410905965 1410905965 -9.00000000
0.61467868 4.26557446 0.52915668 1 7 820 4.34200000 1410905968 1410905968 7.00000000
0.77728713 5.38733816 -0.66833150 2 8 821 5.48400000 1410905970 1410905970 -7.00000000
0.59592861 4.12525749 -0.36465964 9 10 822 4.18400000 1410905975 1410905975 -5.00000000
1.52376795 10.53513908 2.06913280 53 11 823 10.84400000 1410905977 1410905977 11.00000000
0.54043424 3.73189664 -0.19762057 3 12 824 3.77600000 1410905979 1410905979 -3.00000000
1.47756398 10.19058132 2.37728286 59 13 825 10.56800000 1410905981 1410905981 13.00000000
0.54096127 3.72636509 -0.06572577 14 14 826 3.76600000 1410905984 1410905984 -1.00000000
1.27168894 8.75991917 2.37181783 45 15 826 9.16400000 1410905986 1410905986 15.00000000
0.32868546 2.24209785 -0.60718948 4 0 834 2.34600000 1410906007 1410906007 -15.00000000
0.54420042 3.70770431 0.06541162 57 1 835 3.74800000 1410906009 1410906009 1.00000000
0.38731471 2.63562107 -0.61501616 3 2 836 2.73400000 1410906011 1410906011 -13.00000000
0.55064464 3.74251676 0.19824859 58 3 837 3.78800000 1410906014 1410906014 3.00000000
0.46925268 3.18932748 -0.62661672 2 4 837 3.28400000 1410906016 1410906016 -11.00000000
0.55576098 3.77271819 0.33363217 54 5 838 3.82800000 1410906018 1410906018 5.00000000
0.58971435 3.99836659 -0.64012980 2 6 839 4.09200000 1410906021 1410906021 -9.00000000
0.62956458 4.26340294 0.52915668 1 7 840 4.34200000 1410906023 1410906023 7.00000000
1.03328812 6.98897314 -0.86746597 2 8 841 7.11800000 1410906025 1410906025 -7.00000000
0.60769916 4.10541391 -0.36309081 35 10 842 4.16600000 1410906030 1410906030 -5.00000000
1.56226003 10.54140854 2.07142234 53 11 843 10.85600000 1410906032 1410906032 11.00000000
0.55140567 3.71615815 -0.19688787 1 12 844 3.76200000 1410906034 1410906034 -3.00000000
1.51255405 10.18150711 2.37638283 60 13 845 10.56400000 1410906037 1410906037 13.00000000
0.55396545 3.72445416 -0.06572577 16 14 846 3.76600000 1410906039 1410906039 -1.00000000
1.30254316 8.75733757 2.37233543 45 15 846 9.16600000 1410906041 1410906041 15.00000000
0.33622295 2.23902655 -0.60667187 3 0 854 2.34400000 1410906062 1410906062 -15.00000000
0.55832863 3.71369195 0.06555124 61 1 855 3.75600000 1410906064 1410906064 1.00000000
0.39883289 2.64966917 -0.61861539 3 2 856 2.75000000 1410906067 1410906067 -13.00000000
0.56275499 3.73869514 0.19814393 61 3 856 3.78600000 1410906069 1410906069 3.00000000
0.47745708 3.16825676 -0.62280059 2 4 857 3.26400000 1410906071 1410906071 -11.00000000
0.56952137 3.77469563 0.33398080 54 5 858 3.83200000 1410906074 1410906074 5.00000000
0.83528012 5.52955961 -0.88573194 9 6 859 5.66200000 1410906076 1410906076 -9.00000000
0.64444280 4.26117945 0.52915668 1 7 860 4.34200000 1410906078 1410906078 7.00000000
1.05708361 6.98139811 -0.86697853 6 8 861 7.11400000 1410906080 1410906080 -7.00000000
0.62531084 4.12493610 -0.36500826 100 10 862 4.18800000 1410906085 1410906085 -5.00000000
1.59963608 10.53977299 2.07218575 56 11 863 10.86000000 1410906087 1410906087 11.00000000
0.56407410 3.71223617 -0.19678320 1 12 864 3.76000000 1410906090 1410906090 -3.00000000
1.54574025 10.16075230 2.37278366 57 13 865 10.54800000 1410906092 1410906092 13.00000000
0.56304860 3.69679809 -0.06527200 22 14 866 3.74000000 1410906094 1410906094 -1.00000000
1.33455849 8.76228714 2.37492347 42 15 866 9.17600000 1410906097 1410906097 15.00000000
0.34286240 2.23020148 -0.60460126 3 0 874 2.33600000 1410906117 1410906117 -15.00000000
0.57189679 3.71567321 0.06562105 61 1 875 3.76000000 1410906120 1410906120 1.00000000
0.40629882 2.63670492 -0.61591601 3 2 876 2.73800000 1410906122 1410906122 -13.00000000
0.57614970 3.73463368 0.19803926 65 3 877 3.78400000 1410906124 1410906124 3.00000000
0.48911211 3.17045140 -0.62356383 2 4 877 3.26800000 1410906127 1410906127 -11.00000000
0.58178169 3.76677728 0.33345786 52 5 878 3.82600000 1410906129 1410906129 5.00000000
0.85548240 5.53246689 -0.88667053 4 6 879 5.66800000 1410906131 1410906131 -9.00000000
1.32682598 8.57077503 1.06489432 2 7 880 8.73800000 1410906133 1410906133 7.00000000
1.08509517 7.00120544 -0.86990339 4 8 881 7.13800000 1410906136 1410906136 -7.00000000
0.63451236 4.08925819 -0.36204496 100 10 882 4.15400000 1410906140 1410906140 -5.00000000
1.63762248 10.54188442 2.07371211 56 11 883 10.86800000 1410906143 1410906143 11.00000000
0.57733572 3.71221805 -0.19688787 1 12 884 3.76200000 1410906145 1410906145 -3.00000000
1.58179808 10.15914631 2.37368345 60 13 885 10.55200000 1410906147 1410906147 13.00000000
0.57594937 3.69481015 -0.06527200 30 14 886 3.74000000 1410906150 1410906150 -1.00000000
1.36606920 8.75351906 2.37388825 42 15 887 9.17200000 1410906152 1410906152 15.00000000
0.35034496 2.22708273 -0.60408366 4 0 894 2.33400000 1410906173 1410906173 -15.00000000
0.58330798 3.70377755 0.06544653 66 1 895 3.75000000 1410906175 1410906175 1.00000000
0.41792819 2.65067029 -0.61951518 3 2 896 2.75400000 1410906177 1410906177 -13.00000000
0.58697569 3.72283792 0.19751590 56 3 896 3.77400000 1410906180 1410906180 3.00000000
0.49833944 3.15708923 -0.62127411 2 4 897 3.25600000 1410906182 1410906182 -11.00000000
0.59337169 3.75488377 0.33258632 45 5 898 3.81600000 1410906184 1410906184 5.00000000
0.63247806 3.99782515 -0.64106846 2 6 899 4.09800000 1410906186 1410906186 -9.00000000
0.67417550 4.25657654 0.52915668 1 7 900 4.34200000 1410906189 1410906189 7.00000000
1.10362065 6.96012402 -0.86527234 2 8 901 7.10000000 1410906191 1410906191 -7.00000000
0.64940739 4.09095383 -0.36239359 100 10 902 4.15800000 1410906196 1410906196 -5.00000000
1.67317796 10.52834892 2.07218575 56 11 903 10.86000000 1410906198 1410906198 11.00000000
0.59280080 3.72595978 -0.19772524 1 12 904 3.77800000 1410906200 1410906200 -3.00000000
1.61725044 10.15356255 2.37368345 57 13 905 10.55200000 1410906203 1410906203 13.00000000
0.58821338 3.68882775 -0.06520219 30 14 906 3.73600000 1410906205 1410906205 -1.00000000
1.39326406 8.73749447 2.37078238 45 15 906 9.16000000 1410906207 1410906207 15.00000000
0.35995799 2.23729014 -0.60718948 4 0 914 2.34600000 1410906228 1410906228 -15.00000000
0.59432507 3.68987346 0.06523710 66 1 915 3.73800000 1410906230 1410906230 1.00000000
0.42593732 2.64149976 -0.61771560 3 2 916 2.74600000 1410906232 1410906232 -13.00000000
0.60314673 3.74048424 0.19856262 35 3 916 3.79400000 1410906235 1410906235 3.00000000
0.51185966 3.17083573 -0.62432700 2 4 917 3.27200000 1410906237 1410906237 -11.00000000
0.60870004 3.76655769 0.33380648 52 5 918 3.83000000 1410906239 1410906239 5.00000000
