# .PCD v0.7 - Point Cloud Data file format
VERSION 0.7
FIELDS x y z intensity laser_id azimuth distance_m adjustedtime timestamp vertical_angle
SIZE 4 4 4 1 1 2 8 8 4 8
TYPE F F F U U U F U U F
COUNT 1 1 1 1 1 1 1 1 1 1
WIDTH 525
HEIGHT 1
VIEWPOINT 0 0 0 1 0 0 0
POINTS 525
DATA ascii
-0.78023493 3.78423953 -0.61197162 2 6 34835 3.91200000 1410900436 1410900436 -9.00000000
-2.21494603 10.78082275 2.13935041 43 11 34839 11.21200000 1410900448 1410900448 11.00000000
-2.13258457 10.39835548 2.45061684 51 13 34841 10.89400000 1410900452 1410900452 13.00000000
-1.83309340 8.94598675 2.44687533 36 15 34842 9.45400000 1410900457 1410900457 15.00000000
-0.44253650 2.17513657 -0.59476614 4 0 34850 2.29800000 1410900478 1410900478 -15.00000000
-0.51545221 2.53806329 -0.59791988 3 2 34852 2.65800000 1410900482 1410900482 -13.00000000
-0.62113053 3.06115746 -0.60715425 2 4 34853 3.18200000 1410900487 1410900487 -11.00000000
-0.77094209 3.80630064 -0.61510032 2 6 34855 3.93200000 1410900491 1410900491 -9.00000000
-2.17419338 10.77309322 2.13629746 46 11 34859 11.19600000 1410900503 1410900503 11.00000000
-2.09435034 10.39618397 2.44836736 51 13 34861 10.88400000 1410900508 1410900508 13.00000000
-1.80185485 8.95233154 2.44687533 38 15 34862 9.45400000 1410900512 1410900512 15.00000000
-0.43380558 2.16901469 -0.59269559 4 0 34869 2.29000000 1410900533 1410900533 -15.00000000
-0.50703287 2.53975844 -0.59791988 3 2 34871 2.65800000 1410900538 1410900538 -13.00000000
-0.60867184 3.05164838 -0.60486454 2 4 34872 3.17000000 1410900542 1410900542 -11.00000000
-0.76063001 3.82046032 -0.61697751 2 6 34874 3.94400000 1410900547 1410900547 -9.00000000
-2.13845658 10.78024387 2.13629746 46 11 34878 11.19600000 1410900558 1410900558 11.00000000
-2.05834985 10.39542580 2.44656777 53 13 34880 10.87600000 1410900563 1410900563 13.00000000
-1.77253282 8.96015263 2.44739294 40 15 34881 9.45600000 1410900567 1410900567 15.00000000
-0.42697617 2.17430711 -0.59373087 4 0 34889 2.29400000 1410900588 1410900588 -15.00000000
-0.50041342 2.55298710 -0.60061932 3 2 34891 2.67000000 1410900593 1410900593 -13.00000000
-0.59688401 3.04797435 -0.60371965 2 4 34892 3.16400000 1410900597 1410900597 -11.00000000
-0.74577367 3.81533742 -0.61572605 2 6 34894 3.93600000 1410900602 1410900602 -9.00000000
-0.99366969 5.09300184 -0.63713294 2 8 34896 5.22800000 1410900607 1410900607 -7.00000000
-2.10231447 10.79535103 2.13782406 43 11 34898 11.20400000 1410900614 1410900614 11.00000000
-2.02390957 10.41211224 2.44881725 51 13 34900 10.88600000 1410900618 1410900618 13.00000000
-1.74004829 8.96848583 2.44791055 40 15 34902 9.45800000 1410900623 1410900623 15.00000000
-0.41719002 2.16440248 -0.59062505 4 0 34909 2.28200000 1410900644 1410900644 -15.00000000
-0.49297145 2.56237292 -0.60241890 3 2 34911 2.67800000 1410900648 1410900648 -13.00000000
-0.58624095 3.05003929 -0.60371965 2 4 34912 3.16400000 1410900653 1410900653 -11.00000000
-0.73393983 3.82567739 -0.61697751 2 6 34914 3.94400000 1410900657 1410900657 -9.00000000
-2.06314468 10.79491043 2.13629746 46 11 34918 11.19600000 1410900669 1410900669 11.00000000
-1.98645675 10.41337109 2.44746757 53 13 34920 10.88000000 1410900673 1410900673 13.00000000
-1.70885158 8.96661568 2.44583988 40 15 34921 9.45000000 1410900678 1410900678 15.00000000
-0.41142738 2.17533660 -0.59321326 4 0 34929 2.29200000 1410900699 1410900699 -15.00000000
-0.48330113 2.56024814 -0.60151911 3 2 34931 2.67400000 1410900703 1410900703 -13.00000000
-0.58141214 3.08293509 -0.60982555 2 4 34932 3.19600000 1410900708 1410900708 -11.00000000
-0.72350448 3.84374619 -0.61948049 2 6 34934 3.96000000 1410900713 1410900713 -9.00000000
-0.95295858 5.07250118 -0.63372058 2 8 34936 5.20000000 1410900717 1410900717 -7.00000000
-2.02545094 10.80204582 2.13629746 46 11 34938 11.19600000 1410900724 1410900724 11.00000000
-1.95117056 10.42598820 2.44881725 53 13 34940 10.88600000 1410900729 1410900729 13.00000000
-1.67754173 8.97252560 2.44583988 40 15 34941 9.45000000 1410900733 1410900733 15.00000000
-0.40491685 2.18048787 -0.59424853 4 0 34948 2.29600000 1410900754 1410900754 -15.00000000
-0.47196734 2.54650784 -0.59791988 3 2 34950 2.65800000 1410900759 1410900759 -13.00000000
-0.56832606 3.06940269 -0.60677260 2 4 34951 3.18000000 1410900763 1410900763 -11.00000000
-0.70788246 3.83058453 -0.61697751 2 6 34953 3.94400000 1410900768 1410900768 -9.00000000
-0.93613231 5.07563353 -0.63372058 2 8 34955 5.20000000 1410900772 1410900772 -7.00000000
-1.98855269 10.80291080 2.13515258 50 11 34957 11.19000000 1410900779 1410900779 11.00000000
-1.91517758 10.42473412 2.44701767 53 13 34959 10.87800000 1410900784 1410900784 13.00000000
-1.64777863 8.97803974 2.44583988 40 15 34960 9.45000000 1410900789 1410900789 15.00000000
-0.39764914 2.18378854 -0.59476614 4 0 34968 2.29800000 1410900809 1410900809 -15.00000000
-0.46377239 2.55197453 -0.59881973 3 2 34970 2.66200000 1410900814 1410900814 -13.00000000
-0.55690700 3.06750441 -0.60600936 2 4 34971 3.17600000 1410900819 1410900819 -11.00000000
-0.69943750 3.86024427 -0.62135768 2 6 34973 3.97200000 1410900823 1410900823 -9.00000000
-0.91840935 5.07887030 -0.63372058 2 8 34975 5.20000000 1410900828 1410900828 -7.00000000
-1.34663284 7.45440674 -0.66273224 4 10 34976 7.60400000 1410900832 1410900832 -5.00000000
-1.95117998 10.81171799 2.13553429 50 11 34977 11.19200000 1410900835 1410900835 11.00000000
-1.87670422 10.41984844 2.44431806 54 13 34979 10.86600000 1410900839 1410900839 13.00000000
-1.61451960 8.98211765 2.44532228 40 15 34981 9.44800000 1410900844 1410900844 15.00000000
-0.38964251 2.18523121 -0.59476614 4 0 34989 2.29800000 1410900865 1410900865 -15.00000000
-0.45680568 2.56708741 -0.60196900 3 2 34991 2.67600000 1410900869 1410900869 -13.00000000
-0.54703474 3.07725668 -0.60753584 2 4 34992 3.18400000 1410900874 1410900874 -11.00000000
-0.68528432 3.86278200 -0.62135768 2 6 34994 3.97200000 1410900878 1410900878 -9.00000000
-0.89701962 5.06656456 -0.63177067 2 8 34996 5.18400000 1410900883 1410900883 -7.00000000
-1.32554805 7.49460745 -0.66586989 4 10 34997 7.64000000 1410900888 1410900888 -5.00000000
-1.91222310 10.82266426 2.13629746 46 11 34998 11.19600000 1410900890 1410900890 11.00000000
-1.83951616 10.43241501 2.44566774 55 13 35000 10.87200000 1410900895 1410900895 13.00000000
-1.58047533 8.97247791 2.44118118 42 15 35001 9.43200000 1410900899 1410900899 15.00000000
-0.37935245 2.17135382 -0.59062505 4 0 35009 2.28200000 1410900920 1410900920 -15.00000000
-0.44750738 2.56674647 -0.60151911 3 2 35011 2.67400000 1410900924 1410900924 -13.00000000
-0.53561604 3.07527924 -0.60677260 2 4 35012 3.18000000 1410900929 1410900929 -11.00000000
-0.67314959 3.87293530 -0.62260920 2 6 35014 3.98000000 1410900934 1410900934 -9.00000000
-0.88475651 5.10095930 -0.63567048 2 8 35016 5.21600000 1410900938 1410900938 -7.00000000
-1.87108493 10.80992794 2.13248134 50 11 35018 11.17600000 1410900945 1410900945 11.00000000
-1.80342066 10.44069195 2.44611788 53 13 35020 10.87400000 1410900950 1410900950 13.00000000
-1.54684639 8.96461391 2.43755770 45 15 35021 9.41800000 1410900954 1410900954 15.00000000
-0.37410685 2.18402457 -0.59373087 4 0 35028 2.29400000 1410900975 1410900975 -15.00000000
-0.43932161 2.57013726 -0.60196900 3 2 35030 2.67600000 1410900980 1410900980 -13.00000000
-0.52673692 3.08477950 -0.60829908 2 4 35031 3.18800000 1410900984 1410900984 -11.00000000
-0.65565741 3.84788394 -0.61822903 2 6 35033 3.95200000 1410900989 1410900989 -9.00000000
-0.86983275 5.11560726 -0.63713294 2 8 35035 5.22800000 1410900994 1410900994 -7.00000000
-1.83095813 10.79091072 2.12752032 50 11 35037 11.15000000 1410901001 1410901001 11.00000000
-1.76846290 10.44469357 2.44566774 55 13 35039 10.87200000 1410901005 1410901005 13.00000000
-1.51586652 8.97186375 2.43807530 45 15 35041 9.42000000 1410901010 1410901010 15.00000000
-0.36648092 2.18531728 -0.59373087 4 0 35048 2.29400000 1410901030 1410901030 -15.00000000
-0.42777440 2.55627894 -0.59836978 3 2 35050 2.66000000 1410901035 1410901035 -13.00000000
-0.51855534 3.10209036 -0.61135203 2 4 35051 3.20400000 1410901040 1410901040 -11.00000000
-0.64157176 3.84625220 -0.61760324 2 6 35053 3.94800000 1410901044 1410901044 -9.00000000
-0.84740770 5.09119797 -0.63372058 2 8 35055 5.20000000 1410901049 1410901049 -7.00000000
-1.26464283 7.60613012 -0.67458546 4 10 35056 7.74000000 1410901054 1410901054 -5.00000000
-1.79520965 10.80885601 2.12981009 50 11 35057 11.16200000 1410901056 1410901056 11.00000000
-1.73071885 10.44311333 2.44386816 56 13 35059 10.86400000 1410901060 1410901060 13.00000000
-1.48264849 8.96566486 2.43496966 45 15 35061 9.40800000 1410901065 1410901065 15.00000000
-0.36149490 2.19789529 -0.59683675 4 0 35066 2.30600000 1410901086 1410901086 -15.00000000
-0.42131948 2.56722546 -0.60061932 3 2 35068 2.67000000 1410901090 1410901090 -13.00000000
-0.50626642 3.08820510 -0.60829908 2 4 35069 3.18800000 1410901095 1410901095 -11.00000000
-0.63139862 3.85994554 -0.61948049 2 6 35071 3.96000000 1410901100 1410901100 -9.00000000
-0.84228134 5.16044712 -0.64200771 2 8 35073 5.26800000 1410901104 1410901104 -7.00000000
-1.76124382 10.81444263 2.12981009 50 11 35075 11.16200000 1410901111 1410901111 11.00000000
-1.69665205 10.44080544 2.44206858 55 13 35077 10.85600000 1410901116 1410901116 13.00000000
-1.45571160 8.97790623 2.43704009 40 15 35079 9.41600000 1410901120 1410901120 15.00000000
-0.35259312 2.19151449 -0.59476614 4 0 35086 2.29800000 1410901141 1410901141 -15.00000000
-0.41235563 2.56868052 -0.60061932 3 2 35088 2.67000000 1410901146 1410901146 -13.00000000
-0.49424013 3.08219957 -0.60677260 2 4 35089 3.18000000 1410901150 1410901150 -11.00000000
-0.61854517 3.86602712 -0.62010622 2 6 35091 3.96400000 1410901155 1410901155 -9.00000000
-0.81612670 5.11238861 -0.63567048 2 8 35093 5.21600000 1410901160 1410901160 -7.00000000
-1.21416974 7.61434984 -0.67458546 4 10 35094 7.74000000 1410901164 1410901164 -5.00000000
-1.72471893 10.82828045 2.13133645 46 11 35095 11.17000000 1410901166 1410901166 11.00000000
-1.66019654 10.44666386 2.44206858 57 13 35097 10.85600000 1410901171 1410901171 13.00000000
-1.42073345 8.96003628 2.43082857 42 15 35099 9.39200000 1410901176 1410901176 15.00000000
-0.34494117 2.19273186 -0.59476614 4 0 35106 2.29800000 1410901196 1410901196 -15.00000000
-0.40580407 2.58550549 -0.60421854 3 2 35108 2.68600000 1410901201 1410901201 -13.00000000
-0.48347825 3.08390594 -0.60677260 2 4 35109 3.18000000 1410901206 1410901206 -11.00000000
-0.60809916 3.88767910 -0.62323493 2 6 35111 3.98400000 1410901210 1410901210 -9.00000000
-0.80439788 5.15443325 -0.64054525 2 8 35113 5.25600000 1410901215 1410901215 -7.00000000
-1.68570244 10.82647514 2.12981009 46 11 35115 11.16200000 1410901222 1410901222 11.00000000
-1.62431908 10.45624638 2.44296837 56 13 35117 10.86000000 1410901226 1410901226 13.00000000
-1.39160550 8.96851635 2.43186378 45 15 35118 9.39600000 1410901231 1410901231 15.00000000
-0.33552372 2.18246603 -0.59166032 4 0 35126 2.28600000 1410901252 1410901252 -15.00000000
-0.39411753 2.56957030 -0.60016942 3 2 35128 2.66800000 1410901256 1410901256 -13.00000000
-0.47508886 3.10109973 -0.60982555 2 4 35129 3.19600000 1410901261 1410901261 -11.00000000
-0.59273422 3.87806201 -0.62135768 2 6 35131 3.97200000 1410901265 1410901265 -9.00000000
-0.78640068 5.15720987 -0.64054525 2 8 35133 5.25600000 1410901270 1410901270 -7.00000000
-1.16098237 7.62264109 -0.67458546 4 10 35134 7.74000000 1410901275 1410901275 -5.00000000
-1.64671969 10.82452965 2.12828350 46 11 35135 11.15400000 1410901277 1410901277 11.00000000
-1.58781004 10.46185303 2.44296837 55 13 35137 10.86000000 1410901282 1410901282 13.00000000
-1.35698962 8.96209621 2.42875791 40 15 35139 9.38400000 1410901286 1410901286 15.00000000
-0.33077225 2.20272827 -0.59683675 4 0 35146 2.30600000 1410901307 1410901307 -15.00000000
-0.38543436 2.57285762 -0.60061932 3 2 35148 2.67000000 1410901312 1410901312 -13.00000000
-0.46309900 3.09497261 -0.60829908 2 4 35149 3.18800000 1410901316 1410901316 -11.00000000
-0.57890201 3.87815356 -0.62104481 2 6 35151 3.97000000 1410901321 1410901321 -9.00000000
-0.76839387 5.15992355 -0.64054525 2 8 35153 5.25600000 1410901325 1410901325 -7.00000000
-1.13436723 7.62664700 -0.67458546 4 10 35154 7.74000000 1410901330 1410901330 -5.00000000
-1.60719407 10.81855965 2.12599373 50 11 35155 11.14200000 1410901332 1410901332 11.00000000
-1.55013895 10.45962048 2.44116879 57 13 35157 10.85200000 1410901337 1410901337 13.00000000
-1.32726276 8.96654701 2.42875791 42 15 35158 9.38400000 1410901342 1410901342 15.00000000
-0.32364169 2.20769215 -0.59787202 4 0 35166 2.31000000 1410901362 1410901362 -15.00000000
-0.37701502 2.57804394 -0.60151911 3 2 35168 2.67400000 1410901367 1410901367 -13.00000000
-0.45229271 3.09657025 -0.60829908 2 4 35169 3.18800000 1410901371 1410901371 -11.00000000
-0.56735492 3.89383388 -0.62323493 2 6 35171 3.98400000 1410901376 1410901376 -9.00000000
-0.74752235 5.14292955 -0.63810790 2 8 35173 5.23600000 1410901381 1410901381 -7.00000000
-1.10773838 7.63056040 -0.67458546 4 10 35174 7.74000000 1410901385 1410901385 -5.00000000
-1.56998384 10.82799053 2.12675714 43 11 35175 11.14600000 1410901388 1410901388 11.00000000
-1.51194489 10.45339584 2.43846941 56 13 35177 10.84000000 1410901392 1410901392 13.00000000
-1.29549336 8.97899914 2.43082857 45 15 35179 9.39200000 1410901397 1410901397 15.00000000
-0.31538635 2.20498371 -0.59683675 4 0 35186 2.30600000 1410901418 1410901418 -15.00000000
-0.36856419 2.58320260 -0.60241890 3 2 35188 2.67800000 1410901422 1410901422 -13.00000000
-0.44314271 3.10979199 -0.61058879 2 4 35189 3.20000000 1410901427 1410901427 -11.00000000
-0.55153549 3.88014483 -0.62073195 2 6 35191 3.96800000 1410901431 1410901431 -9.00000000
-0.73513907 5.18481636 -0.64298266 2 8 35193 5.27600000 1410901436 1410901436 -7.00000000
-1.53217757 10.83340454 2.12675714 40 11 35195 11.14600000 1410901443 1410901443 11.00000000
-1.47490203 10.45475101 2.43756962 57 13 35197 10.83600000 1410901448 1410901448 13.00000000
-1.26463270 8.97559452 2.42875791 45 15 35198 9.38400000 1410901452 1410901452 15.00000000
-0.30421847 2.18119788 -0.59010744 3 0 35206 2.28000000 1410901473 1410901473 -15.00000000
-0.36061895 2.59219408 -0.60421854 3 2 35208 2.68600000 1410901477 1410901477 -13.00000000
-0.43120408 3.10354161 -0.60906231 2 4 35209 3.19200000 1410901482 1410901482 -11.00000000
-0.53907251 3.88987327 -0.62198341 2 6 35211 3.97600000 1410901487 1410901487 -9.00000000
-0.72247243 5.22667885 -0.64785743 2 8 35213 5.31600000 1410901491 1410901491 -7.00000000
-0.62176567 4.50391769 -0.39777881 2 10 35214 4.56400000 1410901496 1410901496 -5.00000000
-1.49354815 10.83285236 2.12561226 43 11 35215 11.14000000 1410901498 1410901498 11.00000000
-0.56258970 4.08578920 -0.21614750 1 12 35216 4.13000000 1410901500 1410901500 -3.00000000
-1.43893015 10.46369648 2.43846941 56 13 35217 10.84000000 1410901503 1410901503 13.00000000
-0.55749470 4.05927181 -0.07151996 1 14 35218 4.09800000 1410901505 1410901505 -1.00000000
-1.23120189 8.97634125 2.42772269 42 15 35219 9.38000000 1410901507 1410901507 15.00000000
-0.29880726 2.19559431 -0.59373087 4 0 35225 2.29400000 1410901528 1410901528 -15.00000000
-0.35044825 2.58178949 -0.60151911 3 2 35227 2.67400000 1410901533 1410901533 -13.00000000
-0.42196491 3.11273623 -0.61058879 2 4 35228 3.20000000 1410901537 1410901537 -11.00000000
-0.52405292 3.87597895 -0.61948049 2 6 35230 3.96000000 1410901542 1410901542 -9.00000000
-0.62554967 4.63886023 -0.57473582 2 8 35232 4.71600000 1410901547 1410901547 -7.00000000
-0.60044467 4.45856524 -0.39359534 5 10 35233 4.51600000 1410901551 1410901551 -5.00000000
-1.45473826 10.81634235 2.12141442 43 11 35234 11.11800000 1410901553 1410901553 11.00000000
-0.52617216 3.91739678 -0.20714572 1 12 35235 3.95800000 1410901556 1410901556 -3.00000000
-1.40422332 10.46841049 2.43846941 57 13 35236 10.84000000 1410901558 1410901558 13.00000000
-0.52863103 3.94614291 -0.06949548 1 14 35237 3.98200000 1410901560 1410901560 -1.00000000
-1.20145690 8.96867657 2.42461681 42 15 35237 9.36800000 1410901563 1410901563 15.00000000
-0.29164904 2.20045400 -0.59476614 4 0 35245 2.29800000 1410901583 1410901583 -15.00000000
-0.51482224 3.88947868 0.06848324 1 1 35246 3.92400000 1410901586 1410901586 1.00000000
-0.34092325 2.57913303 -0.60061932 3 2 35247 2.67000000 1410901588 1410901588 -13.00000000
-0.40904137 3.09861922 -0.60753584 2 4 35248 3.18400000 1410901593 1410901593 -11.00000000
-0.51155138 3.88561845 -0.62073195 2 6 35250 3.96800000 1410901597 1410901597 -9.00000000
-0.60108382 4.57803297 -0.56693619 4 8 35252 4.65200000 1410901602 1410901602 -7.00000000
-0.58539575 4.46458530 -0.39394397 7 10 35253 4.52000000 1410901606 1410901606 -5.00000000
-1.41595376 10.81356812 2.11988783 46 11 35254 11.11000000 1410901609 1410901609 11.00000000
-0.50576156 3.86771917 -0.20442425 5 12 35255 3.90600000 1410901611 1410901611 -3.00000000
-1.36716855 10.46938419 2.43756962 57 13 35256 10.83600000 1410901613 1410901613 13.00000000
-0.50528532 3.87459660 -0.06820401 1 14 35257 3.90800000 1410901616 1410901616 -1.00000000
-1.16807795 8.96918869 2.42358160 42 15 35258 9.36400000 1410901618 1410901618 15.00000000
-0.28544909 2.21295452 -0.59787202 4 0 35265 2.31000000 1410901639 1410901639 -15.00000000
-0.49894303 3.87340212 0.06816910 3 1 35266 3.90600000 1410901641 1410901641 1.00000000
-0.33291283 2.58803868 -0.60241890 3 2 35267 2.67800000 1410901643 1410901643 -13.00000000
-0.40122437 3.12339520 -0.61211526 2 4 35268 3.20800000 1410901648 1410901648 -11.00000000
-0.50149894 3.91481161 -0.62511212 2 6 35270 3.99600000 1410901653 1410901653 -9.00000000
-0.58308744 4.56435061 -0.56498629 6 8 35272 4.63600000 1410901657 1410901657 -7.00000000
-0.56980789 4.46660137 -0.39394397 7 10 35273 4.52000000 1410901662 1410901662 -5.00000000
-1.37869501 10.82234001 2.12065125 43 11 35274 11.11400000 1410901664 1410901664 11.00000000
-0.49629045 3.90116167 -0.20609899 5 12 35275 3.93800000 1410901666 1410901666 -3.00000000
-1.32914174 10.46249294 2.43487024 60 13 35276 10.82400000 1410901669 1410901669 13.00000000
-0.48949239 3.85848260 -0.06788986 4 14 35277 3.89000000 1410901671 1410901671 -1.00000000
-1.13881493 8.97684574 2.42461681 45 15 35277 9.36800000 1410901673 1410901673 15.00000000
-0.27724180 2.21010375 -0.59683675 4 0 35285 2.30600000 1410901694 1410901694 -15.00000000
-0.48318234 3.85726261 0.06785496 3 1 35286 3.88800000 1410901696 1410901696 1.00000000
-0.32387686 2.58918500 -0.60241890 3 2 35287 2.67800000 1410901699 1410901699 -13.00000000
-0.38545242 3.08581448 -0.60448289 2 4 35288 3.16800000 1410901703 1410901703 -11.00000000
-0.48929560 3.92829967 -0.62698936 2 6 35290 4.00800000 1410901708 1410901708 -9.00000000
-0.56788534 4.57226801 -0.56571752 4 8 35292 4.64200000 1410901712 1410901712 -7.00000000
-0.55372262 4.46460867 -0.39359534 7 10 35293 4.51600000 1410901717 1410901717 -5.00000000
-1.34042692 10.82318974 2.11988783 43 11 35294 11.11000000 1410901719 1410901719 11.00000000
-0.48070875 3.88701320 -0.20526162 3 12 35295 3.92200000 1410901722 1410901722 -3.00000000
-1.29213500 10.46320057 2.43397045 60 13 35296 10.82000000 1410901724 1410901724 13.00000000
-0.47259441 3.83238244 -0.06740119 4 14 35297 3.86200000 1410901726 1410901726 -1.00000000
-1.10401666 8.96562004 2.42047572 45 15 35298 9.35200000 1410901729 1410901729 15.00000000
-0.26859036 2.20338750 -0.59476614 4 0 35305 2.29800000 1410901749 1410901749 -15.00000000
-0.46850693 3.84900045 0.06768043 3 1 35306 3.87800000 1410901752 1410901752 1.00000000
-0.31624773 2.60190678 -0.60511833 3 2 35307 2.69000000 1410901754 1410901754 -13.00000000
-0.49234229 4.05662394 0.21415873 7 3 35308 4.09200000 1410901756 1410901756 3.00000000
-0.37940937 3.12612009 -0.61211526 2 4 35308 3.20800000 1410901759 1410901759 -11.00000000
-0.47273248 3.90645075 -0.62323493 2 6 35310 3.98400000 1410901763 1410901763 -9.00000000
-0.55120832 4.56830978 -0.56498629 6 8 35312 4.63600000 1410901768 1410901768 -7.00000000
-0.53408337 4.43288660 -0.39063203 7 10 35313 4.48200000 1410901772 1410901772 -5.00000000
-1.30170083 10.82000542 2.11836147 43 11 35314 11.10200000 1410901775 1410901775 11.00000000
-0.46856692 3.90056539 -0.20588966 3 12 35315 3.93400000 1410901777 1410901777 -3.00000000
-1.25653207 10.47538757 2.43577003 57 13 35316 10.82800000 1410901779 1410901779 13.00000000
-0.46040308 3.84393644 -0.06757572 4 14 35317 3.87200000 1410901782 1410901782 -1.00000000
-1.07336056 8.96155930 2.41840506 40 15 35317 9.34400000 1410901784 1410901784 15.00000000
-0.26180574 2.21198535 -0.59683675 4 0 35325 2.30600000 1410901805 1410901805 -15.00000000
-0.45225224 3.82678199 0.06726158 3 1 35326 3.85400000 1410901807 1410901807 1.00000000
-0.30533645 2.58751249 -0.60151911 3 2 35327 2.67400000 1410901809 1410901809 -13.00000000
-0.36849484 3.12742543 -0.61211526 2 4 35328 3.20800000 1410901814 1410901814 -11.00000000
-0.47118497 4.00497389 0.35280645 1 5 35329 4.04800000 1410901816 1410901816 5.00000000
-0.45955449 3.91200089 -0.62386066 2 6 35330 3.98800000 1410901818 1410901818 -9.00000000
-0.53618222 4.57809258 -0.56596124 6 8 35332 4.64400000 1410901823 1410901823 -7.00000000
-0.51606083 4.41295624 -0.38871461 10 10 35333 4.46000000 1410901828 1410901828 -5.00000000
-1.26255786 10.81278324 2.11607170 40 11 35334 11.09000000 1410901830 1410901830 11.00000000
-0.45448595 3.89820957 -0.20568031 3 12 35335 3.93000000 1410901832 1410901832 -3.00000000
-1.21995854 10.47970963 2.43577003 60 13 35336 10.82800000 1410901835 1410901835 13.00000000
-0.44813684 3.85545158 -0.06775025 4 14 35337 3.88200000 1410901837 1410901837 -1.00000000
-1.04162621 8.96141338 2.41736984 45 15 35337 9.34000000 1410901839 1410901839 15.00000000
-0.25408286 2.21288586 -0.59683675 4 0 35345 2.30600000 1410901860 1410901860 -15.00000000
-0.43843600 3.82436395 0.06719176 3 1 35346 3.85000000 1410901862 1410901862 1.00000000
-0.29585925 2.58469033 -0.60061932 3 2 35347 2.67000000 1410901865 1410901865 -13.00000000
-0.46559745 4.07385302 0.21489143 66 3 35348 4.10600000 1410901867 1410901867 3.00000000
-0.35757586 3.12869287 -0.61211526 2 4 35348 3.20800000 1410901869 1410901869 -11.00000000
-0.45584679 3.99471712 0.35176057 1 5 35349 4.03600000 1410901871 1410901871 5.00000000
-0.44634351 3.91750669 -0.62448639 2 6 35350 3.99200000 1410901874 1410901874 -9.00000000
-0.51751012 4.55626726 -0.56303638 6 8 35352 4.62000000 1410901878 1410901878 -7.00000000
-0.49683696 4.38107586 -0.38575131 10 10 35353 4.42600000 1410901883 1410901883 -5.00000000
-1.22480655 10.81712437 2.11607170 43 11 35354 11.09000000 1410901885 1410901885 11.00000000
-0.43526679 3.85015678 -0.20306350 3 12 35355 3.88000000 1410901888 1410901888 -3.00000000
-1.18162143 10.46841240 2.43217087 62 13 35356 10.81200000 1410901890 1410901890 13.00000000
-0.43333241 3.84506965 -0.06754081 4 14 35357 3.87000000 1410901892 1410901892 -1.00000000
-1.01120412 8.97267437 2.41944051 42 15 35357 9.34800000 1410901894 1410901894 15.00000000
-0.24635690 2.21375918 -0.59683675 4 0 35365 2.30600000 1410901915 1410901915 -15.00000000
-0.42508382 3.82587099 0.06719176 3 1 35366 3.85000000 1410901918 1410901918 1.00000000
-0.28812435 2.59732842 -0.60331875 3 2 35367 2.68200000 1410901920 1410901920 -13.00000000
-0.44961533 4.05957222 0.21405406 36 3 35368 4.09000000 1410901922 1410901922 3.00000000
-0.34708473 3.13382459 -0.61287850 2 4 35368 3.21200000 1410901924 1410901924 -11.00000000
-0.43949106 3.97450042 0.34984314 3 5 35369 4.01400000 1410901927 1410901927 5.00000000
-0.43440026 3.93474841 -0.62698936 2 6 35370 4.00800000 1410901929 1410901929 -9.00000000
-0.50203687 4.56199265 -0.56352383 6 8 35372 4.62400000 1410901934 1410901934 -7.00000000
-0.48110595 4.37882233 -0.38540271 10 10 35373 4.42200000 1410901938 1410901938 -5.00000000
-1.18725431 10.82328606 2.11645341 43 11 35374 11.09200000 1410901941 1410901941 11.00000000
-0.42225945 3.85562348 -0.20327285 1 12 35375 3.88400000 1410901943 1410901943 -3.00000000
-1.14422548 10.46472454 2.43037128 60 13 35376 10.80400000 1410901945 1410901945 13.00000000
-0.41773790 3.82668018 -0.06719176 4 14 35377 3.85000000 1410901947 1410901947 -1.00000000
-0.97872943 8.98016071 2.42047572 40 15 35378 9.35200000 1410901950 1410901950 15.00000000
-0.23821402 2.21076417 -0.59580141 4 0 35385 2.30200000 1410901971 1410901971 -15.00000000
-0.41172644 3.82733154 0.06719176 4 1 35386 3.85000000 1410901973 1410901973 1.00000000
-0.27968049 2.60413122 -0.60466844 3 2 35387 2.68800000 1410901975 1410901975 -13.00000000
-0.43608084 4.06707478 0.21436808 24 3 35388 4.09600000 1410901977 1410901977 3.00000000
-0.33614352 3.13501692 -0.61287850 2 4 35388 3.21200000 1410901980 1410901980 -11.00000000
-0.42285797 3.95025635 0.34757710 1 5 35389 3.98800000 1410901982 1410901982 5.00000000
-0.41856366 3.91659880 -0.62386066 2 6 35390 3.98800000 1410901984 1410901984 -9.00000000
-0.48526847 4.55582142 -0.56254888 6 8 35392 4.61600000 1410901989 1410901989 -7.00000000
-0.45275578 4.25763941 -0.37459537 7 10 35393 4.29800000 1410901994 1410901994 -5.00000000
-1.14967406 10.82931614 2.11683488 37 11 35394 11.09400000 1410901996 1410901996 11.00000000
-0.40858775 3.85508800 -0.20316818 1 12 35395 3.88200000 1410901998 1410901998 -3.00000000
-1.10768974 10.46865463 2.43037128 60 13 35396 10.80400000 1410902000 1410902000 13.00000000
-0.40269721 3.81220579 -0.06691252 4 14 35397 3.83400000 1410902003 1410902003 -1.00000000
-0.94732124 8.96798801 2.41633463 42 15 35397 9.33600000 1410902005 1410902005 15.00000000
-0.22969453 2.20389652 -0.59373087 4 0 35405 2.29400000 1410902026 1410902026 -15.00000000
-0.39670852 3.81283379 0.06691252 3 1 35406 3.83400000 1410902028 1410902028 1.00000000
-0.27159533 2.61478305 -0.60691792 3 2 35407 2.69800000 1410902030 1410902030 -13.00000000
-0.42146945 4.06459904 0.21415873 24 3 35408 4.09200000 1410902033 1410902033 3.00000000
-0.32560322 3.14007688 -0.61364174 2 4 35408 3.21600000 1410902035 1410902035 -11.00000000
-0.40639949 3.92594504 0.34531105 3 5 35409 3.96200000 1410902037 1410902037 5.00000000
-0.40448353 3.91410613 -0.62323493 2 6 35410 3.98400000 1410902040 1410902040 -9.00000000
-0.47058290 4.56933546 -0.56401134 6 8 35412 4.62800000 1410902044 1410902044 -7.00000000
-0.43768731 4.25721216 -0.37442106 7 10 35413 4.29600000 1410902049 1410902049 -5.00000000
-1.11046255 10.81959248 2.11416364 40 11 35414 11.08000000 1410902051 1410902051 11.00000000
-0.39777488 3.88231969 -0.20452891 1 12 35415 3.90800000 1410902053 1410902053 -3.00000000
-1.07074404 10.46858025 2.42947149 62 13 35416 10.80000000 1410902056 1410902056 13.00000000
-0.38938767 3.81358838 -0.06691252 4 14 35417 3.83400000 1410902058 1410902058 -1.00000000
-0.91522646 8.96355247 2.41426396 42 15 35417 9.32800000 1410902060 1410902060 15.00000000
-0.22258075 2.21045136 -0.59528381 3 0 35425 2.30000000 1410902081 1410902081 -15.00000000
-0.38259682 3.80623651 0.06677291 3 1 35426 3.82600000 1410902083 1410902083 1.00000000
-0.26110443 2.60214210 -0.60376865 3 2 35427 2.68400000 1410902086 1410902086 -13.00000000
-0.40639317 4.05007601 0.21332136 12 3 35427 4.07600000 1410902088 1410902088 3.00000000
-0.31385761 3.13338041 -0.61211526 2 4 35428 3.20800000 1410902090 1410902090 -11.00000000
-0.39348581 3.93526959 0.34600830 3 5 35429 3.97000000 1410902093 1410902093 5.00000000
-0.39434978 3.95087528 -0.62886655 2 6 35430 4.02000000 1410902095 1410902095 -9.00000000
-0.45561245 4.58082724 -0.56523001 4 8 35432 4.63800000 1410902099 1410902099 -7.00000000
-0.42558005 4.28647089 -0.37686142 5 10 35433 4.32400000 1410902104 1410902104 -5.00000000
-1.07210743 10.81754208 2.11301875 40 11 35434 11.07400000 1410902106 1410902106 11.00000000
-0.38225430 3.86380911 -0.20348220 1 12 35435 3.88800000 1410902109 1410902109 -3.00000000
-1.03457832 10.47613239 2.43037128 59 13 35436 10.80400000 1410902111 1410902111 13.00000000
-0.37646577 3.81890440 -0.06698234 4 14 35437 3.83800000 1410902113 1410902113 -1.00000000
-0.88393223 8.96669292 2.41426396 42 15 35437 9.32800000 1410902116 1410902116 15.00000000
-0.21579766 2.22082877 -0.59787202 4 0 35445 2.31000000 1410902136 1410902136 -15.00000000
-0.36930826 3.80754900 0.06677291 3 1 35446 3.82600000 1410902139 1410902139 1.00000000
-0.25089291 2.59139967 -0.60106921 3 2 35447 2.67200000 1410902141 1410902141 -13.00000000
-0.39308316 4.06744194 0.21415873 22 3 35448 4.09200000 1410902143 1410902143 3.00000000
-0.30442899 3.15008998 -0.61516821 2 4 35448 3.22400000 1410902146 1410902146 -11.00000000
-0.37840760 3.92273688 0.34478810 4 5 35449 3.95600000 1410902148 1410902148 5.00000000
-0.37752694 3.92076707 -0.62386066 2 6 35450 3.98800000 1410902150 1410902150 -9.00000000
-0.44075704 4.59424543 -0.56669247 4 8 35452 4.65000000 1410902155 1410902155 -7.00000000
-0.41859168 4.37122965 -0.38418251 7 10 35453 4.40800000 1410902159 1410902159 -5.00000000
-1.03340662 10.81144619 2.11111069 40 11 35454 11.06400000 1410902162 1410902162 11.00000000
-0.36459151 3.82137871 -0.20117941 1 12 35455 3.84400000 1410902164 1410902164 -3.00000000
-0.99726450 10.47192097 2.42857170 57 13 35456 10.79600000 1410902166 1410902166 13.00000000
-0.36256531 3.81422305 -0.06687762 4 14 35457 3.83200000 1410902169 1410902169 -1.00000000
-0.85179162 8.97756481 2.41633463 42 15 35458 9.33600000 1410902171 1410902171 15.00000000
-0.20879287 2.22537899 -0.59890729 4 0 35464 2.31400000 1410902192 1410902192 -15.00000000
-0.35556123 3.79680681 0.06656348 4 1 35465 3.81400000 1410902194 1410902194 1.00000000
-0.24338631 2.60385919 -0.60376865 3 2 35466 2.68400000 1410902196 1410902196 -13.00000000
-0.37937361 4.05871391 0.21363537 26 3 35466 4.08200000 1410902199 1410902199 3.00000000
-0.29252228 3.13544416 -0.61211526 2 4 35467 3.20800000 1410902201 1410902201 -11.00000000
-0.36539727 3.92397022 0.34478810 4 5 35468 3.95600000 1410902203 1410902203 5.00000000
-0.36488876 3.92593145 -0.62448639 2 6 35469 3.99200000 1410902205 1410902205 -9.00000000
-0.42570257 4.59765863 -0.56693619 6 8 35471 4.65200000 1410902210 1410902210 -7.00000000
-0.40592730 4.39243317 -0.38592562 2 10 35472 4.42800000 1410902215 1410902215 -5.00000000
-0.99863082 10.82654381 2.11340046 40 11 35473 11.07600000 1410902217 1410902217 11.00000000
-0.35466385 3.85239959 -0.20274949 1 12 35474 3.87400000 1410902219 1410902219 -3.00000000
-0.96003652 10.44800186 2.42227292 59 13 35475 10.76800000 1410902222 1410902222 13.00000000
-0.34881914 3.80345631 -0.06666819 4 14 35476 3.82000000 1410902224 1410902224 -1.00000000
-0.82428932 8.98789215 2.41840506 42 15 35476 9.34400000 1410902226 1410902226 15.00000000
-0.20015484 2.21647406 -0.59631908 4 0 35484 2.30400000 1410902247 1410902247 -15.00000000
-0.34338275 3.80997443 0.06677291 4 1 35485 3.82600000 1410902249 1410902249 1.00000000
-0.23481943 2.61051559 -0.60511833 3 2 35486 2.69000000 1410902251 1410902251 -13.00000000
-0.35983571 4.00033665 0.21049522 7 3 35486 4.02200000 1410902254 1410902254 3.00000000
-0.28052247 3.12471366 -0.60982555 2 4 35487 3.19600000 1410902256 1410902256 -11.00000000
-0.35063100 3.91331506 0.34374225 4 5 35488 3.94400000 1410902258 1410902258 5.00000000
-0.35364568 3.95472646 -0.62886655 2 6 35489 4.02000000 1410902261 1410902261 -9.00000000
-0.41810483 4.69402504 -0.57863563 6 8 35491 4.74800000 1410902265 1410902265 -7.00000000
-0.39165089 4.40573072 -0.38697150 5 10 35492 4.44000000 1410902270 1410902270 -5.00000000
-0.95944506 10.81431961 2.11034751 40 11 35493 11.06000000 1410902272 1410902272 11.00000000
-0.33945274 3.83371925 -0.20170277 1 12 35494 3.85400000 1410902275 1410902275 -3.00000000
-0.92321730 10.44740677 2.42137313 57 13 35495 10.76400000 1410902277 1410902277 13.00000000
-0.33448640 3.79269910 -0.06645876 6 14 35496 3.80800000 1410902279 1410902279 -1.00000000
-0.79240155 8.98494148 2.41685224 45 15 35496 9.33800000 1410902281 1410902281 15.00000000
-0.19258371 2.21908402 -0.59683675 4 0 35504 2.30600000 1410902302 1410902302 -15.00000000
-0.32835588 3.79122758 0.06642386 3 1 35505 3.80600000 1410902304 1410902304 1.00000000
-0.22620903 2.61714387 -0.60646802 3 2 35506 2.69600000 1410902307 1410902307 -13.00000000
-0.33813402 3.92004395 0.20620367 4 3 35507 3.94000000 1410902309 1410902309 3.00000000
-0.27028835 3.13349795 -0.61135203 2 4 35507 3.20400000 1410902311 1410902311 -11.00000000
-0.33611447 3.90458989 0.34287068 4 5 35508 3.93400000 1410902314 1410902314 5.00000000
-0.33848634 3.94019175 -0.62636358 2 6 35509 4.00400000 1410902316 1410902316 -9.00000000
-0.41034704 4.79632711 -0.59106630 2 8 35511 4.85000000 1410902321 1410902321 -7.00000000
-0.39050686 4.57382488 -0.40161365 7 10 35512 4.60800000 1410902325 1410902325 -5.00000000
-0.92169023 10.81760216 2.11034751 43 11 35513 11.06000000 1410902328 1410902328 11.00000000
-0.32403797 3.81099987 -0.20044671 1 12 35514 3.83000000 1410902330 1410902330 -3.00000000
-0.88674337 10.45056629 2.42137313 59 13 35515 10.76400000 1410902332 1410902332 13.00000000
-0.32192028 3.80181384 -0.06659839 6 14 35516 3.81600000 1410902334 1410902334 -1.00000000
-0.75897682 8.98200989 2.41529942 40 15 35517 9.33200000 1410902337 1410902337 15.00000000
-0.18499680 2.22166777 -0.59735435 3 0 35524 2.30800000 1410902357 1410902357 -15.00000000
-0.31545120 3.79633617 0.06649367 4 1 35525 3.81000000 1410902360 1410902360 1.00000000
-0.21594489 2.60432291 -0.60331875 3 2 35526 2.68200000 1410902362 1410902362 -13.00000000
-0.32381251 3.90522027 0.20536630 4 3 35526 3.92400000 1410902364 1410902364 3.00000000
-0.26096767 3.15398788 -0.61516821 2 4 35527 3.22400000 1410902367 1410902367 -11.00000000
-0.32215497 3.90176821 0.34252205 4 5 35528 3.93000000 1410902369 1410902369 5.00000000
-0.32505485 3.94528675 -0.62698936 2 6 35529 4.00800000 1410902371 1410902371 -9.00000000
-0.43142051 5.25870848 -0.64785743 2 8 35531 5.31600000 1410902376 1410902376 -7.00000000
-0.40477508 4.94450903 -0.43403560 9 10 35532 4.98000000 1410902381 1410902381 -5.00000000
-0.88200599 10.79727268 2.10576797 40 11 35533 11.03600000 1410902383 1410902383 11.00000000
-0.31397837 3.85192084 -0.20254014 1 12 35534 3.87000000 1410902385 1410902385 -3.00000000
-0.85089064 10.46136761 2.42317271 57 13 35535 10.77200000 1410902387 1410902387 13.00000000
-0.30864748 3.80291438 -0.06659839 4 14 35536 3.81600000 1410902390 1410902390 -1.00000000
-0.72730726 8.98075390 2.41426396 42 15 35537 9.32800000 1410902392 1410902392 15.00000000
-0.17724061 2.22230005 -0.59735435 3 0 35544 2.30800000 1410902413 1410902413 -15.00000000
-0.30061126 3.77748036 0.06614462 4 1 35545 3.79000000 1410902415 1410902415 1.00000000
-0.20654428 2.60117579 -0.60241890 3 2 35546 2.67800000 1410902417 1410902417 -13.00000000
-0.30986258 3.90234494 0.20515695 6 3 35546 3.92000000 1410902420 1410902420 3.00000000
-0.24902625 3.14313698 -0.61287850 2 4 35547 3.21200000 1410902422 1410902422 -11.00000000
-0.30712014 3.88499308 0.34095326 4 5 35548 3.91200000 1410902424 1410902424 5.00000000
-0.31190258 3.95427442 -0.62824082 2 6 35549 4.01600000 1410902427 1410902427 -9.00000000
-0.41181836 5.24435043 -0.64590752 2 8 35551 5.30000000 1410902431 1410902431 -7.00000000
-0.37039399 4.72739887 -0.41486132 11 10 35552 4.76000000 1410902436 1410902436 -5.00000000
-0.84369910 10.79245663 2.10424161 40 11 35553 11.02800000 1410902438 1410902438 11.00000000
-0.29804575 3.82113409 -0.20086540 1 12 35554 3.83800000 1410902440 1410902440 -3.00000000
-0.81255406 10.44095898 2.41777396 60 13 35555 10.74800000 1410902443 1410902443 13.00000000
-0.29568058 3.80795598 -0.06666819 4 14 35556 3.82000000 1410902445 1410902445 -1.00000000
-0.69595414 8.98323822 2.41426396 42 15 35557 9.32800000 1410902447 1410902447 15.00000000
-0.17006971 2.23061013 -0.59942490 3 0 35564 2.31600000 1410902468 1410902468 -15.00000000
-0.28803027 3.78648233 0.06628424 4 1 35565 3.79800000 1410902470 1410902470 1.00000000
-0.19746321 2.60188079 -0.60241890 3 2 35566 2.67800000 1410902473 1410902473 -13.00000000
-0.29442525 3.87950444 0.20390089 6 3 35566 3.89600000 1410902475 1410902475 3.00000000
-0.23805313 3.14398718 -0.61287850 2 4 35567 3.21200000 1410902477 1410902477 -11.00000000
-0.29385728 3.89001513 0.34130189 4 5 35568 3.91600000 1410902480 1410902480 5.00000000
-0.29809770 3.95533919 -0.62824082 2 6 35569 4.01600000 1410902482 1410902482 -9.00000000
-0.39469758 5.26159191 -0.64785743 2 8 35571 5.31600000 1410902487 1410902487 -7.00000000
-0.35091618 4.68892622 -0.41137511 11 10 35572 4.72000000 1410902491 1410902491 -5.00000000
-0.80572891 10.79142094 2.10347843 37 11 35573 11.02400000 1410902493 1410902493 11.00000000
-0.28366715 3.80820894 -0.20013270 1 12 35574 3.82400000 1410902496 1410902496 -3.00000000
-0.77480358 10.42624187 2.41372490 54 13 35575 10.73000000 1410902498 1410902498 13.00000000
-0.28120375 3.79301095 -0.06638896 4 14 35576 3.80400000 1410902500 1410902500 -1.00000000
-0.66558999 8.99909878 2.41788745 45 15 35577 9.34200000 1410902503 1410902503 15.00000000
-0.16210990 2.22345495 -0.59735435 4 0 35583 2.30800000 1410902523 1410902523 -15.00000000
-0.27489200 3.77943897 0.06614462 4 1 35584 3.79000000 1410902526 1410902526 1.00000000
-0.18968014 2.61418319 -0.60511833 3 2 35585 2.69000000 1410902528 1410902528 -13.00000000
-0.28098059 3.87249136 0.20348220 6 3 35585 3.88800000 1410902530 1410902530 3.00000000
-0.22790946 3.14867544 -0.61364174 2 4 35586 3.21600000 1410902533 1410902533 -11.00000000
-0.28009495 3.87904477 0.34025601 4 5 35587 3.90400000 1410902535 1410902535 5.00000000
-0.39071167 5.42415857 -0.86132818 4 6 35588 5.50600000 1410902537 1410902537 -9.00000000
-0.32851204 4.57179070 0.56279260 2 7 35589 4.61800000 1410902539 1410902539 7.00000000
-0.37611192 5.24703169 -0.64590752 2 8 35590 5.30000000 1410902542 1410902542 -7.00000000
-0.33437046 4.67615271 -0.41015494 11 10 35591 4.70600000 1410902546 1410902546 -5.00000000
-0.77105629 10.80969906 2.10653138 43 11 35592 11.04000000 1410902549 1410902549 11.00000000
-0.27287993 3.83502769 -0.20149343 3 12 35593 3.85000000 1410902551 1410902551 -3.00000000
-0.74036264 10.43069744 2.41417480 56 13 35594 10.73200000 1410902553 1410902553 13.00000000
-0.26721182 3.77397561 -0.06603990 4 14 35595 3.78400000 1410902556 1410902556 -1.00000000
-0.63581443 8.97994804 2.41219354 13 15 35595 9.32000000 1410902558 1410902558 15.00000000
-0.15354510 2.21244407 -0.59424853 3 0 35603 2.29600000 1410902579 1410902579 -15.00000000
-0.26100713 3.77040100 0.06597009 4 1 35604 3.78000000 1410902581 1410902581 1.00000000
-0.18082227 2.61871743 -0.60601813 3 2 35605 2.69400000 1410902583 1410902583 -13.00000000
-0.26608554 3.85352325 0.20243548 4 3 35605 3.86800000 1410902586 1410902586 3.00000000
-0.21745674 3.15728617 -0.61516821 2 4 35606 3.22400000 1410902588 1410902588 -11.00000000
-0.26573354 3.86807275 0.33921015 4 5 35607 3.89200000 1410902590 1410902590 5.00000000
-0.37393615 5.45702124 -0.86633408 2 6 35608 5.53800000 1410902592 1410902592 -9.00000000
-0.31011501 4.53726101 0.55840534 2 7 35609 4.58200000 1410902595 1410902595 7.00000000
-0.47255820 6.93173361 -0.85308540 2 8 35610 7.00000000 1410902597 1410902597 -7.00000000
-0.31764013 4.67132807 -0.40963200 11 10 35611 4.70000000 1410902602 1410902602 -5.00000000
-0.73252159 10.80057240 2.10424161 43 11 35612 11.02800000 1410902604 1410902604 11.00000000
-0.25827834 3.81802249 -0.20055139 1 12 35613 3.83200000 1410902606 1410902606 -3.00000000
-0.70421058 10.43710709 2.41507459 57 13 35614 10.73600000 1410902609 1410902609 13.00000000
-0.25457361 3.78286624 -0.06617953 4 14 35615 3.79200000 1410902611 1410902611 -1.00000000
-0.14619517 2.22455812 -0.59735435 3 0 35624 2.30800000 1410902634 1410902634 -15.00000000
-0.24640146 3.75935984 0.06576066 4 1 35625 3.76800000 1410902636 1410902636 1.00000000
-0.17071451 2.61158419 -0.60421854 3 2 35626 2.68600000 1410902639 1410902639 -13.00000000
-0.25037763 3.84056544 0.20170277 6 3 35627 3.85400000 1410902641 1410902641 3.00000000
-0.20588325 3.15806198 -0.61516821 2 4 35627 3.22400000 1410902643 1410902643 -11.00000000
-0.25194237 3.87498522 0.33973309 4 5 35628 3.89800000 1410902645 1410902645 5.00000000
-0.35380483 5.45638371 -0.86602122 2 6 35629 5.53600000 1410902648 1410902648 -9.00000000
-0.29092097 4.49874783 0.55353057 2 7 35630 4.54200000 1410902650 1410902650 7.00000000
-0.45021513 6.98096275 -0.85893512 2 8 35631 7.04800000 1410902652 1410902652 -7.00000000
-0.30090034 4.67842579 -0.41015494 11 10 35632 4.70600000 1410902657 1410902657 -5.00000000
-0.69217664 10.79142952 2.10195184 43 11 35633 11.01600000 1410902659 1410902659 11.00000000
-0.24339037 3.80499125 -0.19981869 1 12 35634 3.81800000 1410902662 1410902662 -3.00000000
-0.66595191 10.43961811 2.41507459 56 13 35635 10.73600000 1410902664 1410902664 13.00000000
-0.24134180 3.79375219 -0.06635405 4 14 35636 3.80200000 1410902666 1410902666 -1.00000000
-0.42828670 6.73241711 1.80759215 2 15 35636 6.98400000 1410902669 1410902669 15.00000000
-0.13830917 2.22312665 -0.59683675 3 0 35644 2.30600000 1410902689 1410902689 -15.00000000
-0.23389645 3.77017617 0.06593519 4 1 35645 3.77800000 1410902692 1410902692 1.00000000
-0.16159734 2.61216426 -0.60421854 3 2 35646 2.68600000 1410902694 1410902694 -13.00000000
-0.23697002 3.84141612 0.20170277 6 3 35647 3.85400000 1410902696 1410902696 3.00000000
-0.19510005 3.16268063 -0.61593145 2 4 35647 3.22800000 1410902698 1410902698 -11.00000000
-0.23719135 3.85595465 0.33798996 4 5 35648 3.87800000 1410902701 1410902701 5.00000000
-0.33475634 5.45758581 -0.86602122 2 6 35649 5.53600000 1410902703 1410902703 -9.00000000
-0.42487755 6.96664047 -0.85698521 2 8 35651 7.03200000 1410902708 1410902708 -7.00000000
-0.28565621 4.69734621 -0.41172373 13 10 35652 4.72400000 1410902712 1410902712 -5.00000000
-0.65379030 10.78202152 2.09966230 43 11 35653 11.00400000 1410902715 1410902715 11.00000000
-0.22998644 3.80382395 -0.19971400 3 12 35654 3.81600000 1410902717 1410902717 -3.00000000
-0.62845135 10.42437172 2.41102529 52 13 35655 10.71800000 1410902719 1410902719 13.00000000
-0.22749771 3.78459096 -0.06617953 6 14 35656 3.79200000 1410902722 1410902722 -1.00000000
-0.40199015 6.70694399 1.80034530 2 15 35657 6.95600000 1410902724 1410902724 15.00000000
-0.13184474 2.23900127 -0.60097784 3 0 35663 2.32200000 1410902745 1410902745 -15.00000000
-0.22151001 3.77292752 0.06597009 4 1 35664 3.78000000 1410902747 1410902747 1.00000000
-0.15247871 2.60490417 -0.60241890 3 2 35665 2.67800000 1410902749 1410902749 -13.00000000
-0.22341558 3.82822371 0.20097007 6 3 35666 3.84000000 1410902751 1410902751 3.00000000
-0.18415363 3.15547037 -0.61440498 2 4 35666 3.22000000 1410902754 1410902754 -11.00000000
-0.22463469 3.86069822 0.33833858 4 5 35667 3.88200000 1410902756 1410902756 5.00000000
-0.31619889 5.45077753 -0.86476970 2 6 35668 5.52800000 1410902758 1410902758 -9.00000000
-0.40017322 6.94026613 -0.85357291 2 8 35670 7.00400000 1410902763 1410902763 -7.00000000
-0.27247888 4.74003887 -0.41538426 8 10 35671 4.76600000 1410902768 1410902768 -5.00000000
-0.61848158 10.79197025 2.10118866 43 11 35672 11.01200000 1410902770 1410902770 11.00000000
-0.21702947 3.79858375 -0.19939999 3 12 35673 3.81000000 1410902772 1410902772 -3.00000000
-0.21460621 3.77933526 -0.06607481 6 14 35675 3.78600000 1410902777 1410902777 -1.00000000
-0.40260309 7.09006500 1.90283763 9 15 35675 7.35200000 1410902779 1410902779 15.00000000
-0.12338740 2.22787452 -0.59787202 3 0 35683 2.31000000 1410902800 1410902800 -15.00000000
-0.20811822 3.76968431 0.06590029 4 1 35684 3.77600000 1410902802 1410902802 1.00000000
-0.14445581 2.62487841 -0.60691792 3 2 35685 2.69800000 1410902804 1410902804 -13.00000000
-0.21027003 3.83296871 0.20117941 6 3 35686 3.84400000 1410902807 1410902807 3.00000000
-0.17292279 3.15217352 -0.61364174 2 4 35686 3.21600000 1410902809 1410902809 -11.00000000
-0.20996031 3.83957505 0.33642116 4 5 35687 3.86000000 1410902811 1410902811 5.00000000
-0.29652512 5.44001341 -0.86289251 2 6 35688 5.51600000 1410902814 1410902814 -9.00000000
-0.37530062 6.92972755 -0.85211045 2 8 35690 6.99200000 1410902818 1410902818 -7.00000000
-0.25517961 4.72703457 -0.41416410 11 10 35691 4.75200000 1410902823 1410902823 -5.00000000
-0.58059579 10.79014301 2.10042548 46 11 35692 11.00800000 1410902825 1410902825 11.00000000
-0.20419648 3.80729556 -0.19981869 3 12 35693 3.81800000 1410902827 1410902827 -3.00000000
-0.20119976 3.77606750 -0.06600500 6 14 35695 3.78200000 1410902832 1410902832 -1.00000000
-0.47681215 8.97818565 2.40908766 18 15 35696 9.30800000 1410902834 1410902834 15.00000000
-0.11571001 2.23022079 -0.59838963 3 0 35703 2.31200000 1410902855 1410902855 -15.00000000
-0.19475177 3.76639366 0.06583048 4 1 35704 3.77200000 1410902857 1410902857 1.00000000
-0.13549297 2.62925911 -0.60781777 3 2 35705 2.70200000 1410902860 1410902860 -13.00000000
-0.19647944 3.82570076 0.20076072 6 3 35706 3.83600000 1410902862 1410902862 3.00000000
-0.16211998 3.15667915 -0.61440498 2 4 35706 3.22000000 1410902864 1410902864 -11.00000000
-0.19645457 3.83829498 0.33624685 4 5 35707 3.85800000 1410902867 1410902867 5.00000000
-0.27793664 5.44890642 -0.86414397 2 6 35708 5.52400000 1410902869 1410902869 -9.00000000
-0.35191253 6.94685555 -0.85406035 2 8 35710 7.00800000 1410902874 1410902874 -7.00000000
-0.23988307 4.75177479 -0.41625583 11 10 35711 4.77600000 1410902878 1410902878 -5.00000000
-0.54273033 10.78818226 2.09966230 43 11 35712 11.00400000 1410902880 1410902880 11.00000000
-0.19060528 3.80200100 -0.19950466 1 12 35713 3.81200000 1410902883 1410902883 -3.00000000
-0.38455942 7.69766712 1.77936280 2 13 35714 7.91000000 1410902885 1410902885 13.00000000
-0.18791817 3.77474952 -0.06597009 6 14 35715 3.78000000 1410902887 1410902887 -1.00000000
-0.44617230 8.96235180 2.40442896 33 15 35715 9.29000000 1410902890 1410902890 15.00000000
-0.10745758 2.22096324 -0.59580141 3 0 35723 2.30200000 1410902910 1410902910 -15.00000000
-0.18083309 3.75107169 0.06555124 4 1 35724 3.75600000 1410902913 1410902913 1.00000000
-0.12612732 2.62582302 -0.60691792 3 2 35725 2.69800000 1410902915 1410902915 -13.00000000
-0.18312405 3.82636333 0.20076072 6 3 35726 3.83600000 1410902917 1410902917 3.00000000
-0.15147553 3.16506982 -0.61593145 2 4 35726 3.22800000 1410902920 1410902920 -11.00000000
-0.18352970 3.84890795 0.33711842 6 5 35727 3.86800000 1410902922 1410902922 5.00000000
-0.18879588 3.97392654 -0.63011801 2 6 35728 4.02800000 1410902924 1410902924 -9.00000000
-0.33102772 7.01942587 -0.86283493 2 8 35730 7.08000000 1410902929 1410902929 -7.00000000
-0.22385585 4.76452446 -0.41730168 11 10 35731 4.78800000 1410902933 1410902933 -5.00000000
-0.50405949 10.76843929 2.09546447 37 11 35732 10.98200000 1410902936 1410902936 11.00000000
-0.17492560 3.77937770 -0.06603990 6 14 35735 3.78400000 1410902943 1410902943 -1.00000000
-0.37585929 8.15148067 2.18650341 6 15 35736 8.44800000 1410902945 1410902945 15.00000000
-0.10005081 2.22904444 -0.59787202 3 0 35743 2.31000000 1410902966 1410902966 -15.00000000
-0.16764899 3.74968243 0.06551633 4 1 35744 3.75400000 1410902968 1410902968 1.00000000
-0.11609370 2.60677910 -0.60241890 3 2 35745 2.67800000 1410902970 1410902970 -13.00000000
-0.17003196 3.83296514 0.20107475 6 3 35746 3.84200000 1410902973 1410902973 3.00000000
-0.14129651 3.18519258 -0.61974764 2 4 35746 3.24800000 1410902975 1410902975 -11.00000000
-0.17018133 3.85151553 0.33729273 9 5 35747 3.87000000 1410902977 1410902977 5.00000000
-0.24475344 5.56122828 -0.88166463 4 6 35748 5.63600000 1410902980 1410902980 -9.00000000
-0.30375248 6.95707607 -0.85503531 2 8 35750 7.01600000 1410902984 1410902984 -7.00000000
-0.20843503 4.79314375 -0.41974205 8 10 35751 4.81600000 1410902989 1410902989 -5.00000000
-0.16173387 3.74936318 -0.19667852 1 12 35753 3.75800000 1410902993 1410902993 -3.00000000
-0.35272527 8.21026421 1.89723718 14 13 35754 8.43400000 1410902996 1410902996 13.00000000
