# .PCD v0.7 - Point Cloud Data file format
VERSION 0.7
FIELDS x y z intensity laser_id azimuth distance_m adjustedtime timestamp vertical_angle
SIZE 4 4 4 1 1 2 8 8 4 8
TYPE F F F U U U F U U F
COUNT 1 1 1 1 1 1 1 1 1 1
WIDTH 529
HEIGHT 1
VIEWPOINT 0 0 0 1 0 0 0
POINTS 529
DATA ascii
-4.13202477 2.01621604 -0.24095474 4 12 29601 4.60400000 1410385754 1410385754 -3.00000000
-10.45827198 5.10536003 2.68681550 57 13 29602 11.94400000 1410385756 1410385756 13.00000000
-4.04112720 1.97360933 -0.07850093 7 14 29603 4.49800000 1410385759 1410385759 -1.00000000
-8.96241570 4.37707281 2.67256546 47 15 29603 10.32600000 1410385761 1410385761 15.00000000
-1.81797361 0.89100957 -0.54248470 4 0 29611 2.09600000 1410385782 1410385782 -15.00000000
-4.16550064 2.04246092 0.08097917 4 1 29612 4.64000000 1410385784 1410385784 1.00000000
-2.10123754 1.03075016 -0.54033244 4 2 29613 2.40200000 1410385786 1410385786 -13.00000000
-2.47977161 1.21697497 -0.53693652 3 4 29614 2.81400000 1410385791 1410385791 -11.00000000
-2.99996972 1.47356749 -0.52937424 3 6 29616 3.38400000 1410385796 1410385796 -9.00000000
-3.75885224 1.84795511 -0.51428860 8 8 29618 4.22000000 1410385800 1410385800 -7.00000000
-5.02741051 2.47270274 -0.49016389 10 10 29619 5.62400000 1410385805 1410385805 -5.00000000
-4.20201349 2.06855822 -0.24545564 2 12 29621 4.69000000 1410385809 1410385809 -3.00000000
-10.43689060 5.14011288 2.68591547 60 13 29622 11.94000000 1410385812 1410385812 13.00000000
-4.03241968 1.98681962 -0.07846602 5 14 29623 4.49600000 1410385814 1410385814 -1.00000000
-8.93841839 4.40406179 2.66997719 45 15 29623 10.31600000 1410385816 1410385816 15.00000000
-1.81862962 0.89842778 -0.54351997 4 0 29629 2.10000000 1410385837 1410385837 -15.00000000
-4.15727091 2.05465126 0.08094426 6 1 29630 4.63800000 1410385839 1410385839 1.00000000
-2.11545753 1.04598367 -0.54483145 3 2 29631 2.42200000 1410385842 1410385842 -13.00000000
-2.46889710 1.22127748 -0.53541005 3 4 29632 2.80600000 1410385846 1410385846 -11.00000000
-2.99532557 1.48298490 -0.52937424 3 6 29634 3.38400000 1410385851 1410385851 -9.00000000
-3.75658536 1.86151755 -0.51477611 6 8 29636 4.22400000 1410385855 1410385855 -7.00000000
-5.01961756 2.48848462 -0.49016389 10 10 29637 5.62400000 1410385860 1410385860 -5.00000000
-7.55725718 3.74981117 -0.44213417 4 12 29639 8.44800000 1410385865 1410385865 -3.00000000
-9.07490349 4.50482130 2.33904099 15 13 29640 10.39800000 1410385867 1410385867 13.00000000
-4.05660486 2.01459861 -0.07905940 5 14 29641 4.53000000 1410385869 1410385869 -1.00000000
-8.91761684 4.42868376 2.66790676 45 15 29641 10.30800000 1410385872 1410385872 15.00000000
-1.81894040 0.90649390 -0.54455525 4 0 29649 2.10400000 1410385892 1410385892 -15.00000000
-4.13933563 2.06379676 0.08073483 4 1 29650 4.62600000 1410385895 1410385895 1.00000000
-2.10656190 1.05075216 -0.54348177 4 2 29651 2.41600000 1410385897 1410385897 -13.00000000
-2.47691584 1.23602438 -0.53808135 3 4 29652 2.82000000 1410385902 1410385902 -11.00000000
-3.00073385 1.49872732 -0.53125143 3 6 29654 3.39600000 1410385906 1410385906 -9.00000000
-3.75894260 1.87905705 -0.51599479 6 8 29656 4.23400000 1410385911 1410385911 -7.00000000
-5.01090050 2.50599122 -0.49016389 14 10 29657 5.62400000 1410385915 1410385915 -5.00000000
-7.55126619 3.77974415 -0.44255283 8 12 29659 8.45600000 1410385920 1410385920 -3.00000000
-10.40257168 5.20921946 2.68591547 33 13 29660 11.94000000 1410385922 1410385922 13.00000000
-4.08351755 2.04576468 -0.07972259 3 14 29661 4.56800000 1410385925 1410385925 -1.00000000
-8.90132523 4.46133852 2.66790676 47 15 29662 10.30800000 1410385927 1410385927 15.00000000
-1.81921709 0.91457313 -0.54559052 4 0 29669 2.10800000 1410385948 1410385948 -15.00000000
-2.10114050 1.05722308 -0.54303187 3 2 29671 2.41400000 1410385952 1410385952 -13.00000000
-2.46557188 1.24113202 -0.53655487 3 4 29672 2.81200000 1410385957 1410385957 -11.00000000
-2.98842764 1.50563753 -0.52999997 3 6 29674 3.38800000 1410385961 1410385961 -9.00000000
-3.75767803 1.89484823 -0.51672602 6 8 29676 4.24000000 1410385966 1410385966 -7.00000000
-5.01635313 2.53064632 -0.49155840 10 10 29677 5.64000000 1410385971 1410385971 -5.00000000
-10.16555500 5.13053799 2.21338439 15 11 29678 11.60000000 1410385973 1410385973 11.00000000
-7.54515791 3.80968070 -0.44297153 8 12 29679 8.46400000 1410385975 1410385975 -3.00000000
-8.89510345 4.49518871 2.67049479 47 15 29681 10.31800000 1410385982 1410385982 15.00000000
-1.81601357 0.92091781 -0.54559052 4 0 29689 2.10800000 1410386003 1410386003 -15.00000000
-2.09917498 1.06543303 -0.54348177 4 2 29691 2.41600000 1410386007 1410386007 -13.00000000
-2.46472549 1.25150859 -0.53731811 3 4 29692 2.81600000 1410386012 1410386012 -11.00000000
-2.98667574 1.51784980 -0.53062570 3 6 29694 3.39200000 1410386017 1410386017 -9.00000000
-3.74750233 1.90615344 -0.51623851 6 8 29696 4.23600000 1410386021 1410386021 -7.00000000
-5.01814318 2.55356288 -0.49260426 10 10 29697 5.65200000 1410386026 1410386026 -5.00000000
-10.16158104 5.17311668 2.21643734 25 11 29698 11.61600000 1410386028 1410386028 11.00000000
-7.55317020 3.84687209 -0.44422761 12 12 29699 8.48800000 1410386031 1410386031 -3.00000000
-8.77719975 4.47220659 2.27425528 13 13 29700 10.11000000 1410386033 1410386033 13.00000000
-8.88280010 4.52796555 2.67153025 47 15 29701 10.32200000 1410386037 1410386037 15.00000000
-1.81278789 0.92725122 -0.54559052 4 0 29709 2.10800000 1410386058 1410386058 -15.00000000
-2.09891248 1.07453012 -0.54438156 4 2 29711 2.42000000 1410386063 1410386063 -13.00000000
-2.45509958 1.25741959 -0.53617328 3 4 29712 2.81000000 1410386067 1410386067 -11.00000000
-3.00245380 1.53907919 -0.53438014 3 6 29714 3.41600000 1410386072 1410386072 -9.00000000
-3.74082565 1.91922307 -0.51623851 6 8 29716 4.23600000 1410386077 1410386077 -7.00000000
-5.00565386 2.56924438 -0.49225563 14 10 29717 5.64800000 1410386081 1410386081 -5.00000000
-7.56812096 3.88781619 -0.44590235 8 12 29719 8.52000000 1410386086 1410386086 -3.00000000
-8.70260525 4.47253132 2.25895858 15 13 29720 10.04200000 1410386088 1410386088 13.00000000
-8.85240173 4.55342340 2.66738915 47 15 29722 10.30600000 1410386093 1410386093 15.00000000
-1.80267286 0.93003041 -0.54351997 4 0 29729 2.10000000 1410386113 1410386113 -15.00000000
-2.10380650 1.08632064 -0.54663104 3 2 29731 2.43000000 1410386118 1410386118 -13.00000000
-2.46116114 1.27138817 -0.53846300 3 4 29732 2.82200000 1410386123 1410386123 -11.00000000
-2.98828959 1.54501414 -0.53281581 3 6 29734 3.40600000 1410386127 1410386127 -9.00000000
-3.74115562 1.93591857 -0.51721346 6 8 29736 4.24400000 1410386132 1410386132 -7.00000000
-5.00196314 2.58944964 -0.49277857 14 10 29737 5.65400000 1410386137 1410386137 -5.00000000
-7.56514406 3.91972327 -0.44653037 8 12 29739 8.53200000 1410386141 1410386141 -3.00000000
-8.64368725 4.48046160 2.24771094 15 13 29740 9.99200000 1410386143 1410386143 13.00000000
-8.82959366 4.58073759 2.66531849 47 15 29742 10.29800000 1410386148 1410386148 15.00000000
-1.80284286 0.93810076 -0.54455525 4 0 29749 2.10400000 1410386169 1410386169 -15.00000000
-2.09481668 1.09095728 -0.54528135 4 2 29751 2.42400000 1410386173 1410386173 -13.00000000
-2.45322585 1.27815711 -0.53769976 3 4 29752 2.81800000 1410386178 1410386178 -11.00000000
-2.96886587 1.54812908 -0.53031284 3 6 29754 3.39000000 1410386183 1410386183 -9.00000000
-3.73789501 1.95080268 -0.51770097 6 8 29756 4.24800000 1410386187 1410386187 -7.00000000
-5.00172472 2.61150479 -0.49365014 14 10 29757 5.66400000 1410386192 1410386192 -5.00000000
-5.04312754 2.63536286 -0.29821029 3 12 29759 5.69800000 1410386196 1410386196 -3.00000000
-8.57618523 4.48352098 2.23421383 14 13 29760 9.93200000 1410386199 1410386199 13.00000000
-5.03949833 2.63570619 -0.09926929 6 14 29761 5.68800000 1410386201 1410386201 -1.00000000
-8.80841541 4.60884380 2.66376567 45 15 29762 10.29200000 1410386203 1410386203 15.00000000
-1.80639982 0.94797891 -0.54662585 4 0 29769 2.11200000 1410386224 1410386224 -15.00000000
-5.02472878 2.63804150 0.09905986 7 1 29770 5.67600000 1410386226 1410386226 1.00000000
-2.08754516 1.09645057 -0.54438156 4 2 29771 2.42000000 1410386229 1410386229 -13.00000000
-5.03759718 2.64591932 0.29821029 7 3 29771 5.69800000 1410386231 1410386231 3.00000000
-2.45222521 1.28853917 -0.53846300 3 4 29772 2.82200000 1410386233 1410386233 -11.00000000
-2.97743058 1.56583858 -0.53281581 1 6 29774 3.40600000 1410386238 1410386238 -9.00000000
-3.73106265 1.96383846 -0.51770097 6 8 29776 4.24800000 1410386243 1410386243 -7.00000000
-4.98200083 2.62337828 -0.49260426 17 10 29777 5.65200000 1410386247 1410386247 -5.00000000
-5.00916147 2.63991404 -0.29674488 9 12 29779 5.67000000 1410386252 1410386252 -3.00000000
-10.27223396 5.41593456 2.68096662 4 13 29780 11.91800000 1410386254 1410386254 13.00000000
-5.00373650 2.63928699 -0.09874572 6 14 29781 5.65800000 1410386256 1410386256 -1.00000000
-8.79569054 4.64136600 2.66480088 40 15 29782 10.29600000 1410386259 1410386259 15.00000000
-1.80632770 0.95640129 -0.54766113 4 0 29790 2.11600000 1410386279 1410386279 -15.00000000
-4.97968435 2.63771987 0.09836176 7 1 29791 5.63600000 1410386282 1410386282 1.00000000
-2.08867812 1.10683179 -0.54573125 3 2 29792 2.42600000 1410386284 1410386284 -13.00000000
-4.98374605 2.64098549 0.29559347 6 3 29792 5.64800000 1410386286 1410386286 3.00000000
-2.44748592 1.29751837 -0.53846300 3 4 29793 2.82200000 1410386289 1410386289 -11.00000000
-4.99003649 2.64655042 0.49417305 8 5 29794 5.67000000 1410386291 1410386291 5.00000000
-2.97690630 1.57951844 -0.53375441 1 6 29795 3.41200000 1410386293 1410386293 -9.00000000
-4.99188042 2.64976144 0.69392407 7 7 29796 5.69400000 1410386295 1410386295 7.00000000
-3.72033334 1.97563827 -0.51721346 8 8 29797 4.24400000 1410386298 1410386298 -7.00000000
-4.98269033 2.64599776 0.89355367 7 9 29797 5.71200000 1410386300 1410386300 9.00000000
-4.96355486 2.63694668 -0.49173269 14 10 29798 5.64200000 1410386302 1410386302 -5.00000000
-4.97373152 2.64346647 1.09486198 5 11 29799 5.73800000 1410386305 1410386305 11.00000000
-4.97123623 2.64325333 -0.29507011 9 12 29800 5.63800000 1410386307 1410386307 -3.00000000
-4.96529293 2.64120483 1.29841745 6 13 29801 5.77200000 1410386309 1410386309 13.00000000
-4.95166206 2.63506293 -0.09790800 6 14 29802 5.61000000 1410386312 1410386312 -1.00000000
-1.79956996 0.96088088 -0.54662585 4 0 29810 2.11200000 1410386335 1410386335 -15.00000000
-4.95633602 2.64754868 0.09808253 7 1 29811 5.62000000 1410386337 1410386337 1.00000000
-2.08823943 1.11595285 -0.54663104 4 2 29812 2.43000000 1410386339 1410386339 -13.00000000
-4.93926668 2.63953900 0.29350004 6 3 29812 5.60800000 1410386342 1410386342 3.00000000
-2.43947911 1.30420256 -0.53769976 3 4 29813 2.81800000 1410386344 1410386344 -11.00000000
-4.93860292 2.64140058 0.48998958 8 5 29814 5.62200000 1410386346 1410386346 5.00000000
-2.97311640 1.59083211 -0.53406727 1 6 29815 3.41400000 1410386348 1410386348 -9.00000000
-4.95634890 2.65311766 0.69026798 7 7 29816 5.66400000 1410386351 1410386351 7.00000000
-3.71341443 1.98861265 -0.51721346 6 8 29817 4.24400000 1410386353 1410386353 -7.00000000
-4.94207859 2.64658856 0.88792205 9 9 29817 5.67600000 1410386355 1410386355 9.00000000
-4.93500137 2.64390683 -0.48981526 10 10 29818 5.62000000 1410386358 1410386358 -5.00000000
-4.94890022 2.65246511 1.09142745 8 11 29819 5.72000000 1410386360 1410386360 11.00000000
-4.93557644 2.64643288 -0.29350004 8 12 29820 5.60800000 1410386362 1410386362 -3.00000000
-4.93028402 2.64470315 1.29166901 8 13 29821 5.74200000 1410386365 1410386365 13.00000000
-4.90014553 2.62963772 -0.09707028 6 14 29822 5.56200000 1410386367 1410386367 -1.00000000
-4.93600082 2.64998889 1.50115049 6 15 29823 5.80000000 1410386369 1410386369 15.00000000
-1.78940117 0.96349323 -0.54455525 4 0 29830 2.10400000 1410386390 1410386390 -15.00000000
-4.89600897 2.63733149 0.09707028 7 1 29831 5.56200000 1410386392 1410386392 1.00000000
-2.08433127 1.12323546 -0.54663104 3 2 29832 2.43000000 1410386395 1410386395 -13.00000000
-4.90846252 2.64625096 0.29224399 6 3 29833 5.58400000 1410386397 1410386397 3.00000000
-2.43491173 1.31270993 -0.53769976 3 4 29833 2.81800000 1410386399 1410386399 -11.00000000
-4.89252710 2.63876200 0.48632905 8 5 29834 5.58000000 1410386401 1410386401 5.00000000
-2.95537615 1.59463441 -0.53187716 1 6 29835 3.40000000 1410386404 1410386404 -9.00000000
-4.92085505 2.65625811 0.68661189 7 7 29836 5.63400000 1410386406 1410386406 7.00000000
-3.71693015 2.00722218 -0.51867592 6 8 29837 4.25600000 1410386408 1410386408 -7.00000000
-4.90152359 2.64692807 0.88229036 9 9 29837 5.64000000 1410386411 1410386411 9.00000000
-4.87315416 2.63270664 -0.48458594 10 10 29838 5.56000000 1410386413 1410386413 -5.00000000
-4.90679598 2.65198803 1.08417666 8 11 29839 5.68200000 1410386415 1410386415 11.00000000
-4.88765717 2.64274645 -0.29119727 11 12 29840 5.56400000 1410386418 1410386418 -3.00000000
-4.89016962 2.64520788 1.28357077 7 13 29841 5.70600000 1410386420 1410386420 13.00000000
-4.85048676 2.62483692 -0.09626748 6 14 29842 5.51600000 1410386422 1410386422 -1.00000000
-4.88640928 2.64427638 1.48872709 6 15 29842 5.75200000 1410386425 1410386425 15.00000000
-1.79621351 0.97526431 -0.54766113 4 0 29850 2.11600000 1410386445 1410386445 -15.00000000
-4.84108591 2.62958932 0.09616276 7 1 29851 5.51000000 1410386448 1410386448 1.00000000
-2.07012415 1.12492156 -0.54393166 3 2 29852 2.41800000 1410386450 1410386450 -13.00000000
-4.87111998 2.64810562 0.29056922 6 3 29853 5.55200000 1410386452 1410386452 3.00000000
-2.44756317 1.33057821 -0.54151595 3 4 29853 2.83800000 1410386454 1410386454 -11.00000000
-4.85878229 2.64249730 0.48388869 8 5 29854 5.55200000 1410386457 1410386457 5.00000000
-2.95846772 1.60966134 -0.53344154 1 6 29855 3.41000000 1410386459 1410386459 -9.00000000
-4.87319469 2.65254045 0.68124962 7 7 29856 5.59000000 1410386461 1410386461 7.00000000
-3.72036123 2.02588058 -0.52013838 8 8 29857 4.26800000 1410386464 1410386464 -7.00000000
-4.87097311 2.65353560 0.87853593 9 9 29858 5.61600000 1410386466 1410386466 9.00000000
-4.84293938 2.63826370 -0.48249421 10 10 29858 5.53600000 1410386468 1410386468 -5.00000000
-4.84924030 2.64279389 1.07349145 8 11 29859 5.62600000 1410386471 1410386471 11.00000000
-4.83280993 2.63493347 -0.28847578 11 12 29860 5.51200000 1410386473 1410386473 -3.00000000
-4.85695505 2.64919758 1.27727211 8 13 29861 5.67800000 1410386475 1410386475 13.00000000
-4.82374096 2.63217378 -0.09591842 12 14 29862 5.49600000 1410386478 1410386478 -1.00000000
-4.85125017 2.64828348 1.48096263 6 15 29863 5.72200000 1410386480 1410386480 15.00000000
-1.79635882 0.98307025 -0.54869640 4 0 29869 2.12000000 1410386501 1410386501 -15.00000000
-4.79375076 2.62450194 0.09539486 7 1 29870 5.46600000 1410386503 1410386503 1.00000000
-2.06296396 1.12990785 -0.54303187 4 2 29871 2.41400000 1410386505 1410386505 -13.00000000
-4.80976534 2.63545203 0.28742906 6 3 29872 5.49200000 1410386507 1410386507 3.00000000
-2.45346785 1.34434772 -0.54380566 3 4 29872 2.85000000 1410386510 1410386510 -11.00000000
-4.82029152 2.64231396 0.48092538 11 5 29873 5.51800000 1410386512 1410386512 5.00000000
-2.96696973 1.62706172 -0.53594446 1 6 29874 3.42600000 1410386514 1410386514 -9.00000000
-4.81738186 2.64290595 0.67466867 10 7 29875 5.53600000 1410386517 1410386517 7.00000000
-3.71362281 2.03820658 -0.52013838 8 8 29876 4.26800000 1410386519 1410386519 -7.00000000
-4.82278395 2.64696503 0.87133998 9 9 29876 5.57000000 1410386521 1410386521 9.00000000
-4.79224920 2.63129449 -0.47831070 10 10 29877 5.48800000 1410386524 1410386524 -5.00000000
-4.79915190 2.63617516 1.06433260 11 11 29878 5.57800000 1410386526 1410386526 11.00000000
-4.79253864 2.63363123 -0.28659171 11 12 29879 5.47600000 1410386528 1410386528 -3.00000000
-4.80203533 2.63994145 1.26512468 8 13 29880 5.62400000 1410386531 1410386531 13.00000000
-4.78344679 2.63080931 -0.09529014 10 14 29881 5.46000000 1410386533 1410386533 -1.00000000
-4.81074429 2.64582276 1.47112751 8 15 29881 5.68400000 1410386535 1410386535 15.00000000
-1.78953350 0.98746806 -0.54766113 4 0 29889 2.11600000 1410386556 1410386556 -15.00000000
-4.77055502 2.63348794 0.09511562 7 1 29890 5.45000000 1410386558 1410386558 1.00000000
-2.06924272 1.14275455 -0.54573125 3 2 29891 2.42600000 1410386560 1410386560 -13.00000000
-4.76032782 2.63001060 0.28502160 6 3 29892 5.44600000 1410386563 1410386563 3.00000000
-2.43501282 1.34530854 -0.54075271 3 4 29892 2.83400000 1410386565 1410386565 -11.00000000
-4.77616358 2.63984776 0.47743917 11 5 29893 5.47800000 1410386567 1410386567 5.00000000
-2.94398522 1.62784970 -0.53281581 1 6 29894 3.40600000 1410386570 1410386570 -9.00000000
-4.78033400 2.64433169 0.67076886 10 7 29895 5.50400000 1410386572 1410386572 7.00000000
-3.70648551 2.05115700 -0.52013838 8 8 29896 4.26800000 1410386574 1410386574 -7.00000000
-4.77848577 2.64548802 0.86508256 9 9 29897 5.53000000 1410386577 1410386577 9.00000000
-4.76560402 2.63835645 -0.47656760 10 10 29897 5.46800000 1410386579 1410386579 -5.00000000
-4.76415920 2.63864303 1.05860829 11 11 29898 5.54800000 1410386581 1410386581 11.00000000
-4.75012302 2.63195252 -0.28460294 8 12 29899 5.43800000 1410386583 1410386583 -3.00000000
-4.75188541 2.63401318 1.25432706 8 13 29900 5.57600000 1410386586 1410386586 13.00000000
-4.73925829 2.62809515 -0.09459204 10 14 29901 5.42000000 1410386588 1410386588 -1.00000000
-4.77736425 2.65031672 1.46388054 8 15 29902 5.65600000 1410386590 1410386590 15.00000000
-1.78287244 0.99151909 -0.54662585 4 0 29908 2.11200000 1410386611 1410386611 -15.00000000
-4.73034191 2.63179326 0.09448733 10 1 29909 5.41400000 1410386613 1410386613 1.00000000
-2.06203628 1.14771473 -0.54483145 3 2 29910 2.42200000 1410386616 1410386616 -13.00000000
-4.71842575 2.62732077 0.28303286 6 3 29911 5.40800000 1410386618 1410386618 3.00000000
-2.43053818 1.35337591 -0.54075271 3 4 29911 2.83400000 1410386620 1410386620 -11.00000000
-4.73953438 2.64015841 0.47465017 11 5 29912 5.44600000 1410386623 1410386623 5.00000000
-2.94029641 1.63856506 -0.53312868 1 6 29913 3.40800000 1410386625 1410386625 -9.00000000
-4.74726534 2.64663649 0.66735655 9 7 29914 5.47600000 1410386627 1410386627 7.00000000
-3.71006536 2.06923866 -0.52160078 8 8 29915 4.28000000 1410386630 1410386630 -7.00000000
-4.72184563 2.63354540 0.85632229 9 9 29915 5.47400000 1410386632 1410386632 9.00000000
-4.72899055 2.63861251 -0.47377861 10 10 29916 5.43600000 1410386634 1410386634 -5.00000000
-4.73652601 2.64390135 1.05441046 8 11 29917 5.52600000 1410386636 1410386636 11.00000000
-4.70300579 2.62626719 -0.28230014 8 12 29918 5.39400000 1410386639 1410386639 -3.00000000
-4.71250200 2.63264894 1.24622881 8 13 29919 5.54000000 1410386641 1410386641 13.00000000
-4.69211435 2.62233400 -0.09382414 10 14 29920 5.37600000 1410386643 1410386643 -1.00000000
-4.72516918 2.64080787 1.45042193 8 15 29920 5.60400000 1410386646 1410386646 15.00000000
-1.77940047 0.99773645 -0.54662585 4 0 29928 2.11200000 1410386666 1410386666 -15.00000000
-4.68450117 2.62774467 0.09375433 10 1 29929 5.37200000 1410386669 1410386669 1.00000000
-2.06481528 1.15872025 -0.54663104 3 2 29930 2.43000000 1410386671 1410386671 -13.00000000
-4.69006872 2.63302016 0.28188145 6 3 29931 5.38600000 1410386673 1410386673 3.00000000
-2.41895151 1.35800755 -0.53922623 3 4 29931 2.82600000 1410386676 1410386676 -11.00000000
-4.68164921 2.62936831 0.46976945 8 5 29932 5.39000000 1410386678 1410386678 5.00000000
-2.94661379 1.65559185 -0.53531873 3 6 29933 3.42200000 1410386680 1410386680 -9.00000000
-4.70684958 2.64568329 0.66296923 9 7 29934 5.44000000 1410386683 1410386683 7.00000000
-3.70801067 2.08509541 -0.52233201 8 8 29935 4.28600000 1410386685 1410386685 -7.00000000
-4.69150162 2.63921189 0.85256785 9 9 29936 5.45000000 1410386687 1410386687 9.00000000
-4.68154907 2.63361287 -0.46994376 10 10 29936 5.39200000 1410386689 1410386689 -5.00000000
-4.69304991 2.64116120 1.04677820 8 11 29937 5.48600000 1410386692 1410386692 11.00000000
-4.69554996 2.64364743 -0.28240481 8 12 29938 5.39600000 1410386694 1410386694 -3.00000000
-4.67781448 2.63473749 1.23948026 8 13 29939 5.51000000 1410386696 1410386696 13.00000000
-4.65157318 2.62102675 -0.09319585 8 14 29940 5.34000000 1410386699 1410386699 -1.00000000
-4.66497183 2.62964940 1.43489277 8 15 29941 5.54400000 1410386701 1410386701 15.00000000
-1.77909482 1.00615358 -0.54766113 4 0 29949 2.11600000 1410386722 1410386722 -15.00000000
-4.63480854 2.62224841 0.09295151 9 1 29950 5.32600000 1410386724 1410386724 1.00000000
-2.06055450 1.16628039 -0.54663104 3 2 29951 2.43000000 1410386726 1410386726 -13.00000000
-4.65779305 2.63739920 0.28052074 6 3 29952 5.36000000 1410386729 1410386729 3.00000000
-2.43104196 1.37653780 -0.54304242 3 4 29952 2.84600000 1410386731 1410386731 -11.00000000
-4.64424324 2.63079762 0.46698046 7 5 29953 5.35800000 1410386733 1410386733 5.00000000
-2.93021441 1.66053712 -0.53344154 3 6 29954 3.41000000 1410386736 1410386736 -9.00000000
-4.66430998 2.64431572 0.65833819 9 7 29955 5.40200000 1410386738 1410386738 7.00000000
-3.72279072 2.11140299 -0.52550060 8 8 29956 4.31200000 1410386740 1410386740 -7.00000000
-4.66851473 2.64777613 0.85006487 9 9 29956 5.43400000 1410386742 1410386742 9.00000000
-4.64067268 2.63305593 -0.46680614 9 10 29957 5.35600000 1410386745 1410386745 -5.00000000
-4.64748335 2.63799262 1.03876412 11 11 29958 5.44400000 1410386747 1410386747 11.00000000
-4.61983156 2.62336326 -0.27842727 5 12 29959 5.32000000 1410386749 1410386749 -3.00000000
-4.64948750 2.64127660 1.23453140 8 13 29960 5.48800000 1410386752 1410386752 13.00000000
-4.61759567 2.62422562 -0.09270718 6 14 29961 5.31200000 1410386754 1410386754 -1.00000000
-4.63896847 2.63637209 1.42971635 6 15 29961 5.52400000 1410386756 1410386756 15.00000000
-1.77892828 1.01427138 -0.54869640 4 0 29969 2.12000000 1410386777 1410386777 -15.00000000
-4.59262371 2.61958647 0.09228832 9 1 29970 5.28800000 1410386779 1410386779 1.00000000
-2.04970050 1.16960275 -0.54483145 3 2 29971 2.42200000 1410386782 1410386782 -13.00000000
-4.61039829 2.63185811 0.27821794 8 3 29972 5.31600000 1410386784 1410386784 3.00000000
-2.42281199 1.38306868 -0.54227918 3 4 29972 2.84200000 1410386786 1410386786 -11.00000000
-4.61427021 2.63513637 0.46488872 7 5 29973 5.33400000 1410386789 1410386789 5.00000000
-2.93469143 1.67663491 -0.53531873 1 6 29974 3.42200000 1410386791 1410386791 -9.00000000
-4.60679483 2.63300014 0.65151352 9 7 29975 5.34600000 1410386793 1410386793 7.00000000
-3.73263073 2.13423848 -0.52793801 8 8 29976 4.33200000 1410386795 1410386795 -7.00000000
-4.62105560 2.64329123 0.84318179 9 9 29977 5.39000000 1410386798 1410386798 9.00000000
-4.59686470 2.62945366 -0.46331993 9 10 29977 5.31600000 1410386800 1410386800 -5.00000000
-4.61609459 2.64152312 1.03380311 11 11 29978 5.41800000 1410386802 1410386802 11.00000000
-4.58464622 2.62458920 -0.27685720 8 12 29979 5.29000000 1410386805 1410386805 -3.00000000
-4.59965420 2.63424683 1.22373378 8 13 29980 5.44000000 1410386807 1410386807 13.00000000
-4.59279156 2.63138103 -0.09239304 6 14 29981 5.29400000 1410386809 1410386809 -1.00000000
-4.60748577 2.64086843 1.42298710 8 15 29982 5.49800000 1410386812 1410386812 15.00000000
-1.77220500 1.01824009 -0.54766113 4 0 29988 2.11600000 1410386832 1410386832 -15.00000000
-4.56310749 2.62284350 0.09186947 9 1 29989 5.26400000 1410386835 1410386835 1.00000000
-2.04918933 1.17833614 -0.54573125 3 2 29990 2.42600000 1410386837 1410386837 -13.00000000
-4.56875181 2.62821007 0.27622917 8 3 29991 5.27800000 1410386839 1410386839 3.00000000
-2.41480875 1.38913751 -0.54151595 3 4 29991 2.83800000 1410386842 1410386842 -11.00000000
-4.58133078 2.63651037 0.46244836 7 5 29992 5.30600000 1410386844 1410386844 5.00000000
-2.93938684 1.69227099 -0.53719598 1 6 29993 3.43400000 1410386846 1410386846 -9.00000000
-4.58255625 2.63934565 0.64931989 9 7 29994 5.32800000 1410386848 1410386848 7.00000000
-3.71865273 2.14264035 -0.52696306 8 8 29995 4.32400000 1410386851 1410386851 -7.00000000
-4.56993914 2.63314080 0.83536005 9 9 29995 5.34000000 1410386853 1410386853 9.00000000
-4.56395340 2.63075328 -0.46087956 9 10 29996 5.28800000 1410386855 1410386855 -5.00000000
-4.56309032 2.63131690 1.02388108 11 11 29997 5.36600000 1410386858 1410386858 11.00000000
-4.54823732 2.62380958 -0.27518246 10 12 29998 5.25800000 1410386860 1410386860 -3.00000000
-4.55376148 2.62805581 1.21383584 8 13 29999 5.39600000 1410386862 1410386862 13.00000000
-4.54247713 2.62260056 -0.09155533 6 14 30000 5.24600000 1410386865 1410386865 -1.00000000
-4.57909012 2.64373899 1.41677547 8 15 30000 5.47400000 1410386867 1410386867 15.00000000
-1.76529646 1.02248347 -0.54662585 4 0 30008 2.11200000 1410386888 1410386888 -15.00000000
-4.53489161 2.62772751 0.09148552 9 1 30009 5.24200000 1410386890 1410386890 1.00000000
-2.05180764 1.18939126 -0.54753089 3 2 30010 2.43400000 1410386892 1410386892 -13.00000000
-4.53708887 2.63111663 0.27486843 10 3 30011 5.25200000 1410386895 1410386895 3.00000000
-2.39975500 1.39164901 -0.53922623 3 4 30011 2.82600000 1410386897 1410386897 -11.00000000
-4.52901554 2.62749100 0.45809057 10 5 30012 5.25600000 1410386899 1410386899 5.00000000
-2.94200420 1.70747888 -0.53876030 1 6 30013 3.44400000 1410386901 1410386901 -9.00000000
-4.54069805 2.63638735 0.64468884 9 7 30014 5.29000000 1410386904 1410386904 7.00000000
-3.74033189 2.17255759 -0.53110659 8 8 30015 4.35800000 1410386906 1410386906 -7.00000000
-4.52484894 2.62824154 0.82878977 9 9 30015 5.29800000 1410386908 1410386908 9.00000000
-4.52373457 2.62865019 -0.45774198 9 10 30016 5.25200000 1410386911 1410386911 -5.00000000
-4.52841806 2.63242888 1.01815677 11 11 30017 5.33600000 1410386913 1410386913 11.00000000
-4.52178526 2.62962937 -0.27413574 10 12 30018 5.23800000 1410386915 1410386915 -3.00000000
-4.51929379 2.62923574 1.20708740 8 13 30019 5.36600000 1410386918 1410386918 13.00000000
-4.50218582 2.62033486 -0.09092703 6 14 30020 5.21000000 1410386920 1410386920 -1.00000000
-4.51974440 2.63055420 1.40124631 8 15 30020 5.41400000 1410386922 1410386922 15.00000000
-1.76171660 1.02863932 -0.54662585 4 0 30028 2.11200000 1410386943 1410386943 -15.00000000
-4.49461079 2.62538624 0.09085723 7 1 30029 5.20600000 1410386945 1410386945 1.00000000
-2.05437350 1.20047891 -0.54933047 3 2 30030 2.44200000 1410386948 1410386948 -13.00000000
-4.49856472 2.62980247 0.27308902 8 3 30031 5.21800000 1410386950 1410386950 3.00000000
-2.40505195 1.40596211 -0.54151595 3 4 30031 2.83800000 1410386952 1410386952 -11.00000000
-4.49745798 2.63020849 0.45582452 10 5 30032 5.23000000 1410386954 1410386954 5.00000000
-2.92920613 1.71374786 -0.53750885 3 6 30033 3.43600000 1410386957 1410386957 -9.00000000
-4.50748253 2.63818312 0.64127648 9 7 30034 5.26200000 1410386959 1410386959 7.00000000
-3.75328207 2.19763708 -0.53403145 8 8 30035 4.38200000 1410386961 1410386961 -7.00000000
-4.49302721 2.63182878 0.82472253 9 9 30036 5.27200000 1410386964 1410386964 9.00000000
-4.04691792 2.37051654 -0.41032922 8 10 30036 4.70800000 1410386966 1410386966 -5.00000000
-4.50056934 2.63730168 1.01395905 10 11 30037 5.31400000 1410386968 1410386968 11.00000000
-4.49534845 2.63529658 -0.27308902 10 12 30038 5.21800000 1410386971 1410386971 -3.00000000
-4.47983074 2.62725019 1.19898915 8 13 30039 5.33000000 1410386973 1410386973 13.00000000
-4.47058964 2.62287951 -0.09047327 6 14 30040 5.18400000 1410386975 1410386975 -1.00000000
-4.48387480 2.63067365 1.39296412 8 15 30040 5.38200000 1410386977 1410386977 15.00000000
-1.76477480 1.03870225 -0.54869640 4 0 30048 2.12000000 1410386998 1410386998 -15.00000000
-4.44406319 2.61670852 0.09001951 7 1 30049 5.15800000 1410387001 1410387001 1.00000000
-2.04513311 1.20467556 -0.54798079 4 2 30050 2.43600000 1410387003 1410387003 -13.00000000
-4.46698856 2.63230753 0.27172828 8 3 30051 5.19200000 1410387005 1410387005 3.00000000
-2.40012956 1.41434872 -0.54151595 3 4 30051 2.83800000 1410387007 1410387007 -11.00000000
-4.45220613 2.62464356 0.45216399 10 5 30052 5.18800000 1410387010 1410387010 5.00000000
-2.91810155 1.72095191 -0.53657019 3 6 30053 3.43000000 1410387012 1410387012 -9.00000000
-4.47260046 2.63877058 0.63762039 9 7 30054 5.23200000 1410387014 1410387014 7.00000000
-3.75755477 2.21778798 -0.53573763 10 8 30055 4.39600000 1410387017 1410387017 -7.00000000
-4.46340132 2.63544393 0.82096809 9 9 30056 5.24800000 1410387019 1410387019 9.00000000
-3.99744344 2.36031604 -0.40614575 19 10 30056 4.66000000 1410387021 1410387021 -5.00000000
-4.45921850 2.63402414 1.00670826 10 11 30057 5.27600000 1410387024 1410387024 11.00000000
-4.43969631 2.62353778 -0.27026287 7 12 30058 5.16400000 1410387026 1410387026 -3.00000000
-4.45721197 2.63493800 1.19538987 7 13 30059 5.31400000 1410387028 1410387028 13.00000000
-4.42354012 2.61607432 -0.08970537 8 14 30060 5.14000000 1410387030 1410387030 -1.00000000
-4.45092535 2.63331866 1.38571715 8 15 30061 5.35400000 1410387033 1410387033 15.00000000
-1.75781536 1.04288471 -0.54766113 4 0 30068 2.11600000 1410387054 1410387054 -15.00000000
-4.41082716 2.61791658 0.08953085 9 1 30069 5.13000000 1410387056 1410387056 1.00000000
-2.03588867 1.20882225 -0.54663104 3 2 30070 2.43000000 1410387058 1410387058 -13.00000000
-4.43029785 2.63156438 0.27005354 6 3 30071 5.16000000 1410387060 1410387060 3.00000000
-2.40868139 1.43073905 -0.54456890 2 4 30071 2.85400000 1410387063 1410387063 -11.00000000
-4.41903782 2.62591934 0.44972363 7 5 30072 5.16000000 1410387065 1410387065 5.00000000
-2.91886854 1.73516512 -0.53782171 1 6 30073 3.43800000 1410387067 1410387067 -9.00000000
-4.42582607 2.63204408 0.63225818 9 7 30074 5.18800000 1410387070 1410387070 7.00000000
-3.75832033 2.23596573 -0.53695631 14 8 30075 4.40600000 1410387072 1410387072 -7.00000000
-4.43040991 2.63686395 0.81658792 9 9 30076 5.22000000 1410387074 1410387074 9.00000000
-4.41794634 2.63049030 0.99945754 10 11 30077 5.23800000 1410387079 1410387079 11.00000000
-4.39619303 2.61857748 -0.26816943 7 12 30078 5.12400000 1410387081 1410387081 -3.00000000
-4.41283226 2.62953210 1.18594193 8 13 30079 5.27200000 1410387083 1410387083 13.00000000
-4.39205170 2.61818838 -0.08925161 8 14 30080 5.11400000 1410387086 1410387086 -1.00000000
-4.41727781 2.63322616 1.37795258 8 15 30080 5.32400000 1410387088 1410387088 15.00000000
-1.76411235 1.05496323 -0.55076694 4 0 30088 2.12800000 1410387109 1410387109 -15.00000000
-4.38106966 2.62097764 0.08911198 9 1 30089 5.10600000 1410387111 1410387111 1.00000000
-2.03500104 1.21792305 -0.54753089 3 2 30090 2.43400000 1410387113 1410387113 -13.00000000
-4.38681316 2.62649345 0.26796010 6 3 30091 5.12000000 1410387116 1410387116 3.00000000
-2.39019728 1.43107021 -0.54151595 2 4 30091 2.83800000 1410387118 1410387118 -11.00000000
-4.39788008 2.63416243 0.44850346 7 5 30092 5.14600000 1410387120 1410387120 5.00000000
-2.90093255 1.73823607 -0.53563160 1 6 30093 3.42400000 1410387123 1410387123 -9.00000000
-4.38426161 2.62808537 0.62762713 6 7 30094 5.15000000 1410387125 1410387125 7.00000000
-3.74538517 2.24600816 -0.53622514 14 8 30095 4.40000000 1410387127 1410387127 -7.00000000
-4.38221788 2.62894011 0.80939192 9 9 30096 5.17400000 1410387130 1410387130 9.00000000
-7.04596519 4.22695112 -0.71886057 17 10 30096 8.24800000 1410387132 1410387132 -5.00000000
-4.38516998 2.63175201 0.99411488 7 11 30097 5.21000000 1410387134 1410387134 11.00000000
-4.35962820 2.61745811 -0.26649469 7 12 30098 5.09200000 1410387136 1410387136 -3.00000000
-4.36353254 2.62083840 1.17514431 8 13 30099 5.22400000 1410387139 1410387139 13.00000000
-4.35031843 2.61393499 -0.08858842 8 14 30100 5.07600000 1410387141 1410387141 -1.00000000
-4.38984394 2.63768435 1.37225854 8 15 30100 5.30200000 1410387143 1410387143 15.00000000
-1.76041913 1.06111479 -0.55076694 4 0 30108 2.12800000 1410387164 1410387164 -15.00000000
-4.34620714 2.62076545 0.08858842 9 1 30109 5.07600000 1410387166 1410387166 1.00000000
-2.04241776 1.23206520 -0.55068016 4 2 30110 2.44800000 1410387169 1410387169 -13.00000000
-4.34729576 2.62245655 0.26607600 6 3 30110 5.08400000 1410387171 1410387171 3.00000000
-2.39191079 1.44346237 -0.54304242 3 4 30111 2.84600000 1410387173 1410387173 -11.00000000
-2.91513848 1.76060641 -0.53938603 1 6 30113 3.44800000 1410387178 1410387178 -9.00000000
-4.35297346 2.63002825 0.62445849 9 7 30114 5.12400000 1410387180 1410387180 7.00000000
-3.74601650 2.26420259 -0.53744382 12 8 30115 4.41000000 1410387182 1410387182 -7.00000000
-4.33628368 2.62097740 0.80250883 9 9 30115 5.13000000 1410387185 1410387185 9.00000000
-7.01752806 4.24327278 -0.71746606 13 10 30116 8.23200000 1410387187 1410387187 -5.00000000
-4.33900070 2.62468791 0.98571926 7 11 30117 5.16600000 1410387189 1410387189 11.00000000
-4.32825136 2.61921763 -0.26513395 7 12 30118 5.06600000 1410387192 1410387192 -3.00000000
-4.33101892 2.62192512 1.16884565 8 13 30119 5.19600000 1410387194 1410387194 13.00000000
-4.32064199 2.61667395 -0.08816956 8 14 30120 5.05200000 1410387196 1410387196 -1.00000000
-4.34590912 2.63197613 1.36138821 8 15 30120 5.26000000 1410387199 1410387199 15.00000000
-1.75010026 1.06324100 -0.54869640 4 0 30128 2.12000000 1410387219 1410387219 -15.00000000
-4.30285597 2.61514878 0.08789032 9 1 30129 5.03600000 1410387222 1410387222 1.00000000
-2.03310943 1.23614991 -0.54933047 3 2 30130 2.44200000 1410387224 1410387224 -13.00000000
-4.30352688 2.61761427 0.26398256 6 3 30131 5.04400000 1410387226 1410387226 3.00000000
-2.38014817 1.44772184 -0.54151595 3 4 30131 2.83800000 1410387229 1410387229 -11.00000000
-2.09352565 1.27388465 0.21440312 3 5 30132 2.46000000 1410387231 1410387231 5.00000000
-2.89547634 1.76255429 -0.53688306 1 6 30133 3.43200000 1410387233 1410387233 -9.00000000
-4.31833458 2.62971973 0.62080246 6 7 30134 5.09400000 1410387235 1410387235 7.00000000
-3.68384123 2.24421620 -0.52964419 6 8 30135 4.34600000 1410387238 1410387238 -7.00000000
-4.30134630 2.62143302 0.79781580 9 9 30136 5.10000000 1410387240 1410387240 9.00000000
-6.98566055 4.25737429 -0.71572298 17 10 30136 8.21200000 1410387242 1410387242 -5.00000000
-4.30634451 2.62550998 0.98037660 7 11 30137 5.13800000 1410387245 1410387245 11.00000000
-4.30373621 2.62495017 -0.26419190 7 12 30138 5.04800000 1410387247 1410387247 -3.00000000
-4.29356050 2.61977196 1.16119730 8 13 30139 5.16200000 1410387249 1410387249 13.00000000
-4.29782724 2.62340498 -0.08789032 8 14 30140 5.03600000 1410387252 1410387252 -1.00000000
-4.29831171 2.62473035 1.34948254 8 15 30141 5.21400000 1410387254 1410387254 15.00000000
-1.74967325 1.07136118 -0.54973167 4 0 30148 2.12400000 1410387275 1410387275 -15.00000000
-4.26982832 2.61552906 0.08740165 9 1 30149 5.00800000 1410387277 1410387277 1.00000000
-2.02878189 1.24323916 -0.54933047 3 2 30150 2.44200000 1410387279 1410387279 -13.00000000
-4.27779341 2.62143517 0.26293585 6 3 30150 5.02400000 1410387282 1410387282 3.00000000
-2.37842774 1.45807350 -0.54227918 2 4 30151 2.84200000 1410387284 1410387284 -11.00000000
-2.10774875 1.29264235 0.21632056 22 5 30152 2.48200000 1410387286 1410387286 5.00000000
-2.89098978 1.77368367 -0.53719598 3 6 30153 3.43400000 1410387288 1410387288 -9.00000000
-4.32943106 2.65723801 0.62372732 2 7 30154 5.11800000 1410387291 1410387291 7.00000000
-3.68613505 2.26329350 -0.53110659 6 8 30155 4.35800000 1410387293 1410387293 -7.00000000
-4.28207016 2.63022804 0.79593855 9 9 30156 5.08800000 1410387295 1410387295 9.00000000
-6.94359350 4.26504803 -0.71293396 17 10 30156 8.18000000 1410387298 1410387298 -5.00000000
-4.26369953 2.61996913 0.97274429 7 11 30157 5.09800000 1410387300 1410387300 11.00000000
-4.26051712 2.61903811 -0.26209846 7 12 30158 5.00800000 1410387302 1410387302 -3.00000000
-4.26612949 2.62351418 1.15624845 8 13 30159 5.14000000 1410387305 1410387305 13.00000000
-4.26139259 2.62162614 -0.08733184 6 14 30160 5.00400000 1410387307 1410387307 -1.00000000
-4.25832129 2.61973667 1.33964741 8 15 30160 5.17600000 1410387309 1410387309 15.00000000
-1.73934686 1.07340395 -0.54766113 4 0 30168 2.11600000 1410387330 1410387330 -15.00000000
-4.23344755 2.61360979 0.08684318 9 1 30169 4.97600000 1410387332 1410387332 1.00000000
-2.01116586 1.24212134 -0.54573125 3 2 30170 2.42600000 1410387334 1410387334 -13.00000000
-4.25162411 2.62585664 0.26188913 6 3 30170 5.00400000 1410387337 1410387337 3.00000000
-2.38000441 1.47049463 -0.54380566 2 4 30171 2.85000000 1410387339 1410387339 -11.00000000
-2.08627605 1.28951657 0.21457744 35 5 30172 2.46200000 1410387341 1410387341 5.00000000
-2.90326238 1.79519212 -0.54063749 1 6 30173 3.45600000 1410387344 1410387344 -9.00000000
-2.10013318 1.29909503 0.30321091 1 7 30174 2.48800000 1410387346 1410387346 7.00000000
-3.66977215 2.27092385 -0.52988791 6 8 30175 4.34800000 1410387348 1410387348 -7.00000000
-4.24430990 2.62748337 0.79061979 9 9 30176 5.05400000 1410387351 1410387351 9.00000000
-6.92866325 4.28925943 -0.71293396 13 10 30176 8.18000000 1410387353 1410387353 -5.00000000
-4.23449898 2.62243223 0.96816486 7 11 30177 5.07400000 1410387355 1410387355 11.00000000
-4.19701910 2.60023403 -0.25874898 17 12 30178 4.94400000 1410387358 1410387358 -3.00000000
-4.23210001 2.62299061 1.14949989 7 13 30179 5.11000000 1410387360 1410387360 13.00000000
-4.19953012 2.60381889 -0.08624979 16 14 30180 4.94200000 1410387362 1410387362 -1.00000000
-4.23929977 2.62847710 1.33654153 8 15 30180 5.16400000 1410387364 1410387364 15.00000000
-1.75237405 1.08906019 -0.55283749 4 0 30186 2.13600000 1410387385 1410387385 -15.00000000
-4.18955278 2.60472441 0.08611017 15 1 30187 4.93400000 1410387387 1410387387 1.00000000
-2.01718235 1.25460875 -0.54843068 3 2 30188 2.43800000 1410387390 1410387390 -13.00000000
-4.18862724 2.60617685 0.25853962 16 3 30189 4.94000000 1410387392 1410387392 3.00000000
-2.37537289 1.47796428 -0.54380566 3 4 30189 2.85000000 1410387394 1410387394 -11.00000000
-2.09067202 1.30132866 0.21544899 33 5 30190 2.47200000 1410387397 1410387397 5.00000000
-2.88083982 1.79386246 -0.53750885 1 6 30191 3.43600000 1410387399 1410387399 -9.00000000
-2.11289072 1.31618226 0.30564833 12 7 30192 2.50800000 1410387401 1410387401 7.00000000
-3.66261983 2.28244162 -0.52988791 6 8 30193 4.34800000 1410387404 1410387404 -7.00000000
-4.22140694 2.63066220 0.78780395 6 9 30193 5.03600000 1410387406 1410387406 9.00000000
-6.90162802 4.30257320 -0.71153951 13 10 30194 8.16400000 1410387408 1410387408 -5.00000000
-4.22790527 2.63676119 0.96854645 5 11 30195 5.07600000 1410387411 1410387411 11.00000000
-4.18035698 2.60812068 -0.25822562 2 12 30196 4.93400000 1410387413 1410387413 -3.00000000
-4.19077539 2.61563706 1.14050186 7 13 30197 5.07000000 1410387415 1410387415 13.00000000
-4.20762110 2.62819242 1.32929456 8 15 30199 5.13600000 1410387420 1410387420 15.00000000
-1.74201286 1.09106863 -0.55076694 4 0 30206 2.12800000 1410387440 1410387440 -15.00000000
-2.01609302 1.26371229 -0.54933047 3 2 30208 2.44200000 1410387445 1410387445 -13.00000000
-4.15965462 2.60732341 0.25728357 6 3 30208 4.91600000 1410387447 1410387447 3.00000000
-2.37019944 1.48624694 -0.54380566 3 4 30209 2.85000000 1410387450 1410387450 -11.00000000
-2.07261443 1.30014861 0.21405451 20 5 30210 2.45600000 1410387452 1410387452 5.00000000
-2.88961935 1.81335759 -0.54032463 3 6 30211 3.45400000 1410387454 1410387454 -9.00000000
-2.09315228 1.31405044 0.30345467 24 7 30212 2.49000000 1410387457 1410387457 7.00000000
-3.67480302 2.30788159 -0.53281277 8 8 30213 4.37200000 1410387459 1410387459 -7.00000000
-2.14935732 1.35038126 0.40203658 1 9 30214 2.57000000 1410387461 1410387461 9.00000000
-6.86294842 4.31179905 -0.70909911 4 10 30214 8.13600000 1410387464 1410387464 -5.00000000
-2.13427091 1.34142244 0.48999751 2 11 30215 2.56800000 1410387466 1410387466 11.00000000
-4.14079285 2.60356092 -0.25634152 7 12 30216 4.89800000 1410387468 1410387468 -3.00000000
-4.15852594 2.61572361 1.13420320 7 13 30217 5.04200000 1410387470 1410387470 13.00000000
-4.13308620 2.60072875 -0.08523756 6 14 30218 4.88400000 1410387473 1410387473 -1.00000000
-4.17553282 2.62845564 1.32204771 8 15 30219 5.10800000 1410387475 1410387475 15.00000000
-1.73165917 1.09301817 -0.54869640 4 0 30226 2.12000000 1410387496 1410387496 -15.00000000
-4.12899590 2.60721779 0.08523756 8 1 30227 4.88400000 1410387498 1410387498 1.00000000
-2.01825976 1.27490509 -0.55113006 3 2 30228 2.45000000 1410387500 1410387500 -13.00000000
-4.13701916 2.61329436 0.25644618 8 3 30228 4.90000000 1410387503 1410387503 3.00000000
-2.37163568 1.49870658 -0.54533213 3 4 30229 2.85800000 1410387505 1410387505 -11.00000000
-2.08827257 1.32015109 0.21614625 14 5 30230 2.48000000 1410387507 1410387507 5.00000000
-2.87826324 1.82026565 -0.53938603 1 6 30231 3.44800000 1410387510 1410387510 -9.00000000
-2.10532832 1.33196211 0.30589205 51 7 30232 2.51000000 1410387512 1410387512 7.00000000
-3.74220610 2.36846781 -0.54378098 8 8 30233 4.46200000 1410387514 1410387514 -7.00000000
-2.09479284 1.32580876 0.39265051 4 9 30233 2.51000000 1410387517 1410387517 9.00000000
-5.25204277 3.32533789 -0.54385185 3 10 30234 6.24000000 1410387519 1410387519 -5.00000000
-2.12128282 1.34361172 0.48808941 17 11 30235 2.55800000 1410387521 1410387521 11.00000000
-4.15698576 2.63403416 -0.25791159 2 12 30236 4.92800000 1410387523 1410387523 -3.00000000
-4.11216116 2.60764384 -0.08499322 2 14 30238 4.87000000 1410387528 1410387528 -1.00000000
-4.13370657 2.62231803 1.31169498 8 15 30239 5.06800000 1410387530 1410387530 15.00000000
-1.73109341 1.10112977 -0.54973167 4 0 30246 2.12400000 1410387551 1410387551 -15.00000000
-4.13674068 2.63235044 0.08558660 2 1 30247 4.90400000 1410387553 1410387553 1.00000000
-2.00393367 1.27566338 -0.54843068 3 2 30248 2.43800000 1410387556 1410387556 -13.00000000
-4.12113237 2.62342906 0.25602749 2 3 30248 4.89200000 1410387558 1410387558 3.00000000
-2.35976577 1.50275767 -0.54380566 2 4 30249 2.85000000 1410387560 1410387560 -11.00000000
-2.05844617 1.31137478 0.21353157 24 5 30250 2.45000000 1410387563 1410387563 5.00000000
-2.87855506 1.83454823 -0.54063749 1 6 30251 3.45600000 1410387565 1410387565 -9.00000000
-2.08225369 1.32756400 0.30321091 38 7 30252 2.48800000 1410387567 1410387567 7.00000000
-3.75399947 2.39432573 -0.54670590 8 8 30253 4.48600000 1410387570 1410387570 -7.00000000
-5.05564547 3.22576547 -0.52467757 3 10 30254 6.02000000 1410387574 1410387574 -5.00000000
-2.09506631 1.33727622 0.48312837 45 11 30255 2.53200000 1410387576 1410387576 11.00000000
-4.13934898 2.64315438 -0.25738823 20 12 30256 4.91800000 1410387579 1410387579 -3.00000000
-2.11195970 1.34909689 0.57857412 11 13 30257 2.57200000 1410387581 1410387581 13.00000000
-4.14515924 2.64890170 -0.08586584 18 14 30258 4.92000000 1410387583 1410387583 -1.00000000
-4.11801720 2.63256907 1.30962431 14 15 30259 5.06000000 1410387586 1410387586 15.00000000
-1.72704589 1.10746717 -0.54973167 4 0 30267 2.12400000 1410387606 1410387606 -15.00000000
-4.12538147 2.64641476 0.08555169 22 1 30268 4.90200000 1410387609 1410387609 1.00000000
-1.99924481 1.28299963 -0.54843068 3 2 30269 2.43800000 1410387611 1410387611 -13.00000000
-4.14174604 2.65793276 0.25791159 20 3 30269 4.92800000 1410387613 1410387613 3.00000000
-2.34763360 1.50715411 -0.54227918 3 4 30270 2.84200000 1410387616 1410387616 -11.00000000
-2.05362582 1.31891060 0.21353157 35 5 30271 2.45000000 1410387618 1410387618 5.00000000
-2.87347388 1.84615409 -0.54095036 1 6 30272 3.45800000 1410387620 1410387620 -9.00000000
-2.07069445 1.33089375 0.30223596 22 7 30273 2.48000000 1410387622 1410387622 7.00000000
-3.78360248 2.43276143 -0.55231184 8 8 30274 4.53200000 1410387625 1410387625 -7.00000000
-2.09522128 1.34717464 0.39452773 39 9 30274 2.52200000 1410387627 1410387627 9.00000000
-5.01362610 3.22487283 -0.52153999 3 10 30275 5.98400000 1410387629 1410387629 -5.00000000
-2.08354712 1.34069657 0.48160189 55 11 30276 2.52400000 1410387632 1410387632 11.00000000
-4.13803053 2.66371322 -0.25791159 25 12 30277 4.92800000 1410387634 1410387634 -3.00000000
-4.14214706 2.66840863 -0.08600546 22 14 30279 4.92800000 1410387639 1410387639 -1.00000000
-4.12179470 2.65529752 1.31376553 42 15 30279 5.07600000 1410387641 1410387641 15.00000000
-1.73290503 1.11977983 -0.55283749 4 0 30287 2.13600000 1410387662 1410387662 -15.00000000
-4.12115669 2.66405582 0.08565641 15 1 30288 4.90800000 1410387664 1410387664 1.00000000
-2.00293612 1.29526162 -0.55068016 4 2 30289 2.44800000 1410387666 1410387666 -13.00000000
-4.12908840 2.67020488 0.25770226 18 3 30289 4.92400000 1410387669 1410387669 3.00000000
-2.34895205 1.51960516 -0.54380566 3 4 30290 2.85000000 1410387671 1410387671 -11.00000000
-2.05737281 1.33148360 0.21440312 9 5 30291 2.46000000 1410387673 1410387673 5.00000000
-2.87861943 1.86368811 -0.54314047 1 6 30292 3.47200000 1410387675 1410387675 -9.00000000
-2.08436394 1.34998405 0.30491710 14 7 30293 2.50200000 1410387678 1410387678 7.00000000
-3.77508759 2.44595385 -0.55231184 8 8 30294 4.53200000 1410387680 1410387680 -7.00000000
-2.08221698 1.34910953 0.39296338 46 9 30294 2.51200000 1410387682 1410387682 9.00000000
-3.87881875 2.51412463 -0.40440264 5 10 30295 4.64000000 1410387685 1410387685 -5.00000000
-2.07720709 1.34689331 0.48122028 63 11 30296 2.52200000 1410387687 1410387687 11.00000000
-4.16221952 2.69987965 -0.26000503 7 12 30297 4.96800000 1410387689 1410387689 -3.00000000
-2.06628776 1.34083784 0.56867629 62 13 30298 2.52800000 1410387692 1410387692 13.00000000
-4.14119387 2.68829513 -0.08617999 6 14 30299 4.93800000 1410387694 1410387694 -1.00000000
-4.12013578 2.67564750 1.31635368 10 15 30300 5.08600000 1410387696 1410387696 15.00000000
-1.71946764 1.11919713 -0.54973167 4 0 30306 2.12400000 1410387717 1410387717 -15.00000000
-4.14916658 2.70171285 0.08642431 9 1 30307 4.95200000 1410387719 1410387719 1.00000000
-2.00026274 1.30296004 -0.55113006 3 2 30308 2.45000000 1410387722 1410387722 -13.00000000
-4.14818907 2.70313883 0.25948167 6 3 30309 4.95800000 1410387724 1410387724 3.00000000
-2.34718966 1.52952993 -0.54456890 3 4 30309 2.85400000 1410387726 1410387726 -11.00000000
-4.14428043 2.70162249 0.43281543 9 5 30310 4.96600000 1410387728 1410387728 5.00000000
-2.87242341 1.87322366 -0.54314047 1 6 30311 3.47200000 1410387731 1410387731 -9.00000000
-4.13647509 2.69859242 0.60642183 12 7 30312 4.97600000 1410387733 1410387733 7.00000000
-3.78025460 2.46713853 -0.55426174 8 8 30313 4.54800000 1410387735 1410387735 -7.00000000
-2.06615186 1.34844959 0.39077330 48 9 30313 2.49800000 1410387738 1410387738 9.00000000
-3.88547516 2.53677630 -0.40597144 35 10 30314 4.65800000 1410387740 1410387740 -5.00000000
-2.06944180 1.35162699 0.48045704 70 11 30315 2.51800000 1410387742 1410387742 11.00000000
-4.14989948 2.71148229 -0.25979570 15 12 30316 4.96400000 1410387745 1410387745 -3.00000000
-2.05856776 1.34555006 0.56777644 60 13 30317 2.52400000 1410387747 1410387747 13.00000000
-4.13727713 2.70529628 -0.08628470 16 14 30318 4.94400000 1410387749 1410387749 -1.00000000
-2.09061766 1.36701989 0.66930604 3 15 30318 2.58600000 1410387752 1410387752 15.00000000
-1.71231961 1.12307334 -0.54869640 4 0 30326 2.12000000 1410387772 1410387772 -15.00000000
-4.13302279 2.71179175 0.08628470 9 1 30327 4.94400000 1410387775 1410387775 1.00000000
-1.98918569 1.30565703 -0.54933047 3 2 30328 2.44200000 1410387777 1410387777 -13.00000000
-4.14373684 2.72089100 0.25979570 8 3 30329 4.96400000 1410387779 1410387779 3.00000000
-2.34183621 1.53771389 -0.54456890 3 4 30329 2.85400000 1410387781 1410387781 -11.00000000
-4.14648199 2.72372937 0.43403560 21 5 30330 4.98000000 1410387784 1410387784 5.00000000
-2.85431123 1.87564516 -0.54095036 3 6 30331 3.45800000 1410387786 1410387786 -9.00000000
-4.15025330 2.72828102 0.60983419 11 7 30332 5.00400000 1410387788 1410387788 7.00000000
-3.76498532 2.47595620 -0.55328679 10 8 30333 4.54000000 1410387791 1410387791 -7.00000000
