# .PCD v0.7 - Point Cloud Data file format
VERSION 0.7
FIELDS x y z intensity laser_id azimuth distance_m adjustedtime timestamp vertical_angle
SIZE 4 4 4 1 1 2 8 8 4 8
TYPE F F F U U U F U U F
COUNT 1 1 1 1 1 1 1 1 1 1
WIDTH 521
HEIGHT 1
VIEWPOINT 0 0 0 1 0 0 0
POINTS 521
DATA ascii
-1.17098796 1.77792144 -0.57043719 4 0 32663 2.20400000 2980790317 2980790317 -15.00000000
-12.53905869 19.04539871 0.39801958 13 1 32664 22.80600000 2980790320 2980790320 1.00000000
-1.37986505 2.09665418 -0.57947391 4 2 32665 2.57600000 2980790322 2980790322 -13.00000000
-12.55010700 19.06942749 1.19639993 10 3 32665 22.86000000 2980790324 2980790324 3.00000000
-1.62607825 2.47170544 -0.57509834 4 4 32666 3.01400000 2980790327 2980790327 -11.00000000
-12.52709866 19.04894257 1.99464631 21 5 32667 22.88600000 2980790329 2980790329 5.00000000
-2.00852585 3.05536366 -0.57912040 1 6 32668 3.70200000 2980790331 2980790331 -9.00000000
-11.36372948 17.29304695 2.54073215 38 7 32669 20.84800000 2980790334 2980790334 7.00000000
-8.68583584 13.22795296 2.50639296 48 9 32671 16.02200000 2980790338 2980790338 9.00000000
-3.67332363 5.59422827 -0.58551228 4 10 32671 6.71800000 2980790341 2980790341 -5.00000000
-7.07031059 10.77171135 2.50455880 65 11 32672 13.12600000 2980790343 2980790343 11.00000000
-6.14888096 9.37146664 -0.58741879 8 12 32673 11.22400000 2980790345 2980790345 -3.00000000
-6.04386854 9.21492386 2.54419637 59 13 32674 11.31000000 2980790347 2980790347 13.00000000
-12.48821735 19.04769707 -0.39756581 11 14 32675 22.78000000 2980790350 2980790350 -1.00000000
-4.58097076 6.98980236 2.23930240 42 15 32676 8.65200000 2980790352 2980790352 15.00000000
-1.16508579 1.78179479 -0.57043719 4 0 32682 2.20400000 2980790373 2980790373 -15.00000000
-12.44519806 19.04000854 0.39704224 13 1 32683 22.75000000 2980790375 2980790375 1.00000000
-1.36864102 2.09469295 -0.57767433 4 2 32684 2.56800000 2980790377 2980790377 -13.00000000
-12.45184326 19.05743599 1.19305050 10 3 32684 22.79600000 2980790380 2980790380 3.00000000
-1.61787283 2.47708416 -0.57509834 4 4 32685 3.01400000 2980790382 2980790382 -11.00000000
-12.42791748 19.03532410 1.98889410 6 5 32686 22.82000000 2980790384 2980790384 5.00000000
-1.99838293 3.06200743 -0.57912040 1 6 32687 3.70200000 2980790387 2980790387 -9.00000000
-11.29547405 17.31400871 2.53829479 40 7 32688 20.82800000 2980790389 2980790389 7.00000000
-2.59051943 3.97233295 -0.58229172 2 8 32689 4.77800000 2980790391 2980790391 -7.00000000
-8.64639473 13.25848389 2.50701880 48 9 32689 16.02600000 2980790394 2980790394 9.00000000
-3.66780901 5.62640762 -0.58760405 4 10 32690 6.74200000 2980790396 2980790396 -5.00000000
-7.00882721 10.75562191 2.49539995 62 11 32691 13.07800000 2980790398 2980790398 11.00000000
-6.13957262 9.42527580 -0.58951223 8 12 32692 11.26400000 2980790400 2980790400 -3.00000000
-6.01965761 9.24471378 2.54689574 57 13 32693 11.32200000 2980790403 2980790403 13.00000000
-12.38789463 19.03202248 -0.39637905 8 14 32694 22.71200000 2980790405 2980790405 -1.00000000
-4.55776691 7.00495481 2.23930240 42 15 32695 8.65200000 2980790407 2980790407 15.00000000
-1.16306543 1.79233301 -0.57250774 4 0 32702 2.21200000 2980790428 2980790428 -15.00000000
-12.35036659 19.03971481 0.39613473 13 1 32703 22.69800000 2980790430 2980790430 1.00000000
-1.35071862 2.08310676 -0.57317531 4 2 32704 2.54800000 2980790433 2980790433 -13.00000000
-12.35264587 19.05051041 1.18991029 10 3 32704 22.73600000 2980790435 2980790435 3.00000000
-1.61348760 2.48930621 -0.57662481 4 4 32705 3.02200000 2980790437 2980790437 -11.00000000
-12.31480980 19.00668907 1.98139870 6 5 32706 22.73400000 2980790440 2980790440 5.00000000
-1.99305153 3.07725453 -0.58068472 1 6 32707 3.71200000 2980790442 2980790442 -9.00000000
-11.22202206 17.33333588 2.53536987 35 7 32708 20.80400000 2980790444 2980790444 7.00000000
-2.56153798 3.95801997 -0.57887936 2 8 32709 4.75000000 2980790447 2980790447 -7.00000000
-8.59684181 13.28360939 2.50608015 44 9 32709 16.02000000 2980790449 2980790449 9.00000000
-3.64706469 5.63750362 -0.58742970 4 10 32710 6.74000000 2980790451 2980790451 -5.00000000
-6.95844698 10.76023865 2.49082065 62 11 32711 13.05400000 2980790453 2980790453 11.00000000
-6.11097193 9.45335865 -0.58993089 8 12 32712 11.27200000 2980790456 2980790456 -3.00000000
-5.98523569 9.26239586 2.54599595 62 13 32713 11.31800000 2980790458 2980790458 13.00000000
-12.29426003 19.03315544 -0.39550644 8 14 32714 22.66200000 2980790460 2980790460 -1.00000000
-4.53643084 7.02569056 2.24085522 45 15 32715 8.65800000 2980790463 2980790463 15.00000000
-1.16307747 1.80612731 -0.57561356 4 0 32722 2.22400000 2980790483 2980790483 -15.00000000
-12.26001835 19.04571724 0.39536682 13 1 32723 22.65400000 2980790486 2980790486 1.00000000
-1.35187507 2.10091901 -0.57677448 4 2 32724 2.56400000 2980790488 2980790488 -13.00000000
-12.26013374 19.05320358 1.18739820 10 3 32724 22.68800000 2980790490 2980790490 3.00000000
-1.60691261 2.49822545 -0.57738805 4 4 32725 3.02600000 2980790493 2980790493 -11.00000000
-12.23222637 19.02442360 1.97878397 13 5 32726 22.70400000 2980790495 2980790495 5.00000000
-1.97802556 3.07754588 -0.57943326 1 6 32727 3.70400000 2980790497 2980790497 -9.00000000
-11.15501118 17.36238098 2.53390741 38 7 32728 20.79200000 2980790499 2980790499 7.00000000
-2.54770637 3.96693730 -0.57887936 2 8 32729 4.75000000 2980790502 2980790502 -7.00000000
-8.54615116 13.30688858 2.50482869 48 9 32729 16.01200000 2980790504 2980790504 9.00000000
-3.64673853 5.68037891 -0.59056729 4 10 32730 6.77600000 2980790506 2980790506 -5.00000000
-6.91236162 10.77124500 2.48776770 59 11 32731 13.03800000 2980790509 2980790509 11.00000000
-6.08009338 9.47799397 -0.59014022 8 12 32732 11.27600000 2980790511 2980790511 -3.00000000
-5.94865942 9.27667046 2.54419637 59 13 32733 11.31000000 2980790513 2980790513 13.00000000
-12.20076847 19.03386688 -0.39463380 11 14 32734 22.61200000 2980790516 2980790516 -1.00000000
-4.50998020 7.03581619 2.23930240 42 15 32734 8.65200000 2980790518 2980790518 15.00000000
-1.15052426 1.80040908 -0.57250774 4 0 32742 2.21200000 2980790539 2980790539 -15.00000000
-12.16547298 19.04458237 0.39445928 13 1 32743 22.60200000 2980790541 2980790541 1.00000000
-1.34767950 2.11055255 -0.57812423 3 2 32744 2.57000000 2980790543 2980790543 -13.00000000
-12.15915489 19.04201508 1.18404865 10 3 32744 22.62400000 2980790546 2980790546 3.00000000
-1.59606981 2.50050974 -0.57662481 4 4 32745 3.02200000 2980790548 2980790548 -11.00000000
-12.15074062 19.04349136 1.97634363 20 5 32746 22.67600000 2980790550 2980790550 5.00000000
-1.96620870 3.08276606 -0.57912040 1 6 32747 3.70200000 2980790552 2980790552 -9.00000000
-11.08793449 17.39117050 2.53244495 33 7 32748 20.78000000 2980790555 2980790555 7.00000000
-2.54451227 3.99254656 -0.58131677 2 8 32749 4.77000000 2980790557 2980790557 -7.00000000
-8.49009418 13.32164669 2.50201273 48 9 32749 15.99400000 2980790559 2980790559 9.00000000
-3.60440731 5.65778637 -0.58690679 4 10 32750 6.73400000 2980790562 2980790562 -5.00000000
-6.85362959 10.76218796 2.48013544 56 11 32751 12.99800000 2980790564 2980790564 11.00000000
-6.05662489 9.51432323 -0.59108227 8 12 32752 11.29400000 2980790566 2980790566 -3.00000000
-5.91624165 9.29737854 2.54419637 59 13 32753 11.31000000 2980790569 2980790569 13.00000000
-12.09990883 19.02234650 -0.39351687 11 14 32754 22.54800000 2980790571 2980790571 -1.00000000
-4.48105288 7.04740810 2.23774958 45 15 32755 8.64600000 2980790573 2980790573 15.00000000
-1.13802528 1.79462528 -0.56940192 4 0 32762 2.20000000 2980790594 2980790594 -15.00000000
-12.06680202 19.03626251 0.39341214 13 1 32763 22.54200000 2980790596 2980790596 1.00000000
-1.34239018 2.11853623 -0.57902402 4 2 32764 2.57400000 2980790599 2980790599 -13.00000000
-12.05935669 19.03920937 1.18111789 10 3 32765 22.56800000 2980790601 2980790601 3.00000000
-1.59153378 2.51270008 -0.57815129 4 4 32765 3.03000000 2980790603 2980790603 -11.00000000
-12.05328369 19.03697205 1.97128856 20 5 32766 22.61800000 2980790605 2980790605 5.00000000
-1.95649219 3.09127998 -0.57943326 1 6 32767 3.70400000 2980790608 2980790608 -9.00000000
-11.02928257 17.43312454 2.53293252 40 7 32768 20.78400000 2980790610 2980790610 7.00000000
-2.53480434 4.00811529 -0.58229172 2 8 32769 4.77800000 2980790612 2980790612 -7.00000000
-8.44142914 13.34786224 2.50138712 48 9 32769 15.99000000 2980790615 2980790615 9.00000000
-3.57931280 5.66191292 -0.58603519 4 10 32770 6.72400000 2980790617 2980790617 -5.00000000
-6.80238676 10.76447105 2.47517419 59 11 32771 12.97200000 2980790619 2980790619 11.00000000
-6.03404331 9.55229282 -0.59212899 8 12 32772 11.31400000 2980790622 2980790622 -3.00000000
-5.88999462 9.32785988 2.54689574 60 13 32773 11.32200000 2980790624 2980790624 13.00000000
-12.00568390 19.02050018 -0.39260933 8 14 32774 22.49600000 2980790626 2980790626 -1.00000000
-4.45353365 7.05569458 2.23567891 45 15 32774 8.63800000 2980790629 2980790629 15.00000000
-1.13792717 1.80839729 -0.57250774 4 0 32782 2.21200000 2980790649 2980790649 -15.00000000
-11.96620941 19.02410126 0.39229518 13 1 32783 22.47800000 2980790652 2980790652 1.00000000
-1.33498693 2.12320924 -0.57902402 3 2 32784 2.57400000 2980790654 2980790654 -13.00000000
-11.97369289 19.05075073 1.17923379 10 3 32785 22.53200000 2980790656 2980790656 3.00000000
-1.58066368 2.51491570 -0.57738805 2 4 32785 3.02600000 2980790658 2980790658 -11.00000000
-11.96132088 19.03844070 1.96710515 20 5 32786 22.57000000 2980790661 2980790661 5.00000000
-1.95199323 3.10812759 -0.58131045 2 6 32787 3.71600000 2980790663 2980790663 -9.00000000
-10.95569706 17.45134354 2.53000760 35 7 32788 20.76000000 2980790665 2980790665 7.00000000
-2.52501869 4.02366447 -0.58326668 2 8 32789 4.78600000 2980790668 2980790668 -7.00000000
-8.38825130 13.37201881 2.50013566 44 9 32790 15.98200000 2980790670 2980790670 9.00000000
-3.59340739 5.72838211 -0.59161317 4 10 32790 6.78800000 2980790672 2980790672 -5.00000000
-6.74078178 10.74989414 2.46639705 62 11 32791 12.92600000 2980790675 2980790675 11.00000000
-6.01127005 9.59022045 -0.59317571 4 12 32792 11.33400000 2980790677 2980790677 -3.00000000
-5.85946798 9.35166550 2.54779553 57 13 32793 11.32600000 2980790679 2980790679 13.00000000
-11.90631199 19.00975609 -0.39152730 8 14 32794 22.43400000 2980790682 2980790682 -1.00000000
-4.42866850 7.07360744 2.23619652 45 15 32795 8.64000000 2980790684 2980790684 15.00000000
-1.13774669 1.82219028 -0.57561356 4 0 32802 2.22400000 2980790705 2980790705 -15.00000000
-11.87643623 19.02843475 0.39152730 13 1 32803 22.43400000 2980790707 2980790707 1.00000000
-1.32756746 2.12785625 -0.57902402 3 2 32804 2.57400000 2980790709 2980790709 -13.00000000
-11.88175488 19.05175781 1.17672169 10 3 32805 22.48400000 2980790711 2980790711 3.00000000
-1.58434236 2.54040813 -0.58196741 4 4 32805 3.05000000 2980790714 2980790714 -11.00000000
-11.86738586 19.03611755 1.96257305 20 5 32806 22.51800000 2980790716 2980790716 5.00000000
-1.93590820 3.10653973 -0.57974613 1 6 32807 3.70600000 2980790718 2980790718 -9.00000000
-10.87792015 17.46252060 2.52610779 38 7 32808 20.72800000 2980790721 2980790721 7.00000000
-2.51095819 4.03245401 -0.58326668 2 8 32809 4.78600000 2980790723 2980790723 -7.00000000
-8.33655262 13.38802338 2.49794555 46 9 32809 15.96800000 2980790725 2980790725 9.00000000
-3.57023120 5.73581600 -0.59109026 8 10 32810 6.78200000 2980790728 2980790728 -5.00000000
-6.00201845 9.65015316 -0.59558320 4 12 32812 11.38000000 2980790732 2980790732 -3.00000000
-5.82678843 9.37206173 2.54779553 57 13 32813 11.32600000 2980790735 2980790735 13.00000000
-11.82721615 19.03081894 -0.39110842 11 14 32814 22.41000000 2980790737 2980790737 -1.00000000
-4.40620661 7.08989525 2.23671412 45 15 32814 8.64200000 2980790739 2980790739 15.00000000
-1.13544881 1.83271956 -0.57768410 4 0 32822 2.23200000 2980790760 2980790760 -15.00000000
-11.79520226 19.04597473 0.39103863 13 1 32823 22.40600000 2980790762 2980790762 1.00000000
-1.31602883 2.12584949 -0.57722443 3 2 32824 2.56600000 2980790764 2980790764 -13.00000000
-11.79100704 19.05405426 1.17431414 14 3 32825 22.43800000 2980790767 2980790767 3.00000000
-1.56513405 2.52922845 -0.57815129 4 4 32825 3.03000000 2980790769 2980790769 -11.00000000
-11.78514385 19.05200958 1.95995831 20 5 32826 22.48800000 2980790771 2980790771 5.00000000
-1.93232477 3.12503934 -0.58193618 2 6 32827 3.72000000 2980790774 2980790774 -9.00000000
-10.80437469 17.48012161 2.52318287 40 7 32828 20.70400000 2980790776 2980790776 7.00000000
-2.49269342 4.03443909 -0.58229172 2 8 32829 4.77800000 2980790778 2980790778 -7.00000000
-8.28846550 13.42016888 2.49825835 42 9 32830 15.97000000 2980790781 2980790781 9.00000000
-3.56484485 5.77197552 -0.59353060 4 10 32830 6.81000000 2980790783 2980790783 -5.00000000
-6.64597416 10.76495075 2.45914626 62 11 32831 12.88800000 2980790785 2980790785 11.00000000
-5.97144365 9.67614460 -0.59589720 4 12 32832 11.38600000 2980790787 2980790787 -3.00000000
-5.78994608 9.38570976 2.54599595 60 13 32833 11.31800000 2980790790 2980790790 13.00000000
-11.78485489 19.11113548 -0.39191124 11 14 32834 22.45600000 2980790792 2980790792 -1.00000000
-4.38019133 7.10599709 2.23671412 45 15 32835 8.64200000 2980790794 2980790794 15.00000000
-1.12126923 1.82331014 -0.57354301 4 0 32841 2.21600000 2980790815 2980790815 -15.00000000
-11.78643417 19.17356873 0.39285368 13 1 32842 22.51000000 2980790817 2980790817 1.00000000
-1.31101251 2.13352251 -0.57812423 3 2 32843 2.57000000 2980790820 2980790820 -13.00000000
-11.76957035 19.16112328 1.17850101 58 3 32844 22.51800000 2980790822 2980790822 3.00000000
-1.55468309 2.53105903 -0.57738805 2 4 32844 3.02600000 2980790824 2980790824 -11.00000000
-11.76985550 19.16908836 1.96797669 68 5 32845 22.58000000 2980790827 2980790827 5.00000000
-1.92711771 3.13984776 -0.58350056 2 6 32846 3.73000000 2980790829 2980790829 -9.00000000
-10.73285389 17.49385834 2.52001429 40 7 32847 20.67800000 2980790831 2980790831 7.00000000
-2.49175453 4.06298971 -0.58521658 2 8 32848 4.80200000 2980790834 2980790834 -7.00000000
-8.22560978 13.41246319 2.49200106 42 9 32848 15.93000000 2980790836 2980790836 9.00000000
-3.54568458 5.78376532 -0.59353060 4 10 32849 6.81000000 2980790838 2980790838 -5.00000000
-6.59895611 10.76851749 2.45494843 62 11 32850 12.86600000 2980790840 2980790840 11.00000000
-5.95288563 9.71803379 -0.59725791 4 12 32851 11.41200000 2980790843 2980790843 -3.00000000
-5.75879002 9.40485859 2.54599595 60 13 32852 11.31800000 2980790845 2980790845 13.00000000
-11.79553509 19.27120590 -0.39438948 8 14 32853 22.59800000 2980790847 2980790847 -1.00000000
-4.35482025 7.11477995 2.23516130 45 15 32853 8.63600000 2980790850 2980790850 15.00000000
-1.11288536 1.82391477 -0.57250774 4 0 32861 2.21200000 2980790870 2980790870 -15.00000000
-11.77878666 19.31190491 0.39484325 9 1 32862 22.62400000 2980790873 2980790873 1.00000000
-1.31167257 2.15139699 -0.58172345 3 2 32863 2.58600000 2980790875 2980790875 -13.00000000
-11.75978088 19.29589272 1.18425798 36 3 32864 22.62800000 2980790877 2980790877 3.00000000
-1.54788196 2.53982329 -0.57815129 4 4 32864 3.03000000 2980790880 2980790880 -11.00000000
-11.75262642 19.29172897 1.97634363 61 5 32865 22.67600000 2980790882 2980790882 5.00000000
-1.90998125 3.13643265 -0.58162332 2 6 32866 3.71800000 2980790884 2980790884 -9.00000000
-10.66759396 17.52443314 2.51903939 42 7 32867 20.67000000 2980790887 2980790887 7.00000000
-2.47549319 4.06827116 -0.58472914 2 8 32868 4.79800000 2980790889 2980790889 -7.00000000
-8.16613007 13.42564487 2.48887229 50 9 32869 15.91000000 2980790891 2980790891 9.00000000
-3.53168631 5.80632019 -0.59457648 4 10 32869 6.82200000 2980790893 2980790893 -5.00000000
-6.54398727 10.76296806 2.44846106 56 11 32870 12.83200000 2980790896 2980790896 11.00000000
-5.93241262 9.76094151 -0.59861869 4 12 32871 11.43800000 2980790898 2980790898 -3.00000000
-5.72592592 9.42490292 2.54599595 60 13 32872 11.31800000 2980790900 2980790900 13.00000000
-11.79358768 19.41994286 -0.39658847 8 14 32873 22.72400000 2980790903 2980790903 -1.00000000
-4.32570648 7.12573910 2.23360825 45 15 32874 8.63000000 2980790905 2980790905 15.00000000
-1.10751247 1.82944095 -0.57302535 4 0 32881 2.21400000 2980790926 2980790926 -15.00000000
-11.77031517 19.45042038 0.39683282 13 1 32882 22.73800000 2980790928 2980790928 1.00000000
-1.30415487 2.15596247 -0.58172345 3 2 32883 2.58600000 2980790930 2980790930 -13.00000000
-11.76676178 19.45988083 1.19179440 14 3 32884 22.77200000 2980790933 2980790933 3.00000000
-1.54103863 2.54857087 -0.57891446 4 4 32884 3.03400000 2980790935 2980790935 -11.00000000
-11.75838852 19.45369911 1.98871970 68 5 32885 22.81800000 2980790937 2980790937 5.00000000
-1.90004301 3.14477134 -0.58193618 2 6 32886 3.72000000 2980790940 2980790940 -9.00000000
-10.58583260 17.52757835 2.51416445 40 7 32887 20.63000000 2980790942 2980790942 7.00000000
-2.46127701 4.07688761 -0.58472914 2 8 32888 4.79800000 2980790944 2980790944 -7.00000000
-8.11645889 13.44419575 2.48730803 54 9 32888 15.90000000 2980790946 2980790946 9.00000000
-3.49492598 5.79131937 -0.59178752 4 10 32889 6.79000000 2980790949 2980790949 -5.00000000
-6.48305368 10.74708080 2.43968391 59 11 32890 12.78600000 2980790951 2980790951 11.00000000
-5.90139818 9.78672123 -0.59893268 4 12 32891 11.44400000 2980790953 2980790953 -3.00000000
-5.69902802 9.45484734 2.54869556 57 13 32892 11.33000000 2980790956 2980790956 13.00000000
-11.78764820 19.56376076 -0.39868277 8 14 32893 22.84400000 2980790958 2980790958 -1.00000000
-4.30205297 7.14004469 2.23360825 45 15 32893 8.63000000 2980790960 2980790960 15.00000000
-1.10808253 1.84488833 -0.57664883 4 0 32901 2.22800000 2980790981 2980790981 -15.00000000
-11.75690269 19.58225250 0.39868277 13 1 32902 22.84400000 2980790983 2980790983 1.00000000
-1.28458762 2.14045048 -0.57632458 3 2 32903 2.56200000 2980790986 2980790986 -13.00000000
-11.76863003 19.61729813 1.19891214 43 3 32904 22.90800000 2980790988 2980790988 3.00000000
-1.53415298 2.55730176 -0.57967770 2 4 32904 3.03800000 2980790990 2980790990 -11.00000000
-11.75393963 19.60056496 1.99952710 63 5 32905 22.94200000 2980790993 2980790993 5.00000000
-1.89311659 3.15816164 -0.58318770 2 6 32906 3.72800000 2980790995 2980790995 -9.00000000
-10.51030064 17.54058456 2.51075220 40 7 32907 20.60200000 2980790997 2980790997 7.00000000
-2.45315123 4.09567213 -0.58619153 2 8 32908 4.81000000 2980790999 2980790999 -7.00000000
-8.06205559 13.46537971 2.48574376 42 9 32909 15.89000000 2980791002 2980791002 9.00000000
-3.49311161 5.83425331 -0.59492511 4 10 32909 6.82600000 2980791004 2980791004 -5.00000000
-6.43037701 10.74437714 2.43395948 59 11 32910 12.75600000 2980791006 2980791006 11.00000000
-5.88258076 9.83297062 -0.60050279 4 12 32911 11.47400000 2980791009 2980791009 -3.00000000
-5.65798807 9.46130276 2.54509616 62 13 32912 11.31400000 2980791011 2980791011 13.00000000
-11.78700447 19.71807098 -0.40098649 9 14 32913 22.97600000 2980791013 2980791013 -1.00000000
-4.27387238 7.15244770 2.23257303 45 15 32914 8.62600000 2980791016 2980791016 15.00000000
-1.10393703 1.85187149 -0.57768410 4 0 32920 2.23200000 2980791036 2980791036 -15.00000000
-11.76253223 19.73966217 0.40109122 9 1 32921 22.98200000 2980791039 2980791039 1.00000000
-1.28346610 2.15474415 -0.57902402 3 2 32922 2.57400000 2980791041 2980791041 -13.00000000
-11.76481915 19.75918388 1.20519245 47 3 32923 23.02800000 2980791043 2980791043 3.00000000
-1.52365553 2.55900145 -0.57891446 4 4 32923 3.03400000 2980791046 2980791046 -11.00000000
-11.75307369 19.74729729 2.01050878 56 5 32924 23.06800000 2980791048 2980791048 5.00000000
-1.88465333 3.16781759 -0.58381343 2 6 32925 3.73200000 2980791050 2980791050 -9.00000000
-10.44700336 17.56681061 2.50953341 38 7 32926 20.59200000 2980791052 2980791052 7.00000000
-2.44158483 4.10719728 -0.58667904 2 8 32927 4.81400000 2980791055 2980791055 -7.00000000
-8.01567554 13.48384857 2.48449206 46 9 32927 15.88200000 2980791057 2980791057 9.00000000
-3.46254969 5.82696390 -0.59300768 4 10 32928 6.80400000 2980791059 2980791059 -5.00000000
-6.38568830 10.75045013 2.43052506 62 11 32929 12.73800000 2980791062 2980791062 11.00000000
-5.86421680 9.87646675 -0.60196817 4 12 32930 11.50200000 2980791064 2980791064 -3.00000000
-5.62061453 9.46995831 2.54239678 59 13 32931 11.30200000 2980791066 2980791066 13.00000000
-11.74910069 19.80348396 -0.40192893 3 14 32932 23.03000000 2980791069 2980791069 -1.00000000
-4.25335264 7.16916180 2.23360825 45 15 32932 8.63000000 2980791071 2980791071 15.00000000
-1.08959889 1.84241116 -0.57354301 4 0 32940 2.21600000 2980791092 2980791092 -15.00000000
-1.27990234 2.16592193 -0.58082360 3 2 32942 2.58200000 2980791096 2980791096 -13.00000000
-20.92318726 35.42149353 2.15603209 46 3 32943 41.19600000 2980791099 2980791099 3.00000000
-1.51471364 2.56430435 -0.57891446 4 4 32943 3.03400000 2980791101 2980791101 -11.00000000
-1.88262069 3.18968725 -0.58662927 2 6 32945 3.75000000 2980791105 2980791105 -9.00000000
-10.38158512 17.59633064 2.50855851 40 7 32946 20.58400000 2980791108 2980791108 7.00000000
-2.43530035 4.12937403 -0.58862895 2 8 32947 4.83000000 2980791110 2980791110 -7.00000000
-7.96253824 13.50153732 2.48261499 46 9 32947 15.87000000 2980791112 2980791112 9.00000000
-3.45331860 5.85789490 -0.59492511 8 10 32948 6.82600000 2980791115 2980791115 -5.00000000
-6.33616257 10.75237751 2.42594552 43 11 32949 12.71400000 2980791117 2980791117 11.00000000
-5.83882904 9.91236496 -0.60291022 4 12 32950 11.52000000 2980791119 2980791119 -3.00000000
-5.58752394 9.48952007 2.54239678 62 13 32951 11.30200000 2980791122 2980791122 13.00000000
-4.22242260 7.17397594 2.23050261 45 15 32952 8.61800000 2980791126 2980791126 15.00000000
-1.08120584 1.84287083 -0.57250774 4 0 32960 2.21200000 2980791147 2980791147 -15.00000000
-1.27430522 2.17373872 -0.58172345 3 2 32962 2.58600000 2980791152 2980791152 -13.00000000
-1.51170886 2.57973909 -0.58120418 4 4 32963 3.04600000 2980791156 2980791156 -11.00000000
-12.16274357 20.76409340 2.10533404 22 5 32964 24.15600000 2980791158 2980791158 5.00000000
-1.86848080 3.19112539 -0.58569062 2 6 32965 3.74400000 2980791161 2980791161 -9.00000000
-10.31608868 17.62561035 2.50758362 33 7 32966 20.57600000 2980791163 2980791163 7.00000000
-2.41686153 4.13099575 -0.58765399 2 8 32967 4.82200000 2980791165 2980791165 -7.00000000
-7.91898251 13.54086208 2.48449206 50 9 32968 15.88200000 2980791168 2980791168 9.00000000
-3.42681479 5.85959435 -0.59387922 8 10 32968 6.81400000 2980791170 2980791170 -5.00000000
-5.75859880 9.85071373 2.21796370 9 11 32969 11.62400000 2980791172 2980791172 11.00000000
-5.82434654 9.96717453 -0.60500365 4 12 32970 11.56000000 2980791175 2980791175 -3.00000000
-5.55436516 9.50896645 2.54239678 64 13 32971 11.30200000 2980791177 2980791177 13.00000000
-22.83494377 39.10865402 -0.79048932 6 14 32972 45.29400000 2980791179 2980791179 -1.00000000
-4.18956232 7.17532492 2.22636151 45 15 32972 8.60200000 2980791181 2980791181 15.00000000
-1.07865345 1.85331225 -0.57457829 4 0 32980 2.22000000 2980791202 2980791202 -15.00000000
-1.26475036 2.17480445 -0.58082360 3 2 32982 2.58200000 2980791207 2980791207 -13.00000000
-20.22470284 34.79140854 2.10903430 36 3 32983 40.29800000 2980791209 2980791209 3.00000000
-1.50072134 2.58160567 -0.58044094 4 4 32983 3.04200000 2980791211 2980791211 -11.00000000
-12.06416321 20.76163292 2.10080194 22 5 32984 24.10400000 2980791214 2980791214 5.00000000
-1.84939301 3.18396330 -0.58318770 2 6 32985 3.72800000 2980791216 2980791216 -9.00000000
-10.23456573 17.62717819 2.50270891 28 7 32986 20.53600000 2980791218 2980791218 7.00000000
-2.41239142 4.15657616 -0.59009135 2 8 32987 4.84200000 2980791221 2980791221 -7.00000000
-7.86968565 13.56500435 2.48386645 50 9 32988 15.87800000 2980791223 2980791223 9.00000000
-3.41833782 5.89220095 -0.59597099 4 10 32988 6.83800000 2980791225 2980791225 -5.00000000
-5.80955172 10.02200317 -0.60709709 4 12 32990 11.60000000 2980791230 2980791230 -3.00000000
-5.52700138 9.53841400 2.54509616 55 13 32991 11.31400000 2980791232 2980791232 13.00000000
-22.79851723 39.36116409 -0.79397976 6 14 32992 45.49400000 2980791234 2980791234 -1.00000000
-4.16129923 7.18728876 2.22532606 47 15 32993 8.59800000 2980791237 2980791237 15.00000000
-1.07443416 1.86022472 -0.57561356 4 0 32999 2.22400000 2980791258 2980791258 -15.00000000
-1.24973881 2.16548395 -0.57722443 3 2 33001 2.56600000 2980791262 2980791262 -13.00000000
-20.15712547 34.94132614 2.11405873 36 3 33002 40.39400000 2980791264 2980791264 3.00000000
-1.49803841 2.59677148 -0.58273065 4 4 33002 3.05400000 2980791267 2980791267 -11.00000000
-11.97235680 20.76182747 2.09679294 22 5 33003 24.05800000 2980791269 2980791269 5.00000000
-1.83685148 3.18665576 -0.58256197 2 6 33004 3.72400000 2980791271 2980791271 -9.00000000
-9.59629440 16.65481758 2.36012173 13 7 33005 19.36600000 2980791274 2980791274 7.00000000
-2.40652037 4.17831421 -0.59204125 2 8 33006 4.85800000 2980791276 2980791276 -7.00000000
-7.81677437 13.57733154 2.48136353 50 9 33007 15.86200000 2980791278 2980791278 9.00000000
-3.41070867 5.92422390 -0.59806269 4 10 33007 6.86200000 2980791281 2980791281 -5.00000000
-6.18006086 10.73877907 2.40839124 59 11 33008 12.62200000 2980791283 2980791283 11.00000000
-5.76831865 10.02736282 -0.60625970 4 12 33009 11.58400000 2980791285 2980791285 -3.00000000
-4.79883003 8.34542084 2.22251630 51 13 33010 9.88000000 2980791287 2980791287 13.00000000
-20.38184547 35.45943451 -0.71390814 5 14 33011 40.90600000 2980791290 2980791290 -1.00000000
-4.14062452 7.20367575 2.22636151 45 15 33011 8.60200000 2980791292 2980791292 15.00000000
-1.07369649 1.87402129 -0.57871938 4 0 33019 2.23600000 2980791313 2980791313 -15.00000000
-20.29829407 35.44282150 0.71293080 10 1 33020 40.85000000 2980791315 2980791315 1.00000000
-1.24023592 2.16645074 -0.57632458 3 2 33021 2.56200000 2980791317 2980791317 -13.00000000
-20.03305054 35.00800705 2.11384916 36 3 33022 40.39000000 2980791320 2980791320 3.00000000
-1.48701465 2.59857678 -0.58196741 4 4 33022 3.05000000 2980791322 2980791322 -11.00000000
-11.87013340 20.75160980 2.09156346 22 5 33023 23.99800000 2980791324 2980791324 5.00000000
-1.83944392 3.21705604 -0.58694214 2 6 33024 3.75200000 2980791327 2980791327 -9.00000000
-10.08479404 17.64472961 2.49539661 40 7 33025 20.47600000 2980791329 2980791329 7.00000000
-2.37419558 4.15566397 -0.58765399 2 8 33026 4.82200000 2980791331 2980791331 -7.00000000
-7.76541424 13.59767246 2.48011208 46 9 33027 15.85400000 2980791334 2980791334 9.00000000
-3.39198470 5.93955374 -0.59841132 4 10 33027 6.86600000 2980791336 2980791336 -5.00000000
-6.13085842 10.73982620 2.40381169 56 11 33028 12.59800000 2980791338 2980791338 11.00000000
-5.72338247 10.03009033 -0.60521299 4 12 33029 11.56400000 2980791340 2980791340 -3.00000000
-4.76677322 8.35704327 2.22116661 62 13 33030 9.87400000 2980791343 2980791343 13.00000000
-20.19950676 35.42787170 -0.71184874 5 14 33031 40.78800000 2980791345 2980791345 -1.00000000
-4.11545372 7.21808577 2.22636151 45 15 33031 8.60200000 2980791347 2980791347 15.00000000
-1.06491220 1.87458456 -0.57768410 4 0 33040 2.23200000 2980791368 2980791368 -15.00000000
-20.14356804 35.47350693 0.71205819 10 1 33041 40.80000000 2980791370 2980791370 1.00000000
-1.24094498 2.18623471 -0.58037370 4 2 33042 2.58000000 2980791373 2980791373 -13.00000000
-19.90875626 35.07424927 2.11363983 36 3 33042 40.38600000 2980791375 2980791375 3.00000000
-1.47166729 2.59376431 -0.57967770 2 4 33043 3.03800000 2980791377 2980791377 -11.00000000
-11.77433681 20.76031494 2.08807731 21 5 33044 23.95800000 2980791380 2980791380 5.00000000
-1.82179511 3.21346569 -0.58506489 2 6 33045 3.74000000 2980791382 2980791382 -9.00000000
-10.02592754 17.69193649 2.49685907 42 7 33046 20.48800000 2980791384 2980791384 7.00000000
-2.37851644 4.19888258 -0.59252876 2 8 33047 4.86200000 2980791386 2980791386 -7.00000000
-7.71400785 13.61782074 2.47886062 46 9 33047 15.84600000 2980791389 2980791389 9.00000000
-3.38786292 5.98315382 -0.60154891 4 10 33048 6.90200000 2980791391 2980791391 -5.00000000
-6.08371735 10.74855614 2.40075874 59 11 33049 12.58200000 2980791393 2980791393 11.00000000
-5.73378992 10.13443947 -0.61023724 4 12 33050 11.66000000 2980791396 2980791396 -3.00000000
-4.73611116 8.37445831 2.22116661 56 13 33051 9.87400000 2980791398 2980791398 13.00000000
-20.03311157 35.43725967 -0.71055728 5 14 33052 40.71400000 2980791400 2980791400 -1.00000000
-4.08231544 7.22134876 2.22273803 45 15 33052 8.58800000 2980791403 2980791403 15.00000000
-1.05646551 1.87492418 -0.57664883 4 0 33060 2.22800000 2980791423 2980791423 -15.00000000
-19.96270180 35.44255066 0.71003371 10 1 33061 40.68400000 2980791426 2980791426 1.00000000
-1.23043787 2.18545866 -0.57902402 4 2 33062 2.57400000 2980791428 2980791428 -13.00000000
-19.80259895 35.18701553 2.11604738 36 3 33063 40.43200000 2980791430 2980791430 3.00000000
-1.46453023 2.60230732 -0.58044094 4 4 33063 3.04200000 2980791433 2980791433 -11.00000000
-11.67249298 20.74919510 2.08284783 21 5 33064 23.89800000 2980791435 2980791435 5.00000000
-1.81250334 3.22324896 -0.58569062 2 6 33065 3.74400000 2980791437 2980791437 -9.00000000
-9.96313763 17.72509575 2.49661541 42 7 33066 20.48600000 2980791439 2980791439 7.00000000
-2.35217667 4.18639183 -0.58960390 2 8 33067 4.83800000 2980791442 2980791442 -7.00000000
-7.66404438 13.64600277 2.47886062 46 9 33068 15.84600000 2980791444 2980791444 9.00000000
-3.35134697 5.96714830 -0.59875995 4 10 33068 6.87000000 2980791446 2980791446 -5.00000000
-6.03558874 10.75089550 2.39656091 59 11 33069 12.56000000 2980791449 2980791449 11.00000000
-5.69055986 10.14045811 -0.60939986 4 12 33070 11.64400000 2980791451 2980791451 -3.00000000
-4.70494318 8.38753986 2.22026682 56 13 33071 9.87000000 2980791453 2980791453 13.00000000
-19.87212563 35.44069290 -0.70923090 5 14 33072 40.63800000 2980791456 2980791456 -1.00000000
-4.04165268 7.21098471 2.21497345 38 15 33073 8.55800000 2980791458 2980791458 15.00000000
-1.05024219 1.87841725 -0.57664883 4 0 33079 2.22800000 2980791479 2980791479 -15.00000000
-19.80213356 35.43174744 0.70849788 10 1 33080 40.59600000 2980791481 2980791481 1.00000000
-1.22318387 2.18952703 -0.57902402 4 2 33081 2.57400000 2980791483 2980791483 -13.00000000
-19.68221664 35.23161697 2.11500072 36 3 33081 40.41200000 2980791486 2980791486 3.00000000
-1.45780694 2.61057782 -0.58120418 2 4 33082 3.04600000 2980791488 2980791488 -11.00000000
-11.58419991 20.75299263 2.07936168 21 5 33083 23.85800000 2980791490 2980791490 5.00000000
-1.79217970 3.21199155 -0.58256197 2 6 33084 3.72400000 2980791492 2980791492 -9.00000000
-9.89560127 17.74243355 2.49442172 45 7 33085 20.46800000 2980791495 2980791495 7.00000000
-2.35374713 4.22191048 -0.59350371 2 8 33086 4.87000000 2980791497 2980791497 -7.00000000
-7.61682701 13.66789150 2.47823477 50 9 33087 15.84200000 2980791499 2980791499 9.00000000
-3.32960105 5.97474813 -0.59841132 4 10 33087 6.86600000 2980791502 2980791502 -5.00000000
-5.97793007 10.73140430 2.38778377 62 11 33088 12.51400000 2980791504 2980791504 11.00000000
-5.66078806 10.16625309 -0.60981858 4 12 33089 11.65200000 2980791506 2980791506 -3.00000000
-4.67710304 8.40309620 2.22026682 57 13 33090 9.87000000 2980791509 2980791509 13.00000000
-19.71171188 35.42950821 -0.70769507 5 14 33091 40.55000000 2980791511 2980791511 -1.00000000
-3.98422718 7.16118431 2.19582081 20 15 33091 8.48400000 2980791513 2980791513 15.00000000
-1.04555261 1.88545084 -0.57768410 4 0 33099 2.23200000 2980791534 2980791534 -15.00000000
-19.64634132 35.44293594 0.70734602 10 1 33100 40.53000000 2980791536 2980791536 1.00000000
-1.21647799 2.19548798 -0.57947391 4 2 33101 2.57600000 2980791538 2980791538 -13.00000000
-19.55524254 35.29311752 2.11458206 36 3 33101 40.40400000 2980791541 2980791541 3.00000000
-1.45249033 2.62252045 -0.58273065 4 4 33102 3.05400000 2980791543 2980791543 -11.00000000
-11.48273754 20.74101067 2.07413244 21 5 33103 23.79800000 2980791545 2980791545 5.00000000
-1.79626048 3.24588180 -0.58756787 2 6 33104 3.75600000 2980791548 2980791548 -9.00000000
-9.82784367 17.76644516 2.49295926 45 7 33105 20.45600000 2980791550 2980791550 7.00000000
-2.32939005 4.21272850 -0.59106630 2 8 33106 4.85000000 2980791552 2980791552 -7.00000000
-7.57289314 13.70131111 2.47948623 50 9 33107 15.85000000 2980791555 2980791555 9.00000000
-3.34149408 6.04562235 -0.60433793 4 10 33107 6.93400000 2980791557 2980791557 -5.00000000
-5.93094015 10.73502159 2.38396764 62 11 33108 12.49400000 2980791559 2980791559 11.00000000
-5.63106012 10.19644165 -0.61044657 4 12 33109 11.66400000 2980791562 2980791562 -3.00000000
-4.64774227 8.41937065 2.22026682 57 13 33110 9.87000000 2980791564 2980791564 13.00000000
-19.54251289 35.41580963 -0.70605457 5 14 33111 40.45600000 2980791566 2980791566 -1.00000000
-3.90973902 7.08540249 2.16838598 15 15 33111 8.37800000 2980791568 2980791568 15.00000000
-1.04395092 1.89737046 -0.58027232 4 0 33118 2.24200000 2980791589 2980791589 -15.00000000
-19.49304390 35.44306183 0.70605457 30 1 33119 40.45600000 2980791591 2980791591 1.00000000
-1.21388483 2.20804834 -0.58172345 3 2 33120 2.58600000 2980791594 2980791594 -13.00000000
-15.98839283 29.09480667 1.73985648 6 3 33121 33.24400000 2980791596 2980791596 3.00000000
-1.43811274 2.61699915 -0.58044094 2 4 33121 3.04200000 2980791598 2980791598 -11.00000000
-11.39854717 20.75103378 2.07134342 21 5 33122 23.76600000 2980791601 2980791601 5.00000000
-1.79309273 3.26567268 -0.59007078 2 6 33123 3.77200000 2980791603 2980791603 -9.00000000
-9.75741196 17.77805519 2.49003434 45 7 33124 20.43200000 2980791605 2980791605 7.00000000
-2.31158805 4.21346855 -0.59009135 2 8 33125 4.84200000 2980791608 2980791608 -7.00000000
-7.52031040 13.70771599 2.47635770 46 9 33125 15.83000000 2980791610 2980791610 9.00000000
-3.31567955 6.04618835 -0.60329205 4 10 33126 6.92200000 2980791612 2980791612 -5.00000000
-5.88398457 10.73397160 2.37938809 62 11 33127 12.47000000 2980791615 2980791615 11.00000000
-5.61833096 10.25359249 -0.61274940 4 12 33128 11.70800000 2980791617 2980791617 -3.00000000
-4.61511660 8.42619133 2.21801734 54 13 33129 9.86000000 2980791619 2980791619 13.00000000
-19.49314499 35.60495758 -0.70853281 5 14 33130 40.59800000 2980791621 2980791621 -1.00000000
-3.87107110 7.07358646 2.16062140 15 15 33131 8.34800000 2980791624 2980791624 15.00000000
-1.03084397 1.88913226 -0.57664883 4 0 33138 2.22800000 2980791644 2980791644 -15.00000000
-19.44964027 35.65835571 0.70898658 40 1 33139 40.62400000 2980791647 2980791647 1.00000000
-1.20243859 2.20542836 -0.57992381 4 2 33140 2.57800000 2980791649 2980791649 -13.00000000
-15.97213268 29.29496384 1.74864900 6 3 33140 33.41200000 2980791651 2980791651 3.00000000
-1.43084788 2.62545085 -0.58120418 2 4 33141 3.04600000 2980791654 2980791654 -11.00000000
-11.29649544 20.73645782 2.06593966 21 5 33142 23.70400000 2980791656 2980791656 5.00000000
-1.77129090 3.25282860 -0.58662927 2 6 33143 3.75000000 2980791658 2980791658 -9.00000000
-8.31160927 15.26992512 2.13466334 15 7 33144 17.51600000 2980791661 2980791661 7.00000000
-2.31014824 4.24592352 -0.59350371 2 8 33145 4.87000000 2980791663 2980791663 -7.00000000
-7.46624374 13.72824574 2.47510600 42 9 33146 15.82200000 2980791665 2980791665 9.00000000
-3.28503513 6.04022217 -0.60154891 4 10 33146 6.90200000 2980791668 2980791668 -5.00000000
-5.83710337 10.73719597 2.37557197 59 11 33147 12.45000000 2980791670 2980791670 11.00000000
-5.59013367 10.28718090 -0.61358672 4 12 33148 11.72400000 2980791672 2980791672 -3.00000000
-4.58846617 8.44738674 2.21936703 60 13 33149 9.86600000 2980791674 2980791674 13.00000000
-19.48133278 35.88015366 -0.71265155 5 14 33150 40.83400000 2980791677 2980791677 -1.00000000
-3.83345509 7.06328535 2.15337443 18 15 33151 8.32000000 2980791679 2980791679 15.00000000
-1.02391303 1.89289784 -0.57664883 4 0 33159 2.22800000 2980791700 2980791700 -15.00000000
-19.44150734 35.95631409 0.71348929 40 1 33160 40.88200000 2980791702 2980791702 1.00000000
-1.19805348 2.21667814 -0.58172345 4 2 33161 2.58600000 2980791704 2980791704 -13.00000000
-15.95582008 29.52198601 1.75869751 6 3 33161 33.60400000 2980791707 2980791707 3.00000000
-1.41934919 2.62722301 -0.58044094 2 4 33162 3.04200000 2980791709 2980791709 -11.00000000
-11.19012260 20.72162247 2.06036186 21 5 33163 23.64000000 2980791711 2980791711 5.00000000
-1.76029515 3.26103735 -0.58694214 2 6 33164 3.75200000 2980791714 2980791714 -9.00000000
-9.63560200 17.85790443 2.49149680 49 7 33165 20.44400000 2980791716 2980791716 7.00000000
-2.30776334 4.27882290 -0.59691602 2 8 33166 4.89800000 2980791718 2980791718 -7.00000000
-7.41452694 13.74726963 2.47385454 46 9 33166 15.81400000 2980791721 2980791721 9.00000000
-3.28178430 6.08729744 -0.60503519 4 10 33167 6.94200000 2980791723 2980791723 -5.00000000
-5.79025936 10.74469185 2.37251902 59 11 33168 12.43400000 2980791725 2980791725 11.00000000
-5.56375837 10.32870102 -0.61484283 4 12 33169 11.74800000 2980791727 2980791727 -3.00000000
-4.56116962 8.47101116 2.22116661 59 13 33170 9.87400000 2980791730 2980791730 13.00000000
-19.46531677 36.16613770 -0.71690995 5 14 33171 41.07800000 2980791732 2980791732 -1.00000000
-3.79838824 7.06027555 2.14819813 18 15 33172 8.30000000 2980791734 2980791734 15.00000000
-1.01912570 1.89986515 -0.57768410 4 0 33179 2.23200000 2980791755 2980791755 -15.00000000
-23.53416824 43.89104080 0.86930436 47 1 33180 49.81000000 2980791757 2980791757 1.00000000
-1.19307017 2.22599936 -0.58307314 4 2 33181 2.59200000 2980791760 2980791760 -13.00000000
-1.41202402 2.63562250 -0.58120418 2 4 33182 3.04600000 2980791764 2980791764 -11.00000000
-11.09514809 20.71840477 2.05617833 21 5 33183 23.59200000 2980791767 2980791767 5.00000000
-1.75635934 3.28109431 -0.58944505 2 6 33184 3.76800000 2980791769 2980791769 -9.00000000
-9.56196976 17.87042618 2.48857188 45 7 33185 20.42000000 2980791771 2980791771 7.00000000
-2.27970624 4.26234579 -0.59350371 2 8 33186 4.87000000 2980791774 2980791774 -7.00000000
-7.36649466 13.77306747 2.47385454 46 9 33186 15.81400000 2980791776 2980791776 9.00000000
-3.25300097 6.08465910 -0.60364068 4 10 33187 6.92600000 2980791778 2980791778 -5.00000000
-5.73236132 10.72674465 2.36412334 59 11 33188 12.39000000 2980791780 2980791780 11.00000000
-5.52767038 10.34805965 -0.61484283 4 12 33189 11.74800000 2980791783 2980791783 -3.00000000
-4.53157234 8.48688126 2.22116661 59 13 33190 9.87400000 2980791785 2980791785 13.00000000
-3.76917362 7.06496906 2.14560986 22 15 33192 8.29000000 2980791790 2980791790 15.00000000
-1.01248777 1.90341103 -0.57768410 4 0 33199 2.23200000 2980791810 2980791810 -15.00000000
-23.34702110 43.90935898 0.86804777 83 1 33200 49.73800000 2980791813 2980791813 1.00000000
-1.18071985 2.22154641 -0.58082360 4 2 33201 2.58200000 2980791815 2980791815 -13.00000000
-18.32891273 34.48619080 2.04675460 8 3 33201 39.10800000 2980791817 2980791817 3.00000000
-1.41018414 2.65440536 -0.58425713 2 4 33202 3.06200000 2980791820 2980791820 -11.00000000
-11.00033283 20.71477509 2.05199480 21 5 33203 23.54400000 2980791822 2980791822 5.00000000
-1.73748612 3.27324677 -0.58694214 2 6 33204 3.75200000 2980791824 2980791824 -9.00000000
-9.49022770 17.88615990 2.48613453 45 7 33205 20.40000000 2980791826 2980791826 7.00000000
-2.26853442 4.27729225 -0.59447867 2 8 33206 4.87800000 2980791829 2980791829 -7.00000000
-7.31652164 13.79520702 2.47322893 50 9 33206 15.81000000 2980791831 2980791831 9.00000000
-3.25413895 6.13822508 -0.60782415 4 10 33207 6.97400000 2980791833 2980791833 -5.00000000
-5.68109369 10.72066784 2.35839915 59 11 33208 12.36000000 2980791836 2980791836 11.00000000
-5.49712467 10.37788105 -0.61547083 4 12 33209 11.76000000 2980791838 2980791838 -3.00000000
-4.49827242 8.49575806 2.21936703 59 13 33210 9.86600000 2980791840 2980791840 13.00000000
-20.99711800 39.67339706 -0.78350836 6 14 33211 44.89400000 2980791843 2980791843 -1.00000000
-3.74030256 7.06718445 2.14250398 20 15 33211 8.27800000 2980791845 2980791845 15.00000000
-1.00944257 1.91376853 -0.57975465 4 0 33219 2.24000000 2980791866 2980791866 -15.00000000
-23.15163803 43.91098785 0.86647707 83 1 33220 49.64800000 2980791868 2980791868 1.00000000
-1.17477512 2.22910237 -0.58172345 3 2 33221 2.58600000 2980791870 2980791870 -13.00000000
-18.16744995 34.47221756 2.04214907 8 3 33221 39.02000000 2980791873 2980791873 3.00000000
-1.39358974 2.64541602 -0.58120418 2 4 33222 3.04600000 2980791875 2980791875 -11.00000000
-9.54664612 18.12982941 1.79261935 6 5 33223 20.56800000 2980791877 2980791877 5.00000000
-1.72973001 3.28628397 -0.58819360 2 6 33224 3.76000000 2980791879 2980791879 -9.00000000
-9.42218971 17.90863800 2.48467207 45 7 33225 20.38800000 2980791882 2980791882 7.00000000
-2.25359011 4.28518486 -0.59447867 2 8 33226 4.87800000 2980791884 2980791884 -7.00000000
-7.26096725 13.80667591 2.47072601 46 9 33226 15.79400000 2980791886 2980791886 9.00000000
-3.21044302 6.10722113 -0.60364068 4 10 33227 6.92600000 2980791889 2980791889 -5.00000000
-5.64272404 10.73869610 2.35801768 62 11 33228 12.35800000 2980791891 2980791891 11.00000000
-5.47572517 10.42529774 -0.61714560 4 12 33229 11.79200000 2980791893 2980791893 -3.00000000
-4.46315432 8.50105572 2.21666765 60 13 33230 9.85400000 2980791896 2980791896 13.00000000
-3.98176551 7.58736277 -0.14956713 2 14 33231 8.57000000 2980791898 2980791898 -1.00000000
-3.71437478 7.08084583 2.14250398 20 15 33232 8.27800000 2980791900 2980791900 15.00000000
-0.99738425 1.90700936 -0.57664883 4 0 33239 2.22800000 2980791921 2980791921 -15.00000000
-22.95652771 43.91178894 0.86490637 95 1 33240 49.55800000 2980791923 2980791923 1.00000000
-1.16518188 2.22973514 -0.58082360 3 2 33241 2.58200000 2980791926 2980791926 -13.00000000
-18.00214386 34.46422195 2.03775287 8 3 33242 38.93600000 2980791928 2980791928 3.00000000
-1.38980079 2.66070533 -0.58349389 2 4 33242 3.05800000 2980791930 2980791930 -11.00000000
-9.51650047 18.22662354 1.79889452 6 5 33243 20.64000000 2980791932 2980791932 5.00000000
-1.72099006 3.29755545 -0.58913219 2 6 33244 3.76600000 2980791935 2980791935 -9.00000000
-9.35319233 17.92909813 2.48296595 40 7 33245 20.37400000 2980791937 2980791937 7.00000000
-3.96599817 7.60564280 -1.05319488 4 8 33246 8.64200000 2980791939 2980791939 -7.00000000
-7.20907545 13.82493114 2.46947455 42 9 33246 15.78600000 2980791942 2980791942 9.00000000
-3.20568156 6.15019274 -0.60677826 4 10 33247 6.96200000 2980791944 2980791944 -5.00000000
-5.59250450 10.73395157 2.35267496 59 11 33248 12.33000000 2980791946 2980791946 11.00000000
-5.45037079 10.46560478 -0.61840165 4 12 33249 11.81600000 2980791949 2980791949 -3.00000000
-4.43525267 8.52004051 2.21756744 57 13 33250 9.85800000 2980791951 2980791951 13.00000000
-3.68106437 7.07427311 2.13681006 20 15 33251 8.25600000 2980791956 2980791956 15.00000000
-0.99072146 1.91047931 -0.57664883 4 0 33259 2.22800000 2980791976 2980791976 -15.00000000
-22.75157356 43.89223480 0.86295170 94 1 33260 49.44600000 2980791979 2980791979 1.00000000
-1.15559852 2.23032832 -0.57992381 3 2 33261 2.57800000 2980791981 2980791981 -13.00000000
-17.83396912 34.43462753 2.03230977 8 3 33262 38.83200000 2980791983 2980791983 3.00000000
-1.37508738 2.65508056 -0.58120418 2 4 33262 3.04600000 2980791985 2980791985 -11.00000000
-9.49312210 18.33758354 1.80656421 12 5 33263 20.72800000 2980791988 2980791988 5.00000000
-3.94911861 7.63165760 -1.36097980 4 6 33264 8.70000000 2980791990 2980791990 -9.00000000
-9.28416729 17.94929504 2.48125982 35 7 33265 20.36000000 2980791992 2980791992 7.00000000
-3.95765924 7.65470743 -1.05806959 9 8 33266 8.68200000 2980791995 2980791995 -7.00000000
-7.15110064 13.83722210 2.46697140 42 9 33267 15.77000000 2980791997 2980791997 9.00000000
-3.16772866 6.12948513 -0.60364068 4 10 33267 6.92600000 2980791999 2980791999 -5.00000000
-5.54058504 10.72549915 2.34656906 46 11 33268 12.29800000 2980792002 2980792002 11.00000000
-5.45779085 10.56974983 -0.62342590 4 12 33269 11.91200000 2980792004 2980792004 -3.00000000
-4.40548515 8.53547096 2.21756744 59 13 33270 9.85800000 2980792006 2980792006 13.00000000
-3.93053269 7.61852980 -0.14963694 88 14 33271 8.57400000 2980792009 2980792009 -1.00000000
-3.64448595 7.06711388 2.13059831 20 15 33272 8.23200000 2980792011 2980792011 15.00000000
-0.98438066 1.91375411 -0.57664883 4 0 33278 2.22800000 2980792032 2980792032 -15.00000000
-22.56200600 43.88207626 0.86127627 94 1 33279 49.35000000 2980792034 2980792034 1.00000000
-1.15710378 2.25148058 -0.58442283 3 2 33280 2.59800000 2980792036 2980792036 -13.00000000
-17.70142746 34.45804596 2.03021646 8 3 33281 38.79200000 2980792038 2980792038 3.00000000
-1.36806941 2.66311836 -0.58196741 2 4 33281 3.05000000 2980792041 2980792041 -11.00000000
-9.49141693 18.48416710 1.81789446 18 5 33282 20.85800000 2980792043 2980792043 5.00000000
-3.93010354 7.65701294 -1.36316991 2 6 33283 8.71400000 2980792045 2980792045 -9.00000000
-9.20918941 17.94995880 2.47711635 28 7 33284 20.32600000 2980792048 2980792048 7.00000000
-3.91141915 7.62716293 -1.05246365 9 8 33285 8.63600000 2980792050 2980792050 -7.00000000
-7.11119986 13.86665058 2.46822309 46 9 33285 15.77800000 2980792052 2980792052 9.00000000
-3.90083075 7.60978651 -0.74814492 8 10 33286 8.58400000 2980792055 2980792055 -5.00000000
-3.90952277 7.63330603 -0.44946119 17 12 33288 8.58800000 2980792059 2980792059 -3.00000000
-4.37715626 8.55003262 2.21756744 59 13 33289 9.85800000 2980792062 2980792062 13.00000000
-3.90706897 7.63508224 -0.14970674 64 14 33290 8.57800000 2980792064 2980792064 -1.00000000
-3.61698580 7.06820965 2.12749267 18 15 33290 8.22000000 2980792066 2980792066 15.00000000
-0.98032731 1.92234159 -0.57820177 4 0 33298 2.23400000 2980792087 2980792087 -15.00000000
-22.36964035 43.88395691 0.85977536 82 1 33299 49.26400000 2980792089 2980792089 1.00000000
-1.14215994 2.24161506 -0.58082360 3 2 33300 2.58200000 2980792091 2980792091 -13.00000000
-17.54115677 34.44131851 2.02561092 8 3 33301 38.70400000 2980792094 2980792094 3.00000000
-1.36054707 2.67137647 -0.58273065 2 4 33301 3.05400000 2980792096 2980792096 -11.00000000
-9.47022438 18.60241127 1.82626140 18 5 33302 20.95400000 2980792098 2980792098 5.00000000
-3.89170504 7.64779806 -1.35910261 2 6 33303 8.68800000 2980792101 2980792101 -9.00000000
-9.12847710 17.94660759 2.47224140 14 7 33304 20.28600000 2980792103 2980792103 7.00000000
-3.87397552 7.61953592 -1.04953873 11 8 33305 8.61200000 2980792105 2980792105 -7.00000000
-7.05853844 13.88909912 2.46759725 46 9 33306 15.77400000 2980792108 2980792108 9.00000000
-3.87153602 7.61802816 -0.74762195 8 10 33306 8.57800000 2980792110 2980792110 -5.00000000
-4.98374748 9.81076813 2.13896894 12 11 33307 11.21000000 2980792112 2980792112 11.00000000
-3.86748147 7.61663198 -0.44768175 21 12 33308 8.55400000 2980792114 2980792114 -3.00000000
-4.34552050 8.56178474 2.21666765 57 13 33309 9.85400000 2980792117 2980792117 13.00000000
-3.86863232 7.62549067 -0.14925298 82 14 33310 8.55200000 2980792119 2980792119 -1.00000000
-3.58406520 7.06763554 2.12335134 15 15 33311 8.20400000 2980792121 2980792121 15.00000000
-0.97448277 1.92747581 -0.57871938 4 0 33318 2.23600000 2980792142 2980792142 -15.00000000
-22.17573357 43.88146210 0.85820466 94 1 33319 49.17400000 2980792144 2980792144 1.00000000
-1.13784289 2.25254607 -0.58262324 3 2 33320 2.59000000 2980792147 2980792147 -13.00000000
-17.38661957 34.43458939 2.02163339 8 3 33321 38.62800000 2980792149 2980792149 3.00000000
-1.34767449 2.66909933 -0.58120418 2 4 33321 3.04600000 2980792151 2980792151 -11.00000000
-9.47166252 18.76697922 1.83916044 19 5 33322 21.10200000 2980792154 2980792154 5.00000000
-3.87032390 7.67191792 -1.36097980 2 6 33323 8.70000000 2980792156 2980792156 -9.00000000
