# .PCD v0.7 - Point Cloud Data file format
VERSION 0.7
FIELDS x y z intensity laser_id azimuth distance_m adjustedtime timestamp vertical_angle
SIZE 4 4 4 1 1 2 8 8 4 8
TYPE F F F U U U F U U F
COUNT 1 1 1 1 1 1 1 1 1 1
WIDTH 518
HEIGHT 1
VIEWPOINT 0 0 0 1 0 0 0
POINTS 518
DATA ascii
-2.66496038 -1.54731011 -0.48807552 2 6 23986 3.12000000 2981566357 2981566357 -9.00000000
-20.66613197 -11.99419880 2.93388247 40 7 23987 24.07400000 2981566359 2981566359 7.00000000
-3.29503393 -1.91160131 -0.46773455 1 8 23988 3.83800000 2981566361 2981566361 -7.00000000
-16.47309303 -9.55295944 3.01605654 42 9 23989 19.28000000 2981566364 2981566364 9.00000000
-4.34677839 -2.52075291 -0.43961358 6 10 23989 5.04400000 2981566366 2981566366 -5.00000000
-12.43650723 -7.20919085 2.79420686 45 11 23990 14.64400000 2981566368 2981566368 11.00000000
-6.34560633 -3.67693973 -0.38435528 3 12 23991 7.34400000 2981566370 2981566370 -3.00000000
-9.45506382 -5.47650003 2.52260113 3 13 23992 11.21400000 2981566373 2981566373 13.00000000
-9.85729313 -5.70717955 -0.19881782 12 14 23993 11.39200000 2981566375 2981566375 -1.00000000
-8.04327679 -4.65689945 2.49035692 36 15 23993 9.62200000 2981566377 2981566377 15.00000000
-1.65981555 -0.95790875 -0.51349699 5 0 24001 1.98400000 2981566398 2981566398 -15.00000000
-21.46116447 -12.38062191 0.43247062 4 1 24002 24.78000000 2981566400 2981566400 1.00000000
-1.92282379 -1.10880089 -0.51243848 4 2 24003 2.27800000 2981566403 2981566403 -13.00000000
-21.45274734 -12.37077713 1.29782701 4 3 24003 24.79800000 2981566405 2981566405 3.00000000
-2.22479415 -1.28241551 -0.49915633 3 4 24004 2.61600000 2981566407 2981566407 -11.00000000
-21.44963264 -12.35900593 2.16582012 7 5 24005 24.85000000 2981566410 2981566410 5.00000000
-2.65665102 -1.53011107 -0.48557258 2 6 24006 3.10400000 2981566412 2981566412 -9.00000000
-20.65282249 -11.89029312 2.92608285 40 7 24007 24.01000000 2981566414 2981566414 7.00000000
-3.31545091 -1.90800905 -0.46968445 1 8 24008 3.85400000 2981566416 2981566416 -7.00000000
-16.51495361 -9.50419140 3.01793361 42 9 24008 19.29200000 2981566419 2981566419 9.00000000
-4.35382366 -2.50457096 -0.43943927 6 10 24009 5.04200000 2981566421 2981566421 -5.00000000
-6.34974480 -3.64979053 -0.38383189 3 12 24011 7.33400000 2981566426 2981566426 -3.00000000
-9.84767628 -5.65580606 -0.19822443 14 14 24013 11.35800000 2981566430 2981566430 -1.00000000
-8.05948257 -4.62879467 2.49035692 36 15 24013 9.62200000 2981566433 2981566433 15.00000000
-1.66650224 -0.95402867 -0.51453227 4 0 24021 1.98800000 2981566453 2981566453 -15.00000000
-21.81318855 -12.48242188 0.43868369 5 1 24022 25.13600000 2981566456 2981566456 1.00000000
-1.91991627 -1.09821188 -0.51063889 4 2 24023 2.27000000 2981566458 2981566458 -13.00000000
-22.01116180 -12.58551216 1.32880998 4 3 24024 25.39000000 2981566460 2981566460 3.00000000
-2.22584844 -1.27269268 -0.49839309 3 4 24024 2.61200000 2981566463 2981566463 -11.00000000
-22.04444504 -12.59943867 2.22142553 31 5 24025 25.48800000 2981566465 2981566465 5.00000000
-2.65511537 -1.51690865 -0.48432112 2 6 24026 3.09600000 2981566467 2981566467 -9.00000000
-20.65283012 -11.79450226 2.92023325 43 7 24027 23.96200000 2981566469 2981566469 7.00000000
-3.31519485 -1.89248776 -0.46870950 1 8 24028 3.84600000 2981566472 2981566472 -7.00000000
-16.55997086 -9.44947147 3.01981091 42 9 24029 19.30400000 2981566474 2981566474 9.00000000
-4.36773109 -2.49232030 -0.43996218 6 10 24029 5.04800000 2981566476 2981566476 -5.00000000
-10.10757732 -5.76526022 2.26184988 12 11 24030 11.85400000 2981566479 2981566479 11.00000000
-6.36071110 -3.62661433 -0.38372722 3 12 24031 7.33200000 2981566481 2981566481 -3.00000000
-10.77303028 -6.13984489 2.86272717 30 13 24032 12.72600000 2981566483 2981566483 13.00000000
-9.85345840 -5.61347771 -0.19794519 8 14 24033 11.34200000 2981566486 2981566486 -1.00000000
-8.06967926 -4.59540033 2.48828626 36 15 24034 9.61400000 2981566488 2981566488 15.00000000
-1.66998780 -0.94791418 -0.51453227 5 0 24042 1.98800000 2981566509 2981566509 -15.00000000
-22.21533775 -12.60468674 0.44583917 5 1 24043 25.54600000 2981566511 2981566511 1.00000000
-1.90697765 -1.08155382 -0.50613987 4 2 24044 2.25000000 2981566513 2981566513 -13.00000000
-22.21305275 -12.59826660 1.33833504 4 3 24044 25.57200000 2981566516 2981566516 3.00000000
-2.24416137 -1.27227199 -0.50144607 3 4 24045 2.62800000 2981566518 2981566518 -11.00000000
-22.23088264 -12.59812355 2.23554492 31 5 24046 25.65000000 2981566520 2981566520 5.00000000
-2.67440724 -1.51495600 -0.48682407 2 6 24047 3.11200000 2981566522 2981566522 -9.00000000
-20.64928055 -11.69231796 2.91365218 46 7 24048 23.90800000 2981566525 2981566525 7.00000000
-3.32901931 -1.88423550 -0.46968445 1 8 24049 3.85400000 2981566527 2981566527 -7.00000000
-16.59449387 -9.38871288 3.01981091 42 9 24050 19.30400000 2981566529 2981566529 9.00000000
-4.37336874 -2.47433281 -0.43961358 6 10 24050 5.04400000 2981566532 2981566532 -5.00000000
-10.14402008 -5.73687363 2.26528430 9 11 24051 11.87200000 2981566534 2981566534 11.00000000
-6.38091516 -3.60720849 -0.38414592 3 12 24052 7.34000000 2981566536 2981566536 -3.00000000
-9.90182495 -5.59306097 -0.19850367 8 14 24054 11.37400000 2981566541 2981566541 -1.00000000
-8.09744549 -4.57385445 2.49190974 33 15 24054 9.62800000 2981566543 2981566543 15.00000000
-1.67496979 -0.94302684 -0.51504987 4 0 24062 1.99000000 2981566564 2981566564 -15.00000000
-22.40209961 -12.60748482 0.44870138 5 1 24063 25.71000000 2981566566 2981566566 1.00000000
-1.92772567 -1.08444524 -0.51063889 4 2 24064 2.27000000 2981566568 2981566568 -13.00000000
-22.36829948 -12.58332348 1.34503412 4 3 24064 25.70000000 2981566571 2981566571 3.00000000
-2.23147607 -1.25480783 -0.49762985 3 4 24065 2.60800000 2981566573 2981566573 -11.00000000
-22.41887856 -12.60147572 2.25001264 40 5 24066 25.81600000 2981566575 2981566575 5.00000000
-2.68312359 -1.50754654 -0.48744980 2 6 24067 3.11600000 2981566578 2981566578 -9.00000000
-20.64842987 -11.59683800 2.90780258 46 7 24068 23.86000000 2981566580 2981566580 7.00000000
-3.33903813 -1.87454712 -0.47017193 1 8 24069 3.85800000 2981566582 2981566582 -7.00000000
-16.63061142 -9.33266354 3.02043676 42 9 24070 19.30800000 2981566585 2981566585 9.00000000
-4.38024139 -2.45807695 -0.43943927 9 10 24070 5.04200000 2981566587 2981566587 -5.00000000
-10.10063076 -5.66589165 2.25116444 12 11 24071 11.79800000 2981566589 2981566589 11.00000000
-6.40217829 -3.58979702 -0.38466927 3 12 24072 7.35000000 2981566592 2981566592 -3.00000000
-11.72690296 -6.57007027 -0.23463015 2 14 24074 13.44400000 2981566596 2981566596 -1.00000000
-8.12010384 -4.54933834 2.49398041 31 15 24074 9.63600000 2981566598 2981566598 15.00000000
-1.67286515 -0.93493271 -0.51349699 4 0 24080 1.98400000 2981566619 2981566619 -15.00000000
-22.54285049 -12.59361076 0.45072585 10 1 24081 25.82600000 2981566621 2981566621 1.00000000
-1.93112314 -1.07838380 -0.51063889 4 2 24082 2.27000000 2981566624 2981566624 -13.00000000
-22.56337357 -12.59474373 1.35424519 4 3 24083 25.87600000 2981566626 2981566626 3.00000000
-2.24226427 -1.25161886 -0.49915633 3 4 24083 2.61600000 2981566628 2981566628 -11.00000000
-22.57318878 -12.59505558 2.26151729 32 5 24084 25.94800000 2981566631 2981566631 5.00000000
-2.68439603 -1.49718547 -0.48682407 2 6 24085 3.11200000 2981566633 2981566633 -9.00000000
-20.64834976 -11.51161194 2.90268397 40 7 24086 23.81800000 2981566635 2981566635 7.00000000
-3.32757044 -1.85438478 -0.46773455 1 8 24087 3.83800000 2981566638 2981566638 -7.00000000
-16.65132523 -9.27943230 3.01918507 46 9 24087 19.30000000 2981566640 2981566640 9.00000000
-4.40012598 -2.45109081 -0.44065943 6 10 24088 5.05600000 2981566642 2981566642 -5.00000000
-10.09779739 -5.62267065 2.24658513 12 11 24089 11.77400000 2981566645 2981566645 11.00000000
-6.40120840 -3.56286693 -0.38393658 3 12 24090 7.33600000 2981566647 2981566647 -3.00000000
-9.54316616 -5.30947638 2.52125144 44 13 24091 11.20800000 2981566649 2981566649 13.00000000
-11.75447655 -6.53708458 -0.23476978 2 14 24092 13.45200000 2981566651 2981566651 -1.00000000
-8.14696407 -4.52895641 2.49760389 36 15 24093 9.65000000 2981566654 2981566654 15.00000000
-1.67780805 -0.93002421 -0.51401460 5 0 24100 1.98600000 2981566674 2981566674 -15.00000000
-22.73534966 -12.59722328 0.45369276 5 1 24101 25.99600000 2981566677 2981566677 1.00000000
-1.93317091 -1.07069218 -0.51018900 4 2 24102 2.26800000 2981566679 2981566679 -13.00000000
-22.75352478 -12.60210419 1.36314237 12 3 24102 26.04600000 2981566681 2981566681 3.00000000
-2.24490190 -1.24283338 -0.49877471 3 4 24103 2.61400000 2981566684 2981566684 -11.00000000
-22.75124741 -12.59046650 2.27493930 32 5 24104 26.10200000 2981566686 2981566686 5.00000000
-2.67577744 -1.48015666 -0.48432112 2 6 24105 3.09600000 2981566688 2981566688 -9.00000000
-20.64671326 -11.41641235 2.89683437 31 7 24106 23.77000000 2981566691 2981566691 7.00000000
-3.33923531 -1.84563887 -0.46846575 1 8 24107 3.84400000 2981566693 2981566693 -7.00000000
-16.68868256 -9.22025013 3.01981091 42 9 24108 19.30400000 2981566695 2981566695 9.00000000
-4.38947201 -2.42511821 -0.43874201 6 10 24108 5.03400000 2981566698 2981566698 -5.00000000
-10.09330177 -5.57410097 2.24124241 12 11 24109 11.74600000 2981566700 2981566700 11.00000000
-6.39961767 -3.53277874 -0.38309920 3 12 24110 7.32000000 2981566702 2981566702 -3.00000000
-9.57187843 -5.28178120 2.52395082 45 13 24111 11.22000000 2981566704 2981566704 13.00000000
-11.79473305 -6.50567198 -0.23511882 2 14 24112 13.47200000 2981566707 2981566707 -1.00000000
-8.18640804 -4.51354933 2.50485063 40 15 24113 9.67800000 2981566709 2981566709 15.00000000
-1.68475318 -0.92543519 -0.51504987 4 0 24122 1.99000000 2981566730 2981566730 -15.00000000
-22.92553329 -12.58779144 0.45652005 5 1 24123 26.15800000 2981566732 2981566732 1.00000000
-1.93897605 -1.06419909 -0.51063889 4 2 24124 2.27000000 2981566734 2981566734 -13.00000000
-22.91555405 -12.57710743 1.36994600 12 3 24124 26.17600000 2981566737 2981566737 3.00000000
-2.25310016 -1.23609304 -0.49953794 3 4 24125 2.61800000 2981566739 2981566739 -11.00000000
-22.93743134 -12.57869816 2.28870988 32 5 24126 26.26000000 2981566741 2981566741 5.00000000
-2.68836999 -1.47366965 -0.48557258 2 6 24127 3.10400000 2981566744 2981566744 -9.00000000
-3.36370802 -1.84233952 -0.47090313 1 8 24129 3.86400000 2981566748 2981566748 -7.00000000
-16.72236443 -9.15902138 3.01981091 42 9 24129 19.30400000 2981566751 2981566751 9.00000000
-4.40923691 -2.41398668 -0.43978786 6 10 24130 5.04600000 2981566753 2981566753 -5.00000000
-10.08363056 -5.51833916 2.23437333 12 11 24131 11.71000000 2981566755 2981566755 11.00000000
-6.43416214 -3.51968241 -0.38435528 3 12 24132 7.34400000 2981566757 2981566757 -3.00000000
-9.59208870 -5.24498892 2.52395082 47 13 24133 11.22000000 2981566760 2981566760 13.00000000
-11.86173916 -6.48335314 -0.23595653 4 14 24134 13.52000000 2981566762 2981566762 -1.00000000
-8.23928070 -4.50153351 2.51572108 38 15 24135 9.72000000 2981566764 2981566764 15.00000000
-1.69136620 -0.92139703 -0.51608515 4 0 24142 1.99400000 2981566785 2981566785 -15.00000000
-23.09402275 -12.57558823 0.45899829 5 1 24143 26.30000000 2981566787 2981566787 1.00000000
-1.93583262 -1.05369771 -0.50883931 4 2 24144 2.26200000 2981566790 2981566790 -13.00000000
-23.09614563 -12.57151794 1.37811041 17 3 24144 26.33200000 2981566792 2981566792 3.00000000
-2.26085019 -1.23009729 -0.50030118 3 4 24145 2.62200000 2981566794 2981566794 -11.00000000
-23.12122154 -12.57470703 2.30265474 32 5 24146 26.42000000 2981566797 2981566797 5.00000000
-2.70911717 -1.47276783 -0.48838839 2 6 24147 3.12200000 2981566799 2981566799 -9.00000000
-20.64263535 -11.21736813 2.88464737 11 7 24148 23.67000000 2981566801 2981566801 7.00000000
-3.35441923 -1.82205915 -0.46870950 3 8 24149 3.84600000 2981566804 2981566804 -7.00000000
-16.74729156 -9.09682178 3.01855946 42 9 24149 19.29600000 2981566806 2981566806 9.00000000
-4.42814207 -2.40428495 -0.44083375 6 10 24150 5.05800000 2981566808 2981566808 -5.00000000
-10.09593010 -5.47936153 2.23284698 25 11 24151 11.70200000 2981566810 2981566810 11.00000000
-6.40954208 -3.47720122 -0.38215715 3 12 24152 7.30200000 2981566813 2981566813 -3.00000000
-9.60006046 -5.20590067 2.52125144 46 13 24153 11.20800000 2981566815 2981566815 13.00000000
-11.88078213 -6.44000292 -0.23588672 4 14 24154 13.51600000 2981566817 2981566817 -1.00000000
-8.30250263 -4.49851465 2.53021502 38 15 24155 9.77600000 2981566820 2981566820 15.00000000
-1.69425249 -0.91607893 -0.51608515 4 0 24160 1.99400000 2981566840 2981566840 -15.00000000
-23.28646660 -12.58569336 0.46203500 5 1 24161 26.47400000 2981566843 2981566843 1.00000000
-1.93741882 -1.04668462 -0.50838935 4 2 24162 2.26000000 2981566845 2981566845 -13.00000000
-23.27610397 -12.57484436 1.38648415 21 3 24162 26.49200000 2981566847 2981566847 3.00000000
-2.25433874 -1.21739137 -0.49801147 3 4 24163 2.61000000 2981566850 2981566850 -11.00000000
-23.29386139 -12.57393456 2.31590247 33 5 24164 26.57200000 2981566852 2981566852 5.00000000
-2.71025372 -1.46237350 -0.48776266 2 6 24165 3.11800000 2981566854 2981566854 -9.00000000
-20.64282990 -11.13361549 2.87977266 8 7 24166 23.63000000 2981566856 2981566856 7.00000000
-3.33915877 -1.80020761 -0.46578464 1 8 24167 3.82200000 2981566859 2981566859 -7.00000000
-16.77230835 -9.04228878 3.01793361 46 9 24167 19.29200000 2981566861 2981566861 9.00000000
-4.45145893 -2.39886832 -0.44240254 3 10 24168 5.07600000 2981566863 2981566863 -5.00000000
-10.12692165 -5.45506525 2.23589993 12 11 24169 11.71800000 2981566866 2981566866 11.00000000
-6.42219305 -3.45799470 -0.38226181 3 12 24170 7.30400000 2981566868 2981566868 -3.00000000
-9.61293507 -5.17386866 2.52035165 46 13 24171 11.20400000 2981566870 2981566870 13.00000000
-11.88334465 -6.39317226 -0.23553768 4 14 24172 13.49600000 2981566873 2981566873 -1.00000000
-8.37365723 -4.50498009 2.54781461 36 15 24172 9.84400000 2981566875 2981566875 15.00000000
-1.69233227 -0.90742058 -0.51453227 5 0 24180 1.98800000 2981566896 2981566896 -15.00000000
-23.47302055 -12.58084869 0.46486229 5 1 24181 26.63600000 2981566898 2981566898 1.00000000
-1.94449615 -1.04175591 -0.50928921 4 2 24182 2.26400000 2981566900 2981566900 -13.00000000
-23.47302246 -12.57557678 1.39559066 25 3 24182 26.66600000 2981566903 2981566903 3.00000000
-2.26549721 -1.21322215 -0.49953794 3 4 24183 2.61800000 2981566905 2981566905 -11.00000000
-23.47989082 -12.56871033 2.33002162 33 5 24184 26.73400000 2981566907 2981566907 5.00000000
-2.71534181 -1.45290411 -0.48776266 2 6 24185 3.11800000 2981566909 2981566909 -9.00000000
-16.98111534 -9.08231258 2.36450911 6 7 24186 19.40200000 2981566912 2981566912 7.00000000
-3.37693334 -1.80538738 -0.47017193 1 8 24187 3.85800000 2981566914 2981566914 -7.00000000
-16.79505920 -8.97903061 3.01636934 46 9 24187 19.28200000 2981566916 2981566916 9.00000000
-4.43871880 -2.37204671 -0.44031081 3 10 24188 5.05200000 2981566919 2981566919 -5.00000000
-11.66804600 -6.23277378 2.57134199 12 11 24189 13.47600000 2981566921 2981566921 11.00000000
-6.43951035 -3.43837810 -0.38257584 3 12 24190 7.31000000 2981566923 2981566923 -3.00000000
-9.63781357 -5.14395189 2.52215123 45 13 24191 11.21200000 2981566926 2981566926 13.00000000
-11.93734646 -6.36859560 -0.23616597 4 14 24192 13.53200000 2981566928 2981566928 -1.00000000
-8.42590904 -4.49334860 2.55868506 24 15 24193 9.88600000 2981566930 2981566930 15.00000000
-1.70076442 -0.90393174 -0.51608515 5 0 24201 1.99400000 2981566951 2981566951 -15.00000000
-23.64788818 -12.56321812 0.46741036 5 1 24202 26.78200000 2981566953 2981566953 1.00000000
-1.96034908 -1.04101980 -0.51243848 4 2 24203 2.27800000 2981566956 2981566956 -13.00000000
-23.67637825 -12.56775951 1.40480173 29 3 24204 26.84200000 2981566958 2981566958 3.00000000
-2.26992869 -1.20491052 -0.49953794 3 4 24204 2.61800000 2981566960 2981566960 -11.00000000
-23.66835976 -12.55820847 2.34414077 33 5 24205 26.89600000 2981566962 2981566962 5.00000000
-2.72064877 -1.44294214 -0.48776266 2 6 24206 3.11800000 2981566965 2981566965 -9.00000000
-16.98973656 -9.00699520 2.36109662 9 7 24207 19.37400000 2981566967 2981566967 7.00000000
-3.39405203 -1.79857516 -0.47163436 3 8 24208 3.87000000 2981566969 2981566969 -7.00000000
-16.81738472 -8.91186428 3.01449203 42 9 24208 19.27000000 2981566972 2981566972 9.00000000
-4.42449474 -2.34363818 -0.43804476 6 10 24209 5.02600000 2981566974 2981566974 -5.00000000
-11.78797531 -6.24141169 2.59271264 34 11 24210 13.58800000 2981566976 2981566976 11.00000000
-6.42559004 -3.40073919 -0.38100576 15 12 24211 7.28000000 2981566979 2981566979 -3.00000000
-9.66004753 -5.11041546 2.52305102 47 13 24212 11.21600000 2981566981 2981566981 13.00000000
-11.97121525 -6.33040905 -0.23637539 4 14 24213 13.54400000 2981566983 2981566983 -1.00000000
-8.45178890 -4.46932745 2.56179094 9 15 24213 9.89800000 2981566986 2981566986 15.00000000
-1.69194603 -0.89168459 -0.51246172 4 0 24221 1.98000000 2981567006 2981567006 -15.00000000
-23.85436630 -12.56634045 0.47062159 5 1 24222 26.96600000 2981567009 2981567009 1.00000000
-1.95190096 -1.02781487 -0.50928921 4 2 24223 2.26400000 2981567011 2981567011 -13.00000000
-23.86856461 -12.56317902 1.41359413 39 3 24224 27.01000000 2981567013 2981567013 3.00000000
-2.27412081 -1.19697964 -0.49953794 3 4 24224 2.61800000 2981567015 2981567015 -11.00000000
-23.86721611 -12.55714989 2.35948038 33 5 24225 27.07200000 2981567018 2981567018 5.00000000
-2.71867561 -1.42975867 -0.48651120 2 6 24226 3.11000000 2981567020 2981567020 -9.00000000
-16.98768806 -8.93008518 2.35646558 4 7 24227 19.33600000 2981567022 2981567022 7.00000000
-3.37746501 -1.77471292 -0.46846575 1 8 24228 3.84400000 2981567025 2981567025 -7.00000000
-16.85692978 -8.85383987 3.01574373 42 9 24229 19.27800000 2981567027 2981567027 9.00000000
-4.45205116 -2.33837056 -0.43996218 3 10 24229 5.04800000 2981567029 2981567029 -5.00000000
-12.40764904 -6.51416159 2.72398925 45 11 24230 14.27600000 2981567032 2981567032 11.00000000
-6.40028286 -3.35879874 -0.37880766 22 12 24231 7.23800000 2981567034 2981567034 -3.00000000
-9.67782784 -5.07666445 2.52305102 45 13 24232 11.21600000 2981567036 2981567036 13.00000000
-12.00740719 -6.29601192 -0.23665462 4 14 24233 13.56000000 2981567039 2981567039 -1.00000000
-8.11563206 -4.25357723 2.45515752 4 15 24234 9.48600000 2981567041 2981567041 15.00000000
-1.71045792 -0.89382565 -0.51712048 4 0 24241 1.99800000 2981567062 2981567062 -15.00000000
-24.03988266 -12.55706310 0.47341397 5 1 24242 27.12600000 2981567064 2981567064 1.00000000
-1.94683945 -1.01648545 -0.50703967 4 2 24243 2.25400000 2981567066 2981567066 -13.00000000
-24.05569267 -12.55463696 1.42207265 35 3 24244 27.17200000 2981567068 2981567068 3.00000000
-2.27828526 -1.18903422 -0.49953794 3 4 24244 2.61800000 2981567071 2981567071 -11.00000000
-24.06811905 -12.55577755 2.37499404 34 5 24245 27.25000000 2981567073 2981567073 5.00000000
-2.73415899 -1.42574012 -0.48838839 2 6 24246 3.12200000 2981567075 2981567075 -9.00000000
-6.50437593 -3.39029336 0.90061444 22 7 24247 7.39000000 2981567078 2981567078 7.00000000
-3.39244175 -1.76749873 -0.46968445 3 8 24248 3.85400000 2981567080 2981567080 -7.00000000
-16.89846039 -8.80428028 3.01793361 46 9 24248 19.29200000 2981567082 2981567082 9.00000000
-4.48669338 -2.33662009 -0.44257686 3 10 24249 5.07800000 2981567085 2981567085 -5.00000000
-12.40593243 -6.45811939 2.71864653 48 11 24250 14.24800000 2981567087 2981567087 11.00000000
-6.39425087 -3.32721782 -0.37776095 30 12 24251 7.21800000 2981567089 2981567089 -3.00000000
-9.69203186 -5.04105330 2.52215123 46 13 24252 11.21200000 2981567092 2981567092 13.00000000
-12.03995705 -6.25959444 -0.23686406 4 14 24253 13.57200000 2981567094 2981567094 -1.00000000
-8.13140678 -4.22753239 2.45567513 2 15 24253 9.48800000 2981567096 2981567096 15.00000000
-1.71185219 -0.88696086 -0.51660281 5 0 24261 1.99600000 2981567117 2981567117 -15.00000000
-24.23805237 -12.55308056 0.47645068 5 1 24262 27.30000000 2981567119 2981567119 1.00000000
-1.95729816 -1.01326716 -0.50883931 4 2 24263 2.26200000 2981567121 2981567121 -13.00000000
-2.27719092 -1.17836750 -0.49839309 3 4 24264 2.61200000 2981567126 2981567126 -11.00000000
-24.20913315 -12.52203178 2.38458109 17 5 24265 27.36000000 2981567128 2981567128 5.00000000
-2.73560977 -1.41437292 -0.48776266 2 6 24266 3.11800000 2981567131 2981567131 -9.00000000
-6.49853516 -3.35845447 0.89817709 55 7 24267 7.37000000 2981567133 2981567133 7.00000000
-3.39859080 -1.75564611 -0.46968445 3 8 24268 3.85400000 2981567135 2981567135 -7.00000000
-16.91833115 -8.73594093 3.01574373 42 9 24269 19.27800000 2981567138 2981567138 9.00000000
-4.45587540 -2.30083370 -0.43874201 3 10 24269 5.03400000 2981567140 2981567140 -5.00000000
-12.37955189 -6.38956308 2.70796132 42 11 24270 14.19200000 2981567142 2981567142 11.00000000
-6.41292572 -3.30854058 -0.37817961 37 12 24271 7.22600000 2981567144 2981567144 -3.00000000
-9.70264149 -5.00361824 2.52035165 46 13 24272 11.20400000 2981567147 2981567147 13.00000000
-6.54277039 -3.37263846 -0.12848462 2 14 24273 7.36200000 2981567149 2981567149 -1.00000000
-8.15715027 -4.20301008 2.45878100 2 15 24274 9.50000000 2981567151 2981567151 15.00000000
-1.70978272 -0.87833178 -0.51504987 5 0 24281 1.99000000 2981567172 2981567172 -15.00000000
-1.95908952 -1.00553894 -0.50838935 4 2 24283 2.26000000 2981567177 2981567177 -13.00000000
-6.44884872 -3.30856872 0.37985438 27 3 24284 7.25800000 2981567179 2981567179 3.00000000
-2.28653073 -1.17309988 -0.49953794 3 4 24284 2.61800000 2981567181 2981567181 -11.00000000
-6.49752378 -3.33210921 0.63885158 20 5 24285 7.33000000 2981567184 2981567184 5.00000000
-2.73349857 -1.40121090 -0.48651120 2 6 24286 3.11000000 2981567186 2981567186 -9.00000000
-6.48018551 -3.32036114 0.89403349 50 7 24287 7.33600000 2981567188 2981567188 7.00000000
-3.39056373 -1.73653281 -0.46773455 3 8 24288 3.83800000 2981567191 2981567191 -7.00000000
-16.93314171 -8.67258644 3.01324058 42 9 24288 19.26200000 2981567193 2981567193 9.00000000
-4.46210623 -2.28435779 -0.43856770 6 10 24289 5.03200000 2981567195 2981567195 -5.00000000
-12.40352726 -6.34720564 2.70834279 52 11 24290 14.19400000 2981567197 2981567197 11.00000000
-6.44932985 -3.29886842 -0.37964502 38 12 24291 7.25400000 2981567200 2981567200 -3.00000000
-9.72351837 -4.97149372 2.52125144 46 13 24292 11.20800000 2981567202 2981567202 13.00000000
-6.53847742 -3.34158921 -0.12817048 30 14 24293 7.34400000 2981567204 2981567204 -1.00000000
-8.14007950 -4.16011238 2.44946337 2 15 24293 9.46400000 2981567207 2981567207 15.00000000
-1.70767391 -0.86972791 -0.51349699 5 0 24301 1.98400000 2981567227 2981567227 -15.00000000
-6.49203873 -3.30500507 0.12715824 27 1 24302 7.28600000 2981567230 2981567230 1.00000000
-1.96779799 -1.00134563 -0.50973910 4 2 24303 2.26600000 2981567232 2981567232 -13.00000000
-6.43899584 -3.27517200 0.37859830 42 3 24304 7.23400000 2981567234 2981567234 3.00000000
-2.28711176 -1.16333115 -0.49877471 3 4 24304 2.61400000 2981567237 2981567237 -11.00000000
-6.46471500 -3.28683376 0.63449383 37 5 24305 7.28000000 2981567239 2981567239 5.00000000
-6.46819592 -3.28718305 -1.14916754 6 6 24306 7.34600000 2981567241 2981567241 -9.00000000
-6.47580767 -3.28962922 0.89183986 47 7 24307 7.31800000 2981567244 2981567244 7.00000000
-6.52240133 -3.31186628 -0.89817709 6 8 24308 7.37000000 2981567246 2981567246 -7.00000000
-4.47182941 -2.26967001 -0.43874201 6 10 24309 5.03400000 2981567250 2981567250 -5.00000000
-12.41510296 -6.29854107 2.70605326 52 11 24310 14.18200000 2981567253 2981567253 11.00000000
-6.49999428 -3.29620910 -0.38194782 38 12 24311 7.29800000 2981567255 2981567255 -3.00000000
-9.75124168 -4.94280815 2.52395082 45 13 24312 11.22000000 2981567257 2981567257 13.00000000
-6.53048038 -3.30880356 -0.12778652 44 14 24313 7.32200000 2981567260 2981567260 -1.00000000
-8.85326195 -4.48374701 2.65910697 14 15 24314 10.27400000 2981567262 2981567262 15.00000000
-1.70912552 -0.86259270 -0.51297933 4 0 24322 1.98200000 2981567283 2981567283 -15.00000000
-6.47554255 -3.26677752 0.12659976 51 1 24323 7.25400000 2981567285 2981567285 1.00000000
-1.97667503 -0.99675888 -0.51108879 4 2 24324 2.27200000 2981567287 2981567287 -13.00000000
-6.44560623 -3.24885297 0.37828431 50 3 24325 7.22800000 2981567290 2981567290 3.00000000
-2.29837275 -1.15847528 -0.50030118 3 4 24325 2.62200000 2981567292 2981567292 -11.00000000
-6.43223572 -3.24070597 0.63013601 47 5 24326 7.23000000 2981567294 2981567294 5.00000000
-6.45550060 -3.25101471 -1.14478743 6 6 24327 7.31800000 2981567297 2981567297 -9.00000000
-6.45590544 -3.24980617 0.88745254 45 7 24328 7.28200000 2981567299 2981567299 7.00000000
-6.50789690 -3.27455449 -0.89452100 9 8 24329 7.34000000 2981567301 2981567301 -7.00000000
-6.33664274 -3.18838525 1.12351239 2 9 24329 7.18200000 2981567303 2981567303 9.00000000
-4.48367834 -2.25505519 -0.43909064 9 10 24330 5.03800000 2981567306 2981567306 -5.00000000
-12.39951515 -6.23359537 2.69765759 58 11 24331 14.13800000 2981567308 2981567308 11.00000000
-6.54237032 -3.28760862 -0.38372722 27 12 24332 7.33200000 2981567310 2981567310 -3.00000000
-9.77277565 -4.90878439 2.52485061 50 13 24333 11.22400000 2981567313 2981567313 13.00000000
-6.54792500 -3.28753757 -0.12789123 51 14 24334 7.32800000 2981567315 2981567315 -1.00000000
-8.92237949 -4.47968721 2.67515373 28 15 24334 10.33600000 2981567317 2981567317 15.00000000
-1.72594750 -0.86353672 -0.51712048 4 0 24342 1.99800000 2981567338 2981567338 -15.00000000
-6.47080994 -3.23610353 0.12628561 57 1 24343 7.23600000 2981567340 2981567340 1.00000000
-1.97142684 -0.98549616 -0.50883931 4 2 24344 2.26200000 2981567343 2981567343 -13.00000000
-6.43189478 -3.21383548 0.37681890 57 3 24345 7.20000000 2981567345 2981567345 3.00000000
-2.29537773 -1.14693522 -0.49877471 3 4 24345 2.61400000 2981567347 2981567347 -11.00000000
-6.43281412 -3.21289206 0.62909013 43 5 24346 7.21800000 2981567350 2981567350 5.00000000
-6.45620537 -3.22316718 -1.14291024 6 6 24347 7.30600000 2981567352 2981567352 -9.00000000
-6.44944763 -3.21838737 0.88501519 45 7 24348 7.26200000 2981567354 2981567354 7.00000000
-6.51751137 -3.25093174 -0.89427722 9 8 24349 7.33800000 2981567356 2981567356 -7.00000000
-6.33237600 -3.15720606 1.12069654 7 9 24350 7.16400000 2981567359 2981567359 9.00000000
-4.50578690 -2.24650240 -0.44048512 9 10 24350 5.05400000 2981567361 2981567361 -5.00000000
-12.40011311 -6.17976665 2.69307828 55 11 24351 14.11400000 2981567363 2981567363 11.00000000
-6.58240986 -3.27900004 -0.38540199 19 12 24352 7.36400000 2981567366 2981567366 -3.00000000
-9.78636169 -4.87290382 2.52395082 48 13 24353 11.22000000 2981567368 2981567368 13.00000000
-6.56652164 -3.26822519 -0.12803085 48 14 24354 7.33600000 2981567370 2981567370 -1.00000000
-8.98889732 -4.47190905 2.69016504 40 15 24355 10.39400000 2981567373 2981567373 15.00000000
-1.73384297 -0.86068714 -0.51867336 4 0 24360 2.00400000 2981567393 2981567393 -15.00000000
-6.48452711 -3.21753669 0.12635542 51 1 24361 7.24000000 2981567396 2981567396 1.00000000
-1.97625899 -0.98016381 -0.50928921 4 2 24362 2.26400000 2981567398 2981567398 -13.00000000
-6.40974951 -3.17764521 0.37493479 50 3 24363 7.16400000 2981567400 2981567400 3.00000000
-2.30248761 -1.14146256 -0.49953794 3 4 24363 2.61800000 2981567403 2981567403 -11.00000000
-6.41966772 -3.18116665 0.62682408 57 5 24364 7.19200000 2981567405 2981567405 5.00000000
-6.46275902 -3.20111489 -1.14228451 6 6 24365 7.30200000 2981567407 2981567407 -9.00000000
-6.44707394 -3.19194460 0.88330901 52 7 24366 7.24800000 2981567409 2981567409 7.00000000
-6.53836727 -3.23572326 -0.89573967 9 8 24367 7.35000000 2981567412 2981567412 -7.00000000
-6.30453634 -3.12000442 1.11412621 2 9 24367 7.12200000 2981567414 2981567414 9.00000000
-4.51282215 -2.23233604 -0.44048512 9 10 24368 5.05400000 2981567416 2981567416 -5.00000000
-12.40186787 -6.13207817 2.68926191 52 11 24369 14.09400000 2981567419 2981567419 11.00000000
-6.59088802 -3.25741982 -0.38529730 11 12 24370 7.36200000 2981567421 2981567421 -3.00000000
-9.79812813 -4.84040880 2.52305102 47 13 24371 11.21600000 2981567423 2981567423 13.00000000
-6.58213568 -3.25023580 -0.12813556 38 14 24372 7.34200000 2981567426 2981567426 -1.00000000
-9.08527088 -4.48627520 2.71501184 45 15 24372 10.49000000 2981567428 2981567428 15.00000000
-1.71603632 -0.84439456 -0.51246172 4 0 24380 1.98000000 2981567449 2981567449 -15.00000000
-6.50648546 -3.20017719 0.12656485 48 1 24381 7.25200000 2981567451 2981567451 1.00000000
-1.97617066 -0.97153986 -0.50838935 4 2 24382 2.26000000 2981567453 2981567453 -13.00000000
-6.41542530 -3.15260911 0.37462077 52 3 24383 7.15800000 2981567456 2981567456 3.00000000
-2.30293393 -1.13168669 -0.49877471 3 4 24383 2.61400000 2981567458 2981567458 -11.00000000
-6.41821480 -3.15258956 0.62560391 67 5 24384 7.17800000 2981567460 2981567460 5.00000000
-6.46680069 -3.17505383 -1.14103293 6 6 24385 7.29400000 2981567462 2981567462 -9.00000000
-6.45817661 -3.16942072 0.88330901 52 7 24386 7.24800000 2981567465 2981567465 7.00000000
-6.55675125 -3.21637726 -0.89671463 6 8 24387 7.35800000 2981567467 2981567467 -7.00000000
-6.31006861 -3.09536862 1.11318767 10 9 24387 7.11600000 2981567469 2981567469 9.00000000
-4.50985336 -2.21130681 -0.43943927 9 10 24388 5.04200000 2981567472 2981567472 -5.00000000
-12.40556812 -6.08011007 2.68544579 52 11 24389 14.07400000 2981567474 2981567474 11.00000000
-6.59325075 -3.23000002 -0.38477394 3 12 24390 7.35200000 2981567476 2981567476 -3.00000000
-9.81846523 -4.80789137 2.52395082 47 13 24391 11.22000000 2981567479 2981567479 13.00000000
-9.14425468 -4.47576666 2.72795272 45 15 24392 10.54000000 2981567483 2981567483 15.00000000
-1.71897340 -0.83839935 -0.51246172 5 0 24400 1.98000000 2981567504 2981567504 -15.00000000
-6.52840137 -3.18270373 0.12677428 48 1 24401 7.26400000 2981567506 2981567506 1.00000000
-1.99006081 -0.96975774 -0.51108879 4 2 24402 2.27200000 2981567509 2981567509 -13.00000000
-6.42459488 -3.12932134 0.37451610 52 3 24403 7.15600000 2981567511 2981567511 3.00000000
-6.46523809 -3.14911795 -1.39786673 4 4 24403 7.32600000 2981567513 2981567513 -11.00000000
-6.41126680 -3.12144494 0.62386084 64 5 24404 7.15800000 2981567515 2981567515 5.00000000
-6.46363497 -3.14554596 -1.13853002 6 6 24405 7.27800000 2981567518 2981567518 -9.00000000
-6.47455549 -3.14946318 0.88404024 67 7 24406 7.25400000 2981567520 2981567520 7.00000000
-6.58936119 -3.20388675 -0.89963949 6 8 24407 7.38200000 2981567522 2981567522 -7.00000000
-6.32314777 -3.07308364 1.11350048 10 9 24408 7.11800000 2981567525 2981567525 9.00000000
-4.51037693 -2.19206738 -0.43874201 9 10 24408 5.03400000 2981567527 2981567527 -5.00000000
-12.40199280 -6.02475929 2.68010306 55 11 24409 14.04600000 2981567529 2981567529 11.00000000
-6.59370518 -3.20173120 -0.38414592 3 12 24410 7.34000000 2981567532 2981567532 -3.00000000
-9.83168125 -4.77188778 2.52305102 46 13 24411 11.21600000 2981567534 2981567534 13.00000000
-12.25578499 -5.94580364 -0.23777159 2 14 24412 13.62400000 2981567536 2981567536 -1.00000000
-9.22239399 -4.47417641 2.74658775 45 15 24412 10.61200000 2981567538 2981567538 15.00000000
-1.72536802 -0.83407551 -0.51349699 5 0 24420 1.98400000 2981567559 2981567559 -15.00000000
-6.55207491 -3.16598606 0.12701862 24 1 24421 7.27800000 2981567562 2981567562 1.00000000
-1.98641467 -0.95941508 -0.50928921 4 2 24422 2.26400000 2981567564 2981567564 -13.00000000
-6.42648602 -3.10253453 0.37399274 47 3 24423 7.14600000 2981567566 2981567566 3.00000000
-6.48326302 -3.12994504 -1.39939320 4 4 24423 7.33400000 2981567568 2981567568 -11.00000000
-6.41853476 -3.09731460 0.62351221 64 5 24424 7.15400000 2981567571 2981567571 5.00000000
-6.45678329 -3.11438251 -1.13540137 6 6 24425 7.25800000 2981567573 2981567573 -9.00000000
-6.46226454 -3.11563611 0.88087159 50 7 24426 7.22800000 2981567575 2981567575 7.00000000
-3.44063163 -1.65808356 -0.46895322 3 8 24427 3.84800000 2981567578 2981567578 -7.00000000
-6.36587048 -3.06642365 1.11913216 5 9 24428 7.15400000 2981567580 2981567580 9.00000000
-4.52518129 -2.17976856 -0.43943927 9 10 24428 5.04200000 2981567582 2981567582 -5.00000000
-12.39641476 -5.96865654 2.67437887 52 11 24429 14.01600000 2981567585 2981567585 11.00000000
-6.61204004 -3.18215990 -0.38456461 3 12 24430 7.34800000 2981567587 2981567587 -3.00000000
-9.85881519 -4.74260807 2.52575040 46 13 24431 11.22800000 2981567589 2981567589 13.00000000
-12.27105808 -5.90038681 -0.23766688 2 14 24432 13.61800000 2981567591 2981567591 -1.00000000
-9.29967213 -4.46963406 2.76470494 42 15 24433 10.68200000 2981567594 2981567594 15.00000000
-1.73001122 -0.82888252 -0.51401460 4 0 24440 1.98600000 2981567615 2981567615 -15.00000000
-6.52160454 -3.12322998 0.12621580 24 1 24441 7.23200000 2981567617 2981567617 1.00000000
-1.97920513 -0.94742692 -0.50658977 4 2 24442 2.25200000 2981567619 2981567619 -13.00000000
-6.43547535 -3.07922101 0.37388808 52 3 24443 7.14400000 2981567621 2981567621 3.00000000
-6.49414921 -3.10729504 -1.39939320 4 4 24443 7.33400000 2981567624 2981567624 -11.00000000
-6.44188929 -3.08090830 0.62473238 67 5 24444 7.16800000 2981567626 2981567626 5.00000000
-6.45870399 -3.08756518 -1.13383698 6 6 24445 7.24800000 2981567628 2981567628 -9.00000000
-6.46235371 -3.08792448 0.87940919 52 7 24446 7.21600000 2981567631 2981567631 7.00000000
-6.56499481 -3.13556242 -0.89330226 6 8 24447 7.33000000 2981567633 2981567633 -7.00000000
-6.39792728 -3.05439663 1.12288654 2 9 24448 7.17800000 2981567635 2981567635 9.00000000
-4.53635883 -2.16567612 -0.43978786 9 10 24448 5.04600000 2981567638 2981567638 -5.00000000
-12.40477085 -5.91942978 2.67170763 52 11 24449 14.00200000 2981567640 2981567640 11.00000000
-6.60868597 -3.15218139 -0.38372722 3 12 24450 7.33200000 2981567642 2981567642 -3.00000000
-9.86827374 -4.70481110 2.52395082 47 13 24451 11.22000000 2981567644 2981567644 13.00000000
-12.31324196 -5.86784029 -0.23808573 2 14 24452 13.64200000 2981567647 2981567647 -1.00000000
-9.38594437 -4.47284508 2.78592825 45 15 24452 10.76400000 2981567649 2981567649 15.00000000
-1.73987448 -0.82615310 -0.51608515 5 0 24460 1.99400000 2981567670 2981567670 -15.00000000
-6.53608036 -3.10216117 0.12628561 45 1 24461 7.23600000 2981567672 2981567672 1.00000000
-1.98602152 -0.94218296 -0.50748956 4 2 24462 2.25600000 2981567674 2981567674 -13.00000000
-6.44798899 -3.05759406 0.37399274 55 3 24463 7.14600000 2981567677 2981567677 3.00000000
-6.48189497 -3.07367206 -1.39443219 5 4 24463 7.30800000 2981567679 2981567679 -11.00000000
-6.44540262 -3.05498981 0.62403512 67 5 24464 7.16000000 2981567681 2981567681 5.00000000
-6.48907900 -3.07430458 -1.13727856 6 6 24465 7.27000000 2981567684 2981567684 -9.00000000
-6.48206377 -3.06959581 0.88062787 67 7 24466 7.22600000 2981567686 2981567686 7.00000000
-6.54539824 -3.09818935 -0.88915873 6 8 24467 7.29600000 2981567688 2981567688 -7.00000000
-6.45854712 -3.05569983 1.13164687 5 9 24468 7.23400000 2981567691 2981567691 9.00000000
-4.55469656 -2.15494061 -0.44083375 9 10 24468 5.05800000 2981567693 2981567693 -5.00000000
-12.40051079 -5.86434269 2.66636491 53 11 24469 13.97400000 2981567695 2981567695 11.00000000
-6.63409424 -3.13592196 -0.38456461 7 12 24470 7.34800000 2981567697 2981567697 -3.00000000
-9.88111210 -4.66867065 2.52305102 45 13 24471 11.21600000 2981567700 2981567700 13.00000000
-12.36438847 -5.83934021 -0.23867911 2 14 24472 13.67600000 2981567702 2981567702 -1.00000000
-9.47312164 -4.47387886 2.80715132 42 15 24472 10.84600000 2981567704 2981567704 15.00000000
-1.74274766 -0.82007480 -0.51608515 5 0 24480 1.99400000 2981567725 2981567725 -15.00000000
-6.51610708 -3.06485820 0.12569223 54 1 24481 7.20200000 2981567727 2981567727 1.00000000
-1.99987972 -0.94021940 -0.51018900 4 2 24482 2.26800000 2981567730 2981567730 -13.00000000
-6.46532297 -3.03959394 0.37441143 72 3 24482 7.15400000 2981567732 2981567732 3.00000000
-2.31522655 -1.08798265 -0.49724823 3 4 24483 2.60600000 2981567734 2981567734 -11.00000000
-6.44340372 -3.02654314 0.62281495 47 5 24484 7.14600000 2981567737 2981567737 5.00000000
-6.51228762 -3.05751133 -1.13946867 6 6 24485 7.28400000 2981567739 2981567739 -9.00000000
-6.46758080 -3.03514385 0.87721550 37 7 24486 7.19800000 2981567741 2981567741 7.00000000
-6.53999805 -3.06773567 -0.88696510 9 8 24487 7.27800000 2981567743 2981567743 -7.00000000
-6.48831701 -3.04349351 1.13508844 22 9 24487 7.25600000 2981567746 2981567746 9.00000000
-4.54054356 -2.12887907 -0.43874201 9 10 24488 5.03400000 2981567748 2981567748 -5.00000000
-12.41379452 -5.81768847 2.66483831 50 11 24489 13.96600000 2981567750 2981567750 11.00000000
-6.62691355 -3.10427332 -0.38351789 7 12 24490 7.32800000 2981567753 2981567753 -3.00000000
-9.90087891 -4.63580322 2.52395082 44 13 24491 11.22000000 2981567755 2981567755 13.00000000
-6.55457973 -3.06760001 -0.12632051 31 14 24492 7.23800000 2981567757 2981567757 -1.00000000
-9.50617695 -4.44897318 2.81232786 40 15 24492 10.86600000 2981567760 2981567760 15.00000000
-1.74209797 -0.81235361 -0.51504987 5 0 24500 1.99000000 2981567780 2981567780 -15.00000000
-6.49232817 -3.02604294 0.12502904 45 1 24501 7.16400000 2981567783 2981567783 1.00000000
-2.00314951 -0.93323278 -0.51018900 4 2 24502 2.26800000 2981567785 2981567785 -13.00000000
-6.46736717 -3.01166129 0.37388808 57 3 24503 7.14400000 2981567787 2981567787 3.00000000
-2.32612920 -1.08320940 -0.49877471 3 4 24503 2.61400000 2981567790 2981567790 -11.00000000
-6.48824930 -3.02000737 0.62612689 50 5 24504 7.18400000 2981567792 2981567792 5.00000000
-6.50501060 -3.02642798 -1.13633990 6 6 24505 7.26400000 2981567794 2981567794 -9.00000000
-6.37373686 -2.96400046 0.86307871 30 7 24506 7.08200000 2981567796 2981567796 7.00000000
-6.51286411 -3.02731657 -0.88184655 9 8 24507 7.23600000 2981567799 2981567799 -7.00000000
-4.55878830 -2.11805367 -0.43978786 6 10 24508 5.04600000 2981567803 2981567803 -5.00000000
-12.39485264 -5.75612879 2.65644288 53 11 24509 13.92200000 2981567806 2981567806 11.00000000
-6.43662167 -2.98778033 -0.37189931 22 12 24510 7.10600000 2981567808 2981567808 -3.00000000
-9.92053604 -4.60285521 2.52485061 46 13 24511 11.22400000 2981567810 2981567810 13.00000000
-6.54892111 -3.03712988 -0.12600638 48 14 24512 7.22000000 2981567813 2981567813 -1.00000000
-9.51365662 -4.41003895 2.80973959 42 15 24513 10.85600000 2981567815 2981567815 15.00000000
-1.74316931 -0.80545729 -0.51453227 6 0 24520 1.98800000 2981567836 2981567836 -15.00000000
-6.49195910 -2.99833131 0.12481961 63 1 24521 7.15200000 2981567838 2981567838 1.00000000
-2.00462556 -0.92541802 -0.50973910 4 2 24522 2.26600000 2981567840 2981567840 -13.00000000
-6.48638535 -2.99438381 0.37441143 55 3 24522 7.15400000 2981567843 2981567843 3.00000000
-2.32989621 -1.07508314 -0.49877471 3 4 24523 2.61400000 2981567845 2981567845 -11.00000000
-6.50417900 -2.99984407 0.62664980 47 5 24524 7.19000000 2981567847 2981567847 5.00000000
-6.53885603 -3.01445389 -1.14040720 4 6 24525 7.29000000 2981567849 2981567849 -9.00000000
-6.38945293 -2.94422603 0.86380988 57 7 24526 7.08800000 2981567852 2981567852 7.00000000
-6.54683113 -3.01535988 -0.88501519 9 8 24527 7.26200000 2981567854 2981567854 -7.00000000
-14.57197857 -6.70852470 2.54080868 8 9 24528 16.24200000 2981567856 2981567856 9.00000000
-4.56615400 -2.10212755 -0.43978786 6 10 24528 5.04600000 2981567859 2981567859 -5.00000000
-12.38633442 -5.69969654 2.65033698 53 11 24529 13.89000000 2981567861 2981567861 11.00000000
-6.41616440 -2.95110607 -0.37011987 30 12 24530 7.07200000 2981567863 2981567863 -3.00000000
-9.94008350 -4.56982565 2.52575040 50 13 24531 11.22800000 2981567866 2981567866 13.00000000
-6.55584860 -3.01258135 -0.12593657 51 14 24532 7.21600000 2981567868 2981567868 -1.00000000
-1.74245715 -0.79775918 -0.51349699 4 0 24540 1.98400000 2981567891 2981567891 -15.00000000
-6.50602245 -2.97731614 0.12488942 63 1 24541 7.15600000 2981567893 2981567893 1.00000000
-2.00429940 -0.91679370 -0.50883931 4 2 24542 2.26200000 2981567895 2981567895 -13.00000000
-6.49679852 -2.97172379 0.37441143 55 3 24542 7.15400000 2981567898 2981567898 3.00000000
-2.34077668 -1.07020903 -0.50030118 3 4 24543 2.62200000 2981567900 2981567900 -11.00000000
-6.54904127 -2.99285650 0.62996173 50 5 24544 7.22800000 2981567902 2981567902 5.00000000
-2.80839944 -1.28282237 -0.48901415 2 6 24545 3.12600000 2981567905 2981567905 -9.00000000
-6.37802172 -2.91201115 0.86088502 50 7 24546 7.06400000 2981567907 2981567907 7.00000000
-6.57537603 -3.00073028 -0.88745254 9 8 24547 7.28200000 2981567909 2981567909 -7.00000000
-14.69235706 -6.70188761 2.55770350 8 9 24548 16.35000000 2981567912 2981567912 9.00000000
-6.60369778 -3.01226282 -0.63501674 8 10 24548 7.28600000 2981567914 2981567914 -5.00000000
-12.38293171 -5.64583731 2.64537597 50 11 24549 13.86400000 2981567916 2981567916 11.00000000
-6.41552210 -2.92372203 -0.36949185 26 12 24550 7.06000000 2981567919 2981567919 -3.00000000
-9.95242786 -4.53348494 2.52485061 48 13 24551 11.22400000 2981567921 2981567921 13.00000000
-6.57360411 -2.99299335 -0.12607618 48 14 24552 7.22400000 2981567923 2981567923 -1.00000000
-7.96284103 -3.62551951 2.34438300 9 15 24552 9.05800000 2981567925 2981567925 15.00000000
-1.75592613 -0.79615390 -0.51660281 4 0 24561 1.99600000 2981567946 2981567946 -15.00000000
-6.53692627 -2.96253037 0.12527338 57 1 24562 7.17800000 2981567948 2981567948 1.00000000
-2.00409579 -0.90783322 -0.50793946 4 2 24563 2.25800000 2981567951 2981567951 -13.00000000
-6.51179981 -2.94840360 0.37462077 40 3 24564 7.15800000 2981567953 2981567953 3.00000000
-2.34289503 -1.06081271 -0.49991956 3 4 24564 2.62000000 2981567955 2981567955 -11.00000000
-6.56541204 -2.97129750 0.63048464 37 5 24565 7.23400000 2981567958 2981567958 5.00000000
-2.81308246 -1.27252042 -0.48901415 2 6 24566 3.12600000 2981567960 2981567960 -9.00000000
-6.39226961 -2.89025068 0.86137253 35 7 24567 7.06800000 2981567962 2981567962 7.00000000
-3.46230030 -1.56474376 -0.46651584 3 8 24568 3.82800000 2981567965 2981567965 -7.00000000
-14.84706783 -6.70994806 2.58054304 12 9 24568 16.49600000 2981567967 2981567967 9.00000000
-4.61557817 -2.08498335 -0.44309980 3 10 24569 5.08400000 2981567969 2981567969 -5.00000000
-6.45168161 -2.91169047 -0.37095726 37 12 24571 7.08800000 2981567974 2981567974 -3.00000000
-9.96897697 -4.49697733 2.52485061 45 13 24572 11.22400000 2981567976 2981567976 13.00000000
-6.58635283 -2.96970177 -0.12611109 40 14 24573 7.22600000 2981567978 2981567978 -1.00000000
-8.02249622 -3.61555529 2.35784149 9 15 24574 9.11000000 2981567981 2981567981 15.00000000
-1.75517011 -0.78843653 -0.51556754 5 0 24581 1.99200000 2981568001 2981568001 -15.00000000
-2.01080847 -0.90242791 -0.50883931 4 2 24583 2.26200000 2981568006 2981568006 -13.00000000
-6.58531713 -2.95541549 0.37828431 17 3 24583 7.22800000 2981568008 2981568008 3.00000000
-2.33762717 -1.04861033 -0.49801147 3 4 24584 2.61000000 2981568011 2981568011 -11.00000000
-27.74647522 -12.44066811 2.66034198 38 5 24585 30.52400000 2981568013 2981568013 5.00000000
-2.81750727 -1.26269317 -0.48901415 2 6 24586 3.12600000 2981568015 2981568015 -9.00000000
-6.42405939 -2.87765813 0.86429739 22 7 24587 7.09200000 2981568018 2981568018 7.00000000
-3.47680020 -1.55670452 -0.46773455 3 8 24588 3.83800000 2981568020 2981568020 -7.00000000
-17.27142143 -7.72949791 2.99697137 17 9 24589 19.15800000 2981568022 2981568022 9.00000000
-4.60464239 -2.06072068 -0.44135669 6 10 24589 5.06400000 2981568025 2981568025 -5.00000000
-12.07355118 -5.40076017 2.57096052 9 11 24590 13.47400000 2981568027 2981568027 11.00000000
-6.48915529 -2.90138054 -0.37252733 37 12 24591 7.11800000 2981568029 2981568029 -3.00000000
-10.02019691 -4.47805357 2.53384876 50 13 24592 11.26400000 2981568031 2981568031 13.00000000
-8.06682014 -3.60170650 2.36715889 9 15 24594 9.14600000 2981568036 2981568036 15.00000000
-1.74922252 -0.77807254 -0.51297933 5 0 24602 1.98200000 2981568057 2981568057 -15.00000000
-25.55027199 -11.35968781 0.48807400 5 1 24603 27.96600000 2981568059 2981568059 1.00000000
-2.02122569 -0.89821738 -0.51063889 4 2 24604 2.27000000 2981568061 2981568061 -13.00000000
-2.34504318 -1.04162943 -0.49877471 3 4 24605 2.61400000 2981568066 2981568066 -11.00000000
-27.99401665 -12.42862892 2.67969036 38 5 24606 30.74600000 2981568068 2981568068 5.00000000
-2.82933855 -1.25556302 -0.49026561 2 6 24607 3.13400000 2981568071 2981568071 -9.00000000
-6.54343891 -2.90238619 0.87892169 15 7 24608 7.21200000 2981568073 2981568073 7.00000000
-3.49337077 -1.54877841 -0.46919698 3 8 24609 3.85000000 2981568075 2981568075 -7.00000000
-17.30371475 -7.67156410 2.99791002 46 9 24609 19.16400000 2981568078 2981568078 9.00000000
-4.58301973 -2.03091478 -0.43856770 6 10 24610 5.03200000 2981568080 2981568080 -5.00000000
-10.09713268 -4.46810961 2.54914546 50 13 24613 11.33200000 2981568087 2981568087 13.00000000
-12.50895500 -5.53276110 -0.23874892 6 14 24614 13.68000000 2981568089 2981568089 -1.00000000
-8.15240860 -3.60414243 2.38838220 6 15 24615 9.22800000 2981568091 2981568091 15.00000000
-1.75723135 -0.77429879 -0.51453227 5 0 24622 1.98800000 2981568112 2981568112 -15.00000000
-25.56780815 -11.26075935 0.48765513 5 1 24623 27.94200000 2981568114 2981568114 1.00000000
-2.02078176 -0.88958621 -0.50973910 4 2 24624 2.26600000 2981568117 2981568117 -13.00000000
-2.33967996 -1.02948380 -0.49686661 3 4 24625 2.60400000 2981568121 2981568121 -11.00000000
-28.24514198 -12.42227650 2.69956207 38 5 24626 30.97400000 2981568124 2981568124 5.00000000
-2.81923723 -1.23931956 -0.48776266 2 6 24627 3.11800000 2981568126 2981568126 -9.00000000
-19.79871368 -8.69927120 2.65528917 5 7 24628 21.78800000 2981568128 2981568128 7.00000000
-3.52056623 -1.54615343 -0.47212183 3 8 24629 3.87400000 2981568131 2981568131 -7.00000000
-17.33581352 -7.61349916 2.99884868 42 9 24629 19.17000000 2981568133 2981568133 9.00000000
-4.61379766 -2.02531552 -0.44083375 6 10 24630 5.05800000 2981568135 2981568135 -5.00000000
-12.20897007 -5.35682201 2.59156775 37 11 24631 13.58200000 2981568137 2981568137 11.00000000
-6.71278048 -2.94391036 -0.38414592 3 12 24632 7.34000000 2981568140 2981568140 -3.00000000
-10.18048954 -4.46256638 2.56624174 46 13 24633 11.40800000 2981568142 2981568142 13.00000000
-12.59596062 -5.51875544 -0.24004039 4 14 24634 13.75400000 2981568144 2981568144 -1.00000000
-9.56823349 -4.19020605 2.79886913 35 15 24635 10.81400000 2981568147 2981568147 15.00000000
-1.76877618 -0.77202415 -0.51712048 4 0 24642 1.99800000 2981568167 2981568167 -15.00000000
-25.57396889 -11.15704918 0.48702684 5 1 24643 27.90600000 2981568170 2981568170 1.00000000
-2.01494312 -0.87863231 -0.50748956 4 2 24644 2.25600000 2981568172 2981568172 -13.00000000
-2.35225797 -1.02523267 -0.49877471 3 4 24645 2.61400000 2981568177 2981568177 -11.00000000
-28.50387001 -12.41750431 2.72013068 38 5 24646 31.21000000 2981568179 2981568179 5.00000000
-2.83079052 -1.23262560 -0.48901415 2 6 24647 3.12600000 2981568181 2981568181 -9.00000000
-16.95672607 -7.38003397 2.27066970 6 7 24648 18.63200000 2981568183 2981568183 7.00000000
-3.50045753 -1.52276874 -0.46870950 3 8 24649 3.84600000 2981568186 2981568186 -7.00000000
-17.36590767 -7.55451536 2.99947453 42 9 24649 19.17400000 2981568188 2981568188 9.00000000
-4.61718464 -2.00760913 -0.44048512 3 10 24650 5.05400000 2981568190 2981568190 -5.00000000
-12.12496281 -5.26956797 2.56981564 40 11 24651 13.46800000 2981568193 2981568193 11.00000000
-6.71752024 -2.91807318 -0.38383189 3 12 24652 7.33400000 2981568195 2981568195 -3.00000000
-10.25499344 -4.45261478 2.58108830 51 13 24653 11.47400000 2981568197 2981568197 13.00000000
-9.87822819 -4.28697824 -0.18796241 6 14 24654 10.77000000 2981568200 2981568200 -1.00000000
