# .PCD v0.7 - Point Cloud Data file format
VERSION 0.7
FIELDS x y z intensity laser_id azimuth distance_m adjustedtime timestamp vertical_angle
SIZE 4 4 4 1 1 2 8 8 4 8
TYPE F F F U U U F U U F
COUNT 1 1 1 1 1 1 1 1 1 1
WIDTH 540
HEIGHT 1
VIEWPOINT 0 0 0 1 0 0 0
POINTS 540
DATA ascii
2.16568875 1.63670957 -0.62671363 3 2 5292 2.78600000 2981414394 2981414394 -13.00000000
3.32586884 2.51259851 0.21845028 7 3 5293 4.17400000 2981414396 2981414396 3.00000000
2.61288857 1.97396231 -0.63653880 6 4 5293 3.33600000 2981414398 2981414398 -11.00000000
3.31978726 2.50709391 0.36396238 7 5 5294 4.17600000 2981414401 2981414401 5.00000000
3.25876594 2.46011782 -0.64670008 9 6 5295 4.13400000 2981414403 2981414403 -9.00000000
3.33068371 2.51349783 0.51233870 7 7 5296 4.20400000 2981414405 2981414405 7.00000000
3.32161403 2.50574350 -0.51087630 8 8 5297 4.19200000 2981414408 2981414408 -7.00000000
3.33733582 2.51669002 0.66203064 8 9 5298 4.23200000 2981414410 2981414410 9.00000000
3.31517363 2.49997735 -0.36326513 9 10 5298 4.16800000 2981414412 2981414412 -5.00000000
3.33924031 2.51721191 0.81284630 8 11 5299 4.26000000 2981414415 2981414415 11.00000000
3.32096076 2.50252342 -0.21792692 7 12 5300 4.16400000 2981414417 2981414417 -3.00000000
3.34811258 2.52206779 0.96773946 8 13 5301 4.30200000 2981414419 2981414419 13.00000000
3.32748365 2.50561810 -0.07270672 7 14 5302 4.16600000 2981414422 2981414422 -1.00000000
3.34312105 2.51647902 1.12120414 8 15 5303 4.33200000 2981414424 2981414424 15.00000000
1.83554852 1.37766790 -0.61495405 4 0 5311 2.37600000 2981414445 2981414445 -15.00000000
3.33665037 2.50340700 0.07281144 7 1 5312 4.17200000 2981414447 2981414447 1.00000000
2.17167306 1.62876093 -0.62671363 3 2 5313 2.78600000 2981414449 2981414449 -13.00000000
3.34304571 2.50638223 0.21897364 7 3 5314 4.18400000 2981414451 2981414451 3.00000000
2.62167692 1.96555007 -0.63692045 5 4 5314 3.33800000 2981414454 2981414454 -11.00000000
3.35127449 2.51163793 0.36640275 7 5 5315 4.20400000 2981414456 2981414456 5.00000000
3.27882719 2.45644808 -0.64889014 9 6 5316 4.14800000 2981414458 2981414458 -9.00000000
3.36211848 2.51793265 0.51575106 7 7 5317 4.23200000 2981414461 2981414461 7.00000000
3.33872128 2.49950075 -0.51209497 8 8 5318 4.20200000 2981414463 2981414463 -7.00000000
3.36665773 2.52041507 0.66609794 8 9 5318 4.25800000 2981414465 2981414465 9.00000000
3.33548021 2.49616623 -0.36448532 9 10 5319 4.18200000 2981414468 2981414468 -5.00000000
3.36259222 2.51554036 0.81628090 8 11 5320 4.27800000 2981414470 2981414470 11.00000000
3.34290648 2.49990368 -0.21876429 7 12 5321 4.18000000 2981414472 2981414472 -3.00000000
3.36825991 2.51794696 0.97088873 8 13 5322 4.31600000 2981414475 2981414475 13.00000000
3.35426521 2.50657272 -0.07309068 7 14 5323 4.18800000 2981414477 2981414477 -1.00000000
3.37045479 2.51867104 1.12741578 8 15 5323 4.35600000 2981414479 2981414479 15.00000000
1.83414984 1.36663532 -0.61288351 4 0 5331 2.36800000 2981414500 2981414500 -15.00000000
3.36140585 2.50368977 0.07316048 7 1 5332 4.19200000 2981414502 2981414502 1.00000000
2.16796684 1.61418760 -0.62401420 3 2 5333 2.77400000 2981414504 2981414504 -13.00000000
3.36298966 2.50304484 0.21970634 7 3 5334 4.19800000 2981414507 2981414507 3.00000000
2.62537217 1.95404232 -0.63615721 5 4 5334 3.33400000 2981414509 2981414509 -11.00000000
3.37440777 2.51062822 0.36797154 7 5 5335 4.22200000 2981414511 2981414511 5.00000000
3.29213691 2.44852448 -0.64982879 9 6 5336 4.15400000 2981414514 2981414514 -9.00000000
3.37725925 2.51091886 0.51672602 7 7 5337 4.24000000 2981414516 2981414516 7.00000000
3.35857844 2.49611998 -0.51380116 8 8 5338 4.21600000 2981414518 2981414518 -7.00000000
3.38697267 2.51630521 0.66828805 8 9 5339 4.27200000 2981414521 2981414521 9.00000000
3.36336517 2.49876618 -0.36657706 9 10 5339 4.20600000 2981414523 2981414523 -5.00000000
3.38868999 2.51666331 0.82047868 8 11 5340 4.30000000 2981414525 2981414525 11.00000000
3.36764884 2.50012493 -0.21981102 8 12 5341 4.20000000 2981414527 2981414527 -3.00000000
3.38328815 2.51081967 0.97268838 8 13 5342 4.32400000 2981414530 2981414530 13.00000000
3.38226652 2.50914598 -0.07350954 7 14 5343 4.21200000 2981414532 2981414532 -1.00000000
3.39673257 2.51895881 1.13310981 8 15 5344 4.37800000 2981414534 2981414534 15.00000000
1.83424973 1.35677803 -0.61133057 4 0 5351 2.36200000 2981414555 2981414555 -15.00000000
3.39263511 2.50858569 0.07364915 7 1 5352 4.22000000 2981414557 2981414557 1.00000000
2.18299103 1.61356020 -0.62671363 3 2 5353 2.78600000 2981414560 2981414560 -13.00000000
3.39098239 2.50553346 0.22096241 7 3 5354 4.22200000 2981414562 2981414562 3.00000000
2.61954498 1.93553269 -0.63310426 8 4 5354 3.31800000 2981414564 2981414564 -11.00000000
3.40238237 2.51303864 0.37006328 7 5 5355 4.24600000 2981414567 2981414567 5.00000000
3.30860972 2.44288468 -0.65139312 9 6 5356 4.16400000 2981414569 2981414569 -9.00000000
3.41475248 2.52033353 0.52111334 7 7 5357 4.27600000 2981414571 2981414571 7.00000000
3.38005018 2.49380946 -0.51575106 8 8 5358 4.23200000 2981414574 2981414574 -7.00000000
3.40006709 2.50857806 0.66922665 8 9 5358 4.27800000 2981414576 2981414576 9.00000000
3.38649797 2.49765420 -0.36814585 9 10 5359 4.22400000 2981414578 2981414578 -5.00000000
3.41641665 2.51879954 0.82505810 8 11 5360 4.32400000 2981414580 2981414580 11.00000000
3.39564872 2.50257349 -0.22106709 8 12 5361 4.22400000 2981414583 2981414583 -3.00000000
3.41085911 2.51286483 0.97808719 8 13 5362 4.34800000 2981414585 2981414585 13.00000000
3.39583492 2.50088191 -0.07361425 7 14 5363 4.21800000 2981414587 2981414587 -1.00000000
3.42528915 2.52257371 1.13983905 8 15 5363 4.40400000 2981414590 2981414590 15.00000000
1.83897460 1.35036707 -0.61133057 4 0 5371 2.36200000 2981414610 2981414610 -15.00000000
3.40459514 2.49909449 0.07371897 7 1 5372 4.22400000 2981414613 2981414613 1.00000000
2.19803691 1.61284745 -0.62941307 3 2 5373 2.79800000 2981414615 2981414615 -13.00000000
3.41581249 2.50549412 0.22200912 7 3 5374 4.24200000 2981414617 2981414617 3.00000000
2.62628531 1.92637694 -0.63310426 5 4 5374 3.31800000 2981414620 2981414620 -11.00000000
3.42077422 2.50821543 0.37110916 7 5 5375 4.25800000 2981414622 2981414622 5.00000000
3.31871009 2.43248820 -0.65170598 9 6 5376 4.16600000 2981414624 2981414624 -9.00000000
3.44114351 2.52130437 0.52379441 7 7 5377 4.29800000 2981414627 2981414627 7.00000000
3.41275668 2.49959016 -0.51940715 8 8 5378 4.26200000 2981414629 2981414629 -7.00000000
3.43633389 2.51593733 0.67454541 8 9 5379 4.31200000 2981414631 2981414631 9.00000000
3.40805650 2.49523377 -0.36954036 9 10 5379 4.24000000 2981414633 2981414633 -5.00000000
3.43786240 2.51613498 0.82811105 8 11 5380 4.34000000 2981414636 2981414636 11.00000000
3.42048287 2.50249839 -0.22211380 8 12 5381 4.24400000 2981414638 2981414638 -3.00000000
3.44635010 2.52049994 0.98573554 9 13 5382 4.38200000 2981414640 2981414640 13.00000000
3.41745830 2.49845457 -0.07389349 7 14 5383 4.23400000 2981414643 2981414643 -1.00000000
3.44387007 2.51684165 1.14294493 8 15 5384 4.41600000 2981414645 2981414645 15.00000000
1.83852565 1.34116757 -0.60977769 4 0 5389 2.35600000 2981414666 2981414666 -15.00000000
3.42535543 2.49781203 0.07399821 7 1 5390 4.24000000 2981414668 2981414668 1.00000000
2.19364452 1.59904659 -0.62671363 3 2 5391 2.78600000 2981414670 2981414670 -13.00000000
3.44303703 2.50886536 0.22326519 7 3 5392 4.26600000 2981414673 2981414673 3.00000000
2.64343119 1.92621005 -0.63577557 5 4 5392 3.33200000 2981414675 2981414675 -11.00000000
3.44796252 2.51153326 0.37320089 7 5 5393 4.28200000 2981414677 2981414677 5.00000000
3.31675410 2.41507363 -0.64982879 9 6 5394 4.15400000 2981414680 2981414680 -9.00000000
3.45867705 2.51749039 0.52525687 7 7 5395 4.31000000 2981414682 2981414682 7.00000000
3.44145966 2.50403953 -0.52257574 8 8 5396 4.28800000 2981414684 2981414684 -7.00000000
3.45815945 2.51619053 0.67736125 8 9 5396 4.33000000 2981414686 2981414686 9.00000000
3.43521380 2.49857807 -0.37163210 9 10 5397 4.26400000 2981414689 2981414689 -5.00000000
3.45845318 2.51455832 0.83116400 8 11 5398 4.35600000 2981414691 2981414691 11.00000000
3.43479037 2.49643731 -0.22253248 8 12 5399 4.25200000 2981414693 2981414693 -3.00000000
3.47159362 2.52226043 0.99068445 8 13 5400 4.40400000 2981414696 2981414696 13.00000000
3.44308829 2.50063205 -0.07427744 7 14 5401 4.25600000 2981414698 2981414698 -1.00000000
3.46539044 2.51682949 1.14760363 8 15 5401 4.43400000 2981414700 2981414700 15.00000000
1.85101950 1.34040701 -0.61236584 4 0 5409 2.36600000 2981414721 2981414721 -15.00000000
3.45025182 2.49756575 0.07434725 7 1 5410 4.26000000 2981414723 2981414723 1.00000000
2.18974018 1.58452523 -0.62401420 3 2 5411 2.77400000 2981414726 2981414726 -13.00000000
3.46471977 2.50619602 0.22410257 7 3 5412 4.28200000 2981414728 2981414728 3.00000000
2.64854813 1.91582036 -0.63539398 5 4 5412 3.33000000 2981414730 2981414730 -11.00000000
3.47285366 2.51115680 0.37494400 7 5 5413 4.30200000 2981414733 2981414733 5.00000000
3.33156776 2.40811014 -0.65108025 9 6 5414 4.16200000 2981414735 2981414735 -9.00000000
3.47387981 2.51005244 0.52623183 7 7 5415 4.31800000 2981414737 2981414737 7.00000000
3.45661640 2.49666071 -0.52355069 8 8 5416 4.29600000 2981414739 2981414739 -7.00000000
3.48817873 2.51853132 0.68142855 8 9 5417 4.35600000 2981414742 2981414742 9.00000000
3.45683718 2.49590206 -0.37302658 9 10 5417 4.28000000 2981414744 2981414744 -5.00000000
3.48153687 2.51281142 0.83459854 8 11 5418 4.37400000 2981414746 2981414746 11.00000000
3.44996238 2.48910689 -0.22295117 8 12 5419 4.26000000 2981414749 2981414749 -3.00000000
3.48986006 2.51696658 0.99338388 8 13 5420 4.41600000 2981414751 2981414751 13.00000000
3.46963930 2.50146222 -0.07466140 7 14 5421 4.27800000 2981414753 2981414753 -1.00000000
3.49496603 2.51879501 1.15433300 8 15 5422 4.46000000 2981414756 2981414756 15.00000000
1.85882437 1.33619273 -0.61340111 4 0 5429 2.37000000 2981414776 2981414776 -15.00000000
3.48168373 2.50184369 0.07483592 7 1 5430 4.28800000 2981414779 2981414779 1.00000000
2.19842339 1.57914567 -0.62491405 3 2 5431 2.77800000 2981414781 2981414781 -13.00000000
3.48967028 2.50573587 0.22514929 7 3 5432 4.30200000 2981414783 2981414783 3.00000000
2.64724565 1.90083814 -0.63348585 5 4 5432 3.32000000 2981414786 2981414786 -11.00000000
3.49778414 2.51063681 0.37668711 7 5 5433 4.32200000 2981414788 2981414788 5.00000000
3.34316349 2.39876914 -0.65170598 9 6 5434 4.16600000 2981414790 2981414790 -9.00000000
3.50197721 2.51179481 0.52915668 7 7 5435 4.34200000 2981414792 2981414792 7.00000000
3.47176337 2.48920631 -0.52452564 8 8 5436 4.30400000 2981414795 2981414795 -7.00000000
3.50774908 2.51500750 0.68361861 8 9 5436 4.37000000 2981414797 2981414797 9.00000000
3.48658085 2.49890900 -0.37529263 9 10 5437 4.30600000 2981414799 2981414799 -5.00000000
3.52380157 2.52465510 0.84261250 8 11 5438 4.41600000 2981414802 2981414802 11.00000000
3.47649145 2.48984122 -0.22410257 8 12 5439 4.28200000 2981414804 2981414804 -3.00000000
3.51288557 2.51497889 0.99743295 8 13 5440 4.43400000 2981414806 2981414806 13.00000000
3.48810673 2.49631834 -0.07487082 7 14 5441 4.29000000 2981414809 2981414809 -1.00000000
3.51900935 2.51843429 1.15950930 8 15 5441 4.48000000 2981414811 2981414811 15.00000000
1.86190462 1.32857406 -0.61288351 4 0 5449 2.36800000 2981414832 2981414832 -15.00000000
3.51807141 2.50941586 0.07542930 7 1 5450 4.32200000 2981414834 2981414834 1.00000000
2.21026897 1.57598758 -0.62671363 3 2 5451 2.78600000 2981414836 2981414836 -13.00000000
3.51791263 2.50745034 0.22640535 7 3 5452 4.32600000 2981414839 2981414839 3.00000000
2.64906859 1.88816750 -0.63234103 5 4 5452 3.31400000 2981414841 2981414841 -11.00000000
3.51463985 2.50419259 0.37755868 7 5 5453 4.33200000 2981414843 2981414843 5.00000000
3.34829831 2.38479280 -0.65108025 9 6 5454 4.16200000 2981414845 2981414845 -9.00000000
3.53174591 2.51452279 0.53232527 7 7 5455 4.36800000 2981414848 2981414848 7.00000000
3.50792527 2.49664044 -0.52866924 8 8 5456 4.33800000 2981414850 2981414850 -7.00000000
3.52938175 2.51191115 0.68612158 8 9 5456 4.38600000 2981414852 2981414852 9.00000000
3.51314020 2.49942827 -0.37721005 10 10 5457 4.32800000 2981414855 2981414855 -5.00000000
3.54219222 2.51916623 0.84490222 8 11 5458 4.42800000 2981414857 2981414857 11.00000000
3.51120639 2.49620700 -0.22577731 8 12 5459 4.31400000 2981414859 2981414859 -3.00000000
3.53435063 2.51173234 1.00103223 8 13 5460 4.45000000 2981414862 2981414862 13.00000000
3.50495028 2.48991799 -0.07504535 7 14 5461 4.30000000 2981414864 2981414864 -1.00000000
3.54825258 2.52067995 1.16623867 8 15 5461 4.50600000 2981414866 2981414866 15.00000000
1.85841882 1.31680799 -0.61029530 4 0 5468 2.35800000 2981414887 2981414887 -15.00000000
3.53126907 2.50120330 0.07553402 7 1 5469 4.32800000 2981414889 2981414889 1.00000000
2.21230221 1.56639719 -0.62581384 3 2 5470 2.78200000 2981414892 2981414892 -13.00000000
3.53598976 2.50269389 0.22703338 7 3 5471 4.33800000 2981414894 2981414894 3.00000000
2.65691781 1.88050663 -0.63272262 5 4 5471 3.31600000 2981414896 2981414896 -11.00000000
3.53268337 2.49942851 0.37860456 7 5 5472 4.34400000 2981414898 2981414898 5.00000000
3.34489870 2.36569190 -0.64889014 6 6 5473 4.14800000 2981414901 2981414901 -9.00000000
3.55627418 2.51425695 0.53476268 7 7 5474 4.38800000 2981414903 2981414903 7.00000000
3.53401732 2.49759650 -0.53135031 8 8 5475 4.36000000 2981414905 2981414905 -7.00000000
3.55587554 2.51211381 0.68956310 8 9 5476 4.40800000 2981414908 2981414908 9.00000000
3.52466393 2.49006391 -0.37755868 10 10 5476 4.33200000 2981414910 2981414910 -5.00000000
3.56816697 2.51986384 0.84910005 9 11 5477 4.45000000 2981414912 2981414912 11.00000000
3.53904462 2.49837208 -0.22703338 8 12 5478 4.33800000 2981414915 2981414915 -3.00000000
3.56654358 2.51685214 1.00778067 7 13 5479 4.48000000 2981414917 2981414917 13.00000000
3.54750276 2.50248790 -0.07577835 7 14 5480 4.34200000 2981414919 2981414919 -1.00000000
3.55185604 2.50555897 1.16468573 8 15 5480 4.50000000 2981414921 2981414921 15.00000000
1.86616433 1.31253564 -0.61133057 4 0 5488 2.36200000 2981414942 2981414942 -15.00000000
3.55633688 2.50036287 0.07588306 7 1 5489 4.34800000 2981414945 2981414945 1.00000000
2.21456766 1.55642426 -0.62491405 3 2 5490 2.77800000 2981414947 2981414947 -13.00000000
3.57575512 2.51215053 0.22902215 7 3 5491 4.37600000 2981414949 2981414949 3.00000000
2.66507244 1.87234938 -0.63310426 5 4 5491 3.31800000 2981414951 2981414951 -11.00000000
3.56747413 2.50540280 0.38139352 7 5 5492 4.37600000 2981414954 2981414954 5.00000000
3.33858538 2.34378648 -0.64607435 9 6 5493 4.13000000 2981414956 2981414956 -9.00000000
3.58127785 2.51323080 0.53720009 7 7 5494 4.40800000 2981414958 2981414958 7.00000000
3.55571485 2.49436545 -0.53330022 8 8 5495 4.37600000 2981414961 2981414961 -7.00000000
3.58241343 2.51216197 0.69300467 8 9 5496 4.43000000 2981414963 2981414963 9.00000000
3.55780339 2.49490428 -0.38017336 10 10 5496 4.36200000 2981414965 2981414965 -5.00000000
3.58980203 2.51640868 0.85215294 9 11 5497 4.46600000 2981414968 2981414968 11.00000000
3.56410074 2.49746466 -0.22808009 8 12 5498 4.35800000 2981414970 2981414970 -3.00000000
3.59286475 2.51668549 1.01272964 8 13 5499 4.50200000 2981414972 2981414972 13.00000000
3.57587314 2.50385332 -0.07619721 7 14 5500 4.36600000 2981414974 2981414974 -1.00000000
3.58792114 2.51135635 1.17348552 8 15 5501 4.53400000 2981414977 2981414977 15.00000000
1.87390256 1.30822527 -0.61236584 4 0 5508 2.36600000 2981414998 2981414998 -15.00000000
3.58308148 2.50052214 0.07626702 7 1 5509 4.37000000 2981415000 2981415000 1.00000000
2.21679068 1.54645455 -0.62401420 3 2 5510 2.77400000 2981415002 2981415002 -13.00000000
3.59760833 2.50879312 0.22985952 7 3 5511 4.39200000 2981415004 2981415004 3.00000000
2.66998148 1.86191213 -0.63272262 5 4 5511 3.31600000 2981415007 2981415007 -11.00000000
3.59581137 2.50660729 0.38348526 7 5 5512 4.40000000 2981415009 2981415009 5.00000000
3.35647058 2.33889461 -0.64795154 9 6 5513 4.14200000 2981415011 2981415011 -9.00000000
3.59980202 2.50752234 0.53866249 7 7 5514 4.42000000 2981415014 2981415014 7.00000000
3.58069086 2.49328184 -0.53573763 8 8 5515 4.39600000 2981415016 2981415016 -7.00000000
3.60899496 2.51205540 0.69644624 8 9 5516 4.45200000 2981415018 2981415018 9.00000000
3.58447838 2.49499035 -0.38209078 10 10 5516 4.38400000 2981415021 2981415021 -5.00000000
3.60823321 2.51059031 0.85444266 9 11 5517 4.47800000 2981415023 2981415023 11.00000000
3.58263469 2.49185109 -0.22870813 8 12 5518 4.37000000 2981415025 2981415025 -3.00000000
3.61602783 2.51414084 1.01677871 9 13 5519 4.52000000 2981415027 2981415027 13.00000000
3.61579037 2.51303983 -0.07686040 7 14 5520 4.40400000 2981415030 2981415030 -1.00000000
3.61685157 2.51377749 1.18021488 8 15 5520 4.56000000 2981415032 2981415032 15.00000000
1.88163340 1.30387676 -0.61340111 4 0 5528 2.37000000 2981415053 2981415053 -15.00000000
3.60493875 2.49710894 0.07654625 7 1 5529 4.38600000 2981415055 2981415055 1.00000000
2.21897101 1.53648829 -0.62311441 3 2 5530 2.77000000 2981415057 2981415057 -13.00000000
3.61291265 2.50076652 0.23027821 7 3 5531 4.40000000 2981415060 2981415060 3.00000000
2.67807889 1.85369825 -0.63310426 5 4 5531 3.31800000 2981415062 2981415062 -11.00000000
3.62092352 2.50537682 0.38522840 7 5 5532 4.42000000 2981415064 2981415064 5.00000000
3.37111306 2.33165884 -0.64920300 9 6 5533 4.15000000 2981415067 2981415067 -9.00000000
3.62812686 2.50848866 0.54158735 7 7 5534 4.44400000 2981415069 2981415069 7.00000000
3.60243630 2.48979688 -0.53768754 8 8 5535 4.41200000 2981415071 2981415071 -7.00000000
3.63074350 2.50842500 0.69894922 8 9 5536 4.46800000 2981415074 2981415074 9.00000000
3.60955787 2.49378824 -0.38383389 10 10 5536 4.40400000 2981415076 2981415076 -5.00000000
3.63797569 2.51248360 0.85940373 9 11 5537 4.50400000 2981415078 2981415078 11.00000000
3.61925244 2.49862003 -0.23048756 8 12 5538 4.40400000 2981415080 2981415080 -3.00000000
3.63440514 2.50814438 1.01947820 9 13 5539 4.53200000 2981415083 2981415083 13.00000000
3.62947845 2.50380945 -0.07696512 7 14 5540 4.41000000 2981415085 2981415085 -1.00000000
3.65263748 2.51978564 1.18901467 8 15 5540 4.59400000 2981415087 2981415087 15.00000000
1.88935673 1.29949021 -0.61443639 4 0 5548 2.37400000 2981415108 2981415108 -15.00000000
3.63670254 2.50037122 0.07703492 7 1 5549 4.41400000 2981415110 2981415110 1.00000000
2.23395681 1.53535593 -0.62581384 3 2 5550 2.78200000 2981415113 2981415113 -13.00000000
3.64093757 2.50234699 0.23153427 7 3 5550 4.42400000 2981415115 2981415115 3.00000000
2.68291497 1.84322703 -0.63272262 5 4 5551 3.31600000 2981415117 2981415117 -11.00000000
3.64607048 2.50400138 0.38697150 7 5 5552 4.44000000 2981415120 2981415120 5.00000000
3.37760282 2.31875920 -0.64889014 6 6 5553 4.14800000 2981415122 2981415122 -9.00000000
3.65977550 2.51153398 0.54499972 7 7 5554 4.47200000 2981415124 2981415124 7.00000000
3.63074875 2.49068213 -0.54061240 8 8 5555 4.43600000 2981415126 2981415126 -7.00000000
3.65370226 2.50642824 0.70176500 8 9 5555 4.48600000 2981415129 2981415129 9.00000000
3.62809992 2.48793387 -0.38487977 10 10 5556 4.41600000 2981415131 2981415131 -5.00000000
3.67263293 2.51752973 0.86550963 9 11 5557 4.53600000 2981415133 2981415133 11.00000000
3.64442801 2.49726105 -0.23153427 8 12 5558 4.42400000 2981415136 2981415136 -3.00000000
3.66403866 2.50975895 1.02532685 8 13 5559 4.55800000 2981415138 2981415138 13.00000000
3.64314628 2.49451423 -0.07706983 7 14 5560 4.41600000 2981415140 2981415140 -1.00000000
3.67894483 2.51902604 1.19470870 8 15 5560 4.61600000 2981415143 2981415143 15.00000000
1.89069033 1.29070878 -0.61340111 4 0 5568 2.37000000 2981415163 2981415163 -15.00000000
3.66027403 2.49780583 0.07734907 7 1 5569 4.43200000 2981415166 2981415166 1.00000000
2.23930264 1.52754867 -0.62581384 3 2 5570 2.78200000 2981415168 2981415168 -13.00000000
3.66493583 2.49911261 0.23247632 7 3 5571 4.44200000 2981415170 2981415170 3.00000000
2.69095469 1.83495665 -0.63310426 5 4 5571 3.31800000 2981415173 2981415173 -11.00000000
3.66960549 2.50135875 0.38854030 7 5 5572 4.45800000 2981415175 2981415175 5.00000000
3.38404393 2.30584264 -0.64857727 6 6 5573 4.14600000 2981415177 2981415177 -9.00000000
3.68656731 2.51103616 0.54768085 7 7 5574 4.49400000 2981415179 2981415179 7.00000000
3.66895604 2.49810338 -0.54499972 8 8 5575 4.47200000 2981415182 2981415182 -7.00000000
3.68572640 2.50858045 0.70614517 8 9 5576 4.51400000 2981415184 2981415184 9.00000000
3.65323305 2.48646474 -0.38662288 10 10 5576 4.43600000 2981415186 2981415186 -5.00000000
3.69276071 2.51242518 0.86818093 9 11 5577 4.55000000 2981415189 2981415189 11.00000000
3.66798639 2.49463320 -0.23247632 8 12 5578 4.44200000 2981415191 2981415191 -3.00000000
3.69856215 2.51448393 1.03252530 9 13 5579 4.59000000 2981415193 2981415193 13.00000000
3.66671681 2.49189806 -0.07738397 7 14 5580 4.43400000 2981415196 2981415196 -1.00000000
3.69134879 2.50769639 1.19574404 8 15 5581 4.62000000 2981415198 2981415198 15.00000000
1.88194442 1.27608919 -0.60926002 4 0 5586 2.35400000 2981415219 2981415219 -15.00000000
3.68796659 2.49975824 0.07776792 8 1 5587 4.45600000 2981415221 2981415221 1.00000000
2.23763728 1.51613379 -0.62401420 3 2 5588 2.77400000 2981415223 2981415223 -13.00000000
3.70209694 2.50839329 0.23436041 7 3 5588 4.47800000 2981415226 2981415226 3.00000000
2.69670606 1.82649374 -0.63310426 5 4 5589 3.31800000 2981415228 2981415228 -11.00000000
3.70054317 2.50545621 0.39098066 8 5 5590 4.48600000 2981415230 2981415230 5.00000000
3.37818384 2.28634262 -0.64607435 6 6 5591 4.13000000 2981415232 2981415232 -9.00000000
3.70594692 2.50722861 0.54938698 8 7 5592 4.50800000 2981415235 2981415235 7.00000000
3.69651842 2.49990940 -0.54792458 8 8 5593 4.49600000 2981415237 2981415237 -7.00000000
3.72468281 2.51800919 0.71208966 8 9 5594 4.55200000 2981415239 2981415239 9.00000000
3.68083358 2.48836589 -0.38871461 10 10 5594 4.46000000 2981415242 2981415242 -5.00000000
3.72015524 2.51400280 0.87276036 9 11 5595 4.57400000 2981415244 2981415244 11.00000000
3.68739057 2.49092364 -0.23320901 8 12 5596 4.45600000 2981415246 2981415246 -3.00000000
3.73712850 2.52357292 1.04107344 9 13 5597 4.62800000 2981415249 2981415249 13.00000000
3.70601845 2.50162363 -0.07804716 7 14 5598 4.47200000 2981415251 2981415251 -1.00000000
3.72919583 2.51726866 1.20557916 8 15 5598 4.65800000 2981415253 2981415253 15.00000000
1.89600360 1.27598381 -0.61236584 4 0 5606 2.36600000 2981415274 2981415274 -15.00000000
3.70496583 2.49245048 0.07794245 8 1 5607 4.46600000 2981415276 2981415276 1.00000000
2.23644757 1.50396383 -0.62221462 3 2 5608 2.76600000 2981415278 2981415278 -13.00000000
3.71911716 2.50102782 0.23488377 7 3 5608 4.48800000 2981415281 2981415281 3.00000000
2.70632386 1.81925988 -0.63386750 5 4 5609 3.32200000 2981415283 2981415283 -11.00000000
3.72911072 2.50585842 0.39307240 8 5 5610 4.51000000 2981415285 2981415285 5.00000000
3.39598274 2.28114533 -0.64795154 9 6 5611 4.14200000 2981415288 2981415288 -9.00000000
3.73115659 2.50534320 0.55182439 8 7 5612 4.52800000 2981415290 2981415290 7.00000000
3.72005630 2.49694777 -0.55011821 8 8 5613 4.51400000 2981415292 2981415292 -7.00000000
3.74165130 2.51049542 0.71365404 8 9 5614 4.56200000 2981415295 2981415295 9.00000000
3.71100545 2.48993325 -0.39098066 10 10 5614 4.48600000 2981415297 2981415297 -5.00000000
3.75173497 2.51631165 0.87810302 9 11 5615 4.60200000 2981415299 2981415299 11.00000000
3.70933437 2.48693490 -0.23404640 8 12 5616 4.47200000 2981415302 2981415302 -3.00000000
3.75562739 2.51702213 1.04377294 8 13 5617 4.64000000 2981415304 2981415304 13.00000000
3.72968006 2.49868894 -0.07836130 7 14 5618 4.49000000 2981415306 2981415306 -1.00000000
3.76203442 2.52036476 1.21334374 8 15 5618 4.68800000 2981415308 2981415308 15.00000000
1.90044606 1.26935768 -0.61236584 4 0 5626 2.36600000 2981415329 2981415329 -15.00000000
3.74357867 2.49948955 0.07857073 8 1 5627 4.50200000 2981415331 2981415331 1.00000000
2.25140905 1.50263894 -0.62491405 3 2 5628 2.77800000 2981415334 2981415334 -13.00000000
3.74155045 2.49624753 0.23572114 7 3 5629 4.50400000 2981415336 2981415336 3.00000000
2.70122576 1.80217493 -0.63119614 5 4 5629 3.30800000 2981415338 2981415338 -11.00000000
3.75275326 2.50277543 0.39464119 8 5 5630 4.52800000 2981415341 2981415341 5.00000000
3.40063739 2.26708579 -0.64732581 9 6 5631 4.13800000 2981415343 2981415343 -9.00000000
3.76300573 2.50771546 0.55523676 8 7 5632 4.55600000 2981415345 2981415345 7.00000000
3.74196625 2.49275136 -0.55206811 8 8 5633 4.53000000 2981415348 2981415348 -7.00000000
3.76146388 2.50573993 0.71584409 8 9 5633 4.57600000 2981415350 2981415350 9.00000000
3.74786639 2.49573755 -0.39394397 10 10 5634 4.52000000 2981415352 2981415352 -5.00000000
3.78337574 2.51843047 0.88344562 9 11 5635 4.63000000 2981415355 2981415355 11.00000000
3.73960900 2.48835516 -0.23540713 8 12 5636 4.49800000 2981415357 2981415357 -3.00000000
3.77412605 2.51037288 1.04647231 8 13 5637 4.65200000 2981415359 2981415359 13.00000000
3.75003576 2.49340510 -0.07860564 7 14 5638 4.50400000 2981415361 2981415361 -1.00000000
3.79055357 2.51939154 1.21955538 8 15 5639 4.71200000 2981415364 2981415364 15.00000000
1.90164495 1.26058137 -0.61133057 4 0 5646 2.36200000 2981415384 2981415384 -15.00000000
3.77895188 2.50408006 0.07912921 8 1 5647 4.53400000 2981415387 2981415387 1.00000000
2.25014186 1.49046624 -0.62311441 3 2 5648 2.77000000 2981415389 2981415389 -13.00000000
8.24058533 5.45846224 0.51802129 10 3 5648 9.89800000 2981415391 2981415391 3.00000000
2.70750022 1.79273486 -0.63119614 5 4 5649 3.30800000 2981415394 2981415394 -11.00000000
8.24565315 5.45767927 0.86510789 11 5 5650 9.92600000 2981415396 2981415396 5.00000000
3.40194058 2.25084162 -0.64607435 9 6 5651 4.13000000 2981415398 2981415398 -9.00000000
3.79491639 2.50989580 0.55864906 8 7 5652 4.58400000 2981415401 2981415401 7.00000000
3.76223612 2.48733783 -0.55377430 8 8 5653 4.54400000 2981415403 2981415403 -7.00000000
3.78875065 2.50391722 0.71928567 8 9 5654 4.59800000 2981415405 2981415405 9.00000000
3.76652837 2.48923111 -0.39498982 10 10 5654 4.53200000 2981415408 2981415408 -5.00000000
8.64575958 5.71165943 2.01417971 21 11 5655 10.55600000 2981415410 2981415410 11.00000000
3.76827192 2.48849368 -0.23666319 8 12 5656 4.52200000 2981415412 2981415412 -3.00000000
3.77206898 2.48911095 -0.07888488 7 14 5658 4.52000000 2981415417 2981415417 -1.00000000
6.24405146 4.11875725 2.00429463 9 15 5659 7.74400000 2981415419 2981415419 15.00000000
1.90280581 1.25181222 -0.61029530 4 0 5666 2.35800000 2981415440 2981415440 -15.00000000
8.24365330 5.42124891 0.17222035 13 1 5667 9.86800000 2981415442 2981415442 1.00000000
2.26835799 1.49116647 -0.62671363 3 2 5668 2.78600000 2981415444 2981415444 -13.00000000
2.71210074 1.78219485 -0.63081455 8 4 5669 3.30600000 2981415449 2981415449 -11.00000000
8.26631927 5.42995691 0.86528224 77 5 5670 9.92800000 2981415451 2981415451 5.00000000
3.42133546 2.24654269 -0.64826441 6 6 5671 4.14400000 2981415454 2981415454 -9.00000000
22.02535057 14.45694733 3.23489976 3 7 5672 26.54400000 2981415456 2981415456 7.00000000
3.78251362 2.48181295 -0.55548048 2 8 5673 4.55800000 2981415458 2981415458 -7.00000000
19.09251976 12.52713585 3.61676478 44 9 5673 23.12000000 2981415461 2981415461 9.00000000
7.07390833 4.63962269 -0.74012655 8 10 5674 8.49200000 2981415463 2981415463 -5.00000000
8.66892815 5.68359852 2.01494288 34 11 5675 10.56000000 2981415465 2981415465 11.00000000
8.23375225 5.39623022 -0.51592785 12 12 5676 9.85800000 2981415467 2981415467 -3.00000000
8.30524349 5.44101191 2.29225135 71 13 5677 10.19000000 2981415470 2981415470 13.00000000
8.23564434 5.39336157 -0.17183639 14 14 5678 9.84600000 2981415472 2981415472 -1.00000000
6.27778625 4.10963345 2.01050639 6 15 5679 7.76800000 2981415474 2981415474 15.00000000
1.91039908 1.24727476 -0.61133057 4 0 5686 2.36200000 2981415495 2981415495 -15.00000000
8.23238373 5.37276793 0.17159206 13 1 5687 9.83200000 2981415497 2981415497 1.00000000
2.26049232 1.47472107 -0.62311441 3 2 5688 2.77000000 2981415500 2981415500 -13.00000000
8.25841808 5.38770390 0.51676524 84 3 5688 9.87400000 2981415502 2981415502 3.00000000
2.72159410 1.77486181 -0.63157779 9 4 5689 3.31000000 2981415504 2981415504 -11.00000000
8.25518036 5.38148403 0.86214459 77 5 5690 9.89200000 2981415507 2981415507 5.00000000
3.41591644 2.22595835 -0.64576149 6 6 5691 4.12800000 2981415509 2981415509 -9.00000000
8.33493328 5.42932940 1.22137451 2 7 5692 10.02200000 2981415511 2981415511 7.00000000
4.62124825 3.00910711 -0.67710608 4 8 5693 5.55600000 2981415514 2981415514 -7.00000000
7.07837152 4.60729408 -0.73890638 13 10 5694 8.47800000 2981415518 2981415518 -5.00000000
8.67555046 5.64473772 2.01188993 40 11 5695 10.54400000 2981415520 2981415520 11.00000000
8.22742462 5.35112190 -0.51435781 12 12 5696 9.82800000 2981415523 2981415523 -3.00000000
8.31928444 5.40880156 2.29090142 74 13 5697 10.18400000 2981415525 2981415525 13.00000000
8.24100685 5.35586309 -0.17155716 12 14 5698 9.83000000 2981415527 2981415527 -1.00000000
7.38883591 4.80019951 2.36094737 29 15 5699 9.12200000 2981415530 2981415530 15.00000000
1.91798377 1.24269962 -0.61236584 4 0 5706 2.36600000 2981415550 2981415550 -15.00000000
8.23430443 5.33312798 0.17124301 13 1 5707 9.81200000 2981415553 2981415553 1.00000000
2.26889801 1.46893966 -0.62401420 3 2 5708 2.77400000 2981415555 2981415555 -13.00000000
8.25705624 5.34581852 0.51550919 84 3 5708 9.85000000 2981415557 2981415557 3.00000000
2.72942114 1.76641762 -0.63195938 9 4 5709 3.31200000 2981415560 2981415560 -11.00000000
8.25049496 5.33748436 0.85970426 73 5 5710 9.86400000 2981415562 2981415562 5.00000000
3.41868949 2.21080303 -0.64482284 6 6 5711 4.12200000 2981415564 2981415564 -9.00000000
8.35216713 5.39912462 1.22113085 2 7 5712 10.02000000 2981415566 2981415566 7.00000000
4.61338377 2.98110652 -0.67442495 6 8 5713 5.53400000 2981415569 2981415569 -7.00000000
17.77091026 11.48332310 3.35113907 14 9 5713 21.42200000 2981415571 2981415571 9.00000000
7.09441090 4.58255768 -0.73890638 13 10 5714 8.47800000 2981415573 2981415573 -5.00000000
8.69355202 5.61335516 2.01150846 40 11 5715 10.54200000 2981415576 2981415576 11.00000000
8.23262882 5.31370544 -0.51352042 12 12 5716 9.81200000 2981415578 2981415578 -3.00000000
8.31355190 5.36388111 2.28415298 75 13 5717 10.15400000 2981415580 2981415580 13.00000000
8.24788857 5.31947708 -0.17131282 10 14 5718 9.81600000 2981415583 2981415583 -1.00000000
7.41932440 4.78509474 2.36560607 40 15 5718 9.14000000 2981415585 2981415585 15.00000000
1.92555976 1.23808658 -0.61340111 4 0 5726 2.37000000 2981415606 2981415606 -15.00000000
8.23268318 5.29137802 0.17082416 13 1 5727 9.78800000 2981415608 2981415608 1.00000000
2.26745367 1.45679736 -0.62221462 3 2 5728 2.76600000 2981415610 2981415610 -13.00000000
8.24542046 5.29753113 0.51362509 94 3 5728 9.81400000 2981415613 2981415613 3.00000000
2.73061490 1.75369668 -0.63081455 9 4 5729 3.30600000 2981415615 2981415615 -11.00000000
8.25063324 5.29681206 0.85778683 77 5 5730 9.84200000 2981415617 2981415617 5.00000000
3.43802309 2.20632434 -0.64701295 6 6 5731 4.13600000 2981415619 2981415619 -9.00000000
8.35425377 5.35921860 1.21869338 2 7 5732 10.00000000 2981415622 2981415622 7.00000000
4.61206436 2.95748377 -0.67271876 4 8 5733 5.52000000 2981415624 2981415624 -7.00000000
17.86077118 11.45320988 3.36052513 4 9 5733 21.48200000 2981415626 2981415626 9.00000000
7.09694481 4.54916430 -0.73751187 13 10 5734 8.46200000 2981415629 2981415629 -5.00000000
8.70978737 5.58085632 2.01074529 40 11 5735 10.53800000 2981415631 2981415631 11.00000000
8.23430824 5.27416325 -0.51247370 12 12 5736 9.79200000 2981415633 2981415633 -3.00000000
8.29611874 5.31171179 2.27425528 76 13 5737 10.11000000 2981415636 2981415636 13.00000000
8.23945904 5.27340698 -0.17075434 12 14 5738 9.78400000 2981415638 2981415638 -1.00000000
7.43681288 4.75786924 2.36560607 45 15 5739 9.14000000 2981415640 2981415640 15.00000000
1.91662765 1.22337914 -0.60926002 4 0 5745 2.35400000 2981415661 2981415661 -15.00000000
8.25187111 5.26512432 0.17085905 13 1 5746 9.79000000 2981415663 2981415663 1.00000000
2.27227211 1.44927025 -0.62221462 3 2 5747 2.76600000 2981415666 2981415666 -13.00000000
8.25207329 5.26120090 0.51289237 89 3 5748 9.80000000 2981415668 2981415668 3.00000000
2.72482729 1.73724389 -0.62814319 6 4 5748 3.29200000 2981415670 2981415670 -11.00000000
8.25135040 5.25871515 0.85604370 81 5 5749 9.82200000 2981415672 2981415672 5.00000000
3.45031881 2.19809556 -0.64795154 6 6 5750 4.14200000 2981415675 2981415675 -9.00000000
8.35188770 5.31868982 1.21576858 2 7 5751 9.97600000 2981415677 2981415677 7.00000000
4.63189411 2.94856930 -0.67418122 4 8 5752 5.53200000 2981415679 2981415679 -7.00000000
19.28508759 12.27649403 3.62083220 22 9 5752 23.14600000 2981415682 2981415682 9.00000000
7.11535311 4.52774382 -0.73786050 13 10 5753 8.46600000 2981415684 2981415684 -5.00000000
8.72161961 5.54772854 2.00921869 37 11 5754 10.53000000 2981415686 2981415686 11.00000000
8.24164009 5.24039841 -0.51184565 17 12 5755 9.78000000 2981415689 2981415689 -3.00000000
8.29724121 5.27371836 2.26975608 75 13 5756 10.09000000 2981415691 2981415691 13.00000000
8.22989559 5.22889709 -0.17019586 14 14 5757 9.75200000 2981415693 2981415693 -1.00000000
7.44194031 4.72826672 2.36250019 45 15 5757 9.12800000 2981415696 2981415696 15.00000000
1.91435826 1.21254659 -0.60718948 4 0 5765 2.34600000 2981415716 2981415716 -15.00000000
8.23471928 5.21382332 0.17012605 13 1 5766 9.74800000 2981415719 2981415719 1.00000000
2.29049039 1.44966710 -0.62581384 3 2 5767 2.78200000 2981415721 2981415721 -13.00000000
8.25182152 5.22061729 0.51174098 94 3 5768 9.77800000 2981415723 2981415723 3.00000000
2.72921562 1.72667229 -0.62776160 5 4 5768 3.29000000 2981415725 2981415725 -11.00000000
8.23934650 5.21071148 0.85290611 81 5 5769 9.78600000 2981415728 2981415728 5.00000000
3.45129156 2.18181610 -0.64670008 6 6 5770 4.13400000 2981415730 2981415730 -9.00000000
8.36201191 5.28420162 1.21454990 2 7 5771 9.96600000 2981415732 2981415732 7.00000000
4.64215803 2.93238306 -0.67418122 4 8 5772 5.53200000 2981415735 2981415735 -7.00000000
19.32494164 12.20256424 3.61989355 38 9 5773 23.14000000 2981415737 2981415737 9.00000000
7.12437630 4.49862432 -0.73716325 13 10 5773 8.45800000 2981415739 2981415739 -5.00000000
8.73429108 5.51305866 2.00769234 34 11 5774 10.52200000 2981415742 2981415742 11.00000000
8.23961258 5.19880867 -0.51058960 17 12 5775 9.75600000 2981415744 2981415744 -3.00000000
8.29746819 5.23328781 2.26480722 75 13 5776 10.06800000 2981415746 2981415746 13.00000000
8.23794746 5.19373846 -0.16998644 14 14 5777 9.74000000 2981415749 2981415749 -1.00000000
7.45268250 4.69683886 2.36042976 45 15 5778 9.12000000 2981415751 2981415751 15.00000000
1.93024027 1.21271610 -0.61081296 4 0 5786 2.36000000 2981415772 2981415772 -15.00000000
8.22329235 5.16446352 0.16949777 13 1 5787 9.71200000 2981415774 2981415774 1.00000000
2.29908919 1.44333458 -0.62671363 3 2 5788 2.78600000 2981415776 2981415776 -13.00000000
8.26074982 5.18396807 0.51111293 94 3 5789 9.76600000 2981415778 2981415778 3.00000000
2.75215530 1.72709322 -0.63157779 5 4 5789 3.31000000 2981415781 2981415781 -11.00000000
8.24657440 5.17306662 0.85168594 81 5 5790 9.77200000 2981415783 2981415783 5.00000000
3.46093869 2.17020106 -0.64701295 6 6 5791 4.13600000 2981415785 2981415785 -9.00000000
8.36282063 5.24192095 1.21186876 2 7 5792 9.94400000 2981415788 2981415788 7.00000000
4.65287495 2.91534901 -0.67418122 4 8 5793 5.53200000 2981415790 2981415790 -7.00000000
7.14419365 4.47459698 -0.73751187 13 10 5794 8.46200000 2981415795 2981415795 -5.00000000
16.28581810 10.19628143 3.73489523 22 11 5795 19.57400000 2981415797 2981415797 11.00000000
8.22813797 5.14950180 -0.50870550 17 12 5796 9.72000000 2981415799 2981415799 -3.00000000
8.30337620 5.19457245 2.26120806 74 13 5797 10.05200000 2981415802 2981415802 13.00000000
8.23658276 5.15078688 -0.16956758 14 14 5798 9.71600000 2981415804 2981415804 -1.00000000
7.47558403 4.67489243 2.36250019 45 15 5798 9.12800000 2981415806 2981415806 15.00000000
1.93610096 1.20699286 -0.61133057 4 0 5806 2.36200000 2981415827 2981415827 -15.00000000
8.23448086 5.13149691 0.16935815 13 1 5807 9.70400000 2981415829 2981415829 1.00000000
2.28757286 1.42499673 -0.62221462 3 2 5808 2.76600000 2981415831 2981415831 -13.00000000
8.25166798 5.13820982 0.50943822 84 3 5809 9.73400000 2981415834 2981415834 3.00000000
2.76483345 1.72162688 -0.63310426 5 4 5809 3.31800000 2981415836 2981415836 -11.00000000
8.24766731 5.13372087 0.84994280 77 5 5810 9.75200000 2981415838 2981415838 5.00000000
3.45842981 2.15184546 -0.64513576 4 6 5811 4.12400000 2981415841 2981415841 -9.00000000
24.02898598 14.94509220 3.47449493 3 7 5812 28.51000000 2981415843 2981415843 7.00000000
4.65965128 2.89699340 -0.67369372 4 8 5813 5.52800000 2981415845 2981415845 -7.00000000
17.87996483 11.11198711 3.33424425 14 9 5814 21.31400000 2981415848 2981415848 9.00000000
7.15976954 4.44963169 -0.73751187 13 10 5814 8.46200000 2981415850 2981415850 -5.00000000
16.29963112 10.12590313 3.72993422 33 11 5815 19.54800000 2981415852 2981415852 11.00000000
8.21891499 5.10389042 -0.50703073 17 12 5816 9.68800000 2981415854 2981415854 -3.00000000
8.30324554 5.15425110 2.25625896 72 13 5817 10.03000000 2981415857 2981415857 13.00000000
8.24091911 5.11356974 -0.16928834 14 14 5818 9.70000000 2981415859 2981415859 -1.00000000
7.49595165 4.64949846 2.36353540 45 15 5819 9.13200000 2981415861 2981415861 15.00000000
1.94337845 1.20259905 -0.61236584 4 0 5825 2.36600000 2981415882 2981415882 -15.00000000
8.23614693 5.09469461 0.16904400 13 1 5826 9.68600000 2981415884 2981415884 1.00000000
2.29560065 1.41945279 -0.62311441 3 2 5827 2.77000000 2981415887 2981415887 -13.00000000
8.24147892 5.09401608 0.50776345 84 3 5828 9.70200000 2981415889 2981415889 3.00000000
2.75716734 1.70419109 -0.63005131 5 4 5828 3.30200000 2981415891 2981415891 -11.00000000
8.24600124 5.09482241 0.84802538 81 5 5829 9.73000000 2981415894 2981415894 5.00000000
3.47226930 2.14451718 -0.64638722 4 6 5830 4.13200000 2981415896 2981415896 -9.00000000
24.13922310 14.90286827 3.48326969 14 7 5831 28.58200000 2981415898 2981415898 7.00000000
4.68105745 2.88882327 -0.67539990 4 8 5832 5.54200000 2981415901 2981415901 -7.00000000
17.86099243 11.02256298 3.32423234 9 9 5832 21.25000000 2981415903 2981415903 9.00000000
7.18126822 4.43004894 -0.73820913 13 10 5833 8.47000000 2981415905 2981415905 -5.00000000
16.34648895 10.08003902 3.73298717 37 11 5834 19.56400000 2981415907 2981415907 11.00000000
8.21709251 5.06507921 -0.50587934 12 12 5835 9.66600000 2981415910 2981415910 -3.00000000
8.30038357 5.11442137 2.25086021 68 13 5836 10.00600000 2981415912 2981415912 13.00000000
8.23910141 5.07467794 -0.16890439 16 14 5837 9.67800000 2981415914 2981415914 -1.00000000
7.51381111 4.62795258 2.36457086 45 15 5837 9.13600000 2981415917 2981415917 15.00000000
1.94097924 1.19176471 -0.61029530 4 0 5845 2.35800000 2981415937 2981415937 -15.00000000
8.23854160 5.05649948 0.16872987 13 1 5846 9.66800000 2981415940 2981415940 1.00000000
2.30386353 1.41346920 -0.62401420 3 2 5847 2.77400000 2981415942 2981415942 -13.00000000
8.24899483 5.05895233 0.50713539 84 3 5848 9.69000000 2981415944 2981415944 3.00000000
2.75807858 1.69147730 -0.62890643 5 4 5848 3.29600000 2981415947 2981415947 -11.00000000
8.23655796 5.04934645 0.84523642 77 5 5849 9.69800000 2981415949 2981415949 5.00000000
3.47299671 2.12825513 -0.64513576 6 6 5850 4.12400000 2981415951 2981415951 -9.00000000
4.68095541 2.86624599 -0.67393744 4 8 5852 5.53000000 2981415956 2981415956 -7.00000000
19.51028061 11.94186878 3.62302232 5 9 5853 23.16000000 2981415958 2981415958 9.00000000
7.18989086 4.40079403 -0.73751187 13 10 5853 8.46200000 2981415960 2981415960 -5.00000000
16.38157463 10.02291775 3.73298717 26 11 5854 19.56400000 2981415963 2981415963 11.00000000
8.21768475 5.02594471 -0.50483263 12 12 5855 9.64600000 2981415965 2981415965 -3.00000000
8.29657078 5.07220221 2.24501157 74 13 5856 9.98000000 2981415967 2981415967 13.00000000
8.22775841 5.02816057 -0.16831101 14 14 5857 9.64400000 2981415970 2981415970 -1.00000000
7.52742577 4.59836769 2.36353540 45 15 5858 9.13200000 2981415972 2981415972 15.00000000
1.95316875 1.19034851 -0.61288351 4 0 5864 2.36800000 2981415993 2981415993 -15.00000000
8.22794056 5.01250601 0.16817139 13 1 5865 9.63600000 2981415995 2981415995 1.00000000
2.31852460 1.41190290 -0.62671363 3 2 5866 2.78600000 2981415997 2981415997 -13.00000000
8.24695969 5.02014589 0.50598401 81 3 5867 9.66800000 2981416000 2981416000 3.00000000
2.76702642 1.68436348 -0.62966967 5 4 5867 3.30000000 2981416002 2981416002 -11.00000000
8.23623562 5.01164865 0.84349328 73 5 5868 9.67800000 2981416004 2981416004 5.00000000
3.48003507 2.11672664 -0.64513576 6 6 5869 4.12400000 2981416007 2981416007 -9.00000000
24.23671150 14.73615170 3.48278213 35 7 5870 28.57800000 2981416009 2981416009 7.00000000
4.68195248 2.84555268 -0.67271876 4 8 5871 5.52000000 2981416011 2981416011 -7.00000000
18.07571602 10.98588657 3.35020041 9 9 5871 21.41600000 2981416013 2981416013 9.00000000
6.67147589 4.05313206 -0.68295240 8 10 5872 7.83600000 2981416016 2981416016 -5.00000000
16.39794159 9.95834923 3.72917104 11 11 5873 19.54400000 2981416018 2981416018 11.00000000
8.23089123 4.99659348 -0.50462329 12 12 5874 9.64200000 2981416020 2981416020 -3.00000000
8.30501556 5.03960705 2.24276209 72 13 5875 9.97000000 2981416023 2981416023 13.00000000
8.22729015 4.99047756 -0.16796196 14 14 5876 9.62400000 2981416025 2981416025 -1.00000000
7.52862072 4.56668186 2.35939431 47 15 5876 9.11600000 2981416027 2981416027 15.00000000
1.94904625 1.17852545 -0.61029530 4 0 5884 2.35800000 2981416048 2981416048 -15.00000000
8.22142792 4.96927261 0.16768272 13 1 5885 9.60800000 2981416050 2981416050 1.00000000
2.31343126 1.39775467 -0.62401420 3 2 5886 2.77400000 2981416053 2981416053 -13.00000000
8.24904537 4.98203516 0.50504196 65 3 5887 9.65000000 2981416055 2981416055 3.00000000
2.77793074 1.67773938 -0.63081455 5 4 5887 3.30600000 2981416057 2981416057 -11.00000000
8.23662281 4.97257090 0.84175014 77 5 5888 9.65800000 2981416060 2981416060 5.00000000
3.48402023 2.10252476 -0.64450997 4 6 5889 4.12000000 2981416062 2981416062 -9.00000000
24.28120232 14.64735794 3.48180723 14 7 5890 28.57000000 2981416064 2981416064 7.00000000
4.70205641 2.83534265 -0.67418122 4 8 5891 5.53200000 2981416066 2981416066 -7.00000000
18.20045090 10.97055054 3.36584401 4 9 5892 21.51600000 2981416069 2981416069 9.00000000
6.68387699 4.02879095 -0.68277806 8 10 5892 7.83400000 2981416071 2981416071 -5.00000000
8.33569527 5.02246189 1.89168036 3 11 5893 9.91400000 2981416073 2981416073 11.00000000
8.22090816 4.95134449 -0.50294852 17 12 5894 9.61000000 2981416076 2981416076 -3.00000000
8.30920029 5.00254536 2.23916268 78 13 5895 9.95400000 2981416078 2981416078 13.00000000
8.23266602 4.95451069 -0.16771762 16 14 5896 9.61000000 2981416080 2981416080 -1.00000000
7.54861879 4.54104900 2.36042976 45 15 5897 9.12000000 2981416083 2981416083 15.00000000
1.95646143 1.17370248 -0.61133057 4 0 5904 2.36200000 2981416103 2981416103 -15.00000000
8.22843361 4.93437386 0.16747329 13 1 5905 9.59600000 2981416106 2981416106 1.00000000
2.31161046 1.38566303 -0.62221462 3 2 5906 2.76600000 2981416108 2981416108 -13.00000000
8.23726082 4.93575859 0.50326258 52 3 5907 9.61600000 2981416110 2981416110 3.00000000
2.78545427 1.66904151 -0.63119614 5 4 5907 3.30800000 2981416113 2981416113 -11.00000000
8.24025631 4.93559933 0.84035569 77 5 5908 9.64200000 2981416115 2981416115 5.00000000
3.50828648 2.10049772 -0.64763868 4 6 5909 4.14000000 2981416117 2981416117 -9.00000000
8.32250977 4.98091936 1.19090724 2 7 5910 9.77200000 2981416119 2981416119 7.00000000
4.71192503 2.81891227 -0.67418122 4 8 5911 5.53200000 2981416122 2981416122 -7.00000000
8.35044861 4.99566126 1.54119229 2 9 5911 9.85200000 2981416124 2981416124 9.00000000
6.69447947 4.00339031 -0.68242949 12 10 5912 7.83000000 2981416126 2981416126 -5.00000000
8.33295441 4.98124647 1.88710093 3 11 5913 9.89000000 2981416129 2981416129 11.00000000
8.21070957 4.90622616 -0.50127381 12 12 5914 9.57800000 2981416131 2981416131 -3.00000000
8.29649734 4.95552301 2.23106456 76 13 5915 9.91800000 2981416133 2981416133 13.00000000
8.24132633 4.92061758 -0.16754310 14 14 5916 9.60000000 2981416136 2981416136 -1.00000000
6.90845251 4.12480402 2.15596271 13 15 5916 8.33000000 2981416138 2981416138 15.00000000
1.96552682 1.16983008 -0.61288351 4 0 5924 2.36800000 2981416159 2981416159 -15.00000000
8.23014069 4.89641953 0.16715916 13 1 5925 9.57800000 2981416161 2981416161 1.00000000
2.31643319 1.37758565 -0.62221462 3 2 5926 2.76600000 2981416163 2981416163 -13.00000000
8.22868729 4.89166641 0.50169247 42 3 5927 9.58600000 2981416166 2981416166 3.00000000
2.78957582 1.65830505 -0.63081455 5 4 5927 3.30600000 2981416168 2981416168 -11.00000000
8.24201965 4.89764500 0.83878684 81 5 5928 9.62400000 2981416170 2981416170 5.00000000
3.50540686 2.08218598 -0.64576149 4 6 5929 4.12800000 2981416172 2981416172 -9.00000000
24.42895508 14.50485134 3.48838806 42 7 5930 28.62400000 2981416175 2981416175 7.00000000
4.72173643 2.80244732 -0.67418122 4 8 5931 5.53200000 2981416177 2981416177 -7.00000000
18.32566261 10.87665653 3.37523007 19 9 5931 21.57600000 2981416179 2981416179 9.00000000
6.69299173 3.97084832 -0.68086064 17 10 5932 7.81200000 2981416182 2981416182 -5.00000000
8.35029125 4.95212841 1.88710093 3 11 5933 9.89000000 2981416184 2981416184 11.00000000
8.22263145 4.87448025 -0.50095975 12 12 5934 9.57200000 2981416186 2981416186 -3.00000000
8.29195023 4.91361761 2.22521591 81 13 5935 9.89200000 2981416189 2981416189 13.00000000
8.23436451 4.87755203 -0.16705443 14 14 5936 9.57200000 2981416191 2981416191 -1.00000000
7.58600235 4.49350071 2.36250019 31 15 5936 9.12800000 2981416193 2981416193 15.00000000
1.95795369 1.15608633 -0.60926002 4 0 5944 2.35400000 2981416214 2981416214 -15.00000000
8.22996140 4.85749674 0.16681010 13 1 5945 9.55800000 2981416216 2981416216 1.00000000
2.32122779 1.36949134 -0.62221462 3 2 5946 2.76600000 2981416219 2981416219 -13.00000000
8.22506809 4.85073805 0.50043643 23 3 5947 9.56200000 2981416221 2981416221 3.00000000
2.78520083 1.64257371 -0.62852484 5 4 5947 3.29400000 2981416223 2981416223 -11.00000000
8.23846912 4.85670328 0.83669513 81 5 5948 9.60000000 2981416225 2981416225 5.00000000
3.51605749 2.07194281 -0.64638722 4 6 5949 4.13200000 2981416228 2981416228 -9.00000000
8.33142376 4.90758371 1.18725109 9 7 5950 9.74200000 2981416230 2981416230 7.00000000
4.72464752 2.78191948 -0.67320627 6 8 5951 5.52400000 2981416232 2981416232 -7.00000000
8.35534000 4.91774368 1.53556073 2 9 5952 9.81600000 2981416235 2981416235 9.00000000
8.34045315 4.90702200 1.88099504 3 11 5953 9.85800000 2981416239 2981416239 11.00000000
8.23787498 4.84473562 -0.50085509 12 12 5954 9.57000000 2981416242 2981416242 -3.00000000
8.28217220 4.86884212 2.21801734 73 13 5955 9.86000000 2981416244 2981416244 13.00000000
8.22375584 4.83256912 -0.16649596 14 14 5956 9.54000000 2981416246 2981416246 -1.00000000
7.60330677 4.46797180 2.36301780 45 15 5956 9.13000000 2981416248 2981416248 15.00000000
1.95364261 1.14436269 -0.60667187 4 0 5964 2.34400000 2981416269 2981416269 -15.00000000
8.23478794 4.82166624 0.16656576 13 1 5965 9.54400000 2981416272 2981416272 1.00000000
2.34954000 1.37516153 -0.62851322 3 2 5966 2.79400000 2981416274 2981416274 -13.00000000
8.24195004 4.82199764 0.50043643 23 3 5967 9.56200000 2981416276 2981416276 3.00000000
