# .PCD v0.7 - Point Cloud Data file format
VERSION 0.7
FIELDS x y z intensity laser_id azimuth distance_m adjustedtime timestamp vertical_angle
SIZE 4 4 4 1 1 2 8 8 4 8
TYPE F F F U U U F U U F
COUNT 1 1 1 1 1 1 1 1 1 1
WIDTH 538
HEIGHT 1
VIEWPOINT 0 0 0 1 0 0 0
POINTS 538
DATA ascii
5.01936865 2.20125937 -0.67296249 9 8 6632 5.52200000 2980918070 2980918070 -7.00000000
21.21279907 9.29852390 3.66838813 5 9 6633 23.45000000 2980918072 2980918072 9.00000000
7.66770649 3.36110067 -0.73245686 13 10 6633 8.40400000 2980918074 2980918074 -5.00000000
17.53093529 7.68094969 3.72039390 41 11 6634 19.49800000 2980918077 2980918077 11.00000000
8.20354652 3.59257007 -0.46934885 17 12 6635 8.96800000 2980918079 2980918079 -3.00000000
8.25301552 3.61251736 2.07989740 64 13 6636 9.24600000 2980918081 2980918081 13.00000000
8.18183231 3.57965732 -0.15588489 20 14 6637 8.93200000 2980918084 2980918084 -1.00000000
7.13135719 3.11857820 2.08556390 45 15 6638 8.05800000 2980918086 2980918086 15.00000000
2.08263850 0.90771890 -0.60874242 4 0 6645 2.35200000 2980918107 2980918107 -15.00000000
8.18011189 3.56360650 0.15574527 18 1 6646 8.92400000 2980918109 2980918109 1.00000000
8.18489361 3.56399012 -2.06100154 8 2 6647 9.16200000 2980918111 2980918111 -13.00000000
8.21900177 3.57713580 0.46976754 15 3 6648 8.97600000 2980918113 2980918113 3.00000000
2.96304488 1.28959870 -0.62814319 6 4 6648 3.29200000 2980918116 2980918116 -11.00000000
8.19045067 3.56300902 0.78143841 75 5 6649 8.96600000 2980918118 2980918118 5.00000000
3.71184349 1.61395550 -0.64106846 6 6 6650 4.09800000 2980918120 2980918120 -9.00000000
8.21813011 3.57163906 1.10023642 95 7 6651 9.02800000 2980918123 2980918123 7.00000000
5.03248405 2.18609786 -0.67369372 9 8 6652 5.52800000 2980918125 2980918125 -7.00000000
21.23264694 9.22340679 3.66651106 22 9 6652 23.43800000 2980918127 2980918127 9.00000000
7.68670273 3.33748889 -0.73315412 13 10 6653 8.41200000 2980918130 2980918130 -5.00000000
17.54323196 7.61345577 3.71734095 33 11 6654 19.48200000 2980918132 2980918132 11.00000000
8.19954586 3.55675912 -0.46840680 17 12 6655 8.95000000 2980918134 2980918134 -3.00000000
8.25484753 3.57903576 2.07719803 66 13 6656 9.23400000 2980918137 2980918137 13.00000000
8.19427776 3.55107570 -0.15588489 16 14 6657 8.93200000 2980918139 2980918139 -1.00000000
7.13811445 3.09337640 2.08452868 45 15 6657 8.05400000 2980918141 2980918141 15.00000000
2.08224702 0.89891219 -0.60770714 4 0 6665 2.34800000 2980918162 2980918162 -15.00000000
8.18515682 3.53186178 0.15560566 15 1 6666 8.91600000 2980918164 2980918164 1.00000000
8.17223263 3.52459335 -2.05470300 8 2 6667 9.13400000 2980918166 2980918166 -13.00000000
8.20942974 3.53893638 0.46851149 13 3 6668 8.95200000 2980918169 2980918169 3.00000000
2.96572566 1.27847064 -0.62776160 6 4 6668 3.29000000 2980918171 2980918171 -11.00000000
8.19002914 3.52887845 0.78021818 75 5 6669 8.95200000 2980918173 2980918173 5.00000000
3.72834039 1.60567701 -0.64294565 6 6 6670 4.11000000 2980918176 2980918176 -9.00000000
8.20501995 3.53194261 1.09682405 92 7 6671 9.00000000 2980918178 2980918178 7.00000000
5.02731991 2.16302609 -0.67198753 9 8 6672 5.51400000 2980918180 2980918180 -7.00000000
21.25360680 9.14006042 3.66432095 50 9 6673 23.42400000 2980918183 2980918183 9.00000000
7.70379686 3.31299829 -0.73367703 13 10 6673 8.41800000 2980918185 2980918185 -5.00000000
17.57330894 7.55372286 3.71810412 33 11 6674 19.48600000 2980918187 2980918187 11.00000000
8.19172573 3.51944327 -0.46725541 17 12 6675 8.92800000 2980918189 2980918189 -3.00000000
8.26012802 3.54712343 2.07539845 62 13 6676 9.22600000 2980918192 2980918192 13.00000000
8.19743538 3.51850700 -0.15571037 18 14 6677 8.92200000 2980918194 2980918194 -1.00000000
7.15295506 3.06871653 2.08556390 45 15 6678 8.05800000 2980918196 2980918196 15.00000000
2.09942579 0.89808065 -0.61184824 4 0 6684 2.36400000 2980918217 2980918217 -15.00000000
8.19498539 3.50391316 0.15557075 18 1 6685 8.91400000 2980918219 2980918219 1.00000000
8.16774845 3.49058151 -2.05065370 8 2 6686 9.11600000 2980918222 2980918222 -13.00000000
8.19907951 3.50227880 0.46725541 10 3 6687 8.92800000 2980918224 2980918224 3.00000000
2.96633792 1.26708651 -0.62699836 6 4 6687 3.28600000 2980918226 2980918226 -11.00000000
8.21268082 3.50639391 0.78126407 82 5 6688 8.96400000 2980918229 2980918229 5.00000000
3.74091196 1.59640586 -0.64419711 4 6 6689 4.11800000 2980918231 2980918231 -9.00000000
8.21303558 3.50315666 1.09633660 90 7 6690 8.99600000 2980918233 2980918233 7.00000000
5.03994370 2.14867854 -0.67271876 6 8 6691 5.52000000 2980918236 2980918236 -7.00000000
21.27131462 9.06859684 3.66244364 56 9 6691 23.41200000 2980918238 2980918238 9.00000000
7.71107483 3.28587127 -0.73332840 13 10 6692 8.41400000 2980918240 2980918240 -5.00000000
17.59826088 7.49540615 3.71810412 33 11 6693 19.48600000 2980918242 2980918242 11.00000000
8.18313789 3.48365378 -0.46610403 17 12 6694 8.90600000 2980918245 2980918245 -3.00000000
8.25391388 3.51208234 2.07089949 66 13 6695 9.20600000 2980918247 2980918247 13.00000000
8.18697548 3.48191261 -0.15529151 18 14 6696 8.89800000 2980918249 2980918249 -1.00000000
7.16789389 3.04849792 2.08711672 42 15 6696 8.06400000 2980918252 2980918252 15.00000000
2.08475995 0.88321090 -0.60667187 4 0 6704 2.34400000 2980918272 2980918272 -15.00000000
8.19795895 3.47138739 0.15539622 12 1 6705 8.90400000 2980918275 2980918275 1.00000000
8.17988300 3.46204948 -2.05065370 8 2 6706 9.11600000 2980918277 2980918277 -13.00000000
8.18918133 3.46429968 0.46599936 10 3 6707 8.90400000 2980918279 2980918279 3.00000000
2.95989418 1.25213492 -0.62470865 6 4 6707 3.27400000 2980918282 2980918282 -11.00000000
8.19550896 3.46529031 0.77847511 82 5 6708 8.93200000 2980918284 2980918284 5.00000000
3.74282265 1.58179998 -0.64357138 6 6 6709 4.11400000 2980918286 2980918286 -9.00000000
8.21241379 3.46905923 1.09463048 87 7 6710 8.98200000 2980918289 2980918289 7.00000000
5.06752968 2.13956618 -0.67539990 6 8 6711 5.54200000 2980918291 2980918291 -7.00000000
21.30440903 8.99057293 3.66244364 56 9 6712 23.41200000 2980918293 2980918293 9.00000000
7.71699095 3.25661063 -0.73280549 13 10 6712 8.40800000 2980918295 2980918295 -5.00000000
17.63155365 7.43698311 3.71963048 37 11 6713 19.49400000 2980918298 2980918298 11.00000000
8.19340706 3.45429206 -0.46599936 17 12 6714 8.90400000 2980918300 2980918300 -3.00000000
8.25893974 3.48022246 2.06909990 66 13 6715 9.19800000 2980918302 2980918302 13.00000000
8.18249416 3.44632769 -0.15497737 16 14 6716 8.88000000 2980918305 2980918305 -1.00000000
7.17545795 3.02070665 2.08608150 40 15 6717 8.06000000 2980918307 2980918307 15.00000000
2.08070445 0.87293881 -0.60460126 4 0 6724 2.33600000 2980918328 2980918328 -15.00000000
8.18974113 3.43424368 0.15501228 15 1 6725 8.88200000 2980918330 2980918330 1.00000000
2.48741007 1.04254711 -0.62266451 4 2 6726 2.76800000 2980918332 2980918332 -13.00000000
8.20122433 3.43569303 0.46599936 10 3 6727 8.90400000 2980918335 2980918335 3.00000000
2.96786833 1.24331248 -0.62547189 6 4 6727 3.27800000 2980918337 2980918337 -11.00000000
8.18917751 3.42896628 0.77673197 78 5 6728 8.91200000 2980918339 2980918339 5.00000000
3.73738790 1.56414974 -0.64169419 6 6 6729 4.10200000 2980918342 2980918342 -9.00000000
8.21531582 3.43654108 1.09341180 90 7 6730 8.97200000 2980918344 2980918344 7.00000000
5.06031561 2.11573815 -0.67344999 6 8 6731 5.52600000 2980918346 2980918346 -7.00000000
20.43743896 8.54497528 3.50851226 10 9 6731 22.42800000 2980918348 2980918348 9.00000000
7.71912003 3.22581220 -0.73193395 13 10 6732 8.39800000 2980918351 2980918351 -5.00000000
17.65559387 7.37463522 3.71924901 37 11 6733 19.49200000 2980918353 2980918353 11.00000000
8.17961216 3.41489816 -0.46453395 17 12 6734 8.87600000 2980918355 2980918355 -3.00000000
8.26384354 3.44837022 2.06730008 66 13 6735 9.19000000 2980918358 2980918358 13.00000000
8.18524647 3.41389561 -0.15480284 18 14 6736 8.87000000 2980918360 2980918360 -1.00000000
7.17830324 2.99392080 2.08401084 40 15 6736 8.05200000 2980918362 2980918362 15.00000000
2.09265900 0.86937630 -0.60718948 4 0 6744 2.34600000 2980918383 2980918383 -15.00000000
8.17951775 3.39643288 0.15459342 12 1 6745 8.85800000 2980918385 2980918385 1.00000000
2.48383451 1.03087008 -0.62086493 4 2 6746 2.76000000 2980918388 2980918388 -13.00000000
8.20947742 3.40551376 0.46579000 10 3 6747 8.90000000 2980918390 2980918390 3.00000000
2.97037697 1.23219287 -0.62509024 6 4 6747 3.27600000 2980918392 2980918392 -11.00000000
8.19189453 3.39654422 0.77586043 78 5 6748 8.90200000 2980918395 2980918395 5.00000000
3.74100018 1.55033803 -0.64138132 6 6 6749 4.10000000 2980918397 2980918397 -9.00000000
8.21075630 3.40100646 1.09121811 85 7 6750 8.95400000 2980918399 2980918399 7.00000000
5.08967924 2.10717368 -0.67637485 6 8 6751 5.55000000 2980918401 2980918401 -7.00000000
21.36483002 8.84086609 3.66213083 84 9 6752 23.41000000 2980918404 2980918404 9.00000000
7.74874306 3.20646596 -0.73367703 13 10 6752 8.41800000 2980918406 2980918406 -5.00000000
8.18779087 3.38479900 -0.46432459 17 12 6754 8.87200000 2980918411 2980918411 -3.00000000
8.27222824 3.41801476 2.06640029 66 13 6755 9.18600000 2980918413 2980918413 13.00000000
8.18787193 3.38148642 -0.15462832 16 14 6756 8.86000000 2980918415 2980918415 -1.00000000
7.19637156 2.97053933 2.08608150 42 15 6757 8.06000000 2980918418 2980918418 15.00000000
2.09940481 0.86316967 -0.60822475 4 0 6765 2.35000000 2980918438 2980918438 -15.00000000
8.18451309 3.36339021 0.15445380 12 1 6766 8.85000000 2980918441 2980918441 1.00000000
2.47678041 1.01731706 -0.61816549 4 2 6767 2.74800000 2980918443 2980918443 -13.00000000
8.20897007 3.37009215 0.46505731 10 3 6768 8.88600000 2980918445 2980918445 3.00000000
2.98758626 1.22651684 -0.62776160 6 4 6768 3.29000000 2980918448 2980918448 -11.00000000
8.19875813 3.36422777 0.77533752 78 5 6769 8.89600000 2980918450 2980918450 5.00000000
3.75214028 1.53886485 -0.64231992 6 6 6770 4.10600000 2980918452 2980918452 -9.00000000
8.20296192 3.36260748 1.08853698 90 7 6771 8.93200000 2980918454 2980918454 7.00000000
5.06063080 2.07345247 -0.67150009 6 8 6772 5.51000000 2980918457 2980918457 -7.00000000
21.36083031 8.75200558 3.65618634 78 9 6772 23.37200000 2980918459 2980918459 9.00000000
7.75859928 3.17728877 -0.73350275 13 10 6773 8.41600000 2980918461 2980918461 -5.00000000
16.18894958 6.62637281 3.40021634 3 11 6774 17.82000000 2980918464 2980918464 11.00000000
8.17795944 3.34569144 -0.46306854 17 12 6775 8.84800000 2980918466 2980918466 -3.00000000
8.26666260 3.38029695 2.06190133 68 13 6776 9.16600000 2980918468 2980918468 13.00000000
8.19650841 3.34994054 -0.15455851 16 14 6777 8.85600000 2980918471 2980918471 -1.00000000
7.20312023 2.94393945 2.08504629 45 15 6777 8.05600000 2980918473 2980918473 15.00000000
2.10598373 0.85729289 -0.60926002 4 0 6785 2.35400000 2980918494 2980918494 -15.00000000
8.18509007 3.33027864 0.15424436 12 1 6786 8.83800000 2980918496 2980918496 1.00000000
2.48392677 1.01013350 -0.61906528 4 2 6787 2.75200000 2980918498 2980918498 -13.00000000
8.19108009 3.32938385 0.46338254 13 3 6788 8.85400000 2980918501 2980918501 3.00000000
2.98093700 1.21164525 -0.62547189 6 4 6788 3.27800000 2980918503 2980918503 -11.00000000
8.21045208 3.33558822 0.77533752 75 5 6789 8.89600000 2980918505 2980918505 5.00000000
3.76114941 1.52724445 -0.64294565 6 6 6790 4.11000000 2980918507 2980918507 -9.00000000
8.20729160 3.33096719 1.08756196 92 7 6791 8.92400000 2980918510 2980918510 7.00000000
5.06783772 2.05577493 -0.67150009 6 8 6792 5.51000000 2980918512 2980918512 -7.00000000
21.35647011 8.66328049 3.65024185 73 9 6792 23.33400000 2980918514 2980918514 9.00000000
7.77702856 3.15318131 -0.73420000 13 10 6793 8.42400000 2980918517 2980918517 -5.00000000
17.75494003 7.19509888 3.72382832 26 11 6794 19.51600000 2980918519 2980918519 11.00000000
8.18033218 3.31337571 -0.46254519 17 12 6795 8.83800000 2980918521 2980918521 -3.00000000
8.26396084 3.34557009 2.05830216 64 13 6796 9.15000000 2980918524 2980918524 13.00000000
8.18220043 3.31080794 -0.15406984 18 14 6797 8.82800000 2980918526 2980918526 -1.00000000
7.21693420 2.92022729 2.08608150 42 15 6797 8.06000000 2980918528 2980918528 15.00000000
2.10150027 0.84778154 -0.60718948 4 0 6803 2.34600000 2980918549 2980918549 -15.00000000
8.19551182 3.30454803 0.15424436 12 1 6804 8.83800000 2980918551 2980918551 1.00000000
2.49070287 1.00378191 -0.61996508 4 2 6805 2.75600000 2980918554 2980918554 -13.00000000
8.19594193 3.30139565 0.46306854 13 3 6806 8.84800000 2980918556 2980918556 3.00000000
2.98290753 1.20154083 -0.62509024 6 4 6806 3.27600000 2980918558 2980918558 -11.00000000
8.19316673 3.29861617 0.77272284 78 5 6807 8.86600000 2980918560 2980918560 5.00000000
3.76592898 1.51542091 -0.64294565 6 6 6808 4.11000000 2980918563 2980918563 -9.00000000
8.21403217 3.30368543 1.08707452 95 7 6809 8.92000000 2980918565 2980918565 7.00000000
5.07611275 2.04058433 -0.67174381 6 8 6810 5.51200000 2980918567 2980918567 -7.00000000
21.34475708 8.57621002 3.64335871 78 9 6811 23.29000000 2980918570 2980918570 9.00000000
7.78504753 3.12799072 -0.73402566 13 10 6811 8.42200000 2980918572 2980918572 -5.00000000
17.78292274 7.14147949 3.72497320 41 11 6812 19.52200000 2980918574 2980918574 11.00000000
8.18884754 3.28691626 -0.46244052 17 12 6813 8.83600000 2980918577 2980918577 -3.00000000
8.27081394 3.31814027 2.05740237 66 13 6814 9.14600000 2980918579 2980918579 13.00000000
8.17956829 3.27987695 -0.15382551 18 14 6815 8.81400000 2980918581 2980918581 -1.00000000
7.22248650 2.89610219 2.08504629 42 15 6815 8.05600000 2980918583 2980918583 15.00000000
2.09009409 0.83470887 -0.60304838 4 0 6823 2.33000000 2980918604 2980918604 -15.00000000
8.18285370 3.26628304 0.15379061 12 1 6824 8.81200000 2980918607 2980918607 1.00000000
2.49419165 0.99508154 -0.61996508 4 2 6825 2.75600000 2980918609 2980918609 -13.00000000
8.19813919 3.26906753 0.46254519 13 3 6826 8.83800000 2980918611 2980918611 3.00000000
2.99073076 1.19257557 -0.62585348 6 4 6826 3.28000000 2980918613 2980918613 -11.00000000
8.18427277 3.26188254 0.77080542 78 5 6827 8.84400000 2980918616 2980918616 5.00000000
3.76385522 1.49934196 -0.64169419 6 6 6828 4.10200000 2980918618 2980918618 -9.00000000
8.21813774 3.27205563 1.08609962 92 7 6829 8.91200000 2980918620 2980918620 7.00000000
5.09611559 2.02799082 -0.67344999 6 8 6830 5.52600000 2980918623 2980918623 -7.00000000
21.34886551 8.49143028 3.63897848 73 9 6831 23.26200000 2980918625 2980918625 9.00000000
7.79036474 3.09858775 -0.73350275 13 10 6831 8.41600000 2980918627 2980918627 -5.00000000
17.79679680 7.07501030 3.72268343 41 11 6832 19.51000000 2980918630 2980918630 11.00000000
8.19099045 3.25462413 -0.46191716 12 12 6833 8.82600000 2980918632 2980918632 -3.00000000
8.27872372 3.28781104 2.05650258 64 13 6834 9.14200000 2980918634 2980918634 13.00000000
8.17795753 3.24614048 -0.15358117 18 14 6835 8.80000000 2980918636 2980918636 -1.00000000
7.22227859 2.86533642 2.08194041 42 15 6836 8.04400000 2980918639 2980918639 15.00000000
2.10032630 0.82988232 -0.60511893 4 0 6844 2.33800000 2980918660 2980918660 -15.00000000
8.17989063 3.23039341 0.15351136 12 1 6845 8.79600000 2980918662 2980918662 1.00000000
2.49782205 0.98593318 -0.61996508 4 2 6846 2.75600000 2980918664 2980918664 -13.00000000
8.20635033 3.23753190 0.46233582 10 3 6847 8.83400000 2980918666 2980918666 3.00000000
2.99508166 1.18160605 -0.62585348 5 4 6847 3.28000000 2980918669 2980918669 -11.00000000
8.19246578 3.23040199 0.77045679 78 5 6848 8.84000000 2980918671 2980918671 5.00000000
3.76381183 1.48336387 -0.64075559 6 6 6849 4.09600000 2980918673 2980918673 -9.00000000
8.20421696 3.23172712 1.08268726 97 7 6850 8.88400000 2980918676 2980918676 7.00000000
5.11090279 2.01220775 -0.67442495 6 8 6851 5.53400000 2980918678 2980918678 -7.00000000
21.35043526 8.40155220 3.63397264 66 9 6852 23.23000000 2980918680 2980918680 9.00000000
7.80166912 3.07001376 -0.73350275 13 10 6852 8.41600000 2980918683 2980918683 -5.00000000
17.81164551 7.00542259 3.72039390 41 11 6853 19.49800000 2980918685 2980918685 11.00000000
8.18241787 3.21654320 -0.46076575 17 12 6854 8.80400000 2980918687 2980918687 -3.00000000
8.28709030 3.25602078 2.05560279 59 13 6855 9.13800000 2980918689 2980918689 13.00000000
8.18235493 3.21322131 -0.15344156 16 14 6856 8.79200000 2980918692 2980918692 -1.00000000
7.23942900 2.84293318 2.08401084 40 15 6856 8.05200000 2980918694 2980918694 15.00000000
2.11400533 0.82676756 -0.60822475 4 0 6864 2.35000000 2980918715 2980918715 -15.00000000
8.18180466 3.19818044 0.15333684 15 1 6865 8.78600000 2980918717 2980918717 1.00000000
2.50306344 0.97791731 -0.62041503 4 2 6866 2.75800000 2980918719 2980918719 -13.00000000
8.20457840 3.20378137 0.46160313 13 3 6867 8.82000000 2980918722 2980918722 3.00000000
2.99918818 1.17114401 -0.62585348 5 4 6867 3.28000000 2980918724 2980918724 -11.00000000
8.19626808 3.19888783 0.76975954 82 5 6868 8.83200000 2980918726 2980918726 5.00000000
3.76528621 1.46878088 -0.64012980 6 6 6869 4.09200000 2980918729 2980918729 -9.00000000
8.19325447 3.19441628 1.07976234 97 7 6870 8.86000000 2980918731 2980918731 7.00000000
5.10309839 1.98858905 -0.67247504 6 8 6871 5.51800000 2980918733 2980918733 -7.00000000
21.36122513 8.31980515 3.63084388 66 9 6872 23.21000000 2980918736 2980918736 9.00000000
7.82719040 3.04854703 -0.73489720 13 10 6872 8.43200000 2980918738 2980918738 -5.00000000
17.83782005 6.94391823 3.72077537 41 11 6873 19.50000000 2980918740 2980918740 11.00000000
8.17684364 3.18144369 -0.45982370 17 12 6874 8.78600000 2980918742 2980918742 -3.00000000
8.28750801 3.22283578 2.05290341 57 13 6875 9.12600000 2980918745 2980918745 13.00000000
8.19911289 3.18681312 -0.15354627 14 14 6876 8.79800000 2980918747 2980918747 -1.00000000
7.25110912 2.81834531 2.08452868 40 15 6876 8.05400000 2980918749 2980918749 15.00000000
2.11868000 0.82008058 -0.60874242 4 0 6884 2.35200000 2980918770 2980918770 -15.00000000
8.18545818 3.16671515 0.15319723 15 1 6885 8.77800000 2980918772 2980918772 1.00000000
2.49737382 0.96565998 -0.61816549 4 2 6886 2.74800000 2980918775 2980918775 -13.00000000
8.19094086 3.16719246 0.46024239 10 3 6886 8.79400000 2980918777 2980918777 3.00000000
3.00325775 1.16066778 -0.62585348 5 4 6887 3.28000000 2980918779 2980918779 -11.00000000
8.19995022 3.16738629 0.76906228 78 5 6888 8.82400000 2980918782 2980918782 5.00000000
3.78328991 1.46060884 -0.64231992 6 6 6889 4.10600000 2980918784 2980918784 -9.00000000
8.19694710 3.16293859 1.07878745 95 7 6890 8.85200000 2980918786 2980918786 7.00000000
5.08407927 1.96076345 -0.66906267 6 8 6891 5.49000000 2980918788 2980918788 -7.00000000
7.82848883 3.01762342 -0.73402566 13 10 6892 8.42200000 2980918793 2980918793 -5.00000000
8.18789959 3.15288186 -0.45982370 17 12 6894 8.78600000 2980918798 2980918798 -3.00000000
8.29143238 3.19108748 2.05110383 57 13 6895 9.11800000 2980918800 2980918800 13.00000000
8.18219090 3.14740467 -0.15302271 16 14 6896 8.76800000 2980918802 2980918802 -1.00000000
7.25909996 2.79232359 2.08401084 45 15 6896 8.05200000 2980918805 2980918805 15.00000000
2.11792159 0.81129789 -0.60770714 4 0 6904 2.34800000 2980918825 2980918825 -15.00000000
8.19459534 3.13740826 0.15316232 15 1 6905 8.77600000 2980918828 2980918828 1.00000000
2.50436950 0.95832956 -0.61906528 4 2 6906 2.75200000 2980918830 2980918830 -13.00000000
8.19689751 3.13500953 0.45992839 13 3 6907 8.78800000 2980918832 2980918832 3.00000000
3.00362372 1.14877474 -0.62509024 5 4 6907 3.27600000 2980918835 2980918835 -11.00000000
8.19234562 3.13162971 0.76731914 82 5 6908 8.80400000 2980918837 2980918837 5.00000000
3.78467488 1.44598377 -0.64169419 4 6 6909 4.10200000 2980918839 2980918839 -9.00000000
8.20422840 3.13289046 1.07830000 95 7 6910 8.84800000 2980918841 2980918841 7.00000000
5.10202026 1.94725180 -0.67052513 6 8 6911 5.50200000 2980918844 2980918844 -7.00000000
21.33757782 8.13949585 3.61707759 16 9 6912 23.12200000 2980918846 2980918846 9.00000000
7.84269762 2.99169874 -0.73437428 13 10 6912 8.42600000 2980918848 2980918848 -5.00000000
17.90237236 6.82551289 3.72421002 26 11 6913 19.51800000 2980918851 2980918851 11.00000000
8.19139004 3.12143660 -0.45940503 17 12 6914 8.77800000 2980918853 2980918853 -3.00000000
8.31162739 3.16559362 2.05335331 52 13 6915 9.12800000 2980918855 2980918855 13.00000000
8.17070103 3.11028743 -0.15260383 18 14 6916 8.74400000 2980918858 2980918858 -1.00000000
7.26386881 2.76363802 2.08245802 40 15 6917 8.04600000 2980918860 2980918860 15.00000000
2.10434365 0.79810458 -0.60304838 4 0 6923 2.33000000 2980918881 2980918881 -15.00000000
8.17877579 3.10029340 0.15267365 18 1 6924 8.74800000 2980918883 2980918883 1.00000000
2.51846766 0.95416206 -0.62176472 4 2 6925 2.76400000 2980918885 2980918885 -13.00000000
8.19736767 3.10570455 0.45940503 10 3 6925 8.77800000 2980918888 2980918888 3.00000000
3.00558066 1.13811278 -0.62470865 5 4 6926 3.27400000 2980918890 2980918890 -11.00000000
8.18591499 3.09809875 0.76575035 86 5 6927 8.78600000 2980918892 2980918892 5.00000000
3.79683948 1.43622088 -0.64294565 4 6 6928 4.11000000 2980918894 2980918894 -9.00000000
8.20714569 3.10285902 1.07732499 97 7 6929 8.84000000 2980918897 2980918897 7.00000000
5.11216354 1.93172562 -0.67101258 9 8 6930 5.50600000 2980918899 2980918899 -7.00000000
21.33118820 8.05613041 3.61144614 49 9 6931 23.08600000 2980918901 2980918901 9.00000000
7.83580065 2.95933962 -0.73280549 13 10 6931 8.40800000 2980918904 2980918904 -5.00000000
17.91388893 6.76194906 3.72192025 37 11 6932 19.50600000 2980918906 2980918906 11.00000000
8.19048309 3.09002590 -0.45877698 17 12 6933 8.76600000 2980918908 2980918908 -3.00000000
8.32754898 3.14007640 2.05470300 53 13 6934 9.13400000 2980918911 2980918911 13.00000000
8.17161465 3.07964921 -0.15242931 14 14 6935 8.73400000 2980918913 2980918913 -1.00000000
7.25986099 2.73603535 2.07883453 42 15 6935 8.03200000 2980918915 2980918915 15.00000000
2.11796880 0.79482675 -0.60615420 4 0 6943 2.34200000 2980918936 2980918936 -15.00000000
8.17831421 3.06751180 0.15246423 18 1 6944 8.73600000 2980918938 2980918938 1.00000000
2.51630878 0.94331300 -0.62041503 4 2 6945 2.75800000 2980918940 2980918940 -13.00000000
8.19880772 3.07356620 0.45888168 13 3 6945 8.76800000 2980918943 2980918943 3.00000000
3.01137352 1.12830329 -0.62509024 5 4 6946 3.27600000 2980918945 2980918945 -11.00000000
8.17802143 3.06251836 0.76400727 78 5 6947 8.76600000 2980918947 2980918947 5.00000000
3.77962923 1.41464949 -0.63919121 6 6 6948 4.08600000 2980918950 2980918950 -9.00000000
8.19561577 3.06584549 1.07440019 95 7 6949 8.81600000 2980918952 2980918952 7.00000000
5.13375044 1.91943061 -0.67296249 6 8 6950 5.52200000 2980918954 2980918954 -7.00000000
7.85728073 2.93615389 -0.73385137 13 10 6951 8.42000000 2980918959 2980918959 -5.00000000
8.18625069 3.05582905 -0.45793962 17 12 6953 8.75000000 2980918964 2980918964 -3.00000000
8.35854340 3.11848187 2.05965185 54 13 6954 9.15600000 2980918966 2980918966 13.00000000
8.17856693 3.04970884 -0.15235952 14 14 6955 8.73000000 2980918968 2980918968 -1.00000000
7.27660751 2.71337676 2.08090520 42 15 6955 8.04000000 2980918970 2980918970 15.00000000
2.12435246 0.78877366 -0.60718948 4 0 6963 2.34600000 2980918991 2980918991 -15.00000000
8.17772293 3.03477097 0.15225479 12 1 6964 8.72400000 2980918993 2980918993 1.00000000
2.50862360 0.93045759 -0.61771560 7 2 6965 2.74600000 2980918996 2980918996 -13.00000000
8.19690800 3.03863573 0.45814896 13 3 6966 8.75400000 2980918998 2980918998 3.00000000
3.01897526 1.11914957 -0.62585348 5 4 6966 3.28000000 2980919000 2980919000 -11.00000000
8.17745209 3.02979994 0.76296139 75 5 6967 8.75400000 2980919003 2980919003 5.00000000
3.77342963 1.39733160 -0.63731402 4 6 6968 4.07400000 2980919005 2980919005 -9.00000000
8.19509697 3.03308463 1.07293773 90 7 6969 8.80400000 2980919007 2980919007 7.00000000
5.12924814 1.89736652 -0.67150009 9 8 6970 5.51000000 2980919010 2980919010 -7.00000000
8.22776890 3.04354429 1.38945091 18 9 6970 8.88200000 2980919012 2980919012 9.00000000
7.86187553 2.90663624 -0.73332840 13 10 6971 8.41400000 2980919014 2980919014 -5.00000000
8.21700573 3.03630233 1.70277953 21 11 6972 8.92400000 2980919017 2980919017 11.00000000
8.18187904 3.02169967 -0.45710224 12 12 6973 8.73400000 2980919019 2980919019 -3.00000000
8.21763897 3.03327680 2.02231002 72 13 6974 8.99000000 2980919021 2980919021 13.00000000
8.17978287 3.01768112 -0.15218498 14 14 6975 8.72000000 2980919023 2980919023 -1.00000000
7.28287888 2.68535185 2.07986975 42 15 6976 8.03600000 2980919026 2980919026 15.00000000
2.12346601 0.78002125 -0.60615420 4 0 6983 2.34200000 2980919046 2980919046 -15.00000000
8.17700386 3.00207186 0.15204537 12 1 6984 8.71200000 2980919049 2980919049 1.00000000
2.50819731 0.92035258 -0.61681581 10 2 6985 2.74200000 2980919051 2980919051 -13.00000000
8.18068981 3.00180483 0.45668355 10 3 6985 8.72600000 2980919053 2980919053 3.00000000
3.01917696 1.10725260 -0.62509024 5 4 6986 3.27600000 2980919056 2980919056 -11.00000000
8.18610764 3.00055099 0.76278704 78 5 6987 8.75200000 2980919058 2980919058 5.00000000
3.79312277 1.38958740 -0.63981694 6 6 6988 4.09000000 2980919060 2980919060 -9.00000000
8.19072247 2.99899983 1.07098782 92 7 6989 8.78800000 2980919063 2980919063 7.00000000
5.12092638 1.87399304 -0.66955018 6 8 6990 5.49400000 2980919065 2980919065 -7.00000000
8.21660709 3.00522518 1.38569653 70 9 6991 8.85800000 2980919067 2980919067 9.00000000
7.89255667 2.88670373 -0.73524582 13 10 6991 8.43600000 2980919070 2980919070 -5.00000000
8.21095943 3.00153470 1.69934487 59 11 6992 8.90600000 2980919072 2980919072 11.00000000
8.16423702 2.98284030 -0.45553216 12 12 6993 8.70400000 2980919074 2980919074 -3.00000000
8.20438099 2.99588370 2.01646113 84 13 6994 8.96400000 2980919076 2980919076 13.00000000
8.16772461 2.98088288 -0.15176612 12 14 6995 8.69600000 2980919079 2980919079 -1.00000000
7.29583788 2.66123748 2.08090520 42 15 6996 8.04000000 2980919081 2980919081 15.00000000
2.12590599 0.77334636 -0.60615420 4 0 7001 2.34200000 2980919102 2980919102 -15.00000000
8.18263626 2.97500181 0.15197556 12 1 7002 8.70800000 2980919104 2980919104 1.00000000
2.51840258 0.91513050 -0.61861539 11 2 7003 2.75000000 2980919106 2980919106 -13.00000000
8.18444824 2.97404337 0.45636955 13 3 7003 8.72000000 2980919109 2980919109 3.00000000
3.01341414 1.09441113 -0.62318218 5 4 7004 3.26600000 2980919111 2980919111 -11.00000000
8.17301941 2.96666121 0.76069534 75 5 7005 8.72800000 2980919113 2980919113 5.00000000
3.79746962 1.37766409 -0.63981694 4 6 7006 4.09000000 2980919116 2980919116 -9.00000000
8.20010376 2.97325301 1.07098782 92 7 7007 8.78800000 2980919118 2980919118 7.00000000
5.13612032 1.86127758 -0.67076886 6 8 7008 5.50400000 2980919120 2980919120 -7.00000000
8.21248722 2.97612166 1.38350642 100 9 7008 8.84400000 2980919123 2980919123 9.00000000
7.89409351 2.85918021 -0.73454863 13 10 7009 8.42800000 2980919125 2980919125 -5.00000000
8.21850204 2.97505641 1.69896328 84 11 7010 8.90400000 2980919127 2980919127 11.00000000
8.16417694 2.95377946 -0.45500880 12 12 7011 8.69400000 2980919129 2980919129 -3.00000000
8.20825386 2.96810627 2.01511145 106 13 7012 8.95800000 2980919132 2980919132 13.00000000
8.15636158 2.94773221 -0.15138218 16 14 7013 8.67400000 2980919134 2980919134 -1.00000000
7.30052853 2.63699126 2.07986975 42 15 7014 8.03600000 2980919136 2980919136 15.00000000
2.12495708 0.76461267 -0.60511893 4 0 7021 2.33800000 2980919157 2980919157 -15.00000000
8.16850853 2.93762350 0.15152179 12 1 7022 8.68200000 2980919159 2980919159 1.00000000
2.52524924 0.90765238 -0.61951518 6 2 7023 2.75400000 2980919162 2980919162 -13.00000000
8.17598438 2.93870068 0.45532283 10 3 7023 8.70000000 2980919164 2980919164 3.00000000
3.02091122 1.08521318 -0.62394542 5 4 7024 3.27000000 2980919166 2980919166 -11.00000000
8.16082287 2.93003488 0.75860357 75 5 7025 8.70400000 2980919169 2980919169 5.00000000
3.81341124 1.36840320 -0.64169419 4 6 7026 4.10200000 2980919171 2980919171 -9.00000000
8.20295811 2.94193077 1.07001281 92 7 7027 8.78000000 2980919173 2980919173 7.00000000
5.15192938 1.84668696 -0.67198753 6 8 7028 5.51400000 2980919176 2980919176 -7.00000000
8.19679260 2.93810511 1.37912619 86 9 7028 8.81600000 2980919178 2980919178 9.00000000
7.91715527 2.83631110 -0.73576880 13 10 7029 8.44200000 2980919180 2980919180 -5.00000000
8.19926357 2.93576145 1.69285738 84 11 7030 8.87200000 2980919182 2980919182 11.00000000
8.16691589 2.92257142 -0.45459011 12 12 7031 8.68600000 2980919185 2980919185 -3.00000000
8.21122551 2.93681097 2.01331186 106 13 7032 8.95000000 2980919187 2980919187 13.00000000
8.17036724 2.92058945 -0.15145199 14 14 7033 8.67800000 2980919189 2980919189 -1.00000000
7.30059242 2.60824180 2.07728171 45 15 7034 8.02600000 2980919192 2980919192 15.00000000
2.12579298 0.75654280 -0.60460126 4 0 7041 2.33600000 2980919212 2980919212 -15.00000000
8.15798855 2.90172076 0.15113784 12 1 7042 8.66000000 2980919215 2980919215 1.00000000
2.52289367 0.89687383 -0.61816549 4 2 7043 2.74800000 2980919217 2980919217 -13.00000000
8.19183826 2.91215014 0.45563683 13 3 7043 8.70600000 2980919219 2980919219 3.00000000
3.03208065 1.07729077 -0.62547189 5 4 7044 3.27800000 2980919222 2980919222 -11.00000000
8.18226624 2.90553069 0.75964946 78 5 7045 8.71600000 2980919224 2980919224 5.00000000
3.80327177 1.34979808 -0.63919121 4 6 7046 4.08600000 2980919226 2980919226 -9.00000000
8.19633865 2.90730667 1.06781924 85 7 7047 8.76200000 2980919228 2980919228 7.00000000
5.16208601 1.83001864 -0.67247504 6 8 7048 5.51800000 2980919231 2980919231 -7.00000000
8.20327473 2.90815496 1.37850046 86 9 7048 8.81200000 2980919233 2980919233 9.00000000
7.93264151 2.81065392 -0.73629171 13 10 7049 8.44800000 2980919235 2980919235 -5.00000000
8.19835758 2.90319061 1.69056773 78 11 7050 8.86000000 2980919238 2980919238 11.00000000
8.17330265 2.89271283 -0.45438078 12 12 7051 8.68200000 2980919240 2980919240 -3.00000000
8.21040344 2.90423131 2.01061249 106 13 7052 8.93800000 2980919242 2980919242 13.00000000
8.17297077 2.88938570 -0.15131237 14 14 7053 8.67000000 2980919245 2980919245 -1.00000000
7.30920172 2.58401775 2.07728171 45 15 7053 8.02600000 2980919247 2980919247 15.00000000
2.13571000 0.75168329 -0.60667187 4 0 7061 2.34400000 2980919268 2980919268 -15.00000000
8.16806793 2.87322617 0.15113784 12 1 7062 8.66000000 2980919270 2980919270 1.00000000
2.51497841 0.88418382 -0.61546606 4 2 7063 2.73600000 2980919272 2980919272 -13.00000000
8.18311119 2.87691331 0.45459011 13 3 7063 8.68600000 2980919275 2980919275 3.00000000
3.03767490 1.06735110 -0.62585348 5 4 7064 3.28000000 2980919277 2980919277 -11.00000000
8.18483925 2.87431097 0.75895220 82 5 7065 8.70800000 2980919279 2980919279 5.00000000
3.81168795 1.33782232 -0.63981694 4 6 7066 4.09000000 2980919281 2980919281 -9.00000000
8.19332504 2.87407875 1.06611300 90 7 7067 8.74800000 2980919284 2980919284 7.00000000
5.15345621 1.80673444 -0.67052513 6 8 7068 5.50200000 2980919286 2980919286 -7.00000000
8.20219135 2.87558126 1.37662327 86 9 7068 8.80000000 2980919288 2980919288 9.00000000
7.97436953 2.79414701 -0.73925501 13 10 7069 8.48200000 2980919291 2980919291 -5.00000000
8.20102978 2.87195992 1.68904126 81 11 7070 8.85200000 2980919293 2980919293 11.00000000
8.15318775 2.85360837 -0.45270601 12 12 7071 8.65000000 2980919295 2980919295 -3.00000000
8.20209599 2.86911941 2.00611353 106 13 7072 8.91800000 2980919298 2980919298 13.00000000
8.16979313 2.85621953 -0.15106803 14 14 7073 8.65600000 2980919300 2980919300 -1.00000000
7.32044697 2.55784822 2.07779932 45 15 7074 8.02800000 2980919302 2980919302 15.00000000
2.14561892 0.74676371 -0.60874242 4 0 7081 2.35200000 2980919323 2980919323 -15.00000000
8.17049217 2.84206891 0.15099822 12 1 7082 8.65200000 2980919325 2980919325 1.00000000
2.51620889 0.87475961 -0.61501616 3 2 7083 2.73400000 2980919328 2980919328 -13.00000000
8.17284775 2.83969069 0.45343873 13 3 7084 8.66400000 2980919330 2980919330 3.00000000
3.03210974 1.05351937 -0.62394542 5 4 7084 3.27000000 2980919332 2980919332 -11.00000000
8.18541145 2.84245515 0.75808066 86 5 7085 8.69800000 2980919334 2980919334 5.00000000
3.83499646 1.33098567 -0.64294565 4 6 7086 4.11000000 2980919337 2980919337 -9.00000000
8.19580555 2.84285903 1.06513810 90 7 7087 8.74000000 2980919339 2980919339 7.00000000
5.15973139 1.78873456 -0.67052513 6 8 7088 5.50200000 2980919341 2980919341 -7.00000000
8.20098019 2.84305048 1.37474608 89 9 7088 8.78800000 2980919344 2980919344 9.00000000
8.02172565 2.77933979 -0.74274123 13 10 7089 8.52200000 2980919346 2980919346 -5.00000000
8.19987392 2.83946085 1.68675148 84 11 7090 8.84000000 2980919348 2980919348 11.00000000
8.15932465 2.82382464 -0.45249668 12 12 7091 8.64600000 2980919351 2980919351 -3.00000000
8.18996143 2.83282709 2.00071478 106 13 7092 8.89400000 2980919353 2980919353 13.00000000
8.16270447 2.82180405 -0.15075389 12 14 7093 8.63800000 2980919355 2980919355 -1.00000000
7.33071470 2.53418970 2.07831693 45 15 7093 8.03000000 2980919358 2980919358 15.00000000
2.14090562 0.73675501 -0.60667187 4 0 7101 2.34400000 2980919378 2980919378 -15.00000000
8.18036366 2.81353140 0.15099822 12 1 7102 8.65200000 2980919381 2980919381 1.00000000
2.53399014 0.87103897 -0.61861539 3 2 7103 2.75000000 2980919383 2980919383 -13.00000000
8.18459988 2.81179380 0.45354339 13 3 7104 8.66600000 2980919385 2980919385 3.00000000
3.03391194 1.04229105 -0.62356383 5 4 7104 3.26800000 2980919387 2980919387 -11.00000000
8.18020916 2.80868912 0.75668615 78 5 7105 8.68200000 2980919390 2980919390 5.00000000
3.83588219 1.31630862 -0.64231992 4 6 7106 4.10600000 2980919392 2980919392 -9.00000000
8.20567894 2.81423306 1.06513810 92 7 7107 8.74000000 2980919394 2980919394 7.00000000
5.16594410 1.77071285 -0.67052513 6 8 7108 5.50200000 2980919397 2980919397 -7.00000000
8.19639587 2.80785179 1.37224317 84 9 7109 8.77200000 2980919399 2980919399 9.00000000
8.02007008 2.74744749 -0.74169534 13 10 7109 8.51000000 2980919401 2980919401 -5.00000000
8.20973587 2.81082082 1.68675148 81 11 7110 8.84000000 2980919404 2980919404 11.00000000
8.15590382 2.79079986 -0.45176399 12 12 7111 8.63200000 2980919406 2980919406 -3.00000000
8.19242477 2.80169916 1.99891508 104 13 7112 8.88600000 2980919408 2980919408 13.00000000
8.15925884 2.78876662 -0.15050955 14 14 7113 8.62400000 2980919411 2980919411 -1.00000000
7.32532883 2.50230837 2.07417583 45 15 7114 8.01400000 2980919413 2980919413 15.00000000
2.13078856 0.72454977 -0.60304838 4 0 7122 2.33000000 2980919434 2980919434 -15.00000000
8.16790009 2.77580857 0.15057936 12 1 7123 8.62800000 2980919436 2980919436 1.00000000
2.53716564 0.86174554 -0.61861539 3 2 7124 2.75000000 2980919438 2980919438 -13.00000000
8.18161106 2.77728295 0.45281070 13 3 7125 8.65200000 2980919440 2980919440 3.00000000
3.03771162 1.03116417 -0.62356383 4 4 7125 3.26800000 2980919443 2980919443 -11.00000000
8.17346764 2.77292752 0.75511736 78 5 7126 8.66400000 2980919445 2980919445 5.00000000
3.82571483 1.29716611 -0.63981694 4 6 7127 4.09000000 2980919447 2980919447 -9.00000000
8.20465851 2.78031611 1.06367564 92 7 7128 8.72800000 2980919450 2980919450 7.00000000
5.17615938 1.75304031 -0.67101258 6 8 7129 5.50600000 2980919452 2980919452 -7.00000000
8.19866276 2.77668929 1.37099171 86 9 7129 8.76400000 2980919454 2980919454 9.00000000
8.04140949 2.72186685 -0.74274123 13 10 7130 8.52200000 2980919457 2980919457 -5.00000000
8.20510483 2.77567863 1.68369853 75 11 7131 8.82400000 2980919459 2980919459 11.00000000
8.17175388 2.76280737 -0.45207798 12 12 7132 8.63800000 2980919461 2980919461 -3.00000000
8.19525337 2.76915836 1.99711549 101 13 7133 8.87800000 2980919464 2980919464 13.00000000
8.16184711 2.75628352 -0.15036993 12 14 7134 8.61600000 2980919466 2980919466 -1.00000000
7.33035851 2.47548699 2.07314062 45 15 7134 8.01000000 2980919468 2980919468 15.00000000
2.13696718 0.71833855 -0.60408366 4 0 7142 2.33400000 2980919489 2980919489 -15.00000000
8.16237545 2.74218583 0.15030013 12 1 7143 8.61200000 2980919491 2980919491 1.00000000
2.53461599 0.85102314 -0.61726570 4 2 7144 2.74400000 2980919493 2980919493 -13.00000000
8.18746948 2.74743605 0.45260134 13 3 7145 8.64800000 2980919496 2980919496 3.00000000
3.03757024 1.01930511 -0.62280059 4 4 7145 3.26400000 2980919498 2980919498 -11.00000000
8.17554092 2.74184585 0.75442010 72 5 7146 8.65600000 2980919500 2980919500 5.00000000
3.81523585 1.27878177 -0.63731402 4 6 7147 4.07400000 2980919503 2980919503 -9.00000000
8.18796158 2.74283218 1.06026328 90 7 7148 8.70000000 2980919505 2980919505 7.00000000
5.18601227 1.73622191 -0.67150009 6 8 7149 5.51000000 2980919507 2980919507 -7.00000000
8.20129204 2.74411392 1.36974013 89 9 7150 8.75600000 2980919510 2980919510 9.00000000
8.05841923 2.69630933 -0.74343848 13 10 7150 8.53000000 2980919512 2980919512 -5.00000000
8.19612408 2.74079442 1.67988241 75 11 7151 8.80400000 2980919514 2980919514 11.00000000
8.16998291 2.73046732 -0.45144996 12 12 7152 8.62600000 2980919516 2980919516 -3.00000000
8.19747639 2.73806524 1.99531591 104 13 7153 8.87000000 2980919519 2980919519 13.00000000
8.17141819 2.72777653 -0.15036993 12 14 7154 8.61600000 2980919521 2980919521 -1.00000000
7.34304714 2.44982600 2.07417583 45 15 7155 8.01400000 2980919523 2980919523 15.00000000
2.15400314 0.71612394 -0.60822475 4 0 7161 2.35000000 2980919544 2980919544 -15.00000000
8.16383266 2.71258116 0.15016051 12 1 7162 8.60400000 2980919546 2980919546 1.00000000
2.53187585 0.84077090 -0.61591601 4 2 7163 2.73800000 2980919549 2980919549 -13.00000000
8.18516159 2.71649551 0.45197332 13 3 7164 8.63600000 2980919551 2980919551 3.00000000
3.04466033 1.01046336 -0.62356383 5 4 7164 3.26800000 2980919553 2980919553 -11.00000000
8.18080616 2.71346521 0.75407147 76 5 7165 8.65200000 2980919556 2980919556 5.00000000
3.84195590 1.27358162 -0.64106846 4 6 7166 4.09800000 2980919558 2980919558 -9.00000000
8.18193722 2.71067047 1.05831337 95 7 7167 8.68400000 2980919560 2980919560 7.00000000
5.16912746 1.71152735 -0.66857523 6 8 7168 5.48600000 2980919563 2980919563 -7.00000000
8.20237160 2.71585155 1.36848867 89 9 7168 8.74800000 2980919565 2980919565 9.00000000
8.08623123 2.67583108 -0.74518162 13 10 7169 8.55000000 2980919567 2980919567 -5.00000000
8.19398403 2.70990133 1.67759264 78 11 7170 8.79200000 2980919569 2980919569 11.00000000
8.16382122 2.69834518 -0.45061257 12 12 7171 8.61000000 2980919572 2980919572 -3.00000000
8.19540787 2.70719886 1.99261642 103 13 7172 8.85800000 2980919574 2980919574 13.00000000
8.16712666 2.69627571 -0.15012559 14 14 7173 8.60200000 2980919576 2980919576 -1.00000000
7.35437632 2.42795634 2.07521105 45 15 7173 8.01800000 2980919579 2980919579 15.00000000
2.15832496 0.70920378 -0.60874242 4 0 7181 2.35200000 2980919599 2980919599 -15.00000000
8.17325211 2.68406749 0.15016051 12 1 7182 8.60400000 2980919602 2980919602 1.00000000
2.53479528 0.83192790 -0.61591601 4 2 7183 2.73800000 2980919604 2980919604 -13.00000000
8.17941189 2.68292761 0.45113593 13 3 7184 8.62000000 2980919606 2980919606 3.00000000
3.04816890 0.99982941 -0.62356383 5 4 7184 3.26800000 2980919609 2980919609 -11.00000000
8.18644142 2.68365097 0.75372285 79 5 7185 8.64800000 2980919611 2980919611 5.00000000
3.83136058 1.25524282 -0.63856548 4 6 7186 4.08200000 2980919613 2980919613 -9.00000000
8.18002987 2.67838740 1.05685091 97 7 7187 8.67200000 2980919616 2980919616 7.00000000
5.16375017 1.68976903 -0.66711277 9 8 7188 5.47400000 2980919618 2980919618 -7.00000000
8.19912720 2.68147206 1.36629868 94 9 7189 8.73400000 2980919620 2980919620 9.00000000
8.09173489 2.64634991 -0.74483299 17 10 7189 8.54600000 2980919622 2980919622 -5.00000000
8.20339394 2.68128252 1.67759264 81 11 7190 8.79200000 2980919625 2980919625 11.00000000
8.16559696 2.66735101 -0.45019388 12 12 7191 8.60200000 2980919627 2980919627 -3.00000000
8.18998814 2.67373681 1.98901725 92 13 7192 8.84200000 2980919629 2980919629 13.00000000
8.16508293 2.66402912 -0.14991617 12 14 7193 8.59000000 2980919632 2980919632 -1.00000000
7.36322594 2.40098476 2.07521105 45 15 7194 8.01800000 2980919634 2980919634 15.00000000
2.14804721 0.69711399 -0.60511893 4 0 7202 2.33800000 2980919655 2980919655 -15.00000000
8.17162228 2.65039134 0.14995107 12 1 7203 8.59200000 2980919657 2980919657 1.00000000
2.54524255 0.82503539 -0.61771560 4 2 7204 2.74600000 2980919659 2980919659 -13.00000000
8.18918991 2.65293050 0.45113593 13 3 7205 8.62000000 2980919662 2980919662 3.00000000
3.04247451 0.98562533 -0.62165570 5 4 7205 3.25800000 2980919664 2980919664 -11.00000000
8.18295383 2.64933228 0.75250268 83 5 7206 8.63400000 2980919666 2980919666 5.00000000
3.85097098 1.24605680 -0.64106846 6 6 7207 4.09800000 2980919669 2980919669 -9.00000000
8.18223667 2.64594483 1.05587602 92 7 7208 8.66400000 2980919671 2980919671 7.00000000
5.18501997 1.67571533 -0.66906267 6 8 7209 5.49000000 2980919673 2980919673 -7.00000000
8.19340038 2.64797544 1.36379564 94 9 7209 8.71800000 2980919675 2980919675 9.00000000
8.11275578 2.62034869 -0.74587888 17 10 7210 8.55800000 2980919678 2980919678 -5.00000000
8.20569324 2.64878511 1.67606616 84 11 7211 8.78400000 2980919680 2980919680 11.00000000
8.17531776 2.63740468 -0.45019388 12 12 7212 8.60200000 2980919682 2980919682 -3.00000000
8.18860435 2.64011312 1.98631775 101 13 7213 8.83000000 2980919685 2980919685 13.00000000
8.15956497 2.62917852 -0.14963694 12 14 7214 8.57400000 2980919687 2980919687 -1.00000000
7.35685205 2.37052774 2.07106996 45 15 7214 8.00200000 2980919689 2980919689 15.00000000
2.15046763 0.68961167 -0.60511893 4 0 7222 2.33800000 2980919710 2980919710 -15.00000000
8.17701530 2.62063026 0.14988127 12 1 7223 8.58800000 2980919712 2980919712 1.00000000
2.55367470 0.81792909 -0.61906528 4 2 7224 2.75200000 2980919715 2980919715 -13.00000000
8.17747688 2.61763096 0.44998455 13 3 7225 8.59800000 2980919717 2980919717 3.00000000
3.05711508 0.97859031 -0.62394542 5 4 7225 3.27000000 2980919719 2980919719 -11.00000000
8.17317581 2.61468148 0.75075954 83 5 7226 8.61400000 2980919722 2980919722 5.00000000
3.84024477 1.22779429 -0.63856548 6 6 7227 4.08200000 2980919724 2980919724 -9.00000000
8.19142246 2.61736751 1.05587602 92 7 7228 8.66400000 2980919726 2980919726 7.00000000
5.19461966 1.65881371 -0.66955018 6 8 7229 5.49400000 2980919728 2980919728 -7.00000000
8.19552326 2.61552501 1.36254418 97 9 7230 8.71000000 2980919731 2980919731 9.00000000
8.10287189 2.58595634 -0.74413574 17 10 7230 8.53800000 2980919733 2980919733 -5.00000000
8.19992542 2.61535311 1.67301333 84 11 7231 8.76800000 2980919735 2980919735 11.00000000
8.18257141 2.60824490 -0.45008922 17 12 7232 8.60000000 2980919738 2980919738 -3.00000000
8.19405651 2.61033058 1.98541796 92 13 7233 8.82600000 2980919740 2980919740 13.00000000
8.16869354 2.60068035 -0.14963694 12 14 7234 8.57400000 2980919742 2980919742 -1.00000000
7.37285471 2.34589076 2.07314062 45 15 7235 8.01000000 2980919745 2980919745 15.00000000
2.15642571 0.68364429 -0.60615420 4 0 7241 2.34200000 2980919765 2980919765 -15.00000000
8.15515995 2.58383632 0.14932279 12 1 7242 8.55600000 2980919768 2980919768 1.00000000
2.54336810 0.80533844 -0.61591601 4 2 7243 2.73800000 2980919770 2980919770 -13.00000000
8.18420792 2.58989644 0.44987988 13 3 7244 8.59600000 2980919772 2980919772 3.00000000
3.05659986 0.96726251 -0.62318218 5 4 7244 3.26600000 2980919775 2980919775 -11.00000000
8.17800140 2.58636236 0.75041097 83 5 7245 8.61000000 2980919777 2980919777 5.00000000
3.83299398 1.21148098 -0.63668829 6 6 7246 4.07000000 2980919779 2980919779 -9.00000000
8.18112850 2.58421016 1.05343866 97 7 7247 8.64400000 2980919781 2980919781 7.00000000
5.20009232 1.64157856 -0.66955018 9 8 7248 5.49400000 2980919784 2980919784 -7.00000000
8.19616508 2.58738661 1.36129272 94 9 7248 8.70200000 2980919786 2980919786 9.00000000
8.14180374 2.56866336 -0.74692470 13 10 7249 8.57000000 2980919788 2980919788 -5.00000000
8.18608475 2.58106256 1.66843390 87 11 7250 8.74400000 2980919791 2980919791 11.00000000
8.17784119 2.57689428 -0.44935653 12 12 7251 8.58600000 2980919793 2980919793 -3.00000000
8.20266819 2.58314371 1.98541796 90 13 7252 8.82600000 2980919795 2980919795 13.00000000
8.16582775 2.56997561 -0.14942750 12 14 7253 8.56200000 2980919798 2980919798 -1.00000000
7.38387346 2.32387662 2.07417583 45 15 7253 8.01400000 2980919800 2980919800 15.00000000
2.14958119 0.67322588 -0.60356599 4 0 7261 2.33200000 2980919821 2980919821 -15.00000000
8.16031265 2.55415893 0.14925298 12 1 7262 8.55200000 2980919823 2980919823 1.00000000
2.54802370 0.79703730 -0.61636591 4 2 7263 2.74000000 2980919825 2980919825 -13.00000000
8.18938637 2.56012058 0.44967052 13 3 7264 8.59200000 2980919828 2980919828 3.00000000
3.06745291 0.95893019 -0.62470865 5 4 7264 3.27400000 2980919830 2980919830 -11.00000000
8.17747116 2.55482936 0.74953938 76 5 7265 8.60000000 2980919832 2980919832 5.00000000
3.83342814 1.19691646 -0.63606256 6 6 7266 4.06600000 2980919834 2980919834 -9.00000000
8.16925430 2.54913259 1.05075753 99 7 7267 8.62200000 2980919837 2980919837 7.00000000
5.19062996 1.61868906 -0.66760027 6 8 7268 5.47800000 2980919839 2980919839 -7.00000000
8.19948864 2.55699658 1.36035407 89 9 7268 8.69600000 2980919841 2980919841 9.00000000
6.65562916 2.07427216 -0.60991591 12 10 7269 6.99800000 2980919844 2980919844 -5.00000000
8.19129562 2.55130434 1.66767061 84 11 7270 8.74000000 2980919846 2980919846 11.00000000
8.16771698 2.54239678 -0.44830981 12 12 7271 8.56600000 2980919848 2980919848 -3.00000000
8.19674873 2.54986453 1.98181880 92 13 7272 8.81000000 2980919851 2980919851 13.00000000
8.17856789 2.54264331 -0.14949732 12 14 7273 8.56600000 2980919853 2980919853 -1.00000000
7.41223288 2.30439663 2.07986975 45 15 7273 8.03600000 2980919855 2980919855 15.00000000
2.16091228 0.66932738 -0.60615420 4 0 7279 2.34200000 2980919876 2980919876 -15.00000000
8.17211723 2.52969265 0.14932279 12 1 7280 8.55600000 2980919878 2980919878 1.00000000
2.54492998 0.78730071 -0.61501616 4 2 7281 2.73400000 2980919881 2980919881 -13.00000000
8.17830658 2.52848101 0.44862381 13 3 7282 8.57200000 2980919883 2980919883 3.00000000
3.05919647 0.94580942 -0.62241894 5 4 7282 3.26200000 2980919885 2980919885 -11.00000000
8.17022800 2.52442122 0.74814492 76 5 7283 8.58400000 2980919887 2980919887 5.00000000
3.84471917 1.18719876 -0.63731402 6 6 7284 4.07400000 2980919890 2980919890 -9.00000000
8.17911911 2.52404094 1.05100119 95 7 7285 8.62400000 2980919892 2980919892 7.00000000
5.19568968 1.60237432 -0.66760027 6 8 7286 5.47800000 2980919894 2980919894 -7.00000000
8.18715763 2.52339196 1.35691249 97 9 7287 8.67400000 2980919897 2980919897 9.00000000
6.66401720 2.05393934 -0.61009020 12 10 7287 7.00000000 2980919899 2980919899 -5.00000000
8.19739342 2.52498031 1.66728902 96 11 7288 8.73800000 2980919901 2980919901 11.00000000
8.16611862 2.51378655 -0.44778645 17 12 7289 8.55600000 2980919904 2980919904 -3.00000000
8.19354343 2.52066302 1.97911942 101 13 7290 8.79800000 2980919906 2980919906 13.00000000
8.15975571 2.50870991 -0.14900865 14 14 7291 8.53800000 2980919908 2980919908 -1.00000000
7.45452023 2.29188561 2.08970499 45 15 7291 8.07400000 2980919910 2980919910 15.00000000
2.15584612 0.65951979 -0.60408366 4 0 7299 2.33400000 2980919931 2980919931 -15.00000000
8.17707253 2.49998212 0.14925298 12 1 7300 8.55200000 2980919934 2980919934 1.00000000
2.54766273 0.77841246 -0.61501616 5 2 7301 2.73400000 2980919936 2980919936 -13.00000000
8.16989136 2.49466848 0.44768175 10 3 7302 8.55400000 2980919938 2980919938 3.00000000
3.05684638 0.93340504 -0.62127411 5 4 7302 3.25600000 2980919940 2980919940 -11.00000000
8.15993404 2.49007106 0.74640179 76 5 7303 8.56400000 2980919943 2980919943 5.00000000
3.86773467 1.17953312 -0.64044273 6 6 7304 4.09400000 2980919945 2980919945 -9.00000000
