# .PCD v0.7 - Point Cloud Data file format
VERSION 0.7
FIELDS x y z intensity laser_id azimuth distance_m adjustedtime timestamp vertical_angle
SIZE 4 4 4 1 1 2 8 8 4 8
TYPE F F F U U U F U U F
COUNT 1 1 1 1 1 1 1 1 1 1
WIDTH 522
HEIGHT 1
VIEWPOINT 0 0 0 1 0 0 0
POINTS 522
DATA ascii
-1.95458448 2.15258431 -0.56517625 5 4 31776 2.96200000 2981087820 2981087820 -11.00000000
-17.49134445 19.26997948 2.27685666 73 5 31777 26.12400000 2981087822 2981087822 5.00000000
-2.39597845 2.64054322 -0.56472844 1 6 31778 3.61000000 2981087824 2981087824 -9.00000000
-12.65399361 13.95051670 2.31259274 42 7 31779 18.97600000 2981087827 2981087827 7.00000000
-3.01354575 3.32347798 -0.55084944 10 8 31780 4.52000000 2981087829 2981087829 -7.00000000
-9.82835674 10.83916759 2.31742024 63 9 31780 14.81400000 2981087831 2981087831 9.00000000
-4.25239086 4.69137859 -0.55396187 3 10 31781 6.35600000 2981087834 2981087834 -5.00000000
-8.85732555 9.77512455 2.56409121 50 11 31782 13.43800000 2981087836 2981087836 11.00000000
-6.96960926 7.69450045 -0.54408461 4 12 31783 10.39600000 2981087838 2981087838 -3.00000000
-7.45560408 8.23393059 2.56444192 48 13 31784 11.40000000 2981087841 2981087841 13.00000000
-6.42379427 7.09938431 2.56541443 42 15 31786 9.91200000 2981087845 2981087845 15.00000000
-1.40471077 1.55571556 -0.56163734 4 0 31792 2.17000000 2981087866 2981087866 -15.00000000
-54.88383484 60.80511475 1.42977095 69 1 31793 81.92400000 2981087868 2981087868 1.00000000
-1.64620709 1.82445240 -0.56732655 3 2 31794 2.52200000 2981087871 2981087871 -13.00000000
-32.24846268 35.75275421 2.52332568 33 3 31795 48.21400000 2981087873 2981087873 3.00000000
-1.94743550 2.15905428 -0.56517625 3 4 31795 2.96200000 2981087875 2981087875 -11.00000000
-17.39933014 19.29680443 2.27319598 64 5 31796 26.08200000 2981087877 2981087877 5.00000000
-2.38853145 2.64994144 -0.56504130 1 6 31797 3.61200000 2981087880 2981087880 -9.00000000
-12.59437466 13.97765541 2.31015539 44 7 31798 18.95600000 2981087882 2981087882 7.00000000
-3.00250816 3.33345294 -0.55084944 10 8 31799 4.52000000 2981087884 2981087884 -7.00000000
-9.76724052 10.84381294 2.31147575 60 9 31799 14.77600000 2981087887 2981087887 9.00000000
-4.25947428 4.73062515 -0.55692518 7 10 31800 6.39000000 2981087889 2981087889 -5.00000000
-8.81829453 9.79714680 2.56218314 50 11 31801 13.42800000 2981087891 2981087891 11.00000000
-6.96008587 7.73538685 -0.54534066 4 12 31802 10.42000000 2981087894 2981087894 -3.00000000
-7.42825842 8.25860882 2.56444192 46 13 31803 11.40000000 2981087896 2981087896 13.00000000
-6.40404272 7.12240314 2.56644964 42 15 31804 9.91600000 2981087901 2981087901 15.00000000
-1.40829933 1.57067788 -0.56526077 4 0 31812 2.18400000 2981087921 2981087921 -15.00000000
-54.48973465 60.79380798 1.42502391 67 1 31813 81.65200000 2981087924 2981087924 1.00000000
-1.62682438 1.81567383 -0.56282753 3 2 31814 2.50200000 2981087926 2981087926 -13.00000000
-32.02085876 35.75054550 2.51526594 33 3 31815 48.06000000 2981087928 2981087928 3.00000000
-1.93988705 2.16583896 -0.56517625 2 4 31815 2.96200000 2981087930 2981087930 -11.00000000
-17.30927086 19.33218765 2.27023268 64 5 31816 26.04800000 2981087933 2981087933 5.00000000
-2.38453674 2.66415048 -0.56629276 1 6 31817 3.62000000 2981087935 2981087935 -9.00000000
-12.53491783 14.00969791 2.30820537 42 7 31818 18.94000000 2981087937 2981087937 7.00000000
-2.98688388 3.33947468 -0.55011821 10 8 31819 4.51400000 2981087940 2981087940 -7.00000000
-9.69978046 10.84861374 2.30490541 63 9 31820 14.73400000 2981087942 2981087942 9.00000000
-4.24426317 4.74695015 -0.55709952 7 10 31820 6.39200000 2981087944 2981087944 -5.00000000
-8.78535080 9.82933235 2.56256485 50 11 31821 13.43000000 2981087947 2981087947 11.00000000
-6.95300245 7.78197527 -0.54691076 4 12 31822 10.45000000 2981087949 2981087949 -3.00000000
-7.38510561 8.26850033 2.55949306 15 13 31823 11.37800000 2981087951 2981087951 13.00000000
-6.37274933 7.14006233 2.56437922 45 15 31825 9.90800000 2981087956 2981087956 15.00000000
-1.39996433 1.57294297 -0.56422549 4 0 31833 2.18000000 2981087977 2981087977 -15.00000000
-54.09640884 60.80188751 1.42055607 43 1 31834 81.39600000 2981087979 2981087979 1.00000000
-1.62533903 1.82744884 -0.56462717 3 2 31835 2.51000000 2981087981 2981087981 -13.00000000
-31.77681160 35.74079514 2.50636888 32 3 31836 47.89000000 2981087983 2981087983 3.00000000
-1.93193591 2.17293429 -0.56517625 3 4 31836 2.96200000 2981087986 2981087986 -11.00000000
-17.22903442 19.38507462 2.26901269 64 5 31837 26.03400000 2981087988 2981087988 5.00000000
-2.36032391 2.65662837 -0.56285119 1 6 31838 3.59800000 2981087990 2981087990 -9.00000000
-12.46107578 14.03031445 2.30406189 48 7 31839 18.90600000 2981087993 2981087993 7.00000000
-2.97330618 3.34891510 -0.54987448 8 8 31840 4.51200000 2981087995 2981087995 -7.00000000
-9.63824558 10.85581684 2.29927373 63 9 31840 14.69800000 2981087997 2981087997 9.00000000
-4.23344898 4.76992464 -0.55797106 7 10 31841 6.40200000 2981088000 2981088000 -5.00000000
-8.74535656 9.85706043 2.56141996 50 11 31842 13.42400000 2981088002 2981088002 11.00000000
-6.94961357 7.83579779 -0.54889953 4 12 31843 10.48800000 2981088004 2981088004 -3.00000000
-6.31921625 7.12752056 2.19912148 16 13 31844 9.77600000 2981088007 2981088007 13.00000000
-6.35547495 7.17093849 2.56748486 45 15 31845 9.92000000 2981088011 2981088011 15.00000000
-1.39830315 1.58216274 -0.56577843 4 0 31853 2.18600000 2981088032 2981088032 -15.00000000
-53.74482346 60.83299255 1.41689110 21 1 31854 81.18600000 2981088034 2981088034 1.00000000
-1.62411010 1.83895373 -0.56642675 4 2 31855 2.51800000 2981088036 2981088036 -13.00000000
-31.56990433 35.75867081 2.49987936 10 3 31856 47.76600000 2981088039 2981088039 3.00000000
-1.92693782 2.18260837 -0.56593949 3 4 31856 2.96600000 2981088041 2981088041 -11.00000000
-17.15598869 19.43912125 2.26831532 48 5 31857 26.02600000 2981088043 2981088043 5.00000000
-2.35103607 2.66485119 -0.56285119 1 6 31858 3.59800000 2981088046 2981088046 -9.00000000
-12.42121601 14.08414841 2.30576801 44 7 31859 18.92000000 2981088048 2981088048 7.00000000
-2.96422362 3.36225176 -0.55036193 10 8 31860 4.51600000 2981088050 2981088050 -7.00000000
-9.56182194 10.84957504 2.29051352 58 9 31861 14.64200000 2981088053 2981088053 9.00000000
-4.22204208 4.79065228 -0.55866832 3 10 31861 6.41000000 2981088055 2981088055 -5.00000000
-8.71478939 9.89194679 2.56256485 50 11 31862 13.43000000 2981088057 2981088057 11.00000000
-6.91561890 7.85251427 -0.54837614 4 12 31863 10.47800000 2981088059 2981088059 -3.00000000
-6.26081753 7.11150599 2.18742394 15 13 31864 9.72400000 2981088062 2981088062 13.00000000
-6.32404566 7.18838263 2.56541443 42 15 31866 9.91200000 2981088066 2981088066 15.00000000
-1.37930334 1.57058072 -0.56008440 4 0 31871 2.16400000 2981088087 2981088087 -15.00000000
-1.62089574 1.84697640 -0.56732655 3 2 31873 2.52200000 2981088092 2981088092 -13.00000000
-28.10000229 32.03063202 2.23307061 9 3 31874 42.66800000 2981088094 2981088094 3.00000000
-1.92007148 2.18865108 -0.56593949 3 4 31874 2.96600000 2981088096 2981088096 -11.00000000
-17.08301163 19.47944069 2.26674652 48 5 31875 26.00800000 2981088099 2981088099 5.00000000
-2.34265256 2.67222404 -0.56285119 1 6 31876 3.59800000 2981088101 2981088101 -9.00000000
-12.36382484 14.10817146 2.30333066 44 7 31877 18.90000000 2981088103 2981088103 7.00000000
-2.95364618 3.37154746 -0.55036193 10 8 31878 4.51600000 2981088106 2981088106 -7.00000000
-9.51396847 10.86006737 2.28675890 61 9 31878 14.61800000 2981088108 2981088108 9.00000000
-4.19909525 4.79489946 -0.55762243 3 10 31879 6.39800000 2981088110 2981088110 -5.00000000
-8.67332458 9.90745831 2.55951190 50 11 31880 13.41400000 2981088112 2981088112 11.00000000
-6.92905951 7.91778851 -0.55141163 4 12 31881 10.53600000 2981088115 2981088115 -3.00000000
-6.28234148 7.18384695 2.55713224 40 15 31883 9.88000000 2981088122 2981088122 15.00000000
-1.38650954 1.58994579 -0.56526077 4 0 31891 2.18400000 2981088142 2981088142 -15.00000000
-1.61315835 1.85115397 -0.56687665 4 2 31893 2.52000000 2981088147 2981088147 -13.00000000
-27.88175964 32.00654221 2.22459221 9 3 31894 42.50600000 2981088149 2981088149 3.00000000
-1.90726173 2.18941879 -0.56441301 3 4 31894 2.95800000 2981088152 2981088152 -11.00000000
-16.98481750 19.50439453 2.26273727 32 5 31895 25.96200000 2981088154 2981088154 5.00000000
-2.33331060 2.68038511 -0.56285119 1 6 31896 3.59800000 2981088156 2981088156 -9.00000000
-12.30407810 14.13926315 2.30138063 46 7 31897 18.88400000 2981088159 2981088159 7.00000000
-2.94446492 3.38483238 -0.55084944 10 8 31898 4.52000000 2981088161 2981088161 -7.00000000
-9.46243477 10.88144970 2.28394318 50 9 31899 14.60000000 2981088163 2981088163 9.00000000
-4.20194340 4.83207941 -0.56023711 3 10 31899 6.42800000 2981088165 2981088165 -5.00000000
-8.63611221 9.93471050 2.55874872 50 11 31900 13.41000000 2981088168 2981088168 11.00000000
-6.88827848 7.92685175 -0.55036491 4 12 31901 10.51600000 2981088170 2981088170 -3.00000000
-6.16622972 7.09843874 2.17077756 22 13 31902 9.65000000 2981088172 2981088172 13.00000000
-6.06980991 6.99237061 2.48103929 45 15 31904 9.58600000 2981088177 2981088177 15.00000000
-1.37715733 1.59039462 -0.56370789 4 0 31911 2.17800000 2981088198 2981088198 -15.00000000
-1.59648561 1.84498453 -0.56327742 4 2 31913 2.50400000 2981088202 2981088202 -13.00000000
-27.70976067 32.03418732 2.21977735 9 3 31914 42.41400000 2981088205 2981088205 3.00000000
-1.90474510 2.20200229 -0.56593949 3 4 31914 2.96600000 2981088207 2981088207 -11.00000000
-16.88274765 19.52437973 2.25820518 24 5 31915 25.91000000 2981088209 2981088209 5.00000000
-2.33685803 2.70345807 -0.56597990 1 6 31916 3.61800000 2981088212 2981088212 -9.00000000
-12.23128605 14.15509033 2.29699349 44 7 31917 18.84800000 2981088214 2981088214 7.00000000
-2.93263173 3.39508986 -0.55084944 10 8 31918 4.52000000 2981088216 2981088216 -7.00000000
-9.42242432 10.90828323 2.28300452 47 9 31918 14.59400000 2981088218 2981088218 9.00000000
-4.20458269 4.86933756 -0.56285179 3 10 31919 6.45800000 2981088221 2981088221 -5.00000000
-8.60266399 9.96628189 2.55913019 43 11 31920 13.41200000 2981088223 2981088223 11.00000000
-6.88666201 7.98109055 -0.55245835 4 12 31921 10.55600000 2981088225 2981088225 -3.00000000
-6.14396000 7.12287092 2.17167759 19 13 31922 9.65400000 2981088228 2981088228 13.00000000
-6.25095940 7.24947643 2.56489682 45 15 31923 9.91000000 2981088232 2981088232 15.00000000
-1.37411642 1.59812176 -0.56474316 4 0 31931 2.18200000 2981088253 2981088253 -15.00000000
-1.59892571 1.86089265 -0.56642675 4 2 31933 2.51800000 2981088258 2981088258 -13.00000000
-27.49626732 32.01253891 2.21161294 9 3 31934 42.25800000 2981088260 2981088260 3.00000000
-1.89448869 2.20565915 -0.56517625 3 4 31934 2.96200000 2981088262 2981088262 -11.00000000
-16.32258224 19.01028442 2.19214129 7 5 31935 25.15200000 2981088265 2981088265 5.00000000
-2.31582785 2.69810820 -0.56316406 1 6 31936 3.60000000 2981088267 2981088267 -9.00000000
-12.18438625 14.20071220 2.29748082 44 7 31937 18.85200000 2981088269 2981088269 7.00000000
-2.91817808 3.40229249 -0.55036193 8 8 31938 4.51600000 2981088271 2981088271 -7.00000000
-9.36823654 10.92624950 2.27956295 50 9 31939 14.57200000 2981088274 2981088274 9.00000000
-4.19923162 4.89759731 -0.56442058 7 10 31939 6.47600000 2981088276 2981088276 -5.00000000
-6.86915731 8.01721478 -0.55329573 4 12 31941 10.57200000 2981088281 2981088281 -3.00000000
-6.09750843 7.11911297 2.16402912 20 13 31942 9.62000000 2981088283 2981088283 13.00000000
-6.22937155 7.27820969 2.56696725 45 15 31944 9.91800000 2981088288 2981088288 15.00000000
-1.36727512 1.60143948 -0.56422549 4 0 31951 2.18000000 2981088308 2981088308 -15.00000000
-1.59368503 1.86794508 -0.56687665 4 2 31953 2.52000000 2981088313 2981088313 -13.00000000
-27.29622269 32.00498962 2.20449519 9 3 31954 42.12200000 2981088315 2981088315 3.00000000
-1.89442194 2.22122121 -0.56746596 3 4 31954 2.97400000 2981088318 2981088318 -11.00000000
-16.15271378 18.94585228 2.17819643 7 5 31955 24.99200000 2981088320 2981088320 5.00000000
-2.32177138 2.72421670 -0.56691849 1 6 31956 3.62400000 2981088322 2981088322 -9.00000000
-12.13989162 14.24920082 2.29845572 42 7 31957 18.86000000 2981088324 2981088324 7.00000000
-2.90370989 3.40943551 -0.54987448 8 8 31958 4.51200000 2981088327 2981088327 -7.00000000
-9.32170582 10.94522381 2.27706003 54 9 31958 14.55600000 2981088329 2981088329 9.00000000
-4.18340158 4.91374254 -0.56459492 7 10 31959 6.47800000 2981088331 2981088331 -5.00000000
-6.04783249 7.10617876 1.81383026 15 11 31960 9.50600000 2981088334 2981088334 11.00000000
-6.86960220 8.07461071 -0.55559850 4 12 31961 10.61600000 2981088336 2981088336 -3.00000000
-6.06378365 7.12996244 2.16087985 19 13 31962 9.60600000 2981088338 2981088338 13.00000000
-6.19519138 7.28705215 2.56282616 45 15 31963 9.90200000 2981088343 2981088343 15.00000000
-1.35293210 1.59588730 -0.56060207 4 0 31971 2.16600000 2981088364 2981088364 -15.00000000
-1.59093392 1.87795734 -0.56822634 4 2 31973 2.52600000 2981088368 2981088368 -13.00000000
-27.10818481 32.01015091 2.19831944 9 3 31974 42.00400000 2981088371 2981088371 3.00000000
-1.87904429 2.21883130 -0.56517625 3 4 31974 2.96200000 2981088373 2981088373 -11.00000000
-16.08648300 19.00212097 2.17819643 7 5 31975 24.99200000 2981088375 2981088375 5.00000000
-2.31224799 2.73230457 -0.56691849 1 6 31976 3.62400000 2981088377 2981088377 -9.00000000
-12.07341099 14.27178860 2.29528713 42 7 31977 18.83400000 2981088380 2981088380 7.00000000
-2.89435458 3.42258215 -0.55036193 8 8 31978 4.51600000 2981088382 2981088382 -7.00000000
-9.28089237 10.97467995 2.27643442 54 9 31978 14.55200000 2981088384 2981088384 9.00000000
-4.15336132 4.91309977 -0.56285179 7 10 31979 6.45800000 2981088387 2981088387 -5.00000000
-6.03186083 7.13774300 1.81650162 25 11 31980 9.52000000 2981088389 2981088389 11.00000000
-6.83750820 8.09396362 -0.55528450 4 12 31981 10.61000000 2981088391 2981088391 -3.00000000
-6.02628517 7.13619661 2.15638089 12 13 31982 9.58600000 2981088394 2981088394 13.00000000
-6.16348648 7.30125189 2.56023788 40 15 31983 9.89200000 2981088398 2981088398 15.00000000
-1.35080528 1.60526979 -0.56215495 4 0 31992 2.17200000 2981088419 2981088419 -15.00000000
-1.57651508 1.87482679 -0.56552696 4 2 31994 2.51400000 2981088424 2981088424 -13.00000000
-26.91100121 32.01450348 2.19182992 9 3 31995 41.88000000 2981088426 2981088426 3.00000000
-1.86584616 2.21969223 -0.56364977 3 4 31995 2.95400000 2981088428 2981088428 -11.00000000
-16.62299538 19.78244972 2.26064563 24 5 31996 25.93800000 2981088430 2981088430 5.00000000
-2.30348873 2.74227357 -0.56723136 1 6 31997 3.62600000 2981088433 2981088433 -9.00000000
-12.01463890 14.30834293 2.29406857 42 7 31998 18.82400000 2981088435 2981088435 7.00000000
-2.89200091 3.44533110 -0.55231184 8 8 31999 4.53200000 2981088437 2981088437 -7.00000000
-9.23868370 11.01023483 2.27643442 50 9 32000 14.55200000 2981088440 2981088440 9.00000000
-4.14429092 4.93897343 -0.56407195 7 10 32000 6.47200000 2981088442 2981088442 -5.00000000
-6.01575279 7.17183638 1.81955457 12 11 32001 9.53600000 2981088444 2981088444 11.00000000
-6.81421280 8.12662220 -0.55580783 4 12 32002 10.62000000 2981088447 2981088447 -3.00000000
-5.99007463 7.14628839 2.15278149 14 13 32003 9.57000000 2981088449 2981088449 13.00000000
-19.67433929 23.48023605 -0.53470683 3 14 32004 30.63800000 2981088451 2981088451 -1.00000000
-6.13916588 7.32675505 2.56127334 45 15 32004 9.89600000 2981088453 2981088453 15.00000000
-1.35262561 1.61887002 -0.56526077 4 0 32012 2.18400000 2981088474 2981088474 -15.00000000
-1.56871212 1.87882257 -0.56507707 4 2 32014 2.51200000 2981088479 2981088479 -13.00000000
-26.72357750 32.01777649 2.18565416 9 3 32015 41.76200000 2981088481 2981088481 3.00000000
-1.87318277 2.24427843 -0.56822920 2 4 32015 2.97800000 2981088483 2981088483 -11.00000000
-16.51171875 19.78987122 2.25489330 32 5 32016 25.87200000 2981088486 2981088486 5.00000000
-2.29390240 2.75029755 -0.56723136 1 6 32017 3.62600000 2981088488 2981088488 -9.00000000
-11.96207809 14.34714508 2.29358101 42 7 32018 18.82000000 2981088490 2981088490 7.00000000
-2.88249874 3.45845485 -0.55279934 8 8 32019 4.53600000 2981088493 2981088493 -7.00000000
-9.20019436 11.04241657 2.27643442 54 9 32020 14.55200000 2981088495 2981088495 9.00000000
-4.14360476 4.97330904 -0.56633800 7 10 32020 6.49800000 2981088497 2981088497 -5.00000000
-6.03340054 7.24408245 1.83252954 6 11 32021 9.60400000 2981088500 2981088500 11.00000000
-6.78580427 8.15035820 -0.55580783 4 12 32022 10.62000000 2981088502 2981088502 -3.00000000
-5.99501181 7.20310211 2.16357923 33 13 32023 9.61800000 2981088504 2981088504 13.00000000
-19.63830185 23.60410881 -0.53596342 3 14 32024 30.71000000 2981088506 2981088506 -1.00000000
-6.03197622 7.25266314 2.52762675 45 15 32025 9.76600000 2981088509 2981088509 15.00000000
-1.34943342 1.62655532 -0.56629604 4 0 32032 2.18800000 2981088530 2981088530 -15.00000000
-43.39836884 52.32931519 1.18665898 16 1 32033 67.99400000 2981088532 2981088532 1.00000000
-1.56587553 1.88878763 -0.56642675 4 2 32034 2.51800000 2981088534 2981088534 -13.00000000
-27.96383476 33.74247360 2.29671121 30 3 32035 43.88400000 2981088536 2981088536 3.00000000
-1.86283183 2.24778008 -0.56746596 3 4 32035 2.97400000 2981088539 2981088539 -11.00000000
-16.41711807 19.81670189 2.25140715 40 5 32036 25.83200000 2981088541 2981088541 5.00000000
-2.28428793 2.75828815 -0.56723136 1 6 32037 3.62600000 2981088543 2981088543 -9.00000000
-11.90686035 14.38269711 2.29260612 46 7 32038 18.81200000 2981088546 2981088546 7.00000000
-2.88559628 3.48684740 -0.55572420 8 8 32039 4.56000000 2981088548 2981088548 -7.00000000
-9.15655708 11.06837559 2.27518296 54 9 32040 14.54400000 2981088550 2981088550 9.00000000
-4.12494946 4.98620749 -0.56616372 3 10 32040 6.49600000 2981088553 2981088553 -5.00000000
-8.36401367 10.11394978 2.55111623 12 11 32041 13.37000000 2981088555 2981088555 11.00000000
-6.75858498 8.17553520 -0.55591255 4 12 32042 10.62200000 2981088557 2981088557 -3.00000000
-7.04363155 8.52337074 2.55274463 44 13 32043 11.34800000 2981088559 2981088559 13.00000000
-6.08540583 7.36645651 2.56023788 45 15 32044 9.89200000 2981088564 2981088564 15.00000000
-1.34251916 1.62976468 -0.56577843 4 0 32052 2.18600000 2981088585 2981088585 -15.00000000
-36.24951553 44.02111816 0.99538052 14 1 32053 57.03400000 2981088587 2981088587 1.00000000
-1.56298840 1.89875567 -0.56777644 4 2 32054 2.52400000 2981088589 2981088589 -13.00000000
-27.78496552 33.76585007 2.29168677 30 3 32055 43.78800000 2981088592 2981088592 3.00000000
-1.84499466 2.24214101 -0.56441301 3 4 32055 2.95800000 2981088594 2981088594 -11.00000000
-16.33012390 19.85234451 2.24896669 56 5 32056 25.80400000 2981088596 2981088596 5.00000000
-2.28342819 2.77692533 -0.56942147 1 6 32057 3.64000000 2981088599 2981088599 -9.00000000
-11.87801170 14.45024204 2.29674959 48 7 32058 18.84600000 2981088601 2981088601 7.00000000
-2.89483190 3.52297211 -0.55986774 8 8 32059 4.59400000 2981088603 2981088603 -7.00000000
-9.10281944 11.08195400 2.27142835 54 9 32060 14.52000000 2981088606 2981088606 9.00000000
-4.10751915 5.00057602 -0.56616372 3 10 32060 6.49600000 2981088608 2981088608 -5.00000000
-8.32990456 10.14460087 2.55149794 50 11 32061 13.37200000 2981088610 2981088610 11.00000000
-6.74267769 8.21451473 -0.55695927 8 12 32062 10.64200000 2981088612 2981088612 -3.00000000
-7.01507282 8.54941273 2.55319452 51 13 32063 11.35000000 2981088615 2981088615 13.00000000
-6.06210518 7.39064121 2.56127334 42 15 32064 9.89600000 2981088619 2981088619 15.00000000
-1.33494532 1.63098443 -0.56474316 4 0 32070 2.18200000 2981088640 2981088640 -15.00000000
-35.98694229 43.98311234 0.99195987 56 1 32071 56.83800000 2981088642 2981088642 1.00000000
-1.56071687 1.90818191 -0.56912619 4 2 32072 2.53000000 2981088645 2981088645 -13.00000000
-27.65810394 33.81567764 2.28948879 40 3 32072 43.74600000 2981088647 2981088647 3.00000000
-1.84788322 2.26008534 -0.56746596 3 4 32073 2.97400000 2981088649 2981088649 -11.00000000
-16.23741531 19.86652565 2.24478340 47 5 32074 25.75600000 2981088652 2981088652 5.00000000
-2.26344466 2.77031779 -0.56660563 1 6 32075 3.62200000 2981088654 2981088654 -9.00000000
-11.87776279 14.54283428 2.30552435 51 7 32076 18.91800000 2981088656 2981088656 7.00000000
-2.90383697 3.55665207 -0.56376761 8 8 32077 4.62600000 2981088658 2981088658 -7.00000000
-9.06240273 11.09973240 2.26955128 58 9 32077 14.50800000 2981088661 2981088661 9.00000000
-4.10060787 5.02426004 -0.56738389 4 10 32078 6.51000000 2981088663 2981088663 -5.00000000
-8.28185940 10.15094471 2.54653692 40 11 32079 13.34600000 2981088665 2981088665 11.00000000
-6.73072338 8.25268269 -0.55811065 8 12 32080 10.66400000 2981088668 2981088668 -3.00000000
-6.98448515 8.56687737 2.55184484 57 13 32081 11.34400000 2981088670 2981088670 13.00000000
-19.58785439 24.03420830 -0.54119915 3 14 32082 31.01000000 2981088672 2981088672 -1.00000000
-6.02909327 7.39766932 2.55713224 40 15 32082 9.88000000 2981088675 2981088675 15.00000000
-1.33533585 1.64313030 -0.56733137 5 0 32090 2.19200000 2981088695 2981088695 -15.00000000
-35.74114990 43.99515915 0.98941183 28 1 32091 56.69200000 2981088698 2981088698 1.00000000
-1.55281806 1.91210556 -0.56867629 4 2 32092 2.52800000 2981088700 2981088700 -13.00000000
-27.59062576 33.98659897 2.29419899 40 3 32093 43.83600000 2981088702 2981088702 3.00000000
-1.84245753 2.26957035 -0.56822920 2 4 32093 2.97800000 2981088705 2981088705 -11.00000000
-16.16043663 19.91380119 2.24373746 31 5 32094 25.74400000 2981088707 2981088707 5.00000000
-2.26122737 2.78740621 -0.56848282 1 6 32095 3.63400000 2981088709 2981088709 -9.00000000
-11.85818481 14.62275314 2.31161761 44 7 32096 18.96800000 2981088711 2981088711 7.00000000
-2.90015459 3.57756090 -0.56547374 8 8 32097 4.64000000 2981088714 2981088714 -7.00000000
-9.01792812 11.12826920 2.26861262 58 9 32098 14.50200000 2981088716 2981088716 9.00000000
-4.08931684 5.04628325 -0.56825542 4 10 32098 6.52000000 2981088718 2981088718 -5.00000000
-8.24143219 10.17368984 2.54501033 53 11 32099 13.33800000 2981088721 2981088721 11.00000000
-6.71444464 8.29164886 -0.55915737 8 12 32100 10.68400000 2981088723 2981088723 -3.00000000
-6.96312141 8.60180855 2.55499411 59 13 32101 11.35800000 2981088725 2981088725 13.00000000
-6.00679874 7.42572498 2.55920267 42 15 32103 9.88800000 2981088730 2981088730 15.00000000
-1.33144200 1.65125334 -0.56836665 6 0 32112 2.19600000 2981088751 2981088751 -15.00000000
-35.45775986 43.99039459 0.98623550 14 1 32113 56.51000000 2981088753 2981088753 1.00000000
-1.54790998 1.92108870 -0.56957608 4 2 32114 2.53200000 2981088755 2981088755 -13.00000000
-27.54857826 34.19013977 2.30110741 50 3 32114 43.96800000 2981088758 2981088758 3.00000000
-1.84358156 2.28885984 -0.57128215 3 4 32115 2.99400000 2981088760 2981088760 -11.00000000
-16.05136681 19.93535805 2.23920536 23 5 32116 25.69200000 2981088762 2981088762 5.00000000
-2.24431515 2.78837395 -0.56691849 1 6 32117 3.62400000 2981088764 2981088764 -9.00000000
-11.83554840 14.70993614 2.31819868 48 7 32118 19.02200000 2981088767 2981088767 7.00000000
-2.88639641 3.58867025 -0.56547374 8 8 32119 4.64000000 2981088769 2981088769 -7.00000000
-8.97018147 11.15665531 2.26736116 58 9 32120 14.49400000 2981088771 2981088771 9.00000000
-4.07989788 5.07436991 -0.56964993 4 10 32120 6.53600000 2981088774 2981088774 -5.00000000
-8.20107746 10.20372963 2.54462886 50 11 32121 13.33600000 2981088776 2981088776 11.00000000
-6.68756104 8.32359695 -0.55957603 4 12 32122 10.69200000 2981088778 2981088778 -3.00000000
-6.92271996 8.61936474 2.55229473 56 13 32123 11.34600000 2981088781 2981088781 13.00000000
-5.97954178 7.44769144 2.55920267 42 15 32124 9.88800000 2981088785 2981088785 15.00000000
-1.32084060 1.64985847 -0.56629604 5 0 32132 2.18800000 2981088806 2981088806 -15.00000000
-35.39145279 44.22318649 0.98867881 56 1 32133 56.65000000 2981088808 2981088808 1.00000000
-1.54606426 1.93256700 -0.57137567 4 2 32134 2.54000000 2981088810 2981088810 -13.00000000
-27.53636551 34.42021942 2.31010914 50 3 32134 44.14000000 2981088813 2981088813 3.00000000
-1.83312833 2.29221487 -0.57051891 3 4 32135 2.99000000 2981088815 2981088815 -11.00000000
-18.15636444 22.71154594 2.54390192 36 5 32136 29.18800000 2981088817 2981088817 5.00000000
-2.24320054 2.80699325 -0.56910861 1 6 32137 3.63800000 2981088820 2981088820 -9.00000000
-11.84484005 14.82715702 2.33014178 44 7 32138 19.12000000 2981088822 2981088822 7.00000000
-2.87013578 3.59407043 -0.56474257 8 8 32139 4.63400000 2981088824 2981088824 -7.00000000
-8.92502022 11.18018055 2.26579690 58 9 32140 14.48400000 2981088827 2981088827 9.00000000
-4.07707644 5.10726547 -0.57174170 4 10 32140 6.56000000 2981088829 2981088829 -5.00000000
-8.16785908 10.23536301 2.54539204 46 11 32141 13.34000000 2981088831 2981088831 11.00000000
-6.68711233 8.38280106 -0.56198353 4 12 32142 10.73800000 2981088834 2981088834 -3.00000000
-6.88773060 8.63738251 2.55049515 57 13 32143 11.33800000 2981088836 2981088836 13.00000000
-5.95591640 7.47153950 2.56023788 45 15 32144 9.89200000 2981088840 2981088840 15.00000000
-1.31805611 1.65702367 -0.56733137 4 0 32150 2.19200000 2981088861 2981088861 -15.00000000
-28.41718674 35.73810196 0.79698157 11 1 32151 45.66600000 2981088863 2981088863 1.00000000
-1.53877270 1.93588901 -0.57092577 4 2 32152 2.53800000 2981088866 2981088866 -13.00000000
-27.53389740 34.65208054 2.31952953 50 3 32153 44.32000000 2981088868 2981088868 3.00000000
-1.81859004 2.28873968 -0.56822920 3 4 32153 2.97800000 2981088870 2981088870 -11.00000000
-18.03783417 22.70919037 2.53727794 36 5 32154 29.11200000 2981088873 2981088873 5.00000000
-2.23928452 2.82021451 -0.57036006 1 6 32155 3.64600000 2981088875 2981088875 -9.00000000
-11.84139538 14.91871548 2.33867264 40 7 32156 19.19000000 2981088877 2981088877 7.00000000
-2.86499977 3.61084461 -0.56596124 8 8 32157 4.64400000 2981088880 2981088880 -7.00000000
-8.87707520 11.18804264 2.26204228 58 9 32157 14.46000000 2981088882 2981088882 9.00000000
-4.05977345 5.11848783 -0.57156736 4 10 32158 6.55800000 2981088884 2981088884 -5.00000000
-8.13444328 10.25943470 2.54501033 50 11 32159 13.33800000 2981088887 2981088887 11.00000000
-6.65206003 8.39281082 -0.56125081 4 12 32160 10.72400000 2981088889 2981088889 -3.00000000
-6.86056185 8.65897846 2.55049515 56 13 32161 11.33800000 2981088891 2981088891 13.00000000
-5.93110704 7.49124908 2.56023788 45 15 32163 9.89200000 2981088896 2981088896 15.00000000
-1.30268538 1.64948583 -0.56319022 4 0 32170 2.17600000 2981088916 2981088916 -15.00000000
-26.56744385 33.65229034 0.74839407 10 1 32171 42.88200000 2981088919 2981088919 1.00000000
-1.53562760 1.94583786 -0.57227546 4 2 32172 2.54400000 2981088921 2981088921 -13.00000000
-27.53390503 34.88900375 2.32926416 50 3 32172 44.50600000 2981088923 2981088923 3.00000000
-1.82518148 2.31357026 -0.57280862 4 4 32173 3.00200000 2981088926 2981088926 -11.00000000
-17.91897392 22.72195244 2.53170013 45 5 32174 29.04800000 2981088928 2981088928 5.00000000
-2.23187232 2.83111668 -0.57098579 1 6 32175 3.65000000 2981088930 2981088930 -9.00000000
-2.85237813 3.62082338 -0.56596124 8 8 32177 4.64400000 2981088935 2981088935 -7.00000000
-8.83845329 11.22360706 2.26266813 54 9 32178 14.46400000 2981088937 2981088937 9.00000000
-4.03818369 5.12793207 -0.57104445 4 10 32178 6.55200000 2981088940 2981088940 -5.00000000
-8.09493828 10.28313828 2.54386544 50 11 32179 13.33200000 2981088942 2981088942 11.00000000
-6.64001465 8.43795395 -0.56271619 4 12 32180 10.75200000 2981088944 2981088944 -3.00000000
-6.83029461 8.68287373 2.55049515 56 13 32181 11.33800000 2981088946 2981088946 13.00000000
-5.89537048 7.49975681 2.55609679 45 15 32183 9.87600000 2981088951 2981088951 15.00000000
-1.30378151 1.66337204 -0.56629604 4 0 32191 2.18800000 2981088972 2981088972 -15.00000000
-26.34648895 33.62509155 0.74563664 10 1 32192 42.72400000 2981088974 2981088974 1.00000000
-1.52127552 1.94224811 -0.56957608 4 2 32193 2.53200000 2981088976 2981088976 -13.00000000
-27.53023338 35.14849472 2.33983588 50 3 32193 44.70800000 2981088979 2981088979 3.00000000
-1.80216575 2.30169463 -0.56822920 3 4 32194 2.97800000 2981088981 2981088981 -11.00000000
-17.82329369 22.77178764 2.52995682 54 5 32195 29.02800000 2981088983 2981088983 5.00000000
-2.21782899 2.83461046 -0.57004720 1 6 32196 3.64400000 2981088986 2981088986 -9.00000000
-9.68098068 12.37772655 1.92943549 10 7 32197 15.83200000 2981088988 2981088988 7.00000000
-2.84886956 3.64376450 -0.56791115 8 8 32198 4.66000000 2981088990 2981088990 -7.00000000
-8.79435539 11.24816608 2.26141667 54 9 32198 14.45600000 2981088993 2981088993 9.00000000
-4.01445389 5.13641882 -0.57034719 8 10 32199 6.54400000 2981088995 2981088995 -5.00000000
-8.04631615 10.29881573 2.54043102 50 11 32200 13.31400000 2981088997 2981088997 11.00000000
-6.62256622 8.47954845 -0.56386757 4 12 32201 10.77400000 2981088999 2981088999 -3.00000000
-6.79842424 8.70784950 2.55049515 59 13 32202 11.33800000 2981089002 2981089002 13.00000000
-5.87021971 7.52436018 2.55713224 45 15 32204 9.88000000 2981089006 2981089006 15.00000000
-1.29084873 1.65876532 -0.56319022 3 0 32211 2.17600000 2981089027 2981089027 -15.00000000
-26.15037537 33.61583710 0.74340272 10 1 32212 42.59600000 2981089029 2981089029 1.00000000
-1.51687908 1.95062327 -0.57047588 4 2 32213 2.53600000 2981089032 2981089032 -13.00000000
-26.99051476 34.70831680 2.30424738 10 3 32213 44.02800000 2981089034 2981089034 3.00000000
-1.80616951 2.32347155 -0.57204539 2 4 32214 2.99800000 2981089036 2981089036 -11.00000000
-17.72291374 22.80711937 2.52699351 36 5 32215 28.99400000 2981089039 2981089039 5.00000000
-2.20186186 2.83453488 -0.56848282 1 6 32216 3.63400000 2981089041 2981089041 -9.00000000
-9.66571808 12.44750500 1.93504143 14 7 32217 15.87800000 2981089043 2981089043 7.00000000
-2.83126426 3.64741421 -0.56693619 8 8 32218 4.65200000 2981089046 2981089046 -7.00000000
-8.75503826 11.27879620 2.26141667 54 9 32218 14.45600000 2981089048 2981089048 9.00000000
-4.00993586 5.16771555 -0.57226461 8 10 32219 6.56600000 2981089050 2981089050 -5.00000000
-8.00189495 10.31598091 2.53775954 50 11 32220 13.30000000 2981089052 2981089052 11.00000000
-6.61373234 8.52944565 -0.56564701 4 12 32221 10.80800000 2981089055 2981089055 -3.00000000
-6.76559877 8.72844696 2.54959536 59 13 32222 11.33400000 2981089057 2981089057 13.00000000
-5.84628487 7.54785967 2.55816746 42 15 32224 9.88400000 2981089062 2981089062 15.00000000
-1.30099261 1.68268061 -0.56991953 4 0 32229 2.20200000 2981089082 2981089082 -15.00000000
-26.00428391 33.64561081 0.74225086 10 1 32230 42.53000000 2981089085 2981089085 1.00000000
-1.50716925 1.95075274 -0.56912619 3 2 32231 2.53000000 2981089087 2981089087 -13.00000000
-27.49189186 35.58318710 2.35658336 41 3 32231 45.02800000 2981089089 2981089089 3.00000000
-1.79166090 2.31981158 -0.56975567 2 4 32232 2.98600000 2981089092 2981089092 -11.00000000
-17.64630508 22.85637665 2.52629638 54 5 32233 28.98600000 2981089094 2981089094 5.00000000
-2.20501518 2.85707617 -0.57161152 1 6 32234 3.65400000 2981089096 2981089096 -9.00000000
-9.66172981 12.52338886 1.94210982 15 7 32235 15.93600000 2981089098 2981089098 7.00000000
-2.81251788 3.64685941 -0.56547374 8 8 32236 4.64000000 2981089101 2981089101 -7.00000000
-8.70870495 11.29216671 2.25860071 47 9 32236 14.43800000 2981089103 2981089103 9.00000000
-4.00341320 5.19291067 -0.57365912 4 10 32237 6.58200000 2981089105 2981089105 -5.00000000
-7.96944666 10.34106827 2.53775954 50 11 32238 13.30000000 2981089108 2981089108 11.00000000
-6.59543610 8.56125736 -0.56637973 4 12 32239 10.82200000 2981089110 2981089110 -3.00000000
-6.73101044 8.74039459 2.54689574 59 13 32240 11.32200000 2981089112 2981089112 13.00000000
-5.82386446 7.56517267 2.55816746 42 15 32241 9.88400000 2981089117 2981089117 15.00000000
-1.28805315 1.67801702 -0.56681371 4 0 32249 2.19000000 2981089138 2981089138 -15.00000000
-25.83798599 33.67272186 0.74085468 10 1 32250 42.45000000 2981089140 2981089140 1.00000000
-1.51339722 1.97301054 -0.57407510 4 2 32251 2.55200000 2981089142 2981089142 -13.00000000
-27.31159973 35.60603714 2.35176849 51 3 32251 44.93600000 2981089145 2981089145 3.00000000
-1.77877390 2.31981945 -0.56822920 2 4 32252 2.97800000 2981089147 2981089147 -11.00000000
-17.54702187 22.89253235 2.52350736 36 5 32253 28.95400000 2981089149 2981089149 5.00000000
-2.19502854 2.86475587 -0.57161152 1 6 32254 3.65400000 2981089151 2981089151 -9.00000000
-9.65296173 12.60274124 1.94917822 14 7 32255 15.99400000 2981089154 2981089154 7.00000000
-2.80097771 3.65823078 -0.56571752 8 8 32256 4.64200000 2981089156 2981089156 -7.00000000
-8.66202927 11.31308651 2.25672364 50 9 32256 14.42600000 2981089158 2981089158 9.00000000
-3.99010587 5.21318245 -0.57435632 4 10 32257 6.59000000 2981089161 2981089161 -5.00000000
-7.93210793 10.36726475 2.53737807 50 11 32258 13.29800000 2981089163 2981089163 11.00000000
-6.58128548 8.60485077 -0.56774044 4 12 32259 10.84800000 2981089165 2981089165 -3.00000000
-6.70282698 8.76693344 2.54779553 57 13 32260 11.32600000 2981089168 2981089168 13.00000000
-5.79375172 7.58339739 2.55713224 42 15 32262 9.88000000 2981089172 2981089172 15.00000000
-1.28189421 1.68272674 -0.56681371 4 0 32270 2.19000000 2981089193 2981089193 -15.00000000
-1.50143409 1.97234190 -0.57227546 4 2 32272 2.54400000 2981089198 2981089198 -13.00000000
-27.09969330 35.61209869 2.34527898 61 3 32273 44.81200000 2981089200 2981089200 3.00000000
-1.77977061 2.33882213 -0.57128215 2 4 32273 2.99400000 2981089202 2981089202 -11.00000000
-17.44611168 22.93449211 2.52106690 54 5 32274 28.92600000 2981089204 2981089204 5.00000000
-2.19288373 2.88378859 -0.57380164 1 6 32275 3.66800000 2981089207 2981089207 -9.00000000
-9.65355587 12.69966984 1.95868409 15 7 32276 16.07200000 2981089209 2981089209 7.00000000
-2.78634977 3.66689181 -0.56547374 6 8 32277 4.64000000 2981089211 2981089211 -7.00000000
-8.62050629 11.34475803 2.25672364 47 9 32277 14.42600000 2981089214 2981089214 9.00000000
-3.96976662 5.22618532 -0.57418203 4 10 32278 6.58800000 2981089216 2981089216 -5.00000000
-7.88455868 10.38375854 2.53432512 50 11 32279 13.28200000 2981089218 2981089218 11.00000000
-6.55574036 8.63686943 -0.56826383 4 12 32280 10.85800000 2981089221 2981089221 -3.00000000
-6.67418337 8.79609871 2.54914546 54 13 32281 11.33200000 2981089223 2981089223 13.00000000
-20.40723038 26.90502930 -0.58943760 4 14 32282 33.77400000 2981089225 2981089225 -1.00000000
-5.76024055 7.59433985 2.55402637 42 15 32282 9.86800000 2981089228 2981089228 15.00000000
-1.27368200 1.68410957 -0.56577843 4 0 32290 2.18600000 2981089248 2981089248 -15.00000000
-1.50158989 1.98689902 -0.57497489 4 2 32292 2.55600000 2981089253 2981089253 -13.00000000
-26.90418816 35.61245346 2.33910322 20 3 32293 44.69400000 2981089255 2981089255 3.00000000
-1.77869630 2.35441947 -0.57357186 2 4 32293 3.00600000 2981089257 2981089257 -11.00000000
-17.33592987 22.95550156 2.51670933 45 5 32294 28.87600000 2981089260 2981089260 5.00000000
-2.17566299 2.88196611 -0.57192439 1 6 32295 3.65600000 2981089262 2981089262 -9.00000000
-9.64384365 12.77924061 1.96575248 17 7 32296 16.13000000 2981089264 2981089264 7.00000000
-2.79146528 3.70036674 -0.56912982 6 8 32297 4.67000000 2981089267 2981089267 -7.00000000
-8.57886791 11.37627792 2.25672364 47 9 32298 14.42600000 2981089269 2981089269 9.00000000
-3.95149970 5.24001026 -0.57418203 4 10 32298 6.58800000 2981089271 2981089271 -5.00000000
-7.84235573 10.40337944 2.53241706 46 11 32299 13.27200000 2981089274 2981089274 11.00000000
-6.53516817 8.67246056 -0.56910121 4 12 32300 10.87400000 2981089276 2981089276 -3.00000000
-6.64695597 8.82401276 2.55049515 56 13 32301 11.33800000 2981089278 2981089278 13.00000000
-20.45753670 27.16779327 -0.59362614 4 14 32302 34.01400000 2981089281 2981089281 -1.00000000
-5.73817635 7.62311840 2.55661464 45 15 32303 9.87800000 2981089283 2981089283 15.00000000
-1.27329922 1.69649184 -0.56836665 4 0 32311 2.19600000 2981089304 2981089304 -15.00000000
-20.53489876 27.36981010 0.59725624 7 1 32312 34.22200000 2981089306 2981089306 1.00000000
-1.48728204 1.98303533 -0.57227546 4 2 32313 2.54400000 2981089308 2981089308 -13.00000000
-23.96877670 31.96987343 2.09406638 9 3 32314 40.01200000 2981089310 2981089310 3.00000000
-1.77241039 2.36406446 -0.57433510 4 4 32314 3.01000000 2981089313 2981089313 -11.00000000
-17.24928856 23.01569748 2.51636052 36 5 32315 28.87200000 2981089315 2981089315 5.00000000
-2.17100739 2.89782572 -0.57348877 1 6 32316 3.66600000 2981089317 2981089317 -9.00000000
-9.63501930 12.86534595 1.97355211 12 7 32317 16.19400000 2981089320 2981089320 7.00000000
-2.79097033 3.72805333 -0.57181096 4 8 32318 4.69200000 2981089322 2981089322 -7.00000000
-8.53910542 11.40615463 2.25672364 43 9 32318 14.42600000 2981089324 2981089324 9.00000000
-3.95972419 5.29114676 -0.57819122 4 10 32319 6.63400000 2981089327 2981089327 -5.00000000
-7.80299664 10.43048096 2.53203535 50 11 32320 13.27000000 2981089329 2981089329 11.00000000
-6.50453424 8.69795513 -0.56920588 4 12 32321 10.87600000 2981089331 2981089331 -3.00000000
-6.60523558 8.83582878 2.54689574 56 13 32322 11.32200000 2981089334 2981089334 13.00000000
-20.39253807 27.28904533 -0.59463841 8 14 32323 34.07200000 2981089336 2981089336 -1.00000000
-5.70690632 7.63691235 2.55454397 38 15 32323 9.87000000 2981089338 2981089338 15.00000000
-1.26967800 1.70402443 -0.56940192 4 0 32331 2.20000000 2981089359 2981089359 -15.00000000
-20.38428879 27.36755180 0.59565061 7 1 32332 34.13000000 2981089361 2981089361 1.00000000
-1.48035085 1.98821485 -0.57227546 4 2 32333 2.54400000 2981089363 2981089363 -13.00000000
-20.36302757 27.35893822 1.78737760 6 3 32334 34.15200000 2981089366 2981089366 3.00000000
-1.75711429 2.36078739 -0.57204539 3 4 32334 2.99800000 2981089368 2981089368 -11.00000000
-17.15814018 23.06138229 2.51479173 45 5 32335 28.85400000 2981089370 2981089370 5.00000000
-2.16087890 2.90538621 -0.57348877 1 6 32336 3.66600000 2981089373 2981089373 -9.00000000
-9.63624287 12.96102905 1.98305798 14 7 32337 16.27200000 2981089375 2981089375 7.00000000
-2.78978109 3.75370526 -0.57424837 2 8 32338 4.71200000 2981089377 2981089377 -7.00000000
-8.49017334 11.42786121 2.25484633 43 9 32339 14.41400000 2981089380 2981089380 9.00000000
-3.93766594 5.30013895 -0.57766825 4 10 32339 6.62800000 2981089382 2981089382 -5.00000000
-7.76771069 10.45923138 2.53241706 46 11 32340 13.27200000 2981089384 2981089384 11.00000000
-6.49794388 8.75267982 -0.57129931 4 12 32341 10.91600000 2981089386 2981089386 -3.00000000
-6.56738424 8.84944248 2.54419637 57 13 32342 11.31000000 2981089389 2981089389 13.00000000
-20.26141357 27.31188202 -0.59359127 8 14 32343 34.01200000 2981089391 2981089391 -1.00000000
-5.68463087 7.66553640 2.55713224 45 15 32344 9.88000000 2981089393 2981089393 15.00000000
-1.26402032 1.70822537 -0.56940192 4 0 32350 2.20000000 2981089414 2981089414 -15.00000000
-20.23634148 27.35783005 0.59397519 7 1 32351 34.03400000 2981089416 2981089416 1.00000000
-1.47838402 1.99938059 -0.57407510 4 2 32352 2.55200000 2981089419 2981089419 -13.00000000
-20.22470284 27.36206818 1.78319073 6 3 32353 34.07200000 2981089421 2981089421 3.00000000
-1.74927592 2.36660123 -0.57204539 3 4 32353 2.99800000 2981089423 2981089423 -11.00000000
-17.06736374 23.09892464 2.51270008 45 5 32354 28.83000000 2981089426 2981089426 5.00000000
-2.14771152 2.90776920 -0.57255012 1 6 32355 3.66000000 2981089428 2981089428 -9.00000000
-9.64155293 13.05838871 1.99305129 15 7 32356 16.35400000 2981089430 2981089430 7.00000000
-2.77849698 3.76453304 -0.57449210 2 8 32357 4.71400000 2981089433 2981089433 -7.00000000
-8.45188427 11.45129871 2.25422072 43 9 32357 14.41000000 2981089435 2981089435 9.00000000
-3.90942240 5.29873800 -0.57609946 4 10 32358 6.61000000 2981089437 2981089437 -5.00000000
-7.74114084 10.49599266 2.53508830 50 11 32359 13.28600000 2981089439 2981089439 11.00000000
-6.49258709 8.80633068 -0.57339275 4 12 32360 10.95600000 2981089442 2981089442 -3.00000000
-6.54725170 8.88372135 2.54779553 59 13 32361 11.32600000 2981089444 2981089444 13.00000000
-20.11261559 27.30003357 -0.59188092 12 14 32362 33.91400000 2981089446 2981089446 -1.00000000
-5.65593719 7.67713594 2.55506158 42 15 32362 9.87200000 2981089449 2981089449 15.00000000
-1.25347507 1.70639956 -0.56733137 4 0 32370 2.19200000 2981089469 2981089469 -15.00000000
-20.08627701 27.35415840 0.59236956 14 1 32371 33.94200000 2981089472 2981089472 1.00000000
-1.47024274 2.00295782 -0.57362521 4 2 32372 2.55000000 2981089474 2981089474 -13.00000000
-20.06644630 27.34715462 1.77764308 6 3 32373 33.96600000 2981089476 2981089476 3.00000000
-1.74332726 2.37585878 -0.57280862 4 4 32373 3.00200000 2981089479 2981089479 -11.00000000
-16.99369812 23.16800117 2.51374602 36 5 32374 28.84200000 2981089481 2981089481 5.00000000
-2.14572501 2.92639947 -0.57474023 1 6 32375 3.67400000 2981089483 2981089483 -9.00000000
-9.64989471 13.16561317 2.00426316 14 7 32376 16.44600000 2981089486 2981089486 7.00000000
-2.77824497 3.79182291 -0.57717323 2 8 32377 4.73600000 2981089488 2981089488 -7.00000000
-8.41219044 11.48538685 2.25484633 39 9 32378 14.41400000 2981089490 2981089490 9.00000000
-3.89443445 5.31717443 -0.57662237 4 10 32378 6.61600000 2981089492 2981089492 -5.00000000
-7.70213652 10.51978207 2.53432512 53 11 32379 13.28200000 2981089495 2981089495 11.00000000
-6.47832203 8.85150433 -0.57485813 4 12 32380 10.98400000 2981089497 2981089497 -3.00000000
-6.52310562 8.91595840 2.55049515 59 13 32381 11.33800000 2981089499 2981089499 13.00000000
-19.97942162 27.31842232 -0.59076399 12 14 32382 33.85000000 2981089502 2981089502 -1.00000000
-5.62206078 7.69001675 2.55247331 40 15 32383 9.86200000 2981089504 2981089504 15.00000000
-1.24780953 1.71054685 -0.56733137 4 0 32389 2.19200000 2981089525 2981089525 -15.00000000
-19.93419075 27.33659744 0.59055454 7 1 32390 33.83800000 2981089527 2981089527 1.00000000
-1.46244466 2.00624776 -0.57317531 4 2 32391 2.54800000 2981089529 2981089529 -13.00000000
-19.93448067 27.35705185 1.77397954 6 3 32392 33.89600000 2981089532 2981089532 3.00000000
-1.73543894 2.38162661 -0.57280862 4 4 32392 3.00200000 2981089534 2981089534 -11.00000000
-16.92733574 23.23871994 2.51531482 36 5 32393 28.86000000 2981089536 2981089536 5.00000000
-2.13484597 2.93190193 -0.57442737 1 6 32394 3.67200000 2981089539 2981089539 -9.00000000
-11.81176090 16.22769547 2.46444178 26 7 32395 20.22200000 2981089541 2981089541 7.00000000
-2.75514412 3.78656864 -0.57497954 2 8 32396 4.71800000 2981089543 2981089543 -7.00000000
-8.37374210 11.50856304 2.25422072 39 9 32396 14.41000000 2981089545 2981089545 9.00000000
-3.87209272 5.32361460 -0.57592517 4 10 32397 6.60800000 2981089548 2981089548 -5.00000000
-7.66028214 10.53573799 2.53203535 50 11 32398 13.27000000 2981089550 2981089550 11.00000000
-6.44658518 8.86970806 -0.57464880 4 12 32399 10.98000000 2981089552 2981089552 -3.00000000
-6.49579430 8.94069386 2.55139494 62 13 32400 11.34200000 2981089555 2981089555 13.00000000
-19.82761574 27.30039024 -0.58894891 12 14 32401 33.74600000 2981089557 2981089557 -1.00000000
-5.60127974 7.71233034 2.55402637 40 15 32401 9.86800000 2981089559 2981089559 15.00000000
-1.24862933 1.72428012 -0.57043719 4 0 32409 2.20400000 2981089580 2981089580 -15.00000000
-19.79408836 27.34446144 0.58922815 7 1 32410 33.76200000 2981089582 2981089582 1.00000000
-1.45543265 2.01134038 -0.57317531 4 2 32411 2.54800000 2981089585 2981089585 -13.00000000
-19.78619003 27.35364723 1.76926935 6 3 32412 33.80600000 2981089587 2981089587 3.00000000
-1.72941625 2.39085150 -0.57357186 4 4 32412 3.00600000 2981089589 2981089589 -11.00000000
-16.82860184 23.27344894 2.51270008 36 5 32413 28.83000000 2981089592 2981089592 5.00000000
-2.11418414 2.92492771 -0.57161152 1 6 32414 3.65400000 2981089594 2981089594 -9.00000000
-11.79457283 16.32353401 2.47272897 49 7 32415 20.29000000 2981089596 2981089596 7.00000000
-2.74888372 3.80581832 -0.57644200 2 8 32416 4.73000000 2981089598 2981089598 -7.00000000
-8.33266163 11.54077911 2.25453353 43 9 32417 14.41200000 2981089601 2981089601 9.00000000
-3.86514950 5.35325146 -0.57766825 4 10 32417 6.62800000 2981089603 2981089603 -5.00000000
-7.62805462 10.56878090 2.53356194 50 11 32418 13.27800000 2981089605 2981089605 11.00000000
-6.42493391 8.90511417 -0.57548618 4 12 32419 10.99600000 2981089608 2981089608 -3.00000000
-6.45314646 8.94750786 2.54689574 59 13 32420 11.32200000 2981089610 2981089610 13.00000000
-19.71348763 27.34348106 -0.58839041 8 14 32421 33.71400000 2981089612 2981089612 -1.00000000
-5.57071590 7.72967386 2.55299115 42 15 32422 9.86400000 2981089615 2981089615 15.00000000
-1.24485815 1.73176551 -0.57147247 4 0 32429 2.20800000 2981089635 2981089635 -15.00000000
-19.67868042 27.38578224 0.58863479 14 1 32430 33.72800000 2981089638 2981089638 1.00000000
-1.44385529 2.01007748 -0.57137567 4 2 32431 2.54000000 2981089640 2981089640 -13.00000000
-19.64748573 27.36252022 1.76539648 19 3 32432 33.73200000 2981089642 2981089642 3.00000000
-1.72106016 2.39687371 -0.57357186 4 4 32432 3.00600000 2981089645 2981089645 -11.00000000
-16.73099518 23.30938911 2.51025963 36 5 32433 28.80200000 2981089647 2981089647 5.00000000
-2.11662889 2.94994450 -0.57505310 1 6 32434 3.67600000 2981089649 2981089649 -9.00000000
-11.80115414 16.45332527 2.48613453 59 7 32435 20.40000000 2981089651 2981089651 7.00000000
-2.72632861 3.80248427 -0.57449210 2 8 32436 4.71400000 2981089654 2981089654 -7.00000000
-8.27823067 11.54587173 2.25015330 39 9 32436 14.38400000 2981089656 2981089656 9.00000000
-3.85920691 5.38452435 -0.57958567 4 10 32437 6.65000000 2981089658 2981089658 -5.00000000
-7.59111643 10.59534359 2.53356194 50 11 32438 13.27800000 2981089661 2981089661 11.00000000
-6.39613581 8.93073463 -0.57569551 4 12 32439 11.00000000 2981089663 2981089663 -3.00000000
-6.41960573 8.96681023 2.54599595 57 13 32440 11.31800000 2981089665 2981089665 13.00000000
-19.67843819 27.49668884 -0.59020549 8 14 32441 33.81800000 2981089668 2981089668 -1.00000000
-5.54955006 7.75438833 2.55506158 42 15 32441 9.87200000 2981089670 2981089670 15.00000000
-1.24104977 1.73924541 -0.57250774 4 0 32449 2.21200000 2981089691 2981089691 -15.00000000
-19.65960693 27.56175232 0.59093851 7 1 32450 33.86000000 2981089693 2981089693 1.00000000
-1.43909276 2.01827860 -0.57227546 4 2 32451 2.54400000 2981089695 2981089695 -13.00000000
-19.62604523 27.53502655 1.77209544 58 3 32452 33.86000000 2981089698 2981089698 3.00000000
-1.71724105 2.40926147 -0.57509834 4 4 32452 3.01400000 2981089700 2981089700 -11.00000000
-16.62178040 23.32870483 2.50607634 36 5 32453 28.75400000 2981089702 2981089702 5.00000000
-2.12121654 2.97823167 -0.57912040 1 6 32454 3.70200000 2981089704 2981089704 -9.00000000
-11.78279495 16.54939842 2.49442172 49 7 32455 20.46800000 2981089707 2981089707 7.00000000
-2.72915363 3.83462000 -0.57790440 2 8 32456 4.74200000 2981089709 2981089709 -7.00000000
-8.22756863 11.56021404 2.24733758 39 9 32456 14.36600000 2981089711 2981089711 9.00000000
-3.84731793 5.40770340 -0.58063155 4 10 32457 6.66200000 2981089714 2981089714 -5.00000000
-7.55636120 10.62497616 2.53432512 53 11 32458 13.28200000 2981089716 2981089716 11.00000000
-6.39038277 8.98881912 -0.57799828 4 12 32459 11.04400000 2981089718 2981089718 -3.00000000
-6.38600874 8.98598766 2.54509616 60 13 32460 11.31400000 2981089721 2981089721 13.00000000
-19.67498398 27.69562912 -0.59299785 8 14 32461 33.97800000 2981089723 2981089723 -1.00000000
-4.85563707 6.83507156 2.24654937 18 15 32461 8.68000000 2981089725 2981089725 15.00000000
-1.22603822 1.73095512 -0.56836665 4 0 32469 2.19600000 2981089746 2981089746 -15.00000000
