# .PCD v0.7 - Point Cloud Data file format
VERSION 0.7
FIELDS x y z intensity laser_id azimuth distance_m adjustedtime timestamp vertical_angle
SIZE 4 4 4 1 1 2 8 8 4 8
TYPE F F F U U U F U U F
COUNT 1 1 1 1 1 1 1 1 1 1
WIDTH 538
HEIGHT 1
VIEWPOINT 0 0 0 1 0 0 0
POINTS 538
DATA ascii
7.60582495 3.53211999 -0.73367703 13 10 6509 8.41800000 2981317754 2981317754 -5.00000000
17.36417198 8.06018066 3.72115707 41 11 6510 19.50200000 2981317757 2981317757 11.00000000
8.19091511 3.80035901 -0.47322172 17 12 6511 9.04200000 2981317759 2981317759 -3.00000000
8.25422859 3.82798386 2.10059285 75 13 6512 9.33800000 2981317761 2981317761 13.00000000
8.19860649 3.80044985 -0.15773486 16 14 6513 9.03800000 2981317764 2981317764 -1.00000000
8.00873470 3.71073723 2.36508846 45 15 6514 9.13800000 2981317766 2981317766 15.00000000
2.06250739 0.95257545 -0.60874242 4 0 6521 2.35200000 2981317787 2981317787 -15.00000000
8.21001244 3.79008126 0.15783957 12 1 6522 9.04400000 2981317789 2981317789 1.00000000
8.18016815 3.77457190 -2.07989740 10 2 6523 9.24600000 2981317791 2981317791 -13.00000000
8.21039867 3.78678346 0.47384974 13 3 6524 9.05400000 2981317794 2981317794 3.00000000
2.92018151 1.34684014 -0.62509024 5 4 6524 3.27600000 2981317796 2981317796 -11.00000000
8.20913315 3.78446245 0.79085124 78 5 6525 9.07400000 2981317798 2981317798 5.00000000
3.71192908 1.71043730 -0.64732581 4 6 6526 4.13800000 2981317801 2981317801 -9.00000000
8.23267174 3.79182959 1.11291087 92 7 6527 9.13200000 2981317803 2981317803 7.00000000
4.96776915 2.28701973 -0.67150009 9 8 6528 5.51000000 2981317805 2981317805 -7.00000000
7.62534761 3.50888062 -0.73437428 13 10 6529 8.42600000 2981317810 2981317810 -5.00000000
17.38863373 7.99787855 3.72039390 45 11 6530 19.49800000 2981317812 2981317812 11.00000000
8.19505787 3.76757288 -0.47269836 17 12 6531 9.03200000 2981317814 2981317814 -3.00000000
8.24983311 3.79101110 2.09609389 78 13 6532 9.31800000 2981317817 2981317817 13.00000000
8.18819904 3.76095772 -0.15728109 14 14 6533 9.01200000 2981317819 2981317819 -1.00000000
8.01748466 3.68254614 2.36405325 45 15 6533 9.13400000 2981317821 2981317821 15.00000000
2.05879331 0.94215459 -0.60667187 4 0 6541 2.34400000 2981317842 2981317842 -15.00000000
8.19591522 3.74892282 0.15731598 12 1 6542 9.01400000 2981317844 2981317844 1.00000000
8.17734337 3.73870230 -2.07584834 8 2 6543 9.22800000 2981317847 2981317847 -13.00000000
8.20903492 3.75145960 0.47301236 13 3 6544 9.03800000 2981317849 2981317849 3.00000000
2.92307949 1.33582258 -0.62470865 5 4 6544 3.27400000 2981317851 2981317851 -11.00000000
8.20054626 3.74585032 0.78875947 78 5 6545 9.05000000 2981317854 2981317854 5.00000000
3.69271970 1.68598378 -0.64294565 4 6 6546 4.11000000 2981317856 2981317856 -9.00000000
8.23502159 3.75812435 1.11144841 90 7 6547 9.12000000 2981317858 2981317858 7.00000000
4.97933388 2.27131271 -0.67198753 6 8 6548 5.51400000 2981317860 2981317860 -7.00000000
8.30027008 3.78440046 1.44482875 2 9 6549 9.23600000 2981317863 2981317863 9.00000000
7.62304688 3.47562933 -0.73297977 13 10 6549 8.41000000 2981317865 2981317865 -5.00000000
17.40929985 7.93387556 3.71886730 45 11 6550 19.49000000 2981317867 2981317867 11.00000000
8.20270634 3.73645997 -0.47238433 17 12 6551 9.02600000 2981317870 2981317870 -3.00000000
8.25769520 3.75976801 2.09474421 73 13 6552 9.31200000 2981317872 2981317872 13.00000000
8.19581699 3.72986770 -0.15717638 16 14 6553 9.00600000 2981317874 2981317874 -1.00000000
8.02565289 3.65073609 2.36250019 45 15 6554 9.12800000 2981317877 2981317877 15.00000000
2.06031013 0.93416458 -0.60615420 4 0 6561 2.34200000 2981317897 2981317897 -15.00000000
8.18527317 3.70956016 0.15686223 12 1 6562 8.98800000 2981317900 2981317900 1.00000000
8.17259312 3.70209408 -2.07134938 8 2 6563 9.20800000 2981317902 2981317902 -13.00000000
8.21662140 3.72031045 0.47269836 13 3 6564 9.03200000 2981317904 2981317904 3.00000000
2.93666673 1.32965994 -0.62661672 5 4 6564 3.28400000 2981317907 2981317907 -11.00000000
8.20449638 3.71309495 0.78788793 75 5 6565 9.04000000 2981317909 2981317909 5.00000000
3.69858241 1.67308354 -0.64294565 6 6 6566 4.11000000 2981317911 2981317911 -9.00000000
8.21914959 3.71627021 1.10754859 92 7 6567 9.08800000 2981317913 2981317913 7.00000000
5.00532150 2.26209307 -0.67442495 9 8 6568 5.53400000 2981317916 2981317916 -7.00000000
17.77399826 8.03273869 3.08926773 8 9 6568 19.74800000 2981317918 2981317918 9.00000000
7.63876390 3.45063925 -0.73332840 13 10 6569 8.41400000 2981317920 2981317920 -5.00000000
17.43152046 7.87063360 3.71772242 45 11 6570 19.48400000 2981317923 2981317923 11.00000000
8.19567394 3.69876695 -0.47123295 17 12 6571 9.00400000 2981317925 2981317925 -3.00000000
8.25833511 3.72531128 2.09159493 72 13 6572 9.29800000 2981317927 2981317927 13.00000000
8.19967175 3.69712663 -0.15700185 14 14 6573 8.99600000 2981317930 2981317930 -1.00000000
8.03947639 3.62489605 2.36301780 45 15 6573 9.13000000 2981317932 2981317932 15.00000000
2.07765603 0.93329984 -0.61029530 4 0 6581 2.35800000 2981317953 2981317953 -15.00000000
8.19087505 3.67768931 0.15672261 12 1 6582 8.98000000 2981317955 2981317955 1.00000000
8.16946507 3.66636276 -2.06730008 8 2 6583 9.19000000 2981317957 2981317957 -13.00000000
8.21133518 3.68343186 0.47165164 13 3 6584 9.01200000 2981317960 2981317960 3.00000000
2.95203805 1.32422209 -0.62890643 5 4 6584 3.29600000 2981317962 2981317962 -11.00000000
8.20831776 3.68035746 0.78701633 78 5 6585 9.03000000 2981317964 2981317964 5.00000000
3.70440006 1.66016281 -0.64294565 6 6 6586 4.11000000 2981317966 2981317966 -9.00000000
8.21576691 3.68025374 1.10535491 99 7 6587 9.07000000 2981317969 2981317969 7.00000000
5.00593996 2.24136257 -0.67344999 9 8 6588 5.52600000 2981317971 2981317971 -7.00000000
17.78390121 7.96257448 3.08613920 8 9 6588 19.72800000 2981317973 2981317973 9.00000000
7.65439939 3.42558169 -0.73367703 13 10 6589 8.41800000 2981317976 2981317976 -5.00000000
17.45351219 7.80733347 3.71657753 41 11 6590 19.47800000 2981317978 2981317978 11.00000000
8.18665600 3.66035342 -0.46997687 12 12 6591 8.98000000 2981317980 2981317980 -3.00000000
8.24993801 3.68692017 2.08619618 70 13 6592 9.27400000 2981317983 2981317983 13.00000000
8.20522404 3.66521955 -0.15686223 14 14 6593 8.98800000 2981317985 2981317985 -1.00000000
7.12251902 3.18158221 2.09022260 38 15 6593 8.07600000 2981317987 2981317987 15.00000000
2.07737136 0.92447090 -0.60926002 4 0 6601 2.35400000 2981318008 2981318008 -15.00000000
8.19452763 3.64501190 0.15654808 12 1 6602 8.97000000 2981318010 2981318010 1.00000000
8.17508984 3.63465691 -2.06550050 8 2 6603 9.18200000 2981318013 2981318013 -13.00000000
8.19676495 3.64258027 0.47008157 13 3 6604 8.98200000 2981318015 2981318015 3.00000000
2.94767213 1.30992317 -0.62699836 5 4 6604 3.28600000 2981318017 2981318017 -11.00000000
8.21565151 3.64925647 0.78649342 82 5 6605 9.02400000 2981318019 2981318019 5.00000000
3.71017265 1.64722192 -0.64294565 6 6 6606 4.11000000 2981318022 2981318022 -9.00000000
8.21404743 3.64511156 1.10340500 99 7 6607 9.05400000 2981318024 2981318024 7.00000000
5.00284576 2.21904564 -0.67198753 9 8 6608 5.51400000 2981318026 2981318026 -7.00000000
17.78046036 7.88292837 3.08050752 4 9 6609 19.69200000 2981318029 2981318029 9.00000000
7.68270302 3.40610981 -0.73524582 13 10 6609 8.43600000 2981318031 2981318031 -5.00000000
17.49501801 7.75272465 3.71963048 41 11 6610 19.49400000 2981318033 2981318033 11.00000000
8.19938278 3.63175440 -0.46997687 17 12 6611 8.98000000 2981318036 2981318036 -3.00000000
8.24850273 3.65178895 2.08259678 70 13 6612 9.25800000 2981318038 2981318038 13.00000000
8.18871021 3.62360835 -0.15630375 18 14 6613 8.95600000 2981318040 2981318040 -1.00000000
7.13181496 3.15591884 2.08970499 51 15 6613 8.07400000 2981318042 2981318042 15.00000000
2.07351494 0.91409677 -0.60718948 4 0 6621 2.34600000 2981318063 2981318063 -15.00000000
8.20171165 3.61396646 0.15644337 12 1 6622 8.96400000 2981318066 2981318066 1.00000000
8.17702675 3.60138559 -2.06280112 8 2 6623 9.17000000 2981318068 2981318068 -13.00000000
8.20760250 3.61314130 0.46997687 15 3 6624 8.98000000 2981318070 2981318070 3.00000000
2.95042968 1.29883480 -0.62661672 5 4 6624 3.28400000 2981318072 2981318072 -11.00000000
8.21192741 3.61333442 0.78492463 86 5 6625 9.00600000 2981318075 2981318075 5.00000000
3.73036575 1.64062309 -0.64544863 6 6 6626 4.12600000 2981318077 2981318077 -9.00000000
8.21945190 3.61322141 1.10243011 99 7 6627 9.04600000 2981318079 2981318079 7.00000000
5.02328300 2.20715880 -0.67369372 9 8 6628 5.52800000 2981318082 2981318082 -7.00000000
17.77893066 7.80810595 3.07550168 4 9 6629 19.66000000 2981318084 2981318084 9.00000000
7.67265511 3.36965752 -0.73315412 13 10 6629 8.41200000 2981318086 2981318086 -5.00000000
17.52197266 7.69160843 3.71963048 41 11 6630 19.49400000 2981318089 2981318089 11.00000000
8.19737816 3.59669137 -0.46913952 17 12 6631 8.96400000 2981318091 2981318091 -3.00000000
8.24692154 3.61671281 2.07899761 64 13 6632 9.24200000 2981318093 2981318093 13.00000000
8.18299389 3.58697414 -0.15595470 20 14 6633 8.93600000 2981318095 2981318095 -1.00000000
7.13448668 3.12588191 2.08711672 45 15 6634 8.06400000 2981318098 2981318098 15.00000000
2.06622791 0.90185404 -0.60408366 4 0 6642 2.33400000 2981318119 2981318119 -15.00000000
8.18740940 3.57188702 0.15591981 15 1 6643 8.93400000 2981318121 2981318121 1.00000000
8.18659973 3.56983328 -2.06190133 8 2 6644 9.16600000 2981318123 2981318123 -13.00000000
8.20797348 3.57744861 0.46924418 13 3 6645 8.96600000 2981318125 2981318125 3.00000000
2.95697021 1.28879666 -0.62699836 5 4 6645 3.28600000 2981318128 2981318128 -11.00000000
8.19954300 3.57207155 0.78248423 86 5 6646 8.97800000 2981318130 2981318130 5.00000000
3.71824241 1.61905336 -0.64231992 6 6 6647 4.10600000 2981318132 2981318132 -9.00000000
8.21989918 3.57752609 1.10072386 97 7 6648 9.03200000 2981318135 2981318135 7.00000000
5.02769804 2.18714881 -0.67320627 9 8 6649 5.52400000 2981318137 2981318137 -7.00000000
21.22036934 9.22687912 3.66494656 22 9 6650 23.42800000 2981318139 2981318139 9.00000000
7.68860817 3.34310198 -0.73350275 13 10 6650 8.41600000 2981318142 2981318142 -5.00000000
17.54824638 7.62655306 3.71924901 33 11 6651 19.49200000 2981318144 2981318144 11.00000000
8.20501041 3.56423497 -0.46882549 17 12 6652 8.95800000 2981318146 2981318146 -3.00000000
8.25654697 3.58490968 2.07809782 66 13 6653 9.23800000 2981318148 2981318148 13.00000000
8.19241714 3.55536580 -0.15588489 20 14 6654 8.93200000 2981318151 2981318151 -1.00000000
7.14003801 3.09865165 2.08556390 42 15 6654 8.05800000 2981318153 2981318153 15.00000000
2.07822967 0.89846915 -0.60667187 4 0 6662 2.34400000 2981318174 2981318174 -15.00000000
8.18330669 3.53614712 0.15560566 15 1 6663 8.91600000 2981318176 2981318176 1.00000000
8.18469810 3.53505325 -2.05830216 8 2 6664 9.15000000 2981318178 2981318178 -13.00000000
8.21857738 3.54798412 0.46913952 13 3 6665 8.96400000 2981318181 2981318181 3.00000000
2.96505570 1.28002334 -0.62776160 6 4 6665 3.29000000 2981318183 2981318183 -11.00000000
8.20098591 3.53869176 0.78143841 86 5 6666 8.96600000 2981318185 2981318185 5.00000000
3.72024369 1.60449982 -0.64169419 6 6 6667 4.10200000 2981318188 2981318188 -9.00000000
8.21410751 3.54095316 1.09828651 97 7 6668 9.01200000 2981318190 2981318190 7.00000000
5.04806376 2.17508411 -0.67491245 9 8 6669 5.53800000 2981318192 2981318192 -7.00000000
21.25789070 9.15509415 3.66588521 39 9 6670 23.43400000 2981318195 2981318195 9.00000000
7.69657135 3.31466722 -0.73315412 13 10 6670 8.41200000 2981318197 2981318197 -5.00000000
17.56935120 7.56292295 3.71810412 33 11 6671 19.48600000 2981318199 2981318199 11.00000000
8.19171715 3.52452135 -0.46736008 17 12 6672 8.93000000 2981318201 2981318201 -3.00000000
8.26185036 3.55298758 2.07629824 64 13 6673 9.23000000 2981318204 2981318204 13.00000000
8.19375515 3.52200913 -0.15567547 18 14 6674 8.92000000 2981318206 2981318206 -1.00000000
7.15258598 3.07447219 2.08608150 45 15 6674 8.06000000 2981318208 2981318208 15.00000000
2.09185219 0.89613688 -0.60977769 4 0 6681 2.35600000 2981318229 2981318229 -15.00000000
8.18763447 3.50584221 0.15546604 18 1 6682 8.90800000 2981318231 2981318231 1.00000000
8.18025208 3.50099182 -2.05425310 8 2 6683 9.13200000 2981318234 2981318234 -13.00000000
8.20030403 3.50957370 0.46746477 10 3 6683 8.93200000 2981318236 2981318236 3.00000000
2.95303893 1.26323450 -0.62432700 6 4 6684 3.27200000 2981318238 2981318238 -11.00000000
8.20901203 3.50991035 0.78108978 86 5 6685 8.96200000 2981318241 2981318241 5.00000000
3.73280978 1.59525931 -0.64294565 6 6 6686 4.11000000 2981318243 2981318243 -9.00000000
8.20389843 3.50433731 1.09536171 95 7 6687 8.98800000 2981318245 2981318245 7.00000000
5.03699207 2.15053773 -0.67247504 6 8 6688 5.51800000 2981318247 2981318247 -7.00000000
21.27201271 9.08205986 3.66338229 56 9 6688 23.41800000 2981318250 2981318250 9.00000000
7.71668339 3.29303646 -0.73402566 13 10 6689 8.42200000 2981318252 2981318252 -5.00000000
17.59433365 7.50461960 3.71810412 33 11 6690 19.48600000 2981318254 2981318254 11.00000000
8.18314934 3.48872113 -0.46620870 17 12 6691 8.90800000 2981318257 2981318257 -3.00000000
8.25924492 3.51945925 2.07269907 62 13 6692 9.21400000 2981318259 2981318259 13.00000000
8.19803047 3.49168396 -0.15553585 20 14 6693 8.91200000 2981318261 2981318261 -1.00000000
7.16096449 3.04997945 2.08556390 40 15 6693 8.05800000 2981318264 2981318264 15.00000000
2.09141088 0.88732046 -0.60874242 4 0 6701 2.35200000 2981318284 2981318284 -15.00000000
8.19245911 3.47411799 0.15532641 15 1 6702 8.90000000 2981318287 2981318287 1.00000000
8.17089272 3.46328998 -2.04885411 8 2 6703 9.10800000 2981318289 2981318289 -13.00000000
8.20023918 3.47404075 0.46673205 10 3 6704 8.91800000 2981318291 2981318291 3.00000000
2.96285343 1.25521624 -0.62547189 6 4 6704 3.27800000 2981318294 2981318294 -11.00000000
8.19185829 3.46880388 0.77830076 75 5 6705 8.93000000 2981318296 2981318296 5.00000000
3.72016406 1.57452023 -0.63981694 6 6 6706 4.09000000 2981318298 2981318298 -9.00000000
8.20693970 3.47181201 1.09414291 87 7 6707 8.97800000 2981318300 2981318300 7.00000000
5.04812479 2.13448834 -0.67296249 6 8 6708 5.52200000 2981318303 2981318303 -7.00000000
21.30333710 9.00326443 3.66306949 56 9 6709 23.41600000 2981318305 2981318305 9.00000000
7.72262573 3.26375318 -0.73350275 13 10 6709 8.41600000 2981318307 2981318307 -5.00000000
17.62042236 7.44315815 3.71810412 37 11 6710 19.48600000 2981318310 2981318310 11.00000000
8.18423748 3.45547414 -0.46558067 17 12 6711 8.89600000 2981318312 2981318312 -3.00000000
8.25352573 3.48303103 2.06820011 64 13 6712 9.19400000 2981318314 2981318314 13.00000000
8.18621635 3.45294309 -0.15508208 16 14 6713 8.88600000 2981318317 2981318317 -1.00000000
7.17743540 3.02596426 2.08711672 45 15 6714 8.06400000 2981318319 2981318319 15.00000000
2.09434175 0.88038021 -0.60874242 4 0 6720 2.35200000 2981318340 2981318340 -15.00000000
8.20024681 3.44538236 0.15525661 15 1 6721 8.89600000 2981318342 2981318342 1.00000000
2.47949457 1.04126525 -0.62086493 4 2 6722 2.76000000 2981318344 2981318344 -13.00000000
8.19269848 3.44052863 0.46568534 10 3 6722 8.89800000 2981318347 2981318347 3.00000000
2.95975876 1.24234486 -0.62394542 6 4 6723 3.27000000 2981318349 2981318349 -11.00000000
8.19412994 3.43776584 0.77742922 75 5 6724 8.92000000 2981318351 2981318351 5.00000000
3.75086856 1.57286978 -0.64419711 6 6 6725 4.11800000 2981318353 2981318353 -9.00000000
8.21291542 3.44227576 1.09341180 90 7 6726 8.97200000 2981318356 2981318356 7.00000000
5.05883741 2.11927032 -0.67344999 6 8 6727 5.52600000 2981318358 2981318358 -7.00000000
21.31850052 8.92646694 3.66056657 56 9 6728 23.40000000 2981318360 2981318360 9.00000000
7.72973061 3.23658705 -0.73315412 13 10 6728 8.41200000 2981318363 2981318363 -5.00000000
17.64682007 7.38544369 3.71848559 37 11 6729 19.48800000 2981318365 2981318365 11.00000000
8.19565201 3.42831540 -0.46558067 17 12 6730 8.89600000 2981318367 2981318367 -3.00000000
8.25783825 3.45263529 2.06640029 66 13 6731 9.18600000 2981318370 2981318370 13.00000000
8.17917061 3.41806698 -0.15473303 18 14 6732 8.86600000 2981318372 2981318372 -1.00000000
7.17799425 2.99967647 2.08452868 42 15 6732 8.05400000 2981318374 2981318374 15.00000000
2.09205151 0.87083703 -0.60718948 4 0 6740 2.34600000 2981318395 2981318395 -15.00000000
8.18822193 3.40675139 0.15480284 12 1 6741 8.87000000 2981318397 2981318397 1.00000000
2.48491359 1.03335214 -0.62131482 4 2 6742 2.76200000 2981318399 2981318399 -13.00000000
8.20096970 3.41037607 0.46547601 10 3 6742 8.89400000 2981318402 2981318402 3.00000000
2.96589017 1.23275924 -0.62432700 5 4 6743 3.27200000 2981318404 2981318404 -11.00000000
8.18216133 3.39920497 0.77516317 71 5 6744 8.89400000 2981318406 2981318406 5.00000000
3.75086308 1.55749452 -0.64325851 6 6 6745 4.11200000 2981318409 2981318409 -9.00000000
8.21571350 3.40978169 1.09219301 90 7 6746 8.96200000 2981318411 2981318411 7.00000000
5.06253672 2.10007763 -0.67296249 6 8 6747 5.52200000 2981318413 2981318413 -7.00000000
7.74098110 3.20958567 -0.73315412 13 10 6748 8.41200000 2981318418 2981318418 -5.00000000
8.18542576 3.39051437 -0.46432459 17 12 6750 8.87200000 2981318423 2981318423 -3.00000000
8.26984024 3.42378902 2.06640029 66 13 6751 9.18600000 2981318425 2981318425 13.00000000
8.18735695 3.38796639 -0.15466322 16 14 6752 8.86200000 2981318427 2981318427 -1.00000000
7.19199133 2.97607946 2.08556390 42 15 6752 8.05800000 2981318429 2981318429 15.00000000
2.09507871 0.86352909 -0.60718948 4 0 6760 2.34600000 2981318450 2981318450 -15.00000000
8.18712139 3.37281632 0.15455851 12 1 6761 8.85600000 2981318452 2981318452 1.00000000
2.48129773 1.02170396 -0.61951518 4 2 6762 2.75400000 2981318455 2981318455 -13.00000000
8.20602608 3.37725449 0.46505731 10 3 6763 8.88600000 2981318457 2981318457 3.00000000
2.97925282 1.22613478 -0.62623513 6 4 6763 3.28200000 2981318459 2981318459 -11.00000000
8.19029140 3.36910725 0.77481455 78 5 6764 8.89000000 2981318462 2981318462 5.00000000
3.73983407 1.53763163 -0.64044273 6 6 6765 4.09400000 2981318464 2981318464 -9.00000000
8.21287727 3.37504625 1.09024310 87 7 6766 8.94600000 2981318466 2981318466 7.00000000
5.06616402 2.08088493 -0.67247504 6 8 6767 5.51800000 2981318469 2981318469 -7.00000000
21.36232185 8.77439594 3.65775061 84 9 6767 23.38200000 2981318471 2981318471 9.00000000
7.75398064 3.18330169 -0.73332840 13 10 6768 8.41400000 2981318473 2981318473 -5.00000000
16.16863060 6.63453579 3.39716339 10 11 6769 17.80400000 2981318476 2981318476 11.00000000
8.18612385 3.35737419 -0.46369657 17 12 6770 8.86000000 2981318478 2981318478 -3.00000000
8.27813435 3.39342284 2.06550050 66 13 6771 9.18200000 2981318480 2981318480 13.00000000
8.19173145 3.35633397 -0.15452361 16 14 6772 8.85400000 2981318482 2981318482 -1.00000000
7.20106316 2.94896746 2.08504629 40 15 6773 8.05600000 2981318485 2981318485 15.00000000
2.09808016 0.85621065 -0.60718948 4 0 6780 2.34600000 2981318505 2981318505 -15.00000000
8.18218040 3.33742023 0.15424436 12 1 6781 8.83800000 2981318508 2981318508 1.00000000
2.48304439 1.01230073 -0.61906528 4 2 6782 2.75200000 2981318510 2981318510 -13.00000000
8.20238495 3.34399176 0.46421993 10 3 6782 8.87000000 2981318512 2981318512 3.00000000
2.98715091 1.21720946 -0.62699836 8 4 6783 3.28600000 2981318515 2981318515 -11.00000000
8.20015717 3.33974576 0.77464026 75 5 6784 8.88800000 2981318517 2981318517 5.00000000
3.74883771 1.52605736 -0.64106846 6 6 6785 4.09800000 2981318519 2981318519 -9.00000000
8.20805931 3.33962440 1.08804953 92 7 6786 8.92800000 2981318522 2981318522 7.00000000
5.08443022 2.06767488 -0.67393744 6 8 6787 5.53000000 2981318524 2981318524 -7.00000000
21.35590744 8.68041992 3.65118051 73 9 6788 23.34000000 2981318526 2981318526 9.00000000
7.76504517 3.15621567 -0.73332840 13 10 6788 8.41400000 2981318529 2981318529 -5.00000000
17.74137878 7.20763445 3.72230196 26 11 6789 19.50800000 2981318531 2981318531 11.00000000
8.18669033 3.32427025 -0.46306854 17 12 6790 8.84800000 2981318533 2981318533 -3.00000000
8.27187252 3.35717750 2.06100154 66 13 6791 9.16200000 2981318535 2981318535 13.00000000
8.19227886 3.32320881 -0.15431418 16 14 6792 8.84200000 2981318538 2981318538 -1.00000000
7.21310329 2.92453885 2.08556390 42 15 6793 8.05800000 2981318540 2981318540 15.00000000
2.10822082 0.85177648 -0.60926002 4 0 6800 2.35400000 2981318561 2981318561 -15.00000000
8.18821812 3.30659246 0.15413965 12 1 6801 8.83200000 2981318563 2981318563 1.00000000
2.49379134 1.00654459 -0.62086493 4 2 6802 2.76000000 2981318565 2981318565 -13.00000000
8.18807888 3.30487418 0.46275452 13 3 6802 8.84200000 2981318568 2981318568 3.00000000
2.98409867 1.20383704 -0.62547189 6 4 6803 3.27800000 2981318570 2981318570 -11.00000000
8.19882965 3.30588603 0.77342004 78 5 6804 8.87400000 2981318572 2981318572 5.00000000
3.75780606 1.51443899 -0.64169419 6 6 6805 4.10200000 2981318575 2981318575 -9.00000000
8.20861912 3.30650234 1.08658707 92 7 6806 8.91600000 2981318577 2981318577 7.00000000
5.06951904 2.04101777 -0.67101258 6 8 6807 5.50600000 2981318579 2981318579 -7.00000000
21.35708809 8.59848690 3.64648747 73 9 6807 23.31000000 2981318582 2981318582 9.00000000
7.78525686 3.13281035 -0.73420000 13 10 6808 8.42400000 2981318584 2981318584 -5.00000000
17.76825142 7.14639425 3.72268343 37 11 6809 19.51000000 2981318586 2981318586 11.00000000
8.18712521 3.29120326 -0.46244052 17 12 6810 8.83600000 2981318588 2981318588 -3.00000000
8.26545811 3.32101750 2.05650258 66 13 6811 9.14200000 2981318591 2981318591 13.00000000
8.18712807 3.28788519 -0.15400003 20 14 6812 8.82400000 2981318593 2981318593 -1.00000000
7.22864628 2.90150166 2.08711672 45 15 6813 8.06400000 2981318595 2981318595 15.00000000
2.10580015 0.84225994 -0.60770714 4 0 6820 2.34800000 2981318616 2981318616 -15.00000000
8.19228268 3.27502084 0.15400003 12 1 6821 8.82400000 2981318618 2981318618 1.00000000
2.49005103 0.99494123 -0.61906528 4 2 6822 2.75200000 2981318621 2981318621 -13.00000000
8.19400024 3.27404904 0.46244052 10 3 6822 8.83600000 2981318623 2981318623 3.00000000
2.97916651 1.18977261 -0.62356383 5 4 6823 3.26800000 2981318625 2981318625 -11.00000000
8.19551659 3.27133775 0.77202559 78 5 6824 8.85800000 2981318628 2981318628 5.00000000
3.77591300 1.50643647 -0.64388424 6 6 6825 4.11600000 2981318630 2981318630 -9.00000000
8.21273518 3.27488780 1.08561206 95 7 6826 8.90800000 2981318632 2981318632 7.00000000
5.07661295 2.02330923 -0.67101258 6 8 6827 5.50600000 2981318635 2981318635 -7.00000000
21.34843826 8.50852585 3.63991714 84 9 6827 23.26800000 2981318637 2981318637 9.00000000
7.79429388 3.10487843 -0.73402566 13 10 6828 8.42200000 2981318639 2981318639 -5.00000000
17.81132889 7.09158993 3.72649980 41 11 6829 19.53000000 2981318641 2981318641 11.00000000
8.18928528 3.25891256 -0.46191716 12 12 6830 8.82600000 2981318644 2981318644 -3.00000000
8.26975727 3.28926444 2.05470300 64 13 6831 9.13400000 2981318646 2981318646 13.00000000
8.18183136 3.25263834 -0.15368590 16 14 6832 8.80600000 2981318648 2981318648 -1.00000000
7.23334455 2.87411118 2.08556390 42 15 6833 8.05800000 2981318651 2981318651 15.00000000
2.09615397 0.82992607 -0.60408366 4 0 6840 2.33400000 2981318671 2981318671 -15.00000000
8.18693066 3.23978233 0.15368590 12 1 6841 8.80600000 2981318674 2981318674 1.00000000
2.49350882 0.98624331 -0.61906528 4 2 6842 2.75200000 2981318676 2981318676 -13.00000000
8.19980717 3.24322295 0.46212649 10 3 6842 8.83000000 2981318678 2981318678 3.00000000
2.98695302 1.18080962 -0.62432700 5 4 6843 3.27200000 2981318681 2981318681 -11.00000000
8.18279648 3.23319197 0.76975954 82 5 6844 8.83200000 2981318683 2981318683 5.00000000
3.77379918 1.49034464 -0.64263278 6 6 6845 4.10800000 2981318685 2981318685 -9.00000000
8.21303844 3.24182701 1.08414972 95 7 6846 8.89600000 2981318687 2981318687 7.00000000
5.08918428 2.00776172 -0.67174381 6 8 6847 5.51200000 2981318690 2981318690 -7.00000000
21.34676933 8.42163086 3.63459826 77 9 6847 23.23400000 2981318692 2981318692 9.00000000
7.79581738 3.07399797 -0.73315412 13 10 6848 8.41200000 2981318694 2981318694 -5.00000000
17.81405640 7.02073526 3.72192025 41 11 6849 19.50600000 2981318697 2981318697 11.00000000
8.19503689 3.22811079 -0.46160313 17 12 6850 8.82000000 2981318699 2981318699 -3.00000000
8.28118896 3.26037765 2.05470300 66 13 6851 9.13400000 2981318701 2981318701 13.00000000
8.18197060 3.21966505 -0.15347646 18 14 6852 8.79400000 2981318704 2981318704 -1.00000000
7.23204947 2.84586430 2.08245802 40 15 6852 8.04600000 2981318706 2981318706 15.00000000
2.10263562 0.82401389 -0.60511893 4 0 6860 2.33800000 2981318727 2981318727 -15.00000000
8.17957020 3.20389152 0.15333684 15 1 6861 8.78600000 2981318729 2981318729 1.00000000
2.50419474 0.98037499 -0.62086493 4 2 6862 2.76000000 2981318731 2981318731 -13.00000000
8.21107864 3.21458054 0.46212649 10 3 6862 8.83000000 2981318734 2981318734 3.00000000
2.99654150 1.17252219 -0.62547189 5 4 6863 3.27800000 2981318736 2981318736 -11.00000000
8.19403267 3.20460916 0.76975954 82 5 6864 8.83200000 2981318738 2981318738 5.00000000
3.75690079 1.46853256 -0.63887835 6 6 6865 4.08400000 2981318740 2981318740 -9.00000000
8.20211601 3.20446992 1.08122480 97 7 6866 8.87200000 2981318743 2981318743 7.00000000
5.11650181 1.99792767 -0.67442495 6 8 6867 5.53400000 2981318745 2981318745 -7.00000000
21.34843636 8.33628750 3.62990522 60 9 6867 23.20400000 2981318747 2981318747 9.00000000
7.82134819 3.05256176 -0.73454863 13 10 6868 8.42800000 2981318750 2981318750 -5.00000000
17.83113861 6.95565605 3.72039390 41 11 6869 19.49800000 2981318752 2981318752 11.00000000
8.18950748 3.19295549 -0.46066108 17 12 6870 8.80200000 2981318754 2981318754 -3.00000000
8.29978275 3.23428130 2.05650258 62 13 6871 9.14200000 2981318757 2981318757 13.00000000
8.18384266 3.18745637 -0.15330194 14 14 6872 8.78400000 2981318759 2981318759 -1.00000000
7.24423170 2.82003927 2.08297563 40 15 6873 8.04800000 2981318761 2981318761 15.00000000
2.11976433 0.82262808 -0.60926002 4 0 6879 2.35400000 2981318782 2981318782 -15.00000000
8.18642044 3.17530322 0.15326703 15 1 6880 8.78200000 2981318784 2981318784 1.00000000
2.49289632 0.96643019 -0.61726570 4 2 6881 2.74400000 2981318787 2981318787 -13.00000000
8.19245243 3.17435312 0.46045175 10 3 6882 8.79800000 2981318789 2981318789 3.00000000
3.00773573 1.16541612 -0.62699836 6 4 6882 3.28600000 2981318791 2981318791 -11.00000000
8.19718266 3.17454100 0.76906228 78 5 6883 8.82400000 2981318793 2981318793 5.00000000
3.77832961 1.46248364 -0.64169419 6 6 6884 4.10200000 2981318796 2981318796 -9.00000000
8.18677807 3.16722560 1.07781243 97 7 6885 8.84400000 2981318798 2981318798 7.00000000
5.10458422 1.97379053 -0.67198753 9 8 6886 5.51400000 2981318800 2981318800 -7.00000000
7.82399416 3.02373576 -0.73385137 13 10 6887 8.42000000 2981318805 2981318805 -5.00000000
8.18141842 3.15858722 -0.45961437 17 12 6889 8.78200000 2981318810 2981318810 -3.00000000
8.29955387 3.20253110 2.05380321 55 13 6890 9.13000000 2981318812 2981318812 13.00000000
8.19436741 3.16030025 -0.15330194 14 14 6891 8.78400000 2981318814 2981318814 -1.00000000
7.25305557 2.79726696 2.08297563 45 15 6891 8.04800000 2981318817 2981318817 15.00000000
2.11360598 0.81176060 -0.60667187 4 0 6899 2.34400000 2981318837 2981318837 -15.00000000
8.18251991 3.14097500 0.15298779 15 1 6900 8.76600000 2981318840 2981318840 1.00000000
2.50353217 0.96051466 -0.61906528 4 2 6901 2.75200000 2981318842 2981318842 -13.00000000
8.19229317 3.14144635 0.45982370 13 3 6902 8.78600000 2981318844 2981318844 3.00000000
2.99345446 1.14788079 -0.62318218 5 4 6902 3.26600000 2981318846 2981318846 -11.00000000
8.19705200 3.14162993 0.76801640 78 5 6903 8.81200000 2981318849 2981318849 5.00000000
3.77603292 1.44645941 -0.64044273 4 6 6904 4.09400000 2981318851 2981318851 -9.00000000
8.19778442 3.13862920 1.07781243 95 7 6905 8.84400000 2981318853 2981318853 7.00000000
5.10031891 1.95170343 -0.67052513 6 8 6906 5.50200000 2981318856 2981318856 -7.00000000
8.29159451 3.17122746 1.40603292 2 9 6907 8.98800000 2981318858 2981318858 9.00000000
7.84566689 3.00067687 -0.73489720 13 10 6907 8.43200000 2981318860 2981318860 -5.00000000
17.88357353 6.83622599 3.72153854 15 11 6908 19.50400000 2981318863 2981318863 11.00000000
8.18866253 3.12858391 -0.45940503 17 12 6909 8.77800000 2981318865 2981318865 -3.00000000
8.30704117 3.17215037 2.05290341 55 13 6910 9.12600000 2981318867 2981318867 13.00000000
8.17358875 3.11955547 -0.15270856 16 14 6911 8.75000000 2981318870 2981318870 -1.00000000
7.26506424 2.77135277 2.08349323 40 15 6912 8.05000000 2981318872 2981318872 15.00000000
2.11628628 0.80474716 -0.60667187 4 0 6918 2.34400000 2981318893 2981318893 -15.00000000
8.18728256 3.11169219 0.15288308 18 1 6919 8.76000000 2981318895 2981318895 1.00000000
2.50670362 0.95220739 -0.61906528 4 2 6920 2.75200000 2981318897 2981318897 -13.00000000
8.18959522 3.10929990 0.45909101 13 3 6921 8.77200000 2981318899 2981318899 3.00000000
3.00825715 1.14212894 -0.62547189 5 4 6921 3.27800000 2981318902 2981318902 -11.00000000
8.19624805 3.11018920 0.76697052 93 5 6922 8.80000000 2981318904 2981318904 5.00000000
3.79189086 1.43813276 -0.64231992 4 6 6923 4.10600000 2981318906 2981318906 -9.00000000
8.20072174 3.10861254 1.07683754 97 7 6924 8.83600000 2981318909 2981318909 7.00000000
5.11418819 1.93759263 -0.67150009 6 8 6925 5.51000000 2981318911 2981318911 -7.00000000
21.33197784 8.08196354 3.61301041 55 9 6925 23.09600000 2981318913 2981318913 9.00000000
7.85184765 2.97323203 -0.73454863 13 10 6926 8.42800000 2981318916 2981318916 -5.00000000
17.91348839 6.77966404 3.72306514 30 11 6927 19.51200000 2981318918 2981318918 11.00000000
8.19899273 3.10141206 -0.45940503 17 12 6928 8.77800000 2981318920 2981318920 -3.00000000
8.33209705 3.15009904 2.05650258 55 13 6929 9.14200000 2981318923 2981318923 13.00000000
8.17827702 3.09031320 -0.15260383 14 14 6930 8.74400000 2981318925 2981318925 -1.00000000
7.26831341 2.74646688 2.08194041 40 15 6930 8.04400000 2981318927 2981318927 15.00000000
2.11004186 0.79395336 -0.60408366 4 0 6938 2.33400000 2981318948 2981318948 -15.00000000
8.17937756 3.07605529 0.15253404 18 1 6939 8.74000000 2981318950 2981318950 1.00000000
2.51366043 0.94482285 -0.61996508 4 2 6940 2.75600000 2981318952 2981318952 -13.00000000
8.19105053 3.07718205 0.45856765 10 3 6941 8.76200000 2981318955 2981318955 3.00000000
3.00854993 1.13024032 -0.62470865 5 4 6941 3.27400000 2981318957 2981318957 -11.00000000
8.16788483 3.06685233 0.76331002 75 5 6942 8.75800000 2981318959 2981318959 5.00000000
3.79318881 1.42349970 -0.64169419 4 6 6943 4.10200000 2981318962 2981318962 -9.00000000
8.20594692 3.07787633 1.07610631 99 7 6944 8.83000000 2981318964 2981318964 7.00000000
5.12835550 1.92251623 -0.67247504 6 8 6945 5.51800000 2981318966 2981318966 -7.00000000
7.84352112 2.93881536 -0.73280549 13 10 6946 8.40800000 2981318971 2981318971 -5.00000000
8.19480419 3.06717253 -0.45856765 17 12 6948 8.76200000 2981318975 2981318975 -3.00000000
8.35216808 3.12440920 2.05875206 53 13 6949 9.15200000 2981318978 2981318978 13.00000000
8.17402935 3.05614448 -0.15232460 14 14 6950 8.72800000 2981318980 2981318980 -1.00000000
7.27471161 2.71845627 2.08090520 42 15 6951 8.04000000 2981318982 2981318982 15.00000000
2.11642146 0.78793114 -0.60511893 4 0 6958 2.33800000 2981319003 2981319003 -15.00000000
8.17319775 3.04120898 0.15221989 12 1 6959 8.72200000 2981319005 2981319005 1.00000000
2.51146364 0.93400496 -0.61861539 6 2 6960 2.75000000 2981319008 2981319008 -13.00000000
8.19612598 3.04648352 0.45825362 10 3 6961 8.75600000 2981319010 2981319010 3.00000000
3.01063657 1.11904764 -0.62432700 5 4 6961 3.27200000 2981319012 2981319012 -11.00000000
8.17293739 3.03624105 0.76278704 78 5 6962 8.75200000 2981319015 2981319015 5.00000000
3.77220869 1.40062404 -0.63731402 6 6 6963 4.07400000 2981319017 2981319017 -9.00000000
8.19616890 3.04161644 1.07342517 92 7 6964 8.80800000 2981319019 2981319019 7.00000000
5.12759066 1.90184200 -0.67150009 6 8 6965 5.51000000 2981319022 2981319022 -7.00000000
8.26400375 3.06514907 1.39602113 5 9 6965 8.92400000 2981319024 2981319024 9.00000000
7.87801790 2.92042136 -0.73507154 13 10 6966 8.43400000 2981319026 2981319026 -5.00000000
8.20330715 3.03937936 1.70048976 18 11 6967 8.91200000 2981319028 2981319028 11.00000000
8.18298531 3.03022575 -0.45731160 17 12 6968 8.73800000 2981319031 2981319031 -3.00000000
8.25154114 3.05397487 2.03130794 55 13 6969 9.03000000 2981319033 2981319033 13.00000000
8.17527008 3.02412438 -0.15215008 12 14 6970 8.71800000 2981319035 2981319035 -1.00000000
7.28368616 2.69431734 2.08090520 42 15 6970 8.04000000 2981319038 2981319038 15.00000000
2.13366127 0.78588021 -0.60926002 4 0 6978 2.35400000 2981319058 2981319058 -15.00000000
8.18188763 3.01196980 0.15218498 12 1 6979 8.72000000 2981319061 2981319061 1.00000000
2.50190639 0.92052233 -0.61546606 10 2 6980 2.73600000 2981319063 2981319063 -13.00000000
8.19358826 3.01303005 0.45752093 10 3 6981 8.74200000 2981319065 2981319065 3.00000000
3.01452446 1.10853171 -0.62432700 5 4 6981 3.27200000 2981319068 2981319068 -11.00000000
8.17787552 3.00563169 0.76226413 75 5 6982 8.74600000 2981319070 2981319070 5.00000000
3.79561734 1.39425921 -0.64044273 4 6 6983 4.09400000 2981319072 2981319072 -9.00000000
8.19555569 3.00888300 1.07196271 92 7 6984 8.79600000 2981319075 2981319075 7.00000000
5.13419819 1.88393176 -0.67150009 9 8 6985 5.51000000 2981319077 2981319077 -7.00000000
7.87319946 2.88741612 -0.73367703 13 10 6986 8.41800000 2981319081 2981319081 -5.00000000
8.16913223 2.99271178 -0.45595086 12 12 6988 8.71200000 2981319086 2981319086 -3.00000000
8.20542336 3.00438237 2.01736116 84 13 6989 8.96800000 2981319088 2981319088 13.00000000
8.18389893 2.99488163 -0.15211518 10 14 6990 8.71600000 2981319091 2981319091 -1.00000000
7.29351282 2.66760325 2.08090520 42 15 6991 8.04000000 2981319093 2981319093 15.00000000
2.12550092 0.77445936 -0.60615420 4 0 6998 2.34200000 2981319114 2981319114 -15.00000000
8.18107700 2.97928572 0.15197556 12 1 6999 8.70800000 2981319116 2981319116 1.00000000
2.51059818 0.91378301 -0.61681581 11 2 7000 2.74200000 2981319118 2981319118 -13.00000000
8.17402458 2.97348619 0.45584619 13 3 7001 8.71000000 2981319121 2981319121 3.00000000
3.01837540 1.09800231 -0.62432700 5 4 7001 3.27200000 2981319123 2981319123 -11.00000000
8.17895508 2.97366333 0.76139259 78 5 7002 8.73600000 2981319125 2981319125 5.00000000
3.80417418 1.38235092 -0.64106846 4 6 7003 4.09800000 2981319128 2981319128 -9.00000000
8.19481373 2.97619104 1.07050025 92 7 7004 8.78400000 2981319130 2981319130 7.00000000
5.13327885 1.86328924 -0.67052513 6 8 7005 5.50200000 2981319132 2981319132 -7.00000000
8.21835518 2.98311734 1.38475788 100 9 7005 8.85200000 2981319134 2981319134 9.00000000
7.90008688 2.86603117 -0.73524582 13 10 7006 8.43600000 2981319137 2981319137 -5.00000000
8.21325207 2.97802067 1.69820011 84 11 7007 8.90000000 2981319139 2981319139 11.00000000
8.16638470 2.95941472 -0.45521814 12 12 7008 8.69800000 2981319141 2981319141 -3.00000000
8.21036339 2.97373080 2.01601124 104 13 7009 8.96200000 2981319144 2981319144 13.00000000
8.16797924 2.95676708 -0.15162651 14 14 7010 8.68800000 2981319146 2981319146 -1.00000000
7.29868555 2.64208722 2.07986975 42 15 7010 8.03600000 2981319148 2981319148 15.00000000
2.13727832 0.77031040 -0.60874242 4 0 7018 2.35200000 2981319169 2981319169 -15.00000000
8.18390179 2.94799948 0.15183593 12 1 7019 8.70000000 2981319171 2981319171 1.00000000
2.51927304 0.90699410 -0.61816549 7 2 7020 2.74800000 2981319174 2981319174 -13.00000000
8.17495823 2.94155431 0.45532283 10 3 7021 8.70000000 2981319176 2981319176 3.00000000
3.01480055 1.08480072 -0.62280059 5 4 7021 3.26400000 2981319178 2981319178 -11.00000000
8.17991066 2.94172406 0.76052099 75 5 7022 8.72600000 2981319181 2981319181 5.00000000
3.80525851 1.36772704 -0.64044273 6 6 7023 4.09400000 2981319183 2981319183 -9.00000000
8.19581127 2.94421196 1.06928158 83 7 7024 8.77400000 2981319185 2981319185 7.00000000
5.14348841 1.84670103 -0.67101258 6 8 7025 5.50600000 2981319187 2981319187 -7.00000000
8.19948483 2.94230032 1.37975204 84 9 7026 8.82000000 2981319190 2981319190 9.00000000
7.92129517 2.84247494 -0.73629171 13 10 7026 8.44800000 2981319192 2981319192 -5.00000000
8.21435738 2.94601893 1.69629192 96 11 7027 8.89000000 2981319194 2981319194 11.00000000
8.16162491 2.92549920 -0.45438078 12 12 7028 8.68200000 2981319197 2981319197 -3.00000000
8.20968628 2.94110990 2.01331186 104 13 7029 8.95000000 2981319199 2981319199 13.00000000
8.16318893 2.92284489 -0.15134726 14 14 7030 8.67200000 2981319201 2981319201 -1.00000000
7.30286360 2.61336589 2.07831693 45 15 7031 8.03000000 2981319204 2981319204 15.00000000
2.12903595 0.75895315 -0.60563654 4 0 7038 2.34000000 2981319224 2981319224 -15.00000000
8.17153740 2.91136074 0.15141708 12 1 7039 8.67600000 2981319227 2981319227 1.00000000
2.52242374 0.89819473 -0.61816549 4 2 7040 2.74800000 2981319229 2981319229 -13.00000000
8.18517590 2.91300058 0.45532283 13 3 7041 8.70000000 2981319231 2981319231 3.00000000
3.01856899 1.07427049 -0.62280059 5 4 7041 3.26400000 2981319234 2981319234 -11.00000000
8.16760349 2.90514064 0.75842929 75 5 7042 8.70200000 2981319236 2981319236 5.00000000
3.81000948 1.35443592 -0.64044273 6 6 7043 4.09400000 2981319238 2981319238 -9.00000000
8.20229816 2.91425610 1.06879413 90 7 7044 8.77000000 2981319240 2981319240 7.00000000
5.15364456 1.83006418 -0.67150009 6 8 7045 5.51000000 2981319243 2981319243 -7.00000000
8.19988918 2.91178870 1.37818766 86 9 7045 8.81000000 2981319245 2981319245 9.00000000
7.94618988 2.82013822 -0.73768622 13 10 7046 8.46400000 2981319247 2981319247 -5.00000000
8.21348858 2.91338968 1.69400227 84 11 7047 8.87800000 2981319250 2981319250 11.00000000
8.16990471 2.89632463 -0.45427611 12 12 7048 8.68000000 2981319252 2981319252 -3.00000000
8.20520782 2.90722823 2.00971270 108 13 7049 8.93400000 2981319254 2981319254 13.00000000
8.16391659 2.89099455 -0.15117274 14 14 7050 8.66200000 2981319257 2981319257 -1.00000000
7.30784750 2.58784461 2.07728171 45 15 7050 8.02600000 2981319259 2981319259 15.00000000
2.13167238 0.75151682 -0.60563654 4 0 7058 2.34000000 2981319280 2981319280 -15.00000000
8.16656208 2.87750268 0.15113784 12 1 7059 8.66000000 2981319282 2981319282 1.00000000
2.52921987 0.89067894 -0.61906528 4 2 7060 2.75200000 2981319284 2981319284 -13.00000000
8.18210697 2.87976956 0.45459011 13 3 7061 8.68600000 2981319287 2981319287 3.00000000
3.02415228 1.06437898 -0.62318218 5 4 7061 3.26600000 2981319289 2981319289 -11.00000000
8.16453838 2.87198472 0.75720912 75 5 7062 8.68800000 2981319291 2981319291 5.00000000
3.79980564 1.33588696 -0.63793975 4 6 7063 4.07800000 2981319293 2981319293 -9.00000000
8.19931030 2.88100052 1.06708801 92 7 7064 8.75600000 2981319296 2981319296 7.00000000
5.17123890 1.81600988 -0.67296249 6 8 7065 5.52200000 2981319298 2981319298 -7.00000000
8.19882107 2.87922096 1.37631047 86 9 7065 8.79800000 2981319300 2981319300 9.00000000
7.97854519 2.80030155 -0.73977792 13 10 7066 8.48800000 2981319303 2981319303 -5.00000000
8.19952488 2.87625337 1.68904126 81 11 7067 8.85200000 2981319305 2981319305 11.00000000
8.16300106 2.86184168 -0.45333406 12 12 7068 8.66200000 2981319307 2981319307 -3.00000000
8.21162796 2.87728024 2.00881290 104 13 7069 8.93000000 2981319310 2981319310 13.00000000
8.16263485 2.85851407 -0.15096332 12 14 7070 8.65000000 2981319312 2981319312 -1.00000000
7.31683636 2.56231976 2.07728171 45 15 7070 8.02600000 2981319314 2981319314 15.00000000
2.13793087 0.74534321 -0.60667187 4 0 7078 2.34400000 2981319335 2981319335 -15.00000000
8.17089176 2.84700465 0.15103312 12 1 7079 8.65400000 2981319337 2981319337 1.00000000
2.51206970 0.87479526 -0.61411637 3 2 7080 2.73000000 2981319340 2981319340 -13.00000000
8.17890549 2.84659553 0.45385742 13 3 7081 8.67200000 2981319342 2981319342 3.00000000
3.02970338 1.05446148 -0.62356383 5 4 7081 3.26800000 2981319344 2981319344 -11.00000000
8.17263126 2.84281301 0.75703478 75 5 7082 8.68600000 2981319346 2981319346 5.00000000
3.81190896 1.32520962 -0.63919121 4 6 7083 4.08600000 2981319349 2981319349 -9.00000000
8.19056606 2.84584689 1.06465054 90 7 7084 8.73600000 2981319351 2981319351 7.00000000
5.15504360 1.79013348 -0.67003763 6 8 7085 5.49800000 2981319353 2981319353 -7.00000000
8.20558643 2.84785604 1.37568474 89 9 7086 8.79400000 2981319356 2981319356 9.00000000
8.00144768 2.77700686 -0.74099815 13 10 7086 8.50200000 2981319358 2981319358 -5.00000000
8.19838619 2.84375405 1.68675148 84 11 7087 8.84000000 2981319360 2981319360 11.00000000
8.15784454 2.82809663 -0.45249668 12 12 7088 8.64600000 2981319363 2981319363 -3.00000000
8.20689011 2.84349489 2.00521374 106 13 7089 8.91400000 2981319365 2981319365 13.00000000
8.17634201 2.83131242 -0.15103312 14 14 7090 8.65400000 2981319367 2981319367 -1.00000000
7.32573605 2.53676343 2.07728171 45 15 7090 8.02600000 2981319369 2981319369 15.00000000
2.14417243 0.73913509 -0.60770714 4 0 7098 2.34800000 2981319390 2981319390 -15.00000000
8.17132664 2.81520867 0.15085860 12 1 7099 8.64400000 2981319393 2981319393 1.00000000
2.52616334 0.86982781 -0.61681581 3 2 7100 2.74200000 2981319395 2981319395 -13.00000000
8.18312645 2.81607890 0.45354339 13 3 7101 8.66600000 2981319397 2981319397 3.00000000
3.02965307 1.04260170 -0.62280059 5 4 7101 3.26400000 2981319399 2981319399 -11.00000000
8.19192505 2.81750798 0.75790632 82 5 7102 8.69600000 2981319402 2981319402 5.00000000
3.83519244 1.31831694 -0.64231992 4 6 7103 4.10600000 2981319404 2981319404 -9.00000000
8.19294071 2.81465936 1.06367564 92 7 7104 8.72800000 2981319406 2981319406 7.00000000
5.15750599 1.77083886 -0.66955018 6 8 7105 5.49400000 2981319409 2981319409 -7.00000000
8.19866085 2.81342530 1.37286890 81 9 7106 8.77600000 2981319411 2981319411 9.00000000
8.02993774 2.75552654 -0.74274123 13 10 7106 8.52200000 2981319413 2981319413 -5.00000000
8.20826244 2.81511903 1.68675148 75 11 7107 8.84000000 2981319416 2981319416 11.00000000
8.15633106 2.79571748 -0.45186865 12 12 7108 8.63400000 2981319418 2981319418 -3.00000000
8.19095612 2.80598831 1.99891508 104 13 7109 8.88600000 2981319420 2981319420 13.00000000
8.17104053 2.79757261 -0.15075389 14 14 7110 8.63800000 2981319422 2981319422 -1.00000000
7.33498430 2.50989628 2.07728171 45 15 7111 8.02600000 2981319425 2981319425 15.00000000
2.14478326 0.73139715 -0.60718948 4 0 7117 2.34600000 2981319446 2981319446 -15.00000000
8.17304611 2.78551579 0.15071899 12 1 7118 8.63600000 2981319448 2981319448 1.00000000
2.53272343 0.86270267 -0.61771560 3 2 7119 2.74600000 2981319450 2981319450 -13.00000000
8.18107510 2.78506517 0.45291537 13 3 7120 8.65400000 2981319452 2981319452 3.00000000
3.03495216 1.03318202 -0.62318218 5 4 7120 3.26600000 2981319455 2981319455 -11.00000000
8.18613434 2.78519297 0.75651187 82 5 7121 8.68000000 2981319457 2981319457 5.00000000
3.83206224 1.30304790 -0.64106846 4 6 7122 4.09800000 2981319459 2981319459 -9.00000000
8.19471073 2.78491998 1.06270063 92 7 7123 8.72000000 2981319462 2981319462 7.00000000
5.17086840 1.75627983 -0.67052513 6 8 7124 5.50200000 2981319464 2981319464 -7.00000000
8.19859314 2.78304720 1.37130451 84 9 7125 8.76600000 2981319466 2981319466 9.00000000
8.05789757 2.73528767 -0.74448436 13 10 7125 8.54200000 2981319469 2981319469 -5.00000000
8.21011639 2.78536081 1.68522501 75 11 7126 8.83200000 2981319471 2981319471 11.00000000
8.16366577 2.76801348 -0.45176399 12 12 7127 8.63200000 2981319473 2981319473 -3.00000000
8.18914223 2.77505827 1.99621570 103 13 7128 8.87400000 2981319475 2981319475 13.00000000
8.15754414 2.76276350 -0.15033503 12 14 7129 8.61400000 2981319478 2981319478 -1.00000000
7.33917379 2.48560095 2.07624626 45 15 7129 8.02200000 2981319480 2981319480 15.00000000
2.13267827 0.71896887 -0.60304838 4 0 7137 2.33000000 2981319501 2981319501 -15.00000000
8.17134953 2.75313854 0.15050955 12 1 7138 8.62400000 2981319503 2981319503 1.00000000
2.54310679 0.85634410 -0.61951518 4 2 7139 2.75400000 2981319505 2981319505 -13.00000000
8.18128300 2.75330567 0.45239201 13 3 7140 8.64400000 2981319508 2981319508 3.00000000
3.03109741 1.02007699 -0.62165570 4 4 7140 3.25800000 2981319510 2981319510 -11.00000000
8.16936779 2.74770880 0.75407147 72 5 7141 8.65200000 2981319512 2981319512 5.00000000
3.83658743 1.28966355 -0.64106846 4 6 7142 4.09800000 2981319515 2981319515 -9.00000000
8.20061874 2.75503373 1.06221318 95 7 7143 8.71600000 2981319517 2981319517 7.00000000
5.18073130 1.73948312 -0.67101258 6 8 7144 5.50600000 2981319519 2981319519 -7.00000000
8.20076656 2.75189829 1.37005305 86 9 7145 8.75800000 2981319522 2981319522 9.00000000
8.04850769 2.70080519 -0.74274123 13 10 7145 8.52200000 2981319524 2981319524 -5.00000000
8.20489788 2.75169134 1.68217206 75 11 7146 8.81600000 2981319526 2981319526 11.00000000
8.18085289 2.74203897 -0.45218265 12 12 7147 8.64000000 2981319528 2981319528 -3.00000000
8.19508362 2.74521780 1.99531591 103 13 7148 8.87000000 2981319531 2981319531 13.00000000
8.16524220 2.73363662 -0.15030013 12 14 7149 8.61200000 2981319533 2981319533 -1.00000000
7.33681393 2.45628762 2.07314062 45 15 7149 8.01000000 2981319535 2981319535 15.00000000
2.14433885 0.71457380 -0.60563654 4 0 7157 2.34000000 2981319556 2981319556 -15.00000000
8.16193771 2.71827984 0.15016051 12 1 7158 8.60400000 2981319558 2981319558 1.00000000
2.53868437 0.84500003 -0.61771560 4 2 7159 2.74600000 2981319561 2981319561 -13.00000000
8.18468285 2.72426820 0.45207798 13 3 7159 8.63800000 2981319563 2981319563 3.00000000
3.04022837 1.01134932 -0.62280059 5 4 7160 3.26400000 2981319565 2981319565 -11.00000000
8.17512798 2.71791863 0.75372285 76 5 7161 8.64800000 2981319568 2981319568 5.00000000
3.82231975 1.27003479 -0.63793975 4 6 7162 4.07800000 2981319570 2981319570 -9.00000000
8.18757820 2.71888423 1.05928838 92 7 7163 8.69200000 2981319572 2981319572 7.00000000
5.16793108 1.71513569 -0.66857523 6 8 7164 5.48600000 2981319574 2981319574 -7.00000000
8.20609760 2.72344398 1.36942732 89 9 7164 8.75400000 2981319577 2981319577 9.00000000
8.07301426 2.67771220 -0.74413574 13 10 7165 8.53800000 2981319579 2981319579 -5.00000000
8.19209099 2.71562099 1.67759264 78 11 7166 8.79200000 2981319581 2981319581 11.00000000
8.16572762 2.70530009 -0.45082194 12 12 7167 8.61400000 2981319584 2981319584 -3.00000000
8.19721603 2.71414471 1.99351621 103 13 7168 8.86200000 2981319586 2981319586 13.00000000
8.16144562 2.70072055 -0.15005580 14 14 7169 8.59800000 2981319588 2981319588 -1.00000000
7.33800697 2.42823482 2.07106996 45 15 7169 8.00200000 2981319591 2981319591 15.00000000
2.15048981 0.70829302 -0.60667187 4 0 7177 2.34400000 2981319611 2981319611 -15.00000000
8.16757774 2.68852234 0.15009069 12 1 7178 8.60000000 2981319614 2981319614 1.00000000
2.53051162 0.83247936 -0.61501616 4 2 7179 2.73400000 2981319616 2981319616 -13.00000000
8.18133163 2.68988490 0.45134529 13 3 7180 8.62400000 2981319618 2981319618 3.00000000
3.05120015 1.00318360 -0.62432700 5 4 7180 3.27200000 2981319621 2981319621 -11.00000000
8.17699432 2.68687773 0.75302559 76 5 7181 8.64000000 2981319623 2981319623 5.00000000
3.84174395 1.26161528 -0.64044273 6 6 7182 4.09400000 2981319625 2981319625 -9.00000000
8.18004417 2.68471646 1.05709469 99 7 7183 8.67400000 2981319627 2981319627 7.00000000
5.17765903 1.69832313 -0.66906267 9 8 7184 5.49000000 2981319630 2981319630 -7.00000000
8.20100784 2.68842602 1.36692441 89 9 7185 8.73800000 2981319632 2981319632 9.00000000
8.08988571 2.65199828 -0.74483299 17 10 7185 8.54600000 2981319634 2981319634 -5.00000000
8.20151997 2.68700886 1.67759264 75 11 7186 8.79200000 2981319637 2981319637 11.00000000
8.17132473 2.67553711 -0.45061257 12 12 7187 8.61000000 2981319639 2981319639 -3.00000000
