# .PCD v0.7 - Point Cloud Data file format
VERSION 0.7
FIELDS x y z intensity laser_id azimuth distance_m adjustedtime timestamp vertical_angle
SIZE 4 4 4 1 1 2 8 8 4 8
TYPE F F F U U U F U U F
COUNT 1 1 1 1 1 1 1 1 1 1
WIDTH 519
HEIGHT 1
VIEWPOINT 0 0 0 1 0 0 0
POINTS 519
DATA ascii
-15.02252102 -0.62963015 -0.26244929 2 14 26760 15.03800000 2980673952 2980673952 -1.00000000
-10.23369312 -0.42891881 2.74451709 45 15 26760 10.60400000 2980673954 2980673954 15.00000000
-1.94378006 -0.07874988 -0.52126157 5 0 26768 2.01400000 2980673975 2980673975 -15.00000000
-25.80108261 -1.04078901 0.45072585 60 1 26769 25.82600000 2980673977 2980673977 1.00000000
-2.24119282 -0.09001561 -0.51783735 4 2 26770 2.30200000 2980673979 2980673979 -13.00000000
-58.49490738 -2.33917260 3.06803846 58 3 26771 58.62200000 2980673982 2980673982 3.00000000
-2.61296630 -0.10449079 -0.50831515 3 4 26771 2.66400000 2980673984 2980673984 -11.00000000
-36.61501694 -1.45780945 3.20593691 72 5 26772 36.78400000 2980673986 2980673986 5.00000000
-3.13641047 -0.12432642 -0.49714872 3 6 26773 3.17800000 2980673989 2980673989 -9.00000000
-24.50078773 -0.96692139 3.01066017 36 7 26774 24.70400000 2980673991 2980673991 7.00000000
-3.93737030 -0.15469970 -0.48382130 3 8 26775 3.97000000 2980673993 2980673993 -7.00000000
-18.31748772 -0.71649414 2.90342379 57 9 26776 18.56000000 2980673996 2980673996 9.00000000
-5.14440012 -0.20122479 -0.45042089 3 10 26776 5.16800000 2980673998 2980673998 -5.00000000
-12.78091526 -0.49769533 2.48624110 34 11 26777 13.03000000 2980674000 2980674000 11.00000000
-7.62979078 -0.29577425 -0.40016073 16 12 26778 7.64600000 2980674002 2980674002 -3.00000000
-12.07514954 -0.46599108 2.78984308 56 13 26779 12.40200000 2980674005 2980674005 13.00000000
-15.02862358 -0.57734150 -0.26251909 2 14 26780 15.04200000 2980674007 2980674007 -1.00000000
-10.23519611 -0.39140758 2.74451709 45 15 26781 10.60400000 2980674009 2980674009 15.00000000
-1.94211257 -0.07189288 -0.52074391 5 0 26788 2.01200000 2980674030 2980674030 -15.00000000
-25.79057121 -0.95020467 0.45048150 100 1 26789 25.81200000 2980674032 2980674032 1.00000000
-2.23175621 -0.08183479 -0.51558781 4 2 26790 2.29200000 2980674035 2980674035 -13.00000000
-58.48076248 -2.13417172 3.06688714 58 3 26791 58.60000000 2980674037 2980674037 3.00000000
-2.60546732 -0.09508280 -0.50678867 3 4 26791 2.65600000 2980674039 2980674039 -11.00000000
-36.61788940 -1.32991803 3.20576262 62 5 26792 36.78200000 2980674042 2980674042 5.00000000
-3.13287711 -0.11323484 -0.49652299 3 6 26793 3.17400000 2980674044 2980674044 -9.00000000
-24.46433830 -0.87996465 3.00578547 36 7 26794 24.66400000 2980674046 2980674046 7.00000000
-3.92995095 -0.14067073 -0.48284635 3 8 26795 3.96200000 2980674049 2980674049 -7.00000000
-18.29409981 -0.65482861 2.89935637 41 9 26795 18.53400000 2980674051 2980674051 9.00000000
-5.14905357 -0.18340810 -0.45076951 3 10 26796 5.17200000 2980674053 2980674053 -5.00000000
-12.77472687 -0.45280039 2.48471475 34 11 26797 13.02200000 2980674055 2980674055 11.00000000
-7.62878036 -0.26906911 -0.40005606 16 12 26798 7.64400000 2980674058 2980674058 -3.00000000
-12.06891251 -0.42356470 2.78804326 57 13 26799 12.39400000 2980674060 2980674060 13.00000000
-25.78035545 -0.90026987 -0.45027208 91 14 26800 25.80000000 2980674062 2980674062 -1.00000000
-10.25188351 -0.35800365 2.74865818 45 15 26800 10.62000000 2980674065 2980674065 15.00000000
-1.94621325 -0.06524266 -0.52177918 4 0 26808 2.01600000 2980674085 2980674085 -15.00000000
-25.75975418 -0.85903996 0.44988814 100 1 26809 25.77800000 2980674088 2980674088 1.00000000
-2.23202848 -0.07404400 -0.51558781 4 2 26810 2.29200000 2980674090 2980674090 -13.00000000
-58.46390152 -1.92923236 3.06563091 43 3 26811 58.57600000 2980674092 2980674092 3.00000000
-2.60970783 -0.08611695 -0.50755191 3 4 26811 2.66000000 2980674095 2980674095 -11.00000000
-36.62430191 -1.20215499 3.20593691 72 5 26812 36.78400000 2980674097 2980674097 5.00000000
-3.14509916 -0.10268513 -0.49840021 3 6 26813 3.18600000 2980674099 2980674099 -9.00000000
-24.46527672 -0.79449838 3.00554180 18 7 26814 24.66200000 2980674102 2980674102 7.00000000
-3.93438625 -0.12707995 -0.48333383 3 8 26815 3.96600000 2980674104 2980674104 -7.00000000
-18.29835129 -0.58783644 2.89966917 41 9 26816 18.53600000 2980674106 2980674106 9.00000000
-5.17754126 -0.16632906 -0.45320988 3 10 26816 5.20000000 2980674108 2980674108 -5.00000000
-12.78407860 -0.40845630 2.48624110 37 11 26817 13.03000000 2980674111 2980674111 11.00000000
-7.64963579 -0.24307239 -0.40110278 16 12 26818 7.66400000 2980674113 2980674113 -3.00000000
-12.05473518 -0.38094136 2.78444409 57 13 26819 12.37800000 2980674115 2980674115 13.00000000
-25.74936295 -0.80920637 -0.44967872 68 14 26820 25.76600000 2980674118 2980674118 -1.00000000
-10.24540329 -0.32018486 2.74658775 45 15 26821 10.61200000 2980674120 2980674120 15.00000000
-1.93677413 -0.05815878 -0.51919103 4 0 26828 2.00600000 2980674141 2980674141 -15.00000000
-25.75659943 -0.76893741 0.44978341 42 1 26829 25.77200000 2980674143 2980674143 1.00000000
-2.23227334 -0.06625232 -0.51558781 4 2 26830 2.29200000 2980674145 2980674145 -13.00000000
-58.45231247 -1.72461331 3.06468892 14 3 26831 58.55800000 2980674148 2980674148 3.00000000
-2.60999250 -0.07700684 -0.50755191 3 4 26831 2.66000000 2980674150 2980674150 -11.00000000
-36.61433411 -1.07389617 3.20471668 72 5 26832 36.77000000 2980674152 2980674152 5.00000000
-3.14938760 -0.09182120 -0.49902594 3 6 26833 3.19000000 2980674155 2980674155 -9.00000000
-24.48575783 -0.70961136 3.00773549 12 7 26834 24.68000000 2980674157 2980674157 7.00000000
-3.93679023 -0.11340277 -0.48357755 3 8 26835 3.96800000 2980674159 2980674159 -7.00000000
-18.27650452 -0.52647114 2.89591479 45 9 26835 18.51200000 2980674161 2980674161 9.00000000
-5.13427591 -0.14700058 -0.44937500 3 10 26836 5.15600000 2980674164 2980674164 -5.00000000
-12.77953911 -0.36366153 2.48509645 37 11 26837 13.02400000 2980674166 2980674166 11.00000000
-7.65243435 -0.21642515 -0.40120745 24 12 26838 7.66600000 2980674168 2980674168 -3.00000000
-12.05988693 -0.33896965 2.78534389 57 13 26839 12.38200000 2980674171 2980674171 13.00000000
-25.74203682 -0.71904022 -0.44950417 62 14 26840 25.75600000 2980674173 2980674173 -1.00000000
-10.23868370 -0.28599235 2.74451709 47 15 26840 10.60400000 2980674175 2980674175 15.00000000
-1.94275892 -0.05155155 -0.52074391 5 0 26848 2.01200000 2980674196 2980674196 -15.00000000
-25.73913574 -0.67849845 0.44943437 44 1 26849 25.75200000 2980674198 2980674198 1.00000000
-2.23638701 -0.05856186 -0.51648760 4 2 26850 2.29600000 2980674201 2980674201 -13.00000000
-58.47195053 -1.52092969 3.06542158 14 3 26851 58.57200000 2980674203 2980674203 3.00000000
-2.61417055 -0.06799790 -0.50831515 3 4 26851 2.66400000 2980674205 2980674205 -11.00000000
-36.59395981 -0.94546419 3.20262504 41 5 26852 36.74600000 2980674208 2980674208 5.00000000
-3.14178991 -0.08062452 -0.49777448 3 6 26853 3.18200000 2980674210 2980674210 -9.00000000
-24.62898254 -0.62772685 3.02504086 9 7 26854 24.82200000 2980674212 2980674212 7.00000000
-3.92525530 -0.09935872 -0.48211512 3 8 26855 3.95600000 2980674214 2980674214 -7.00000000
-18.26448822 -0.45913336 2.89372468 45 9 26856 18.49800000 2980674217 2980674217 9.00000000
-5.16065073 -0.12972862 -0.45164105 3 10 26856 5.18200000 2980674219 2980674219 -5.00000000
-12.79446888 -0.31939334 2.48776770 40 11 26857 13.03800000 2980674221 2980674221 11.00000000
-7.66512299 -0.19000882 -0.40183547 20 12 26858 7.67800000 2980674224 2980674224 -3.00000000
-12.06489372 -0.29696664 2.78624368 56 13 26859 12.38600000 2980674226 2980674226 13.00000000
-25.73039627 -0.62883735 -0.44925985 84 14 26860 25.74200000 2980674228 2980674228 -1.00000000
-10.21648788 -0.24790142 2.73830557 45 15 26861 10.58000000 2980674231 2980674231 15.00000000
-1.94099569 -0.04472524 -0.52022630 4 0 26868 2.01000000 2980674251 2980674251 -15.00000000
-25.71735764 -0.58809936 0.44901550 48 1 26869 25.72800000 2980674254 2980674254 1.00000000
-2.23657775 -0.05075505 -0.51648760 4 2 26870 2.29600000 2980674256 2980674256 -13.00000000
-2.62224317 -0.05904912 -0.50984162 3 4 26871 2.67200000 2980674261 2980674261 -11.00000000
-36.60898590 -0.81798869 3.20367074 72 5 26872 36.75800000 2980674263 2980674263 5.00000000
-3.13810253 -0.06956957 -0.49714872 3 6 26873 3.17800000 2980674265 2980674265 -9.00000000
-24.54965401 -0.53996217 3.01504755 18 7 26874 24.74000000 2980674267 2980674267 7.00000000
-3.94542432 -0.08608947 -0.48455250 3 8 26875 3.97600000 2980674270 2980674270 -7.00000000
-18.27183533 -0.39869288 2.89466333 41 9 26875 18.50400000 2980674272 2980674272 9.00000000
-5.15509605 -0.11158444 -0.45111811 6 10 26876 5.17600000 2980674274 2980674274 -5.00000000
-12.79354382 -0.27468821 2.48738599 40 11 26877 13.03600000 2980674277 2980674277 11.00000000
-7.65375853 -0.16299625 -0.40120745 24 12 26878 7.66600000 2980674279 2980674279 -3.00000000
-12.06196022 -0.25476819 2.78534389 57 13 26879 12.38200000 2980674281 2980674281 13.00000000
-25.73643303 -0.53910142 -0.44932964 65 14 26880 25.74600000 2980674284 2980674284 -1.00000000
-10.20566559 -0.21377821 2.73519969 45 15 26880 10.56800000 2980674286 2980674286 15.00000000
-1.93920851 -0.03791187 -0.51970863 4 0 26888 2.00800000 2980674307 2980674307 -15.00000000
-25.72125435 -0.49836418 0.44905043 61 1 26889 25.73000000 2980674309 2980674309 1.00000000
-2.23479295 -0.04291022 -0.51603770 4 2 26890 2.29400000 2980674311 2980674311 -13.00000000
-2.60672998 -0.04959665 -0.50678867 3 4 26891 2.65600000 2980674316 2980674316 -11.00000000
-36.59966660 -0.68996918 3.20262504 41 5 26892 36.74600000 2980674318 2980674318 5.00000000
-3.14227629 -0.05868891 -0.49777448 3 6 26893 3.18200000 2980674320 2980674320 -9.00000000
-24.55337524 -0.45430130 3.01529121 18 7 26894 24.74200000 2980674323 2980674323 7.00000000
-3.93577695 -0.07213496 -0.48333383 3 8 26895 3.96600000 2980674325 2980674325 -7.00000000
-18.27114105 -0.33487365 2.89435053 45 9 26895 18.50200000 2980674327 2980674327 9.00000000
-5.16143036 -0.09369761 -0.45164105 6 10 26896 5.18200000 2980674330 2980674330 -5.00000000
-12.77872086 -0.22974643 2.48433304 37 11 26897 13.02000000 2980674332 2980674332 11.00000000
-7.63031769 -0.13585199 -0.39995137 16 12 26898 7.64200000 2980674334 2980674334 -3.00000000
-12.05108547 -0.21245643 2.78264451 57 13 26899 12.37000000 2980674337 2980674337 13.00000000
-25.73015976 -0.44912162 -0.44919005 78 14 26900 25.73800000 2980674339 2980674339 -1.00000000
-10.21021271 -0.17821993 2.73623490 45 15 26900 10.57200000 2980674341 2980674341 15.00000000
-1.95478189 -0.03139069 -0.52384973 5 0 26908 2.02400000 2980674362 2980674362 -15.00000000
-25.73083496 -0.40870425 0.44919005 64 1 26909 25.73800000 2980674364 2980674364 1.00000000
-2.23103213 -0.03504786 -0.51513791 4 2 26910 2.29000000 2980674367 2980674367 -13.00000000
-2.61866546 -0.04068013 -0.50907838 3 4 26911 2.66800000 2980674371 2980674371 -11.00000000
-36.60783005 -0.56230009 3.20314789 72 5 26912 36.75200000 2980674373 2980674373 5.00000000
-3.13851166 -0.04765997 -0.49714872 3 6 26913 3.17800000 2980674376 2980674376 -9.00000000
-24.54687119 -0.36847207 3.01431632 18 7 26914 24.73400000 2980674378 2980674378 7.00000000
-3.94592929 -0.05854333 -0.48455250 3 8 26915 3.97600000 2980674380 2980674380 -7.00000000
-18.25446892 -0.26764366 2.89153457 41 9 26916 18.48400000 2980674383 2980674383 9.00000000
-5.17367935 -0.07585553 -0.45268694 6 10 26916 5.19400000 2980674385 2980674385 -5.00000000
-12.77944469 -0.18513897 2.48433304 40 11 26917 13.02000000 2980674387 2980674387 11.00000000
-7.62874842 -0.10918781 -0.39984670 16 12 26918 7.64000000 2980674390 2980674390 -3.00000000
-12.04395866 -0.17027880 2.78084493 59 13 26919 12.36200000 2980674392 2980674392 13.00000000
-25.73956871 -0.35941553 -0.44932964 25 14 26920 25.74600000 2980674394 2980674394 -1.00000000
-10.19918251 -0.14241670 2.73312902 42 15 26920 10.56000000 2980674396 2980674396 15.00000000
-1.94715273 -0.02446993 -0.52177918 4 0 26928 2.01600000 2980674417 2980674417 -15.00000000
-25.73610306 -0.31893393 0.44925985 66 1 26929 25.74200000 2980674420 2980674420 1.00000000
-2.22529507 -0.02718846 -0.51378822 4 2 26930 2.28400000 2980674422 2980674422 -13.00000000
-2.60897589 -0.03142082 -0.50717032 3 4 26931 2.65800000 2980674426 2980674426 -11.00000000
-36.58765411 -0.43425140 3.20123053 41 5 26932 36.73000000 2980674429 2980674429 5.00000000
-3.15051031 -0.03684282 -0.49902594 3 6 26933 3.19000000 2980674431 2980674431 -9.00000000
-24.54403877 -0.28273952 3.01382875 24 7 26934 24.73000000 2980674433 2980674433 7.00000000
-3.93022990 -0.04458896 -0.48260260 3 8 26935 3.96000000 2980674436 2980674436 -7.00000000
-18.23751450 -0.20372348 2.88871884 45 9 26936 18.46600000 2980674438 2980674438 9.00000000
-5.16195869 -0.05766203 -0.45164105 6 10 26936 5.18200000 2980674440 2980674440 -5.00000000
-12.79375553 -0.14068036 2.48700452 40 11 26937 13.03400000 2980674443 2980674443 11.00000000
-7.62708569 -0.08253624 -0.39974204 12 12 26938 7.63800000 2980674445 2980674445 -3.00000000
-12.04837704 -0.12827800 2.78174472 59 13 26939 12.36600000 2980674447 2980674447 13.00000000
-10.20349979 -0.10507366 2.73416448 45 15 26941 10.56400000 2980674452 2980674452 15.00000000
-1.94143093 -0.01762035 -0.52022630 5 0 26948 2.01000000 2980674473 2980674473 -15.00000000
-25.72706223 -0.22900723 0.44908533 54 1 26949 25.73200000 2980674475 2980674475 1.00000000
-2.24876046 -0.01962464 -0.51918703 4 2 26950 2.30800000 2980674477 2980674477 -13.00000000
-2.61103272 -0.02233039 -0.50755191 3 4 26951 2.66000000 2980674482 2980674482 -11.00000000
-36.56304550 -0.30631703 3.19896436 10 5 26952 36.70400000 2980674484 2980674484 5.00000000
-3.14271855 -0.02578045 -0.49777448 3 6 26953 3.18200000 2980674486 2980674486 -9.00000000
-24.53693581 -0.19699937 3.01285386 24 7 26954 24.72200000 2980674489 2980674489 7.00000000
-3.94028664 -0.03094758 -0.48382130 5 8 26955 3.97000000 2980674491 2980674491 -7.00000000
-18.23021317 -0.14000075 2.88746738 45 9 26956 18.45800000 2980674493 2980674493 9.00000000
-5.17009783 -0.03970428 -0.45233831 9 10 26956 5.19000000 2980674496 2980674496 -5.00000000
-12.78435230 -0.09594729 2.48509645 40 11 26957 13.02400000 2980674498 2980674498 11.00000000
-7.65329123 -0.05610256 -0.40110278 16 12 26958 7.66400000 2980674500 2980674500 -3.00000000
-12.04485416 -0.08619264 2.78084493 57 13 26959 12.36200000 2980674502 2980674502 13.00000000
-25.76944733 -0.17990761 -0.44981831 3 14 26960 25.77400000 2980674505 2980674505 -1.00000000
-10.18833733 -0.07112917 2.73002338 47 15 26960 10.54800000 2980674507 2980674507 15.00000000
-1.94148064 -0.01084339 -0.52022630 5 0 26968 2.01000000 2980674528 2980674528 -15.00000000
-25.74770164 -0.13930982 0.44943437 100 1 26969 25.75200000 2980674530 2980674530 1.00000000
-2.24296904 -0.01174427 -0.51783735 4 2 26970 2.30200000 2980674532 2980674532 -13.00000000
-58.42307281 -0.29570827 3.06186271 14 3 26971 58.50400000 2980674535 2980674535 3.00000000
-2.60913157 -0.01320611 -0.50717032 3 4 26971 2.65800000 2980674537 2980674537 -11.00000000
-36.52205276 -0.17848185 3.19530392 41 5 26972 36.66200000 2980674539 2980674539 5.00000000
-3.13093734 -0.01475430 -0.49589726 3 6 26973 3.17000000 2980674542 2980674542 -9.00000000
-24.48784637 -0.11112309 3.00676036 30 7 26974 24.67200000 2980674544 2980674544 7.00000000
-3.94235587 -0.01720188 -0.48406503 3 8 26975 3.97200000 2980674546 2980674546 -7.00000000
-18.23256683 -0.07637285 2.88778019 45 9 26976 18.46000000 2980674549 2980674549 9.00000000
-5.16223574 -0.02162365 -0.45164105 9 10 26976 5.18200000 2980674551 2980674551 -5.00000000
-12.78264618 -0.05131311 2.48471475 37 11 26977 13.02200000 2980674553 2980674553 11.00000000
-7.65344048 -0.02938724 -0.40110278 20 12 26978 7.66400000 2980674555 2980674555 -3.00000000
-12.04897976 -0.04416201 2.78174472 57 13 26979 12.36600000 2980674558 2980674558 13.00000000
-15.17559624 -0.05297304 -0.26489264 2 14 26980 15.17800000 2980674560 2980674560 -1.00000000
-10.18465996 -0.03555131 2.72898793 42 15 26980 10.54400000 2980674562 2980674562 15.00000000
-1.94923246 -0.00476288 -0.52229685 5 0 26986 2.01800000 2980674583 2980674583 -15.00000000
-25.76600838 -0.05846132 0.44974852 85 1 26987 25.77000000 2980674585 2980674585 1.00000000
-2.23714876 -0.00468548 -0.51648760 4 2 26988 2.29600000 2980674588 2980674588 -13.00000000
-58.43567657 -0.12238757 3.06249070 43 3 26988 58.51600000 2980674590 2980674590 3.00000000
-2.61897659 -0.00502808 -0.50907838 3 4 26989 2.66800000 2980674592 2980674592 -11.00000000
-36.58419800 -0.06385154 3.20070744 72 5 26990 36.72400000 2980674595 2980674595 5.00000000
-3.13886976 -0.00493053 -0.49714872 3 6 26991 3.17800000 2980674597 2980674597 -9.00000000
-24.41462708 -0.03408927 2.99774218 30 7 26992 24.59800000 2980674599 2980674599 7.00000000
-3.95033073 -0.00482624 -0.48503998 3 8 26993 3.98000000 2980674601 2980674601 -7.00000000
-18.22678757 -0.02226823 2.88684154 53 9 26993 18.45400000 2980674604 2980674604 9.00000000
-5.18220186 -0.00542679 -0.45338416 6 10 26994 5.20200000 2980674606 2980674606 -5.00000000
-12.78274441 -0.01115505 2.48471475 37 11 26995 13.02200000 2980674608 2980674608 11.00000000
-7.63551950 -0.00533060 -0.40016073 20 12 26996 7.64600000 2980674611 2980674611 -3.00000000
-12.02957153 -0.00629867 2.77724576 56 13 26997 12.34600000 2980674613 2980674613 13.00000000
-15.21168232 -0.00530988 -0.26552090 2 14 26998 15.21400000 2980674615 2980674615 -1.00000000
-10.18278980 -0.00355446 2.72847033 45 15 26998 10.54200000 2980674618 2980674618 15.00000000
-1.95503283 0.00204731 -0.52384973 5 0 27006 2.02400000 2980674638 2980674638 -15.00000000
-25.79405212 0.03151339 0.45023718 35 1 27007 25.79800000 2980674641 2980674641 1.00000000
-2.23520279 0.00312093 -0.51603770 4 2 27008 2.29400000 2980674643 2980674643 -13.00000000
-58.42375183 0.09177189 3.06186271 43 3 27009 58.50400000 2980674645 2980674645 3.00000000
-2.61112499 0.00410155 -0.50755191 3 4 27009 2.66000000 2980674648 2980674648 -11.00000000
-36.58419800 0.06385154 3.20070744 72 5 27010 36.72400000 2980674650 2980674650 5.00000000
-3.15467072 0.00605654 -0.49965167 3 6 27011 3.19400000 2980674652 2980674652 -9.00000000
-24.37489510 0.05105073 2.99286723 31 7 27012 24.55800000 2980674654 2980674654 7.00000000
-3.95032358 0.00896301 -0.48503998 3 8 27013 3.98000000 2980674657 2980674657 -7.00000000
-18.21686935 0.04451230 2.88527727 41 9 27014 18.44400000 2980674659 2980674659 9.00000000
-5.18617392 0.01267224 -0.45373279 6 10 27014 5.20600000 2980674661 2980674661 -5.00000000
-12.79252148 0.03349082 2.48662281 40 11 27015 13.03200000 2980674664 2980674664 11.00000000
-7.65146971 0.02136699 -0.40099809 16 12 27016 7.66200000 2980674666 2980674666 -3.00000000
-12.03341770 0.03570397 2.77814555 55 13 27017 12.35000000 2980674668 2980674668 13.00000000
-15.17561340 0.04767575 -0.26489264 2 14 27018 15.17800000 2980674671 2980674671 -1.00000000
-10.18659782 0.03378016 2.72950554 45 15 27019 10.54600000 2980674673 2980674673 15.00000000
-1.95115006 0.00885410 -0.52281445 5 0 27026 2.02000000 2980674694 2980674694 -15.00000000
-25.84577560 0.12179625 0.45114470 15 1 27027 25.85000000 2980674696 2980674696 1.00000000
-2.25466537 0.01101846 -0.52053672 4 2 27028 2.31400000 2980674698 2980674698 -13.00000000
-55.29944992 0.27024624 2.89815593 53 3 27028 55.37600000 2980674701 2980674701 3.00000000
-2.61502123 0.01323593 -0.50831515 3 4 27029 2.66400000 2980674703 2980674703 -11.00000000
-36.57180023 0.19149123 3.19966173 62 5 27030 36.71200000 2980674705 2980674705 5.00000000
-3.13882756 0.01698286 -0.49714872 3 6 27031 3.17800000 2980674707 2980674707 -9.00000000
-24.37655258 0.13614577 2.99311113 34 7 27032 24.56000000 2980674710 2980674710 7.00000000
-3.94629812 0.02272930 -0.48455250 3 8 27033 3.97600000 2980674712 2980674712 -7.00000000
-18.20672607 0.10804216 2.88371301 49 9 27034 18.43400000 2980674714 2980674714 9.00000000
-5.17015934 0.03068070 -0.45233831 6 10 27034 5.19000000 2980674717 2980674717 -5.00000000
-12.80214310 0.07820481 2.48853087 37 11 27035 13.04200000 2980674719 2980674719 11.00000000
-7.64535666 0.04803783 -0.40068409 16 12 27036 7.65600000 2980674721 2980674721 -3.00000000
-12.04491138 0.07778373 2.78084493 59 13 27037 12.36200000 2980674724 2980674724 13.00000000
-15.17935371 0.10067476 -0.26496243 2 14 27038 15.18200000 2980674726 2980674726 -1.00000000
-10.16324806 0.06740620 2.72329402 42 15 27038 10.52200000 2980674728 2980674728 15.00000000
-1.93951654 0.01557177 -0.51970863 5 0 27046 2.00800000 2980674749 2980674749 -15.00000000
-25.91917992 0.21262103 0.45243618 10 1 27047 25.92400000 2980674751 2980674751 1.00000000
-2.24876714 0.01883967 -0.51918703 4 2 27048 2.30800000 2980674753 2980674753 -13.00000000
-55.30615616 0.46334261 2.89857459 53 3 27048 55.38400000 2980674756 2980674756 3.00000000
-2.61495924 0.02236397 -0.50831515 3 4 27049 2.66400000 2980674758 2980674758 -11.00000000
-36.56094742 0.31906253 3.19879007 62 5 27050 36.70200000 2980674760 2980674760 5.00000000
-3.15850210 0.02811514 -0.50027740 3 6 27051 3.19800000 2980674763 2980674763 -9.00000000
-24.35210991 0.22101881 2.99018621 34 7 27052 24.53600000 2980674765 2980674765 7.00000000
-3.94817972 0.03652267 -0.48479626 5 8 27053 3.97800000 2980674767 2980674767 -7.00000000
-18.20821381 0.17161345 2.88402581 45 9 27054 18.43600000 2980674770 2980674770 9.00000000
-5.17002106 0.04872774 -0.45233831 6 10 27054 5.19000000 2980674772 2980674772 -5.00000000
-12.80571842 0.12292985 2.48929405 40 11 27055 13.04600000 2980674774 2980674774 11.00000000
-7.65313101 0.07480289 -0.40110278 16 12 27056 7.66400000 2980674777 2980674777 -3.00000000
-12.05236149 0.11990539 2.78264451 56 13 27057 12.37000000 2980674779 2980674779 13.00000000
-15.20290470 0.15390289 -0.26538131 2 14 27058 15.20600000 2980674781 2980674781 -1.00000000
-10.15522385 0.10280392 2.72122335 42 15 27058 10.51400000 2980674783 2980674783 15.00000000
-1.94910896 0.02245312 -0.52229685 5 0 27066 2.01800000 2980674804 2980674804 -15.00000000
-26.03625298 0.30447417 0.45449558 5 1 27067 26.04200000 2980674806 2980674806 1.00000000
-2.24479055 0.02664296 -0.51828724 4 2 27068 2.30400000 2980674809 2980674809 -13.00000000
-55.30408859 0.66604668 2.89857459 53 3 27069 55.38400000 2980674811 2980674811 3.00000000
-2.62271762 0.03158632 -0.50984162 3 4 27069 2.67200000 2980674813 2980674813 -11.00000000
-36.56159973 0.44670644 3.19896436 72 5 27070 36.70400000 2980674816 2980674816 5.00000000
-3.13863254 0.03889542 -0.49714872 3 6 27071 3.17800000 2980674818 2980674818 -9.00000000
-24.33530998 0.30582261 2.98823619 34 7 27072 24.52000000 2980674820 2980674820 7.00000000
-3.94802809 0.05030417 -0.48479626 5 8 27073 3.97800000 2980674823 2980674823 -7.00000000
-18.20754433 0.23199312 2.88402581 49 9 27073 18.43600000 2980674825 2980674825 9.00000000
-5.18974161 0.06703150 -0.45408142 6 10 27074 5.21000000 2980674827 2980674827 -5.00000000
-12.79539585 0.16750090 2.48738599 40 11 27075 13.03600000 2980674830 2980674830 11.00000000
-7.65082645 0.10149036 -0.40099809 16 12 27076 7.66200000 2980674832 2980674832 -3.00000000
-12.05771542 0.16205381 2.78399420 54 13 27077 12.37600000 2980674834 2980674834 13.00000000
-15.25826168 0.20773222 -0.26635861 2 14 27078 15.26200000 2980674836 2980674836 -1.00000000
-10.14512062 0.13989080 2.71863532 42 15 27079 10.50400000 2980674839 2980674839 15.00000000
-1.95674527 0.02937262 -0.52436739 5 0 27086 2.02600000 2980674859 2980674859 -15.00000000
-26.26696968 0.39887789 0.45854452 5 1 27087 26.27400000 2980674862 2980674862 1.00000000
-2.23299289 0.03429900 -0.51558781 4 2 27088 2.29200000 2980674864 2980674864 -13.00000000
-58.41493607 0.89725953 3.06175804 58 3 27088 58.50200000 2980674866 2980674866 3.00000000
-2.61670232 0.04064963 -0.50869679 3 4 27089 2.66600000 2980674869 2980674869 -11.00000000
-36.56579590 0.57442141 3.19948721 62 5 27090 36.71000000 2980674871 2980674871 5.00000000
-3.15032840 0.05003929 -0.49902594 3 6 27091 3.19000000 2980674873 2980674873 -9.00000000
-24.32019997 0.39054373 2.98653007 37 7 27092 24.50600000 2980674876 2980674876 7.00000000
-3.93988919 0.06395617 -0.48382130 5 8 27093 3.97000000 2980674878 2980674878 -7.00000000
-18.20459747 0.29869315 2.88371301 45 9 27094 18.43400000 2980674880 2980674880 9.00000000
-5.16955471 0.08481982 -0.45233831 6 10 27094 5.19000000 2980674883 2980674883 -5.00000000
-12.79865932 0.21222925 2.48814940 43 11 27095 13.04000000 2980674885 2980674885 11.00000000
-7.63444948 0.12792841 -0.40016073 12 12 27096 7.64600000 2980674887 2980674887 -3.00000000
-12.05512714 0.20410912 2.78354430 56 13 27097 12.37400000 2980674889 2980674889 13.00000000
-15.26544094 0.26112902 -0.26649824 2 14 27098 15.27000000 2980674892 2980674892 -1.00000000
-10.14650154 0.17533642 2.71915293 45 15 27099 10.50600000 2980674894 2980674894 15.00000000
-1.95083630 0.03609554 -0.52281445 4 0 27106 2.02000000 2980674915 2980674915 -15.00000000
-2.23480797 0.04213012 -0.51603770 4 2 27108 2.29400000 2980674919 2980674919 -13.00000000
-58.39546967 1.10085905 3.06092072 58 3 27108 58.48600000 2980674922 2980674922 3.00000000
-2.61065578 0.04967134 -0.50755191 3 4 27109 2.66000000 2980674924 2980674924 -11.00000000
-36.56555939 0.70209461 3.19966173 62 5 27110 36.71200000 2980674926 2980674926 5.00000000
-3.16988468 0.06141835 -0.50215465 3 6 27111 3.21000000 2980674929 2980674929 -9.00000000
-24.31472015 0.47535709 2.98604274 37 7 27112 24.50200000 2980674931 2980674931 7.00000000
-3.93964195 0.07770856 -0.48382130 7 8 27113 3.97000000 2980674933 2980674933 -7.00000000
-18.17190552 0.35843682 2.87870693 45 9 27113 18.40200000 2980674936 2980674936 9.00000000
-5.18117905 0.10310225 -0.45338416 6 10 27114 5.20200000 2980674938 2980674938 -5.00000000
-12.80176544 0.25698242 2.48891258 40 11 27115 13.04400000 2980674940 2980674940 11.00000000
-7.61997843 0.15429379 -0.39942801 12 12 27116 7.63200000 2980674942 2980674942 -3.00000000
-12.05239296 0.24614833 2.78309441 54 13 27117 12.37200000 2980674945 2980674945 13.00000000
-15.34840584 0.31614336 -0.26796424 2 14 27118 15.35400000 2980674947 2980674947 -1.00000000
-10.15741634 0.21099398 2.72225881 45 15 27119 10.51800000 2980674949 2980674949 15.00000000
-1.95262980 0.04294749 -0.52333212 5 0 27126 2.02200000 2980674970 2980674970 -15.00000000
-58.47072601 1.29625571 1.02086103 14 1 27127 58.49400000 2980674972 2980674972 1.00000000
-2.24828506 0.05023552 -0.51918703 4 2 27128 2.30800000 2980674975 2980674975 -13.00000000
-58.39726257 1.30482447 3.06123471 58 3 27128 58.49200000 2980674977 2980674977 3.00000000
-2.62224317 0.05904912 -0.50984162 3 4 27129 2.67200000 2980674979 2980674979 -11.00000000
-36.54296875 0.82927597 3.19791842 62 5 27130 36.69200000 2980674982 2980674982 5.00000000
-3.16570115 0.07239261 -0.50152892 3 6 27131 3.20600000 2980674984 2980674984 -9.00000000
-24.30497360 0.56004548 2.98506761 37 7 27132 24.49400000 2980674986 2980674986 7.00000000
-3.94728494 0.09164431 -0.48479626 7 8 27133 3.97800000 2980674989 2980674989 -7.00000000
-18.16461945 0.42172888 2.87776852 41 9 27133 18.39600000 2980674991 2980674991 9.00000000
-5.18477154 0.12128050 -0.45373279 9 10 27134 5.20600000 2980674993 2980674993 -5.00000000
-12.80864143 0.30185238 2.49043894 46 11 27135 13.05200000 2980674995 2980674995 11.00000000
-7.63936043 0.18136558 -0.40047473 12 12 27136 7.65200000 2980674998 2980674998 -3.00000000
-12.05340862 0.28826413 2.78354430 57 13 27137 12.37400000 2980675000 2980675000 13.00000000
-15.36719990 0.37019897 -0.26831329 2 14 27138 15.37400000 2980675002 2980675002 -1.00000000
-10.14309883 0.24612065 2.71863532 42 15 27139 10.50400000 2980675005 2980675005 15.00000000
-1.93894935 0.04941863 -0.51970863 5 0 27146 2.00800000 2980675025 2980675025 -15.00000000
-58.44585419 1.49983573 1.02051198 14 1 27147 58.47400000 2980675028 2980675028 1.00000000
-2.24809599 0.05808320 -0.51918703 4 2 27148 2.30800000 2980675030 2980675030 -13.00000000
-58.38436508 1.50845468 3.06081605 58 3 27148 58.48400000 2980675032 2980675032 3.00000000
-2.61809587 0.06810000 -0.50907838 3 4 27149 2.66800000 2980675035 2980675035 -11.00000000
-36.52391815 0.95641243 3.19652390 41 5 27150 36.67600000 2980675037 2980675037 5.00000000
-3.15358114 0.08313021 -0.49965167 3 6 27151 3.19400000 2980675039 2980675039 -9.00000000
-24.28302765 0.64435571 2.98263025 40 7 27152 24.47400000 2980675041 2980675041 7.00000000
-3.94694090 0.10542235 -0.48479626 7 8 27153 3.97800000 2980675044 2980675044 -7.00000000
-18.17093658 0.48534364 2.87901998 49 9 27153 18.40400000 2980675046 2980675046 9.00000000
-5.16838312 0.13894963 -0.45233831 9 10 27154 5.19000000 2980675048 2980675048 -5.00000000
-12.81143475 0.34666726 2.49120235 46 11 27155 13.05600000 2980675051 2980675051 11.00000000
-7.63868093 0.20803082 -0.40047473 12 12 27156 7.65200000 2980675053 2980675053 -3.00000000
-12.05038071 0.33028322 2.78309441 54 13 27157 12.37200000 2980675055 2980675055 13.00000000
-15.37780762 0.42416906 -0.26852274 2 14 27158 15.38600000 2980675058 2980675058 -1.00000000
-10.13836479 0.27964848 2.71759987 42 15 27158 10.50000000 2980675060 2980675060 15.00000000
-1.94455814 0.05635441 -0.52126157 4 0 27166 2.01400000 2980675081 2980675081 -15.00000000
-58.42427063 1.70337451 1.02023280 14 1 27167 58.45800000 2980675083 2980675083 1.00000000
-2.24982738 0.06598730 -0.51963693 4 2 27168 2.31000000 2980675085 2980675085 -13.00000000
-58.39870834 1.71283042 3.06186271 58 3 27168 58.50400000 2980675088 2980675088 3.00000000
-2.61391735 0.07712264 -0.50831515 3 4 27169 2.66400000 2980675090 2980675090 -11.00000000
-36.52433777 1.08401704 3.19687271 41 5 27170 36.68000000 2980675092 2980675092 5.00000000
-3.14537358 0.09390197 -0.49840021 3 6 27171 3.18600000 2980675094 2980675094 -9.00000000
-24.26078796 0.72851956 2.98019290 43 7 27172 24.45400000 2980675097 2980675097 7.00000000
-3.95845413 0.11955867 -0.48625869 7 8 27173 3.99000000 2980675099 2980675099 -7.00000000
-18.18097687 0.54912686 2.88089705 37 9 27173 18.41600000 2980675101 2980675101 9.00000000
-5.18379831 0.15747377 -0.45373279 9 10 27174 5.20600000 2980675104 2980675104 -5.00000000
-12.80229759 0.39114556 2.48967576 43 11 27175 13.04800000 2980675106 2980675106 11.00000000
-7.63790846 0.23469353 -0.40047473 12 12 27176 7.65200000 2980675108 2980675108 -3.00000000
-12.05305004 0.37246528 2.78399420 54 13 27177 12.37600000 2980675111 2980675111 13.00000000
-15.31627178 0.47598162 -0.26747558 2 14 27178 15.32600000 2980675113 2980675113 -1.00000000
-10.13920307 0.31686592 2.71811771 45 15 27179 10.50200000 2980675115 2980675115 15.00000000
-1.94628048 0.06320455 -0.52177918 5 0 27186 2.01600000 2980675136 2980675136 -15.00000000
-58.41397095 1.90717244 1.02016294 14 1 27187 58.45400000 2980675138 2980675138 1.00000000
-2.24179244 0.07358453 -0.51783735 4 2 27188 2.30200000 2980675141 2980675141 -13.00000000
-58.38405609 1.92659748 3.06144404 58 3 27189 58.49600000 2980675143 2980675143 3.00000000
-2.62148094 0.08650544 -0.50984162 3 4 27189 2.67200000 2980675145 2980675145 -11.00000000
-36.51834106 1.21143818 3.19669843 51 5 27190 36.67800000 2980675147 2980675147 5.00000000
-3.15292382 0.10514416 -0.49965167 3 6 27191 3.19400000 2980675150 2980675150 -9.00000000
-24.22635269 0.81213689 2.97629309 37 7 27192 24.42200000 2980675152 2980675152 7.00000000
-3.94214082 0.13284069 -0.48430878 7 8 27193 3.97400000 2980675154 2980675154 -7.00000000
-18.17105293 0.61232090 2.87964559 41 9 27193 18.40800000 2980675157 2980675157 9.00000000
-5.17923450 0.17543276 -0.45338416 9 10 27194 5.20200000 2980675159 2980675159 -5.00000000
-12.79693031 0.43569794 2.48891258 43 11 27195 13.04400000 2980675161 2980675161 11.00000000
-7.64303064 0.26155829 -0.40078875 12 12 27196 7.65800000 2980675164 2980675164 -3.00000000
-12.03999138 0.41413406 2.78129482 52 13 27197 12.36400000 2980675166 2980675166 13.00000000
-15.39445686 0.53220612 -0.26887178 2 14 27198 15.40600000 2980675168 2980675168 -1.00000000
-10.13809681 0.35048699 2.71811771 45 15 27198 10.50200000 2980675171 2980675171 15.00000000
-1.95377040 0.07027572 -0.52384973 5 0 27206 2.02400000 2980675191 2980675191 -15.00000000
-2.23567963 0.08119721 -0.51648760 4 2 27208 2.29600000 2980675196 2980675196 -13.00000000
-58.37298203 2.13023853 3.06123471 58 3 27209 58.49200000 2980675198 2980675198 3.00000000
-2.62901092 0.09594198 -0.51136810 3 4 27209 2.68000000 2980675200 2980675200 -11.00000000
-36.50393295 1.33853853 3.19582677 41 5 27210 36.66800000 2980675203 2980675203 5.00000000
-3.14858961 0.11600381 -0.49902594 3 6 27211 3.19000000 2980675205 2980675205 -9.00000000
-24.21345139 0.89633054 2.97507453 40 7 27212 24.41200000 2980675207 2980675207 7.00000000
-3.94165301 0.14660051 -0.48430878 7 8 27213 3.97400000 2980675210 2980675210 -7.00000000
-18.16473961 0.67876947 2.87901998 41 9 27214 18.40400000 2980675212 2980675212 9.00000000
-5.19053650 0.19395699 -0.45443004 6 10 27214 5.21400000 2980675214 2980675214 -5.00000000
-12.79533100 0.48036489 2.48891258 46 11 27215 13.04400000 2980675217 2980675217 11.00000000
-7.64406729 0.28831112 -0.40089342 16 12 27216 7.66000000 2980675219 2980675219 -3.00000000
-12.02289391 0.45556864 2.77769566 51 13 27217 12.34800000 2980675221 2980675221 13.00000000
-15.42847347 0.58730876 -0.26950005 2 14 27218 15.44200000 2980675224 2980675224 -1.00000000
-10.15604782 0.38838086 2.72329402 45 15 27219 10.52200000 2980675226 2980675226 15.00000000
-1.95159626 0.07667843 -0.52333212 4 0 27225 2.02200000 2980675247 2980675247 -15.00000000
-42.69825363 1.68508267 0.74588096 10 1 27226 42.73800000 2980675249 2980675249 1.00000000
-2.23539805 0.08861054 -0.51648760 4 2 27227 2.29600000 2980675251 2980675251 -13.00000000
-58.38156128 2.32443404 3.06207204 58 3 27228 58.50800000 2980675253 2980675253 3.00000000
-2.61690807 0.10419095 -0.50907838 3 4 27228 2.66800000 2980675256 2980675256 -11.00000000
-36.49730301 1.45950294 3.19565248 41 5 27229 36.66600000 2980675258 2980675258 5.00000000
-3.17187309 0.12739559 -0.50278038 3 6 27230 3.21400000 2980675260 2980675260 -9.00000000
-24.21034622 0.97662032 2.97507453 34 7 27231 24.41200000 2980675263 2980675263 7.00000000
-3.94511223 0.15983142 -0.48479626 7 8 27232 3.97800000 2980675265 2980675265 -7.00000000
-18.14277840 0.73503262 2.87589121 45 9 27232 18.38400000 2980675267 2980675267 9.00000000
-5.18986464 0.21116835 -0.45443004 9 10 27233 5.21400000 2980675270 2980675270 -5.00000000
-12.80543804 0.52327406 2.49120235 43 11 27234 13.05600000 2980675272 2980675272 11.00000000
-7.65703821 0.31423146 -0.40162614 16 12 27235 7.67400000 2980675274 2980675274 -3.00000000
-12.02131653 0.49543548 2.77769566 50 13 27236 12.34800000 2980675277 2980675277 13.00000000
-15.45840931 0.63979125 -0.27005854 2 14 27237 15.47400000 2980675279 2980675279 -1.00000000
-10.12968540 0.41924652 2.71656466 42 15 27237 10.49600000 2980675281 2980675281 15.00000000
-1.93780613 0.08291223 -0.51970863 4 0 27245 2.00800000 2980675302 2980675302 -15.00000000
-41.76710510 1.79437757 0.72972000 51 1 27246 41.81200000 2980675304 2980675304 1.00000000
-2.25259757 0.09716886 -0.52053672 4 2 27247 2.31400000 2980675306 2980675306 -13.00000000
-58.37309265 2.52820969 3.06207204 58 3 27248 58.50800000 2980675309 2980675309 3.00000000
-2.61652827 0.11332503 -0.50907838 3 4 27248 2.66800000 2980675311 2980675311 -11.00000000
-36.49198532 1.58689344 3.19565248 41 5 27249 36.66600000 2980675313 2980675313 5.00000000
-3.13983297 0.13708808 -0.49777448 3 6 27250 3.18200000 2980675316 2980675316 -9.00000000
-24.18497467 1.06016803 2.97239327 37 7 27251 24.39000000 2980675318 2980675318 7.00000000
-3.96436191 0.17447427 -0.48723364 7 8 27252 3.99800000 2980675320 2980675320 -7.00000000
-18.13996315 0.80152428 2.87589121 41 9 27253 18.38400000 2980675323 2980675323 9.00000000
-5.16919184 0.22840358 -0.45268694 6 10 27253 5.19400000 2980675325 2980675325 -5.00000000
-12.79568768 0.56762218 2.48967576 43 11 27254 13.04800000 2980675327 2980675327 11.00000000
-7.66387558 0.34131303 -0.40204480 24 12 27255 7.68200000 2980675329 2980675329 -3.00000000
-12.01756763 0.53730768 2.77724576 51 13 27256 12.34600000 2980675332 2980675332 13.00000000
-15.44009972 0.69302994 -0.26977929 2 14 27257 15.45800000 2980675334 2980675334 -1.00000000
-10.13001060 0.45645782 2.71708226 42 15 27258 10.49800000 2980675336 2980675336 15.00000000
-1.94522405 0.09003320 -0.52177918 4 0 27265 2.01600000 2980675357 2980675357 -15.00000000
-41.64073563 1.93459272 0.72762573 71 1 27266 41.69200000 2980675359 2980675359 1.00000000
-2.23667169 0.10430507 -0.51693749 4 2 27267 2.29800000 2980675362 2980675362 -13.00000000
-58.36391068 2.73195434 3.06207204 58 3 27268 58.50800000 2980675364 2980675364 3.00000000
-2.62396121 0.12282491 -0.51060486 3 4 27268 2.67600000 2980675366 2980675366 -11.00000000
-36.48224640 1.71407759 3.19530392 51 5 27269 36.66200000 2980675369 2980675369 5.00000000
-3.15906715 0.14897783 -0.50090313 3 6 27270 3.20200000 2980675371 2980675371 -9.00000000
-24.14543533 1.14289343 2.96800590 31 7 27271 24.35400000 2980675373 2980675373 7.00000000
-3.95579743 0.18793459 -0.48625869 7 8 27272 3.99000000 2980675376 2980675376 -7.00000000
-18.14115143 0.86186165 2.87651706 41 9 27272 18.38800000 2980675378 2980675378 9.00000000
-5.18428373 0.24720521 -0.45408142 6 10 27273 5.21000000 2980675380 2980675380 -5.00000000
-12.78186226 0.61172086 2.48738599 43 11 27274 13.03600000 2980675382 2980675382 11.00000000
-7.65465784 0.36767957 -0.40162614 24 12 27275 7.67400000 2980675385 2980675385 -3.00000000
-12.02729702 0.57981652 2.77994514 51 13 27276 12.35800000 2980675387 2980675387 13.00000000
-15.50549698 0.75020748 -0.27096605 2 14 27277 15.52600000 2980675389 2980675389 -1.00000000
-10.13230038 0.49023435 2.71811771 42 15 27277 10.50200000 2980675392 2980675392 15.00000000
-1.94296849 0.09672670 -0.52126157 4 0 27285 2.01400000 2980675412 2980675412 -15.00000000
-41.58979034 2.07773924 0.72685784 20 1 27286 41.64800000 2980675415 2980675415 1.00000000
-2.22850871 0.11172158 -0.51513791 4 2 27287 2.29000000 2980675417 2980675417 -13.00000000
-58.36199951 2.93606710 3.06249070 58 3 27288 58.51600000 2980675419 2980675419 3.00000000
-2.63528109 0.13257535 -0.51289457 3 4 27288 2.68800000 2980675422 2980675422 -11.00000000
-36.47603989 1.84141386 3.19530392 41 5 27289 36.66200000 2980675424 2980675424 5.00000000
-3.15458226 0.15980424 -0.50027740 3 6 27290 3.19800000 2980675426 2980675426 -9.00000000
-24.12742043 1.22646427 2.96629977 31 7 27291 24.34000000 2980675429 2980675429 7.00000000
-3.95115232 0.20153952 -0.48577121 5 8 27292 3.98600000 2980675431 2980675431 -7.00000000
-18.13589859 0.92824554 2.87620401 45 9 27293 18.38600000 2980675433 2980675433 9.00000000
-5.18338919 0.26530024 -0.45408142 6 10 27293 5.21000000 2980675435 2980675435 -5.00000000
-12.77572823 0.65613282 2.48662281 43 11 27294 13.03200000 2980675438 2980675438 11.00000000
-7.64933825 0.39419150 -0.40141678 24 12 27295 7.67000000 2980675440 2980675440 -3.00000000
-12.01352310 0.62119234 2.77724576 51 13 27296 12.34600000 2980675442 2980675442 13.00000000
-23.84628868 1.23721123 -0.41679838 3 14 27297 23.88200000 2980675445 2980675445 -1.00000000
-10.13815212 0.52776951 2.72018814 47 15 27298 10.51000000 2980675447 2980675447 15.00000000
-1.94840634 0.10381670 -0.52281445 4 0 27305 2.02000000 2980675468 2980675468 -15.00000000
-41.50839996 2.21895242 0.72556633 20 1 27306 41.57400000 2980675470 2980675470 1.00000000
-2.23394299 0.11981294 -0.51648760 4 2 27307 2.29600000 2980675472 2980675472 -13.00000000
-58.34939957 3.13966346 3.06238604 58 3 27308 58.51400000 2980675475 2980675475 3.00000000
-2.61911893 0.14092951 -0.50984162 3 4 27308 2.67200000 2980675477 2980675477 -11.00000000
-36.46342087 1.96840560 3.19478083 41 5 27309 36.65600000 2980675479 2980675479 5.00000000
-3.16978502 0.17166942 -0.50278038 3 6 27310 3.21400000 2980675482 2980675482 -9.00000000
-24.13092232 1.31110799 2.96727467 28 7 27311 24.34800000 2980675484 2980675484 7.00000000
-3.95835328 0.21576256 -0.48674616 5 8 27312 3.99400000 2980675486 2980675486 -7.00000000
-18.13469315 0.98848873 2.87651706 41 9 27312 18.38800000 2980675488 2980675488 9.00000000
-5.19436836 0.28404474 -0.45512730 6 10 27313 5.22200000 2980675491 2980675491 -5.00000000
-12.78120041 0.70115459 2.48814940 40 11 27314 13.04000000 2980675493 2980675493 11.00000000
-7.64990997 0.42100003 -0.40152144 28 12 27315 7.67200000 2980675495 2980675495 -3.00000000
-12.00349903 0.66269386 2.77544618 51 13 27316 12.33800000 2980675498 2980675498 13.00000000
-15.55578804 0.86153334 -0.27194339 2 14 27317 15.58200000 2980675500 2980675500 -1.00000000
-10.14406204 0.56181324 2.72225881 47 15 27317 10.51800000 2980675502 2980675502 15.00000000
-1.94031703 0.11017919 -0.52074391 4 0 27325 2.01200000 2980675523 2980675523 -15.00000000
-41.49840546 2.36371636 0.72553146 41 1 27326 41.57200000 2980675525 2980675525 1.00000000
-2.23156571 0.12749897 -0.51603770 4 2 27327 2.29400000 2980675528 2980675528 -13.00000000
-58.35004807 3.34400725 3.06301427 58 3 27328 58.52600000 2980675530 2980675530 3.00000000
-2.61861110 0.15007108 -0.50984162 3 4 27328 2.67200000 2980675532 2980675532 -11.00000000
-36.44638443 2.09510303 3.19390941 41 5 27329 36.64600000 2980675535 2980675535 5.00000000
-3.16916656 0.18273300 -0.50278038 3 6 27330 3.21400000 2980675537 2980675537 -9.00000000
-24.13016129 1.39556193 2.96776223 28 7 27331 24.35200000 2980675539 2980675539 7.00000000
-3.94964886 0.22911863 -0.48577121 5 8 27332 3.98600000 2980675541 2980675541 -7.00000000
-18.11122704 1.05380166 2.87338829 41 9 27333 18.36800000 2980675544 2980675544 9.00000000
-5.19732332 0.30240622 -0.45547593 6 10 27333 5.22600000 2980675546 2980675546 -5.00000000
-12.78259563 0.74599379 2.48891258 43 11 27334 13.04400000 2980675548 2980675548 11.00000000
-7.65238142 0.44793406 -0.40173081 32 12 27335 7.67600000 2980675551 2980675551 -3.00000000
-12.01278496 0.70527518 2.77814555 53 13 27336 12.35000000 2980675553 2980675553 13.00000000
-15.55667782 0.91606301 -0.27201322 2 14 27337 15.58600000 2980675555 2980675555 -1.00000000
-10.12843513 0.59819204 2.71863532 42 15 27338 10.50400000 2980675558 2980675558 15.00000000
-1.93799233 0.11683524 -0.52022630 4 0 27345 2.01000000 2980675578 2980675578 -15.00000000
-41.48391342 2.50819659 0.72542673 51 1 27346 41.56600000 2980675581 2980675581 1.00000000
-2.23694253 0.13564166 -0.51738745 4 2 27347 2.30000000 2980675583 2980675583 -13.00000000
-58.34200668 3.54790902 3.06322360 58 3 27348 58.53000000 2980675585 2980675585 3.00000000
-2.62199068 0.15944916 -0.51060486 3 4 27348 2.67600000 2980675588 2980675588 -11.00000000
-36.40106201 2.22000742 3.19059753 41 5 27349 36.60800000 2980675590 2980675590 5.00000000
-3.16850948 0.19379434 -0.50278038 3 6 27350 3.21400000 2980675592 2980675592 -9.00000000
-24.12910652 1.48002648 2.96824980 25 7 27351 24.35600000 2980675594 2980675594 7.00000000
-3.95278788 0.24314784 -0.48625869 5 8 27352 3.99000000 2980675597 2980675597 -7.00000000
-18.11157608 1.11409736 2.87401390 41 9 27352 18.37200000 2980675599 2980675599 9.00000000
-5.18828154 0.32005572 -0.45477867 6 10 27353 5.21800000 2980675601 2980675601 -5.00000000
-12.77207565 0.79012394 2.48738599 43 11 27354 13.03600000 2980675604 2980675604 11.00000000
-7.66273212 0.47538513 -0.40235883 32 12 27355 7.68800000 2980675606 2980675606 -3.00000000
-12.01997471 0.74780834 2.78039503 54 13 27356 12.36000000 2980675608 2980675608 13.00000000
-15.59330177 0.97285074 -0.27271131 2 14 27357 15.62600000 2980675611 2980675611 -1.00000000
-10.11482716 0.63105410 2.71552944 42 15 27357 10.49200000 2980675613 2980675613 15.00000000
-1.93950057 0.12372236 -0.52074391 4 0 27365 2.01200000 2980675634 2980675634 -15.00000000
-41.48887634 2.65388060 0.72567105 30 1 27366 41.58000000 2980675636 2980675636 1.00000000
-2.23645544 0.14344922 -0.51738745 4 2 27367 2.30000000 2980675638 2980675638 -13.00000000
-58.34720612 3.75269294 3.06416559 58 3 27368 58.54800000 2980675641 2980675641 3.00000000
-2.61358118 0.16809660 -0.50907838 3 4 27368 2.66800000 2980675643 2980675643 -11.00000000
-36.41098404 2.34821129 3.19216633 41 5 27369 36.62600000 2980675645 2980675645 5.00000000
-3.17175603 0.20510827 -0.50340611 3 6 27370 3.21800000 2980675647 2980675647 -9.00000000
-24.12181091 1.56411529 2.96800590 23 7 27371 24.35400000 2980675650 2980675650 7.00000000
-3.96181965 0.25758812 -0.48747736 4 8 27372 4.00000000 2980675652 2980675652 -7.00000000
-18.10757828 1.17731178 2.87401390 45 9 27372 18.37200000 2980675654 2980675654 9.00000000
-5.20701456 0.33946040 -0.45652178 9 10 27373 5.23800000 2980675657 2980675657 -5.00000000
-12.76532173 0.83444583 2.48662281 43 11 27374 13.03200000 2980675659 2980675659 11.00000000
-7.64308882 0.50095451 -0.40141678 24 12 27375 7.67000000 2980675661 2980675661 -3.00000000
-12.02506924 0.79027247 2.78219461 54 13 27376 12.36800000 2980675664 2980675664 13.00000000
-15.60178375 1.02806449 -0.27292073 2 14 27377 15.63800000 2980675666 2980675666 -1.00000000
-10.11449051 0.66648459 2.71604705 42 15 27377 10.49400000 2980675668 2980675668 15.00000000
-1.95062184 0.13127001 -0.52384973 4 0 27385 2.02400000 2980675689 2980675689 -15.00000000
-41.52724075 2.80191851 0.72650880 10 1 27386 41.62800000 2980675691 2980675691 1.00000000
-2.23010802 0.15086046 -0.51603770 4 2 27387 2.29400000 2980675694 2980675694 -13.00000000
-58.33773804 3.95660996 3.06437492 58 3 27388 58.55200000 2980675696 2980675696 3.00000000
-2.62864852 0.17828147 -0.51213133 3 4 27388 2.68400000 2980675698 2980675698 -11.00000000
-36.40455627 2.47543025 3.19234061 51 5 27389 36.62800000 2980675700 2980675700 5.00000000
-3.17102075 0.21617851 -0.50340611 3 6 27390 3.21800000 2980675703 2980675703 -9.00000000
-24.07659531 1.64559937 2.96313119 20 7 27391 24.31400000 2980675705 2980675705 7.00000000
-3.95297456 0.27087307 -0.48650241 3 8 27392 3.99200000 2980675707 2980675707 -7.00000000
-18.09919930 1.24340069 2.87338829 41 9 27393 18.36800000 2980675710 2980675710 9.00000000
-5.19387150 0.35681486 -0.45547593 6 10 27393 5.22600000 2980675712 2980675712 -5.00000000
-12.75841331 0.87873024 2.48585963 43 11 27394 13.02800000 2980675714 2980675714 11.00000000
-7.64727116 0.52804357 -0.40173081 32 12 27395 7.67600000 2980675717 2980675717 -3.00000000
-12.00862885 0.83130091 2.77904534 57 13 27396 12.35400000 2980675719 2980675719 13.00000000
-15.62203884 1.08418000 -0.27333960 2 14 27397 15.66200000 2980675721 2980675721 -1.00000000
-10.12366581 0.70258921 2.71915293 45 15 27397 10.50600000 2980675723 2980675723 15.00000000
-1.95207882 0.13821459 -0.52436739 4 0 27405 2.02600000 2980675744 2980675744 -15.00000000
-41.58702087 2.95181394 0.72773045 10 1 27406 41.69800000 2980675747 2980675747 1.00000000
-2.23151183 0.15878238 -0.51648760 4 2 27407 2.29600000 2980675749 2980675749 -13.00000000
-58.31560135 4.15965414 3.06395626 58 3 27408 58.54400000 2980675751 2980675751 3.00000000
-2.62017703 0.18689734 -0.51060486 3 4 27408 2.67600000 2980675753 2980675753 -11.00000000
-36.32017517 2.59709096 3.18571663 41 5 27409 36.55200000 2980675756 2980675756 5.00000000
-3.16236567 0.22668119 -0.50215465 3 6 27410 3.21000000 2980675758 2980675758 -9.00000000
-21.18190384 1.52205372 2.60751653 15 7 27411 21.39600000 2980675760 2980675760 7.00000000
-3.96190476 0.28538296 -0.48772112 6 8 27412 4.00200000 2980675763 2980675763 -7.00000000
-18.07504654 1.30514848 2.87025952 41 9 27413 18.34800000 2980675765 2980675765 9.00000000
-5.21047926 0.37623411 -0.45704472 6 10 27413 5.24400000 2980675767 2980675767 -5.00000000
-12.75526905 0.92326009 2.48585963 43 11 27414 13.02800000 2980675770 2980675770 11.00000000
-7.63940525 0.55430073 -0.40141678 36 12 27415 7.67000000 2980675772 2980675772 -3.00000000
