# .PCD v0.7 - Point Cloud Data file format
VERSION 0.7
FIELDS x y z intensity laser_id azimuth distance_m adjustedtime timestamp vertical_angle
SIZE 4 4 4 1 1 2 8 8 4 8
TYPE F F F U U U F U U F
COUNT 1 1 1 1 1 1 1 1 1 1
WIDTH 516
HEIGHT 1
VIEWPOINT 0 0 0 1 0 0 0
POINTS 516
DATA ascii
-29.02759933 -23.60692024 3.27339530 52 5 23088 37.55800000 1888566596 1888566596 5.00000000
-2.38191915 -1.93642354 -0.48619831 2 6 23089 3.10800000 1888566598 1888566598 -9.00000000
-20.12848282 -16.35797501 3.18468976 28 7 23090 26.13200000 1888566600 1888566600 7.00000000
-2.97055101 -2.41324067 -0.46992818 1 8 23091 3.85600000 1888566603 1888566603 -7.00000000
-13.19966888 -10.71943092 2.69317579 48 9 23092 17.21600000 1888566605 1888566605 9.00000000
-3.91914821 -3.18273449 -0.44170532 6 10 23092 5.06800000 1888566607 1888566607 -5.00000000
-11.69842339 -9.49688435 2.92891812 35 11 23093 15.35000000 1888566610 1888566610 11.00000000
-5.71951532 -4.64149761 -0.38603002 3 12 23094 7.37600000 1888566612 1888566612 -3.00000000
-9.60091305 -7.78854799 2.85417891 44 13 23095 12.68800000 1888566614 1888566614 13.00000000
-9.86888218 -8.00307751 -0.22178519 6 14 23096 12.70800000 1888566617 1888566617 -1.00000000
-8.15026855 -6.60702658 2.81129241 38 15 23097 10.86200000 1888566619 1888566619 15.00000000
-1.49466825 -1.20863163 -0.51504987 5 0 23104 1.99000000 1888566640 1888566640 -15.00000000
-1.72187948 -1.39136744 -0.51108879 4 2 23106 2.27200000 1888566644 1888566644 -13.00000000
-45.46426010 -36.72435379 3.06290960 43 3 23107 58.52400000 1888566646 1888566646 3.00000000
-1.99458003 -1.61114824 -0.49839309 3 4 23107 2.61200000 1888566649 1888566649 -11.00000000
-29.01526833 -23.42909813 3.26276231 52 5 23108 37.43600000 1888566651 1888566651 5.00000000
-2.40710926 -1.94298613 -0.48995274 2 6 23109 3.13200000 1888566653 1888566653 -9.00000000
-20.19782066 -16.29758644 3.18663955 28 7 23110 26.14800000 1888566656 1888566656 7.00000000
-2.97895670 -2.40285683 -0.46992818 1 8 23111 3.85600000 1888566658 1888566658 -7.00000000
-13.23206806 -10.67312050 2.69254994 28 9 23111 17.21200000 1888566660 1888566660 9.00000000
-3.91472411 -3.15652847 -0.43996218 9 10 23112 5.04800000 1888566663 1888566663 -5.00000000
-11.60004902 -9.35003567 2.89609885 29 11 23113 15.17800000 1888566665 1888566665 11.00000000
-5.73101664 -4.61774540 -0.38571599 3 12 23114 7.37000000 1888566667 1888566667 -3.00000000
-9.63107681 -7.75743198 2.85507870 43 13 23115 12.69200000 1888566670 1888566670 13.00000000
-9.87183666 -7.94851398 -0.22122671 6 14 23116 12.67600000 1888566672 1888566672 -1.00000000
-8.17062855 -6.57875109 2.81077480 35 15 23116 10.86000000 1888566674 1888566674 15.00000000
-1.48983955 -1.19615018 -0.51194406 5 0 23124 1.97800000 1888566695 1888566695 -15.00000000
-1.72672570 -1.38534844 -0.51108879 4 2 23126 2.27200000 1888566699 1888566699 -13.00000000
-45.47220230 -36.46921158 3.05484986 43 3 23127 58.37000000 1888566702 1888566702 3.00000000
-2.00019193 -1.60417604 -0.49839309 3 4 23127 2.61200000 1888566704 1888566704 -11.00000000
-29.00360680 -23.25289726 3.25230360 41 5 23128 37.31600000 1888566706 1888566706 5.00000000
-2.39229703 -1.91727686 -0.48557258 2 6 23129 3.10400000 1888566709 1888566709 -9.00000000
-20.25303650 -16.22574234 3.18639588 28 7 23130 26.14600000 1888566711 1888566711 7.00000000
-2.96718335 -2.37631202 -0.46675959 1 8 23131 3.83000000 1888566713 1888566713 -7.00000000
-13.25721931 -10.61343956 2.68973422 52 9 23132 17.19400000 1888566716 1888566716 9.00000000
-3.92571855 -3.14284444 -0.43996218 9 10 23132 5.04800000 1888566718 1888566718 -5.00000000
-11.75984001 -9.41130352 2.92777324 35 11 23133 15.34400000 1888566720 1888566720 11.00000000
-5.75489855 -4.60395050 -0.38623935 3 12 23134 7.38000000 1888566722 1888566722 -3.00000000
-9.66114044 -7.72620010 2.85597849 42 13 23135 12.69600000 1888566725 1888566725 13.00000000
-9.93857002 -7.94522285 -0.22209932 4 14 23136 12.72600000 1888566727 1888566727 -1.00000000
-8.19015884 -6.54514217 2.80922198 38 15 23137 10.85400000 1888566729 1888566729 15.00000000
-1.49702704 -1.19335079 -0.51297933 5 0 23144 1.98200000 1888566750 1888566750 -15.00000000
-1.72850251 -1.37688434 -0.51018900 4 2 23146 2.26800000 1888566755 1888566755 -13.00000000
-45.45704651 -36.19704437 3.04532456 43 3 23147 58.18800000 1888566757 1888566757 3.00000000
-2.01192260 -1.60207617 -0.49991956 3 4 23147 2.62000000 1888566759 1888566759 -11.00000000
-29.00665665 -23.08947182 3.24358821 62 5 23148 37.21600000 1888566762 1888566762 5.00000000
-2.39433765 -1.90522456 -0.48463398 2 6 23149 3.09800000 1888566764 1888566764 -9.00000000
-20.30489159 -16.15123940 3.18566465 28 7 23150 26.14000000 1888566766 1888566766 7.00000000
-2.99255157 -2.37953043 -0.46944070 3 8 23151 3.85200000 1888566769 1888566769 -7.00000000
-13.29697990 -10.57310677 2.69067287 44 9 23151 17.20000000 1888566771 1888566771 9.00000000
-3.91794896 -3.11424494 -0.43787044 6 10 23152 5.02400000 1888566773 1888566773 -5.00000000
-11.79876900 -9.37508202 2.92929959 35 11 23153 15.35200000 1888566775 1888566775 11.00000000
-5.76624250 -4.58010721 -0.38592535 3 12 23154 7.37400000 1888566778 1888566778 -3.00000000
-9.69415569 -7.69727659 2.85777831 43 13 23155 12.70400000 1888566780 1888566780 13.00000000
-10.09624481 -8.01366806 -0.22499642 2 14 23156 12.89200000 1888566782 1888566782 -1.00000000
-8.20879173 -6.51554441 2.80818653 26 15 23156 10.85000000 1888566785 1888566785 15.00000000
-1.50421309 -1.19051576 -0.51401460 5 0 23164 1.98600000 1888566805 1888566805 -15.00000000
-1.73329818 -1.37084234 -0.51018900 4 2 23166 2.26800000 1888566810 1888566810 -13.00000000
-45.64265823 -36.08522034 3.04930210 14 3 23167 58.26400000 1888566812 1888566812 3.00000000
-2.02058268 -1.59747863 -0.50068283 3 4 23167 2.62400000 1888566815 1888566815 -11.00000000
-29.00891876 -22.92630959 3.23487258 41 5 23168 37.11600000 1888566817 1888566817 5.00000000
-2.40872359 -1.90297806 -0.48619831 2 6 23169 3.10800000 1888566819 1888566819 -9.00000000
-20.34245110 -16.06550026 3.18273973 28 7 23170 26.11600000 1888566822 1888566822 7.00000000
-2.99460721 -2.36414981 -0.46846575 1 8 23171 3.84400000 1888566824 1888566824 -7.00000000
-13.31858635 -10.51083851 2.68723130 40 9 23172 17.17800000 1888566826 1888566826 9.00000000
-3.94287181 -3.11165857 -0.43943927 6 10 23172 5.04200000 1888566828 1888566828 -5.00000000
-11.82833958 -9.33140755 2.92853642 32 11 23173 15.34800000 1888566831 1888566831 11.00000000
-5.76651239 -4.54758406 -0.38487864 3 12 23174 7.35400000 1888566833 1888566833 -3.00000000
-9.71790409 -7.66097784 2.85687828 44 13 23175 12.70000000 1888566835 1888566835 13.00000000
-9.89327717 -7.79643106 -0.21986541 4 14 23176 12.59800000 1888566838 1888566838 -1.00000000
-8.23717022 -6.48900032 2.80973959 35 15 23177 10.85600000 1888566840 1888566840 15.00000000
-1.51747358 -1.19241953 -0.51712048 5 0 23184 1.99800000 1888566861 1888566861 -15.00000000
-1.73194194 -1.35996962 -0.50838935 4 2 23186 2.26000000 1888566865 1888566865 -13.00000000
-46.02914047 -36.13039017 3.06667781 14 3 23187 58.59600000 1888566868 1888566868 3.00000000
-2.02614665 -1.59041572 -0.50068283 3 4 23187 2.62400000 1888566870 1888566870 -11.00000000
-29.01353264 -22.76587296 3.22650552 62 5 23188 37.02000000 1888566872 1888566872 5.00000000
-2.41535163 -1.89455843 -0.48619831 2 6 23189 3.10800000 1888566875 1888566875 -9.00000000
-20.39059639 -15.98826981 3.18152118 28 7 23190 26.10600000 1888566877 1888566877 7.00000000
-3.01377773 -2.36225438 -0.47017193 1 8 23191 3.85800000 1888566879 1888566879 -7.00000000
-11.34313393 -8.89095592 2.28269172 21 9 23191 14.59200000 1888566881 1888566881 9.00000000
-3.96468782 -3.10647821 -0.44065943 6 10 23192 5.05600000 1888566884 1888566884 -5.00000000
-11.32297516 -8.86877728 2.79573345 32 11 23193 14.65200000 1888566886 1888566886 11.00000000
-5.77606106 -4.52250242 -0.38445994 3 12 23194 7.34600000 1888566888 1888566888 -3.00000000
-9.73844814 -7.62220526 2.85507870 42 13 23195 12.69200000 1888566891 1888566891 13.00000000
-9.86688423 -7.71995354 -0.21867865 4 14 23196 12.53000000 1888566893 1888566893 -1.00000000
-8.26625061 -6.46760130 2.81232786 38 15 23196 10.86600000 1888566895 1888566895 15.00000000
-1.50944149 -1.17760885 -0.51297933 5 0 23204 1.98200000 1888566916 1888566916 -15.00000000
-37.18066788 -28.99650764 0.82302058 11 1 23205 47.15800000 1888566918 1888566918 1.00000000
-1.74282610 -1.35870826 -0.51018900 4 2 23206 2.26800000 1888566921 1888566921 -13.00000000
-37.17068481 -28.96785736 2.46973372 32 3 23207 47.19000000 1888566923 1888566923 3.00000000
-2.02239466 -1.57609260 -0.49839309 3 4 23207 2.61200000 1888566925 1888566925 -11.00000000
-2.42662573 -1.88975692 -0.48713693 2 6 23209 3.11400000 1888566930 1888566930 -9.00000000
-20.43844986 -15.91089821 3.18030238 15 7 23210 26.09600000 1888566932 1888566932 7.00000000
-3.02043867 -2.35050082 -0.46992818 1 8 23211 3.85600000 1888566934 1888566934 -7.00000000
-13.35110188 -10.38606644 2.67909670 20 9 23212 17.12600000 1888566937 1888566937 9.00000000
-3.98808789 -3.10240650 -0.44205391 3 10 23212 5.07200000 1888566939 1888566939 -5.00000000
-11.91024399 -9.26186085 2.93273425 35 11 23213 15.37000000 1888566941 1888566941 11.00000000
-5.79969645 -4.50844145 -0.38498330 7 12 23214 7.35600000 1888566944 1888566944 -3.00000000
-9.76807308 -7.59055662 2.85597849 44 13 23215 12.69600000 1888566946 1888566946 13.00000000
-9.85902882 -7.65847683 -0.21791075 4 14 23216 12.48600000 1888566948 1888566948 -1.00000000
-8.28074551 -6.43015146 2.80922198 40 15 23217 10.85400000 1888566951 1888566951 15.00000000
-1.51354289 -1.17233276 -0.51297933 5 0 23224 1.98200000 1888566971 1888566971 -15.00000000
-37.24055099 -28.83471489 0.82211304 11 1 23225 47.10600000 1888566974 1888566974 1.00000000
-1.74447620 -1.35023081 -0.50928921 4 2 23226 2.26400000 1888566976 1888566976 -13.00000000
-37.21312714 -28.79270935 2.46586084 32 3 23227 47.11600000 1888566978 1888566978 3.00000000
-2.03720045 -1.57623196 -0.50068283 3 4 23227 2.62400000 1888566981 1888566981 -11.00000000
-28.99209595 -22.42380714 3.20663404 51 5 23228 36.79200000 1888566983 1888566983 5.00000000
-2.43477011 -1.88248312 -0.48744980 2 6 23229 3.11600000 1888566985 1888566985 -9.00000000
-20.46559143 -15.81760693 3.17591500 9 7 23230 26.06000000 1888566987 1888566987 7.00000000
-3.03333759 -2.34358406 -0.47065940 1 8 23231 3.86200000 1888566990 1888566990 -7.00000000
-15.21282196 -11.75356483 3.04484034 38 9 23231 19.46400000 1888566992 1888566992 9.00000000
-3.96893287 -3.06532764 -0.43874201 3 10 23232 5.03400000 1888566994 1888566994 -5.00000000
-11.94250107 -9.22022915 2.93273425 35 11 23233 15.37000000 1888566997 1888566997 11.00000000
-5.82172298 -4.49305010 -0.38540199 7 12 23234 7.36400000 1888566999 1888566999 -3.00000000
-9.81456757 -7.57188797 2.86182737 15 13 23235 12.72200000 1888567001 1888567001 13.00000000
-9.86511612 -7.60813999 -0.21745698 6 14 23236 12.46000000 1888567004 1888567004 -1.00000000
-8.29896355 -6.40029669 2.80818653 38 15 23236 10.85000000 1888567006 1888567006 15.00000000
-1.52068877 -1.16939759 -0.51401460 5 0 23244 1.98600000 1888567027 1888567027 -15.00000000
-37.21097183 -28.60461044 0.81925088 11 1 23245 46.94200000 1888567029 1888567029 1.00000000
-1.75535965 -1.34888279 -0.51108879 4 2 23246 2.27200000 1888567031 1888567031 -13.00000000
-37.19778061 -28.57381821 2.45821977 32 3 23247 46.97000000 1888567034 1888567034 3.00000000
-2.04269004 -1.56911123 -0.50068283 3 4 23247 2.62400000 1888567036 1888567036 -11.00000000
-28.98959923 -22.26058388 3.19774413 41 5 23248 36.69000000 1888567038 1888567038 5.00000000
-2.42722392 -1.86314750 -0.48463398 2 6 23249 3.09800000 1888567040 1888567040 -9.00000000
-17.04807091 -13.08144569 2.63847136 2 7 23250 21.65000000 1888567043 1888567043 7.00000000
-3.04307485 -2.33418965 -0.47090313 1 8 23251 3.86400000 1888567045 1888567045 -7.00000000
-15.24121857 -11.69077206 3.04233742 59 9 23251 19.44800000 1888567047 1888567047 9.00000000
-3.98435211 -3.05509162 -0.43926495 3 10 23252 5.04000000 1888567050 1888567050 -5.00000000
-11.97149658 -9.17609787 2.93197107 35 11 23253 15.36600000 1888567052 1888567052 11.00000000
-5.83420038 -4.47027159 -0.38519263 7 12 23254 7.36000000 1888567054 1888567054 -3.00000000
-8.23198128 -6.30521584 2.39392900 9 13 23255 10.64200000 1888567057 1888567057 13.00000000
-9.86620998 -7.55420685 -0.21689850 6 14 23256 12.42800000 1888567059 1888567059 -1.00000000
-8.32585526 -6.37481213 2.80973959 35 15 23256 10.85600000 1888567061 1888567061 15.00000000
-1.52936792 -1.16759920 -0.51556754 4 0 23264 1.99200000 1888567082 1888567082 -15.00000000
-37.22157288 -28.40660667 0.81729621 11 1 23265 46.83000000 1888567084 1888567084 1.00000000
-1.74456394 -1.33092737 -0.50658977 4 2 23266 2.25200000 1888567087 1888567087 -13.00000000
-37.18771362 -28.36023140 2.45099759 42 3 23267 46.83200000 1888567089 1888567089 3.00000000
-2.04815483 -1.56197131 -0.50068283 3 4 23267 2.62400000 1888567091 1888567091 -11.00000000
-28.98948860 -22.10006905 3.18920302 41 5 23268 36.59200000 1888567093 1888567093 5.00000000
-2.43842602 -1.85825551 -0.48557258 2 6 23269 3.10400000 1888567096 1888567096 -9.00000000
-17.05257416 -12.99058056 2.63213396 2 7 23270 21.59800000 1888567098 1888567098 7.00000000
-3.04330754 -2.31753993 -0.46968445 1 8 23271 3.85400000 1888567100 1888567100 -7.00000000
-15.28710842 -11.63722515 3.04296327 46 9 23272 19.45200000 1888567103 1888567103 9.00000000
-3.99974799 -3.04478550 -0.43978786 6 10 23272 5.04600000 1888567105 1888567105 -5.00000000
-12.01439095 -9.14257526 2.93464231 35 11 23273 15.38000000 1888567107 1888567107 11.00000000
-5.85612774 -4.45471621 -0.38561133 3 12 23274 7.36800000 1888567110 1888567110 -3.00000000
-8.26324844 -6.28351974 2.39662862 13 13 23275 10.65400000 1888567112 1888567112 13.00000000
-9.87341499 -7.50519991 -0.21647964 20 14 23276 12.40400000 1888567114 1888567114 -1.00000000
-8.35267067 -6.34921789 2.81129241 38 15 23276 10.86200000 1888567116 1888567116 15.00000000
-1.52727592 -1.15758586 -0.51349699 4 0 23284 1.98400000 1888567137 1888567137 -15.00000000
-37.25037384 -28.22337151 0.81576037 11 1 23285 46.74200000 1888567140 1888567140 1.00000000
-1.75230598 -1.32718277 -0.50748956 4 2 23286 2.25600000 1888567142 1888567142 -13.00000000
-37.24030685 -28.19528580 2.44796205 10 3 23287 46.77400000 1888567144 1888567144 3.00000000
-2.05046415 -1.55244231 -0.49991956 3 4 23287 2.62000000 1888567146 1888567146 -11.00000000
-28.99178696 -21.94223022 3.18101025 31 5 23288 36.49800000 1888567149 1888567149 5.00000000
-2.46695232 -1.86641824 -0.48995274 2 6 23289 3.13200000 1888567151 1888567151 -9.00000000
-20.72035599 -15.67068195 3.18980813 9 7 23290 26.17400000 1888567153 1888567153 7.00000000
-3.03712749 -2.29612827 -0.46749079 1 8 23291 3.83600000 1888567156 1888567156 -7.00000000
-15.33078861 -11.58617401 3.04358888 51 9 23292 19.45600000 1888567158 1888567158 9.00000000
-3.99922514 -3.02239633 -0.43856770 6 10 23292 5.03200000 1888567160 1888567160 -5.00000000
-12.05093098 -9.10413170 2.93578720 32 11 23293 15.38600000 1888567163 1888567163 11.00000000
-5.86845398 -4.43183994 -0.38540199 3 12 23294 7.36400000 1888567165 1888567165 -3.00000000
-8.31312656 -6.27577209 2.40472674 15 13 23295 10.69000000 1888567167 1888567167 13.00000000
-9.86603260 -7.44539404 -0.21574664 20 14 23296 12.36200000 1888567169 1888567169 -1.00000000
-8.38976574 -6.32903194 2.81595111 21 15 23297 10.88000000 1888567172 1888567172 15.00000000
-1.52822006 -1.14992452 -0.51246172 5 0 23304 1.98000000 1888567193 1888567193 -15.00000000
-37.51806259 -28.22058868 0.81946027 11 1 23305 46.95400000 1888567195 1888567195 1.00000000
-1.76938856 -1.33042717 -0.51108879 4 2 23306 2.27200000 1888567197 1888567197 -13.00000000
-37.55083847 -28.22472572 2.46188331 10 3 23307 47.04000000 1888567199 1888567199 3.00000000
-2.04331589 -1.53583860 -0.49686661 3 4 23307 2.60400000 1888567202 1888567202 -11.00000000
-22.83532143 -17.15771103 2.49892950 9 5 23308 28.67200000 1888567204 1888567204 5.00000000
-2.46397543 -1.85067761 -0.48807552 2 6 23309 3.12000000 1888567206 1888567206 -9.00000000
-20.71936989 -15.55654240 3.18127728 15 7 23310 26.10400000 1888567209 1888567209 7.00000000
-3.05147457 -2.29027915 -0.46846575 1 8 23311 3.84400000 1888567211 1888567211 -7.00000000
-15.35849762 -11.52310467 3.04108596 42 9 23312 19.44000000 1888567213 1888567213 9.00000000
-4.01931334 -3.01559234 -0.43961358 6 10 23312 5.04400000 1888567216 1888567216 -5.00000000
-12.08420753 -9.06318951 2.93616891 35 11 23313 15.38800000 1888567218 1888567218 11.00000000
-5.88708448 -4.41372442 -0.38561133 3 12 23314 7.36800000 1888567220 1888567220 -3.00000000
-8.36773014 -6.27125835 2.41417480 14 13 23315 10.73200000 1888567222 1888567222 13.00000000
-9.85675335 -7.38453197 -0.21497874 20 14 23316 12.31800000 1888567225 1888567225 -1.00000000
-1.53686786 -1.14805150 -0.51401460 5 0 23324 1.98600000 1888567248 1888567248 -15.00000000
-37.78618240 -28.21627998 0.82316023 11 1 23325 47.16600000 1888567250 1888567250 1.00000000
-1.77402186 -1.32424271 -0.51108879 4 2 23326 2.27200000 1888567252 1888567252 -13.00000000
-37.80920792 -28.21292114 2.47235060 10 3 23327 47.24000000 1888567255 1888567255 3.00000000
-2.05181146 -1.53104496 -0.49762985 3 4 23327 2.60800000 1888567257 1888567257 -11.00000000
-22.80883408 -17.01356888 2.48951674 8 5 23328 28.56400000 1888567259 1888567259 5.00000000
-2.46725321 -1.83970380 -0.48744980 2 6 23329 3.11600000 1888567262 1888567262 -9.00000000
-20.71784019 -15.44260216 3.17274642 25 7 23330 26.03400000 1888567264 1888567264 7.00000000
-3.04671597 -2.27012515 -0.46651584 1 8 23331 3.82800000 1888567266 1888567266 -7.00000000
-15.38753796 -11.46116352 3.03889585 51 9 23332 19.42600000 1888567269 1888567269 9.00000000
-4.01703215 -2.99202275 -0.43821907 6 10 23332 5.02800000 1888567271 1888567271 -5.00000000
-12.12049389 -9.02446938 2.93731356 32 11 23333 15.39400000 1888567273 1888567273 11.00000000
-5.90565968 -4.39553308 -0.38582066 3 12 23334 7.37200000 1888567275 1888567275 -3.00000000
-8.43491077 -6.27574539 2.42722178 12 13 23335 10.79000000 1888567278 1888567278 13.00000000
-9.86482048 -7.33695316 -0.21459480 20 14 23336 12.29600000 1888567280 1888567280 -1.00000000
-7.42972422 -5.52585220 2.48103929 2 15 23336 9.58600000 1888567282 1888567282 15.00000000
-1.53621078 -1.13922763 -0.51246172 4 0 23344 1.98000000 1888567303 1888567303 -15.00000000
-1.77080500 -1.31224096 -0.50883931 4 2 23346 2.26200000 1888567308 1888567308 -13.00000000
-38.07586288 -28.21581459 2.48365521 10 3 23346 47.45600000 1888567310 1888567310 3.00000000
-2.06660867 -1.53088510 -0.49991956 3 4 23347 2.62000000 1888567312 1888567312 -11.00000000
-28.87731934 -21.38369560 3.14370775 10 5 23348 36.07000000 1888567315 1888567315 5.00000000
-2.46413374 -1.82402861 -0.48557258 2 6 23349 3.10400000 1888567317 1888567317 -9.00000000
-20.71417236 -15.32768059 3.16397190 37 7 23350 25.96200000 1888567319 1888567319 7.00000000
-3.06579328 -2.26773977 -0.46822202 1 8 23351 3.84200000 1888567321 1888567321 -7.00000000
-15.41751862 -11.40420055 3.03733158 42 9 23351 19.41600000 1888567324 1888567324 9.00000000
-4.04667616 -2.99219728 -0.44031081 9 10 23352 5.05200000 1888567326 1888567326 -5.00000000
-12.14087009 -8.97393703 2.93464231 35 11 23353 15.38000000 1888567328 1888567328 11.00000000
-5.91132879 -4.36777020 -0.38519263 3 12 23354 7.36000000 1888567331 1888567331 -3.00000000
-8.50692558 -6.28331327 2.44161868 14 13 23355 10.85400000 1888567333 1888567333 13.00000000
-9.85658836 -7.27753067 -0.21386179 6 14 23356 12.25400000 1888567335 1888567335 -1.00000000
-7.48471260 -5.52627563 2.49294496 2 15 23356 9.63200000 1888567338 1888567338 15.00000000
-1.54795671 -1.13958490 -0.51504987 5 0 23364 1.99000000 1888567358 1888567358 -15.00000000
-1.77066553 -1.30258739 -0.50748956 4 2 23366 2.25600000 1888567363 1888567363 -13.00000000
-59.43106842 -43.70438766 3.86616182 18 3 23367 73.87200000 1888567365 1888567365 3.00000000
-2.07193971 -1.52366197 -0.49991956 3 4 23367 2.62000000 1888567368 1888567368 -11.00000000
-28.56651115 -20.99954605 3.10187292 30 5 23368 35.59000000 1888567370 1888567370 5.00000000
-2.46411848 -1.81073725 -0.48432112 2 6 23369 3.09600000 1888567372 1888567372 -9.00000000
-20.71635437 -15.21767521 3.15617228 40 7 23370 25.89800000 1888567374 1888567374 7.00000000
-3.08489084 -2.26524878 -0.46992818 1 8 23371 3.85600000 1888567377 1888567377 -7.00000000
-15.44010448 -11.33358860 3.03357720 42 9 23372 19.39200000 1888567379 1888567379 9.00000000
-4.06994486 -2.98748517 -0.44170532 9 10 23372 5.06800000 1888567381 1888567381 -5.00000000
-12.17528629 -8.93382645 2.93540549 35 11 23373 15.38400000 1888567384 1888567384 11.00000000
-5.93298101 -4.35183430 -0.38561133 3 12 23374 7.36800000 1888567386 1888567386 -3.00000000
-9.97463417 -7.31370401 2.85552859 28 13 23375 12.69400000 1888567388 1888567388 13.00000000
-9.86902905 -7.23362303 -0.21358255 6 14 23376 12.23800000 1888567391 1888567391 -1.00000000
-8.46017361 -6.19871616 2.81025720 35 15 23377 10.85800000 1888567393 1888567393 15.00000000
-1.55192518 -1.13417459 -0.51504987 4 0 23384 1.99000000 1888567414 1888567414 -15.00000000
-1.78149676 -1.30099583 -0.50928921 4 2 23386 2.26400000 1888567418 1888567418 -13.00000000
-28.88942528 -21.09744072 1.87477863 7 3 23386 35.82200000 1888567421 1888567421 3.00000000
-2.06773162 -1.50947487 -0.49762985 3 4 23387 2.60800000 1888567423 1888567423 -11.00000000
-28.61710739 -20.88325882 3.09943247 30 5 23388 35.56200000 1888567425 1888567425 5.00000000
-2.47042418 -1.80212474 -0.48432112 2 6 23389 3.09600000 1888567427 1888567427 -9.00000000
-20.71481323 -15.10550213 3.14788508 40 7 23390 25.83000000 1888567430 1888567430 7.00000000
-3.08636260 -2.24978948 -0.46895322 1 8 23391 3.84800000 1888567432 1888567432 -7.00000000
-15.45083523 -11.25868416 3.02794552 46 9 23392 19.35600000 1888567434 1888567434 9.00000000
-4.07390738 -2.96856689 -0.44100806 9 10 23392 5.06000000 1888567437 1888567437 -5.00000000
-12.21909237 -8.90051937 2.93845844 35 11 23393 15.40000000 1888567439 1888567439 11.00000000
-5.94167757 -4.32639503 -0.38519263 3 12 23394 7.36000000 1888567441 1888567441 -3.00000000
-9.99537563 -7.27540112 2.85417891 42 13 23395 12.68800000 1888567444 1888567444 13.00000000
-9.87481499 -7.18501139 -0.21316369 9 14 23396 12.21400000 1888567446 1888567446 -1.00000000
-8.48693085 -6.17517376 2.81232786 40 15 23396 10.86600000 1888567448 1888567448 15.00000000
-1.54961991 -1.12421274 -0.51297933 4 0 23404 1.98200000 1888567469 1888567469 -15.00000000
-28.95246506 -20.99661827 0.62427258 8 1 23405 35.77000000 1888567471 1888567471 1.00000000
-1.78444946 -1.29362547 -0.50883931 4 2 23406 2.26200000 1888567473 1888567473 -13.00000000
-28.93055153 -20.97302437 1.87268519 50 3 23406 35.78200000 1888567476 1888567476 3.00000000
-2.07616758 -1.50455201 -0.49839309 3 4 23407 2.61200000 1888567478 1888567478 -11.00000000
-28.76889229 -20.84051323 3.10797381 30 5 23408 35.66000000 1888567480 1888567480 5.00000000
-2.48789930 -1.80160046 -0.48651120 2 6 23409 3.11000000 1888567483 1888567483 -9.00000000
-20.72239113 -15.00051022 3.14106035 21 7 23410 25.77400000 1888567485 1888567485 7.00000000
-3.09258890 -2.23783851 -0.46870950 1 8 23411 3.84600000 1888567487 1888567487 -7.00000000
-15.48203850 -11.19889355 3.02638125 46 9 23412 19.34600000 1888567490 1888567490 9.00000000
-4.07778788 -2.94965720 -0.44031081 9 10 23412 5.05200000 1888567492 1888567492 -5.00000000
-12.25008678 -8.85781193 2.93845844 35 11 23413 15.40000000 1888567494 1888567494 11.00000000
-5.94055653 -4.29392862 -0.38414592 3 12 23414 7.34000000 1888567497 1888567497 -3.00000000
-10.02387047 -7.24274921 2.85507870 42 13 23415 12.69200000 1888567499 1888567499 13.00000000
-9.86579323 -7.12590981 -0.21243069 9 14 23416 12.17200000 1888567501 1888567501 -1.00000000
-8.50060463 -6.13985538 2.80973959 38 15 23416 10.85600000 1888567503 1888567503 15.00000000
-1.55353475 -1.11879671 -0.51297933 4 0 23424 1.98200000 1888567524 1888567524 -15.00000000
-28.96228600 -20.84986305 0.62291127 8 1 23425 35.69200000 1888567526 1888567526 1.00000000
-1.79686284 -1.29308009 -0.51108879 4 2 23426 2.27200000 1888567529 1888567529 -13.00000000
-28.93913269 -20.81786156 1.86828899 29 3 23427 35.69800000 1888567531 1888567531 3.00000000
-2.08140683 -1.49729562 -0.49839309 3 4 23427 2.61200000 1888567533 1888567533 -11.00000000
-28.83337593 -20.73414803 3.10710216 10 5 23428 35.65000000 1888567536 1888567536 5.00000000
-2.49096489 -1.79059911 -0.48588544 2 6 23429 3.10600000 1888567538 1888567538 -9.00000000
-20.71659279 -14.88638210 3.13228583 37 7 23430 25.70200000 1888567540 1888567540 7.00000000
-3.09393263 -2.22239733 -0.46773455 1 8 23431 3.83800000 1888567543 1888567543 -7.00000000
-15.52711201 -11.15325356 3.02794552 42 9 23431 19.35600000 1888567545 1888567545 9.00000000
-4.07025671 -2.92262220 -0.43839338 9 10 23432 5.03000000 1888567547 1888567547 -5.00000000
-12.26817226 -8.80583954 2.93540549 35 11 23433 15.38400000 1888567550 1888567550 11.00000000
-6.00094604 -4.30576754 -0.38707674 3 12 23434 7.39600000 1888567552 1888567552 -3.00000000
-10.04750729 -7.20657921 2.85462880 22 13 23435 12.69000000 1888567554 1888567554 13.00000000
-9.86460495 -7.07278490 -0.21187222 6 14 23436 12.14000000 1888567556 1888567556 -1.00000000
-1.56214535 -1.11673748 -0.51453227 4 0 23444 1.98800000 1888567579 1888567579 -15.00000000
-28.93076324 -20.67422867 0.62067741 8 1 23445 35.56400000 1888567582 1888567582 1.00000000
-1.79343700 -1.28113627 -0.50883931 4 2 23446 2.26200000 1888567584 1888567584 -13.00000000
-28.93324852 -20.66837692 1.86347401 28 3 23446 35.60600000 1888567586 1888567586 3.00000000
-2.09301138 -1.49458468 -0.49991956 3 4 23447 2.62000000 1888567589 1888567589 -11.00000000
-28.48881721 -20.33588219 3.06230426 10 5 23448 35.13600000 1888567591 1888567591 5.00000000
-2.50041604 -1.78418791 -0.48651120 2 6 23449 3.11000000 1888567593 1888567593 -9.00000000
-20.70701790 -14.77017212 3.12302375 40 7 23450 25.62600000 1888567596 1888567596 7.00000000
-3.09682250 -2.20812654 -0.46700332 1 8 23451 3.83200000 1888567598 1888567598 -7.00000000
-15.54858398 -11.08250999 3.02419114 42 9 23452 19.33200000 1888567600 1888567600 9.00000000
-4.08854580 -2.91417885 -0.43926495 9 10 23452 5.04000000 1888567603 1888567603 -5.00000000
-12.30203342 -8.76523972 2.93616891 35 11 23453 15.38800000 1888567605 1888567605 11.00000000
-5.99316406 -4.26857281 -0.38561133 3 12 23454 7.36800000 1888567607 1888567607 -3.00000000
-8.80896282 -6.27178097 2.49650669 7 13 23455 11.09800000 1888567609 1888567609 13.00000000
-9.92344666 -7.06265783 -0.21260521 6 14 23456 12.18200000 1888567612 1888567612 -1.00000000
-7.58725739 -5.39796448 2.49501562 40 15 23457 9.64000000 1888567614 1888567614 15.00000000
-1.56465220 -1.10988665 -0.51401460 4 0 23465 1.98600000 1888567635 1888567635 -15.00000000
-28.93620110 -20.51831627 0.61917645 8 1 23466 35.47800000 1888567637 1888567637 1.00000000
-1.79494095 -1.27230048 -0.50793946 4 2 23467 2.25800000 1888567639 1888567639 -13.00000000
-28.91430092 -20.49520302 1.85740304 49 3 23467 35.49000000 1888567642 1888567642 3.00000000
-2.10488296 -1.49144351 -0.50144607 3 4 23468 2.62800000 1888567644 1888567644 -11.00000000
-28.74850845 -20.36261177 3.08217573 10 5 23469 35.36400000 1888567646 1888567646 5.00000000
-2.51016307 -1.77729440 -0.48713693 1 6 23470 3.11400000 1888567649 1888567649 -9.00000000
-20.70106316 -14.65174580 3.11400557 37 7 23471 25.55200000 1888567651 1888567651 7.00000000
-3.10489488 -2.19676137 -0.46700332 1 8 23472 3.83200000 1888567653 1888567653 -7.00000000
-15.58072376 -11.02360439 3.02293968 46 9 23472 19.32400000 1888567656 1888567656 9.00000000
-4.10570621 -2.90377569 -0.43996218 9 10 23473 5.04800000 1888567658 1888567658 -5.00000000
-12.34369564 -8.72689247 2.93845844 35 11 23474 15.40000000 1888567660 1888567660 11.00000000
-6.00224447 -4.24196720 -0.38519263 3 12 23475 7.36000000 1888567662 1888567662 -3.00000000
-9.99663544 -7.05969238 -0.21361746 2 14 23477 12.24000000 1888567667 1888567667 -1.00000000
-7.59278727 -5.36009216 2.49035692 40 15 23478 9.62200000 1888567669 1888567669 15.00000000
-1.56693733 -1.10330606 -0.51349699 4 0 23485 1.98400000 1888567690 1888567690 -15.00000000
-28.93079185 -20.36308861 0.61753595 7 1 23486 35.38400000 1888567692 1888567692 1.00000000
-1.80734003 -1.27163410 -0.51018900 4 2 23487 2.26800000 1888567695 1888567695 -13.00000000
-28.91379356 -20.34358025 1.85279751 28 3 23487 35.40200000 1888567697 1888567697 3.00000000
-2.09722948 -1.47505152 -0.49839309 3 4 23488 2.61200000 1888567699 1888567699 -11.00000000
-28.79822350 -20.24724007 3.07990956 10 5 23489 35.33800000 1888567702 1888567702 5.00000000
-2.53412938 -1.78101587 -0.49057847 2 6 23490 3.13600000 1888567704 1888567704 -9.00000000
-20.70172691 -14.54402065 3.10644960 39 7 23491 25.49000000 1888567706 1888567706 7.00000000
-3.11416841 -2.18705058 -0.46724707 1 8 23492 3.83400000 1888567709 1888567709 -7.00000000
-15.61910820 -10.96915054 3.02293968 42 9 23492 19.32400000 1888567711 1888567711 9.00000000
-4.11907864 -2.89171600 -0.44031081 9 10 23493 5.05200000 1888567713 1888567713 -5.00000000
-12.37568951 -8.68487930 2.93884015 35 11 23494 15.40200000 1888567715 1888567715 11.00000000
-6.02028561 -4.22328377 -0.38540199 3 12 23495 7.36400000 1888567718 1888567718 -3.00000000
-10.13802147 -7.10927200 2.85867810 39 13 23496 12.70800000 1888567720 1888567720 13.00000000
-10.87924290 -7.62622023 -0.23190758 2 14 23497 13.28800000 1888567722 1888567722 -1.00000000
-7.63043642 -5.34685946 2.49656844 40 15 23498 9.64600000 1888567725 1888567725 15.00000000
-1.57533717 -1.10142469 -0.51504987 4 0 23504 1.99000000 1888567745 1888567745 -15.00000000
-29.05552483 -20.30713463 0.61875761 7 1 23505 35.45400000 1888567748 1888567748 1.00000000
-1.80835199 -1.26340163 -0.50928921 4 2 23506 2.26400000 1888567750 1888567750 -13.00000000
-29.05477333 -20.29906082 1.85750771 7 3 23506 35.49200000 1888567752 1888567752 3.00000000
-2.10210943 -1.46808875 -0.49839309 3 4 23507 2.61200000 1888567755 1888567755 -11.00000000
-28.98936653 -20.23830986 3.09315729 30 5 23508 35.49000000 1888567757 1888567757 5.00000000
-2.53354168 -1.76808071 -0.48932701 2 6 23509 3.12800000 1888567759 1888567759 -9.00000000
-18.95244598 -13.22140980 2.83736205 16 7 23510 23.28200000 1888567761 1888567761 7.00000000
-3.11326241 -2.17103434 -0.46602836 1 8 23511 3.82400000 1888567764 1888567764 -7.00000000
-15.66673946 -10.92520428 3.02512980 46 9 23511 19.33800000 1888567766 1888567766 9.00000000
-4.11556959 -2.86892581 -0.43891633 9 10 23512 5.03600000 1888567768 1888567768 -5.00000000
-12.40764332 -8.64603710 2.93960333 35 11 23513 15.40600000 1888567771 1888567771 11.00000000
-6.03097963 -4.20101309 -0.38519263 3 12 23514 7.36000000 1888567773 1888567773 -3.00000000
-10.15834236 -7.07338667 2.85777831 37 13 23515 12.70400000 1888567775 1888567775 13.00000000
-10.89626598 -7.58438969 -0.23173305 2 14 23516 13.27800000 1888567778 1888567778 -1.00000000
-7.63292599 -5.31292868 2.49190974 42 15 23516 9.62800000 1888567780 1888567780 15.00000000
-1.57282376 -1.09151340 -0.51297933 5 0 23524 1.98200000 1888567801 1888567801 -15.00000000
-29.28725243 -20.31728935 0.62217832 8 1 23525 35.65000000 1888567803 1888567803 1.00000000
-1.83196747 -1.27040756 -0.51468801 4 2 23526 2.28800000 1888567805 1888567805 -13.00000000
-29.28301239 -20.30677986 1.86755621 7 3 23526 35.68400000 1888567808 1888567808 3.00000000
-2.11367512 -1.46521604 -0.49991956 3 4 23527 2.62000000 1888567810 1888567810 -11.00000000
-2.52670717 -1.75022757 -0.48682407 2 6 23529 3.11200000 1888567814 1888567814 -9.00000000
-19.02296257 -13.17212391 2.84101820 30 7 23530 23.31200000 1888567817 1888567817 7.00000000
-3.13714409 -2.17145157 -0.46846575 3 8 23531 3.84400000 1888567819 1888567819 -7.00000000
-15.69990826 -10.86707783 3.02419114 42 9 23531 19.33200000 1888567821 1888567821 9.00000000
-4.12883568 -2.85680962 -0.43926495 9 10 23532 5.04000000 1888567824 1888567824 -5.00000000
-12.43128967 -8.59820652 2.93807697 26 11 23533 15.39800000 1888567826 1888567826 11.00000000
-6.02917862 -4.16857719 -0.38414592 3 12 23534 7.34000000 1888567828 1888567828 -3.00000000
-10.17976475 -7.03566837 2.85687828 36 13 23535 12.70000000 1888567831 1888567831 13.00000000
-10.92925549 -7.55085468 -0.23187268 4 14 23536 13.28600000 1888567833 1888567833 -1.00000000
-7.64916849 -5.28272104 2.49087453 42 15 23537 9.62400000 1888567835 1888567835 15.00000000
-1.58158720 -1.08902812 -0.51453227 4 0 23545 1.98800000 1888567856 1888567856 -15.00000000
-29.47353172 -20.28690720 0.62455183 8 1 23546 35.78600000 1888567858 1888567858 1.00000000
-1.81734633 -1.25042903 -0.50928921 4 2 23547 2.26400000 1888567861 1888567861 -13.00000000
-29.50229073 -20.29152870 1.87655807 21 3 23548 35.85600000 1888567863 1888567863 3.00000000
-2.11256099 -1.45300889 -0.49839309 3 4 23548 2.61200000 1888567865 1888567865 -11.00000000
-28.14016533 -19.34743309 2.98769879 10 5 23549 34.28000000 1888567867 1888567867 5.00000000
-2.52984929 -1.73871720 -0.48619831 2 6 23550 3.10800000 1888567870 1888567870 -9.00000000
-19.06293297 -13.09669209 2.83979940 30 7 23551 23.30200000 1888567872 1888567872 7.00000000
-3.15162730 -2.16443396 -0.46944070 1 8 23552 3.85200000 1888567874 1888567874 -7.00000000
-15.73311901 -10.80498886 3.02293968 42 9 23552 19.32400000 1888567877 1888567877 9.00000000
-4.14584923 -2.84616804 -0.43996218 6 10 23553 5.04800000 1888567879 1888567879 -5.00000000
-12.43682003 -8.53481197 2.93197107 39 11 23554 15.36600000 1888567881 1888567881 11.00000000
-6.05759287 -4.15548944 -0.38498330 3 12 23555 7.35600000 1888567884 1888567884 -3.00000000
-10.21191216 -7.00271893 2.85867810 38 13 23556 12.70800000 1888567886 1888567886 13.00000000
-10.95355797 -7.50848532 -0.23180287 4 14 23557 13.28200000 1888567888 1888567888 -1.00000000
-7.67074871 -5.25817299 2.49190974 42 15 23557 9.62800000 1888567891 1888567891 15.00000000
-1.58856893 -1.08568084 -0.51556754 5 0 23565 1.99200000 1888567911 1888567911 -15.00000000
-29.70763206 -20.29557800 0.62800741 8 1 23566 35.98400000 1888567914 1888567914 1.00000000
-1.82170010 -1.24407768 -0.50928921 4 2 23567 2.26400000 1888567916 1888567916 -13.00000000
-29.71480179 -20.28526688 1.88555980 7 3 23568 36.02800000 1888567918 1888567918 3.00000000
-2.12086296 -1.44783962 -0.49915633 3 4 23568 2.61600000 1888567920 1888567920 -11.00000000
-29.00734520 -19.79488945 3.07241416 40 5 23569 35.25200000 1888567923 1888567923 5.00000000
-2.53263950 -1.72764945 -0.48557258 2 6 23570 3.10400000 1888567925 1888567925 -9.00000000
-19.08393097 -13.01329517 2.83614326 33 7 23571 23.27200000 1888567927 1888567927 7.00000000
-3.15424252 -2.15006542 -0.46870950 1 8 23572 3.84600000 1888567930 1888567930 -7.00000000
-15.76935005 -10.74502659 3.02231383 46 9 23573 19.32000000 1888567932 1888567932 9.00000000
-4.16893053 -2.84065437 -0.44135669 6 10 23573 5.06400000 1888567934 1888567934 -5.00000000
-12.44868755 -8.47918987 2.92777324 48 11 23574 15.34400000 1888567937 1888567937 11.00000000
-6.06215572 -4.12757492 -0.38435528 3 12 23575 7.34400000 1888567939 1888567939 -3.00000000
-10.23468304 -6.96593380 2.85822821 34 13 23576 12.70600000 1888567941 1888567941 13.00000000
-10.98962116 -7.47695351 -0.23201229 4 14 23577 13.29400000 1888567944 1888567944 -1.00000000
-7.69316435 -5.23219585 2.49294496 42 15 23578 9.63200000 1888567946 1888567946 15.00000000
-1.60335028 -1.08800018 -0.51919103 4 0 23584 2.00600000 1888567967 1888567967 -15.00000000
-29.93529510 -20.30583954 0.63139313 8 1 23585 36.17800000 1888567969 1888567969 1.00000000
-1.82097685 -1.23474896 -0.50793946 4 2 23586 2.25800000 1888567971 1888567971 -13.00000000
-29.91086197 -20.27402306 1.89372420 7 3 23587 36.18400000 1888567973 1888567973 3.00000000
-2.12240219 -1.43859553 -0.49839309 3 4 23587 2.61200000 1888567976 1888567976 -11.00000000
-29.03654099 -19.67400169 3.06857944 40 5 23588 35.20800000 1888567978 1888567978 5.00000000
-2.54489684 -1.72367251 -0.48682407 2 6 23589 3.11200000 1888567980 1888567980 -9.00000000
-19.11711693 -12.94326115 2.83468103 30 7 23590 23.26000000 1888567983 1888567983 7.00000000
-3.13669562 -2.12290430 -0.46505341 1 8 23591 3.81600000 1888567985 1888567985 -7.00000000
-15.79812145 -10.69211197 3.02137518 46 9 23591 19.31400000 1888567987 1888567987 9.00000000
-4.17007685 -2.82123184 -0.44048512 3 10 23592 5.05400000 1888567990 1888567990 -5.00000000
-12.45071697 -8.42026520 2.92166734 48 11 23593 15.31200000 1888567992 1888567992 11.00000000
-6.07911921 -4.10968637 -0.38456461 3 12 23594 7.34800000 1888567994 1888567994 -3.00000000
-10.25611210 -6.93086481 2.85777831 31 13 23595 12.70400000 1888567997 1888567997 13.00000000
-11.00109863 -7.43151474 -0.23173305 4 14 23596 13.27800000 1888567999 1888567999 -1.00000000
-7.71116447 -5.20908260 2.49346256 40 15 23596 9.63400000 1888568001 1888568001 15.00000000
-1.59271741 -1.07268441 -0.51453227 5 0 23604 1.98800000 1888568022 1888568022 -15.00000000
-1.82850921 -1.23056102 -0.50883931 4 2 23606 2.26200000 1888568026 1888568026 -13.00000000
-53.64080811 -36.08591080 3.38812518 48 3 23607 64.73800000 1888568029 1888568029 3.00000000
-2.12741089 -1.43117821 -0.49839309 3 4 23607 2.61200000 1888568031 1888568031 -11.00000000
-29.04386711 -19.53138733 3.06212997 40 5 23608 35.13400000 1888568033 1888568033 5.00000000
-2.55745554 -1.71918678 -0.48807552 2 6 23609 3.12000000 1888568036 1888568036 -9.00000000
-19.16218185 -12.87645149 2.83468103 30 7 23610 23.26000000 1888568038 1888568038 7.00000000
-3.14903021 -2.11526275 -0.46578464 1 8 23611 3.82200000 1888568040 1888568040 -7.00000000
-15.81916428 -10.62202358 3.01793361 42 9 23612 19.29200000 1888568043 1888568043 9.00000000
-4.16832066 -2.79888368 -0.43926495 3 10 23612 5.04000000 1888568045 1888568045 -5.00000000
-6.09342766 -4.08844137 -0.38456461 3 12 23614 7.34800000 1888568049 1888568049 -3.00000000
-10.27862453 -6.89393663 2.85732818 37 13 23615 12.70200000 1888568052 1888568052 13.00000000
-11.04026031 -7.40197706 -0.23201229 4 14 23616 13.29400000 1888568054 1888568054 -1.00000000
-7.72539091 -5.17755795 2.49190974 40 15 23617 9.62800000 1888568056 1888568056 15.00000000
-1.59163380 -1.06389761 -0.51297933 5 0 23624 1.98200000 1888568077 1888568077 -15.00000000
-1.83765507 -1.22741795 -0.51018900 4 2 23626 2.26800000 1888568082 1888568082 -13.00000000
-53.77807236 -35.90621185 3.38885784 16 3 23627 64.75200000 1888568084 1888568084 3.00000000
-2.14219022 -1.43028438 -0.50068283 3 4 23627 2.62400000 1888568086 1888568086 -11.00000000
-29.10026741 -19.42214394 3.06090975 40 5 23628 35.12000000 1888568089 1888568089 5.00000000
-2.55358171 -1.70367122 -0.48619831 2 6 23629 3.10800000 1888568091 1888568091 -9.00000000
-19.21031380 -12.81168747 2.83516836 33 7 23630 23.26400000 1888568093 1888568093 7.00000000
-3.17951846 -2.11967349 -0.46919698 1 8 23631 3.85000000 1888568096 1888568096 -7.00000000
-15.85101414 -10.56731510 3.01730800 46 9 23631 19.28800000 1888568098 1888568098 9.00000000
-4.18801308 -2.79094577 -0.44031081 3 10 23632 5.05200000 1888568100 1888568100 -5.00000000
-10.27727985 -6.84632158 2.40037727 3 11 23633 12.58000000 1888568102 1888568102 11.00000000
-6.13758516 -4.08707285 -0.38644871 3 12 23634 7.38400000 1888568105 1888568105 -3.00000000
-10.30587006 -6.86017513 2.85822821 35 13 23635 12.70600000 1888568107 1888568107 13.00000000
-11.06270123 -7.36117840 -0.23194247 4 14 23636 13.29000000 1888568109 1888568109 -1.00000000
-7.74412584 -5.15298176 2.49242735 40 15 23636 9.63000000 1888568112 1888568112 15.00000000
-1.59533775 -1.05833530 -0.51297933 5 0 23644 1.98200000 1888568132 1888568132 -15.00000000
-1.83867979 -1.21884251 -0.50928921 4 2 23646 2.26400000 1888568137 1888568137 -13.00000000
-2.14716983 -1.42279804 -0.50068283 3 4 23647 2.62400000 1888568142 1888568142 -11.00000000
-29.14629173 -19.30614471 3.05864358 40 5 23648 35.09400000 1888568144 1888568144 5.00000000
-2.55951309 -1.69474721 -0.48619831 2 6 23649 3.10800000 1888568146 1888568146 -9.00000000
-19.24333191 -12.73688316 2.83346224 30 7 23650 23.25000000 1888568149 1888568149 7.00000000
-3.19186473 -2.11184812 -0.46992818 1 8 23651 3.85600000 1888568151 1888568151 -7.00000000
-15.90940952 -10.52222443 3.02106237 42 9 23652 19.31200000 1888568153 1888568153 9.00000000
-4.19108248 -2.77191353 -0.43961358 3 10 23652 5.04400000 1888568155 1888568155 -5.00000000
-10.32240486 -6.82448101 2.40533829 6 11 23653 12.60600000 1888568158 1888568158 11.00000000
-6.11515665 -4.04139709 -0.38414592 3 12 23654 7.34000000 1888568160 1888568160 -3.00000000
-10.33300591 -6.82630730 2.85912800 43 13 23655 12.71000000 1888568162 1888568162 13.00000000
-11.11169052 -7.33794498 -0.23243114 4 14 23656 13.31800000 1888568165 1888568165 -1.00000000
-7.76457262 -5.12562752 2.49294496 42 15 23657 9.63200000 1888568167 1888568167 15.00000000
-1.60547650 -1.05700934 -0.51504987 5 0 23664 1.99000000 1888568188 1888568188 -15.00000000
-1.84292316 -1.21241689 -0.50928921 4 2 23666 2.26400000 1888568192 1888568192 -13.00000000
-59.31903839 -39.00979996 3.72077250 17 3 23667 71.09400000 1888568195 1888568195 3.00000000
-2.15540385 -1.41745186 -0.50144607 3 4 23667 2.62800000 1888568197 1888568197 -11.00000000
-29.21850014 -19.20757103 3.05916667 40 5 23668 35.10000000 1888568199 1888568199 5.00000000
-2.56046081 -1.68254805 -0.48525971 1 6 23669 3.10200000 1888568202 1888568202 -9.00000000
-19.29099274 -12.67181396 2.83394980 30 7 23670 23.25400000 1888568204 1888568204 7.00000000
-3.18096423 -2.08870840 -0.46724707 1 8 23671 3.83400000 1888568206 1888568206 -7.00000000
-4.21905470 -2.76929307 -0.44153100 3 10 23672 5.06600000 1888568211 1888568211 -5.00000000
-10.39704990 -6.82179499 2.41716838 9 11 23673 12.66800000 1888568213 1888568213 11.00000000
-6.12922668 -4.02002668 -0.38414592 3 12 23674 7.34000000 1888568215 1888568215 -3.00000000
-10.34699345 -6.78378582 2.85642838 44 13 23675 12.69800000 1888568218 1888568218 13.00000000
-11.15396214 -7.31007481 -0.23278020 4 14 23676 13.33800000 1888568220 1888568220 -1.00000000
-7.79283762 -5.10726357 2.49656844 40 15 23676 9.64600000 1888568222 1888568222 15.00000000
-1.61562538 -1.05562544 -0.51712048 5 0 23684 1.99800000 1888568243 1888568243 -15.00000000
-1.85367107 -1.21023786 -0.51108879 4 2 23686 2.27200000 1888568248 1888568248 -13.00000000
-2.15376234 -1.40562749 -0.49991956 3 4 23687 2.62000000 1888568252 1888568252 -11.00000000
-29.31040001 -19.12179184 3.06178117 40 5 23688 35.13000000 1888568255 1888568255 5.00000000
-2.56135440 -1.67036307 -0.48432112 2 6 23689 3.09600000 1888568257 1888568257 -9.00000000
-19.34674835 -12.61198616 2.83565593 33 7 23690 23.26800000 1888568259 1888568259 7.00000000
-3.17825699 -2.07108927 -0.46578464 1 8 23691 3.82200000 1888568261 1888568261 -7.00000000
-13.59901237 -8.85832214 2.57053113 16 9 23692 16.43200000 1888568264 1888568264 9.00000000
-4.21700954 -2.74693680 -0.44031081 3 10 23692 5.05200000 1888568266 1888568266 -5.00000000
-10.45863819 -6.81010008 2.42594552 9 11 23693 12.71400000 1888568268 1888568268 11.00000000
-6.15996075 -4.00950241 -0.38519263 3 12 23694 7.36000000 1888568271 1888568271 -3.00000000
-10.36734295 -6.74550152 2.85552859 43 13 23695 12.69400000 1888568273 1888568273 13.00000000
-11.17941093 -7.27109575 -0.23278020 4 14 23696 13.33800000 1888568275 1888568275 -1.00000000
-7.81474352 -5.08077335 2.49760389 40 15 23697 9.65000000 1888568278 1888568278 15.00000000
-1.60795391 -1.04262221 -0.51349699 5 0 23704 1.98400000 1888568298 1888568298 -15.00000000
-1.85788429 -1.20376003 -0.51108879 4 2 23706 2.27200000 1888568303 1888568303 -13.00000000
-2.15206432 -1.39383185 -0.49839309 3 4 23707 2.61200000 1888568308 1888568308 -11.00000000
-29.36693382 -19.01286507 3.06073546 40 5 23708 35.11800000 1888568310 1888568310 5.00000000
-2.58209491 -1.67107141 -0.48713693 1 6 23709 3.11400000 1888568312 1888568312 -9.00000000
-19.39398766 -12.54653358 2.83614326 27 7 23710 23.27200000 1888568314 1888568314 7.00000000
-3.21213770 -2.07722998 -0.46968445 1 8 23711 3.85400000 1888568317 1888568317 -7.00000000
-13.68802738 -8.85179329 2.58179450 16 9 23711 16.50400000 1888568319 1888568319 9.00000000
-4.22489929 -2.73111820 -0.44013649 3 10 23712 5.05000000 1888568321 1888568321 -5.00000000
-10.53511238 -6.80764818 2.43815732 9 11 23713 12.77800000 1888568324 1888568324 11.00000000
-6.16720819 -3.98364115 -0.38477394 3 12 23714 7.35200000 1888568326 1888568326 -3.00000000
-10.39082623 -6.70927143 2.85552859 42 13 23715 12.69400000 1888568328 1888568328 13.00000000
-11.21480465 -7.23853445 -0.23298962 4 14 23716 13.35000000 1888568331 1888568331 -1.00000000
-7.82343340 -5.04959249 2.49501562 40 15 23716 9.64000000 1888568333 1888568333 15.00000000
-1.60670984 -1.03386700 -0.51194406 4 0 23724 1.97800000 1888568354 1888568354 -15.00000000
-1.87027061 -1.20253706 -0.51333833 4 2 23726 2.28200000 1888568358 1888568358 -13.00000000
-2.16352272 -1.39055717 -0.49991956 3 4 23727 2.62000000 1888568363 1888568363 -11.00000000
-29.42641640 -18.90593147 3.06003809 40 5 23728 35.11000000 1888568365 1888568365 5.00000000
-2.57960176 -1.65671074 -0.48557258 2 6 23729 3.10400000 1888568367 1888568367 -9.00000000
-19.45102882 -12.48733902 2.83809328 33 7 23730 23.28800000 1888568370 1888568370 7.00000000
-3.22438097 -2.06922126 -0.47041565 1 8 23731 3.86000000 1888568372 1888568372 -7.00000000
-13.79697990 -8.85410309 2.59649920 16 9 23731 16.59800000 1888568374 1888568374 9.00000000
-4.22937584 -2.71312666 -0.43961358 3 10 23732 5.04400000 1888568377 1888568377 -5.00000000
-10.60839176 -6.80262518 2.44960594 9 11 23733 12.83800000 1888568379 1888568379 11.00000000
-6.18780184 -3.96640062 -0.38519263 3 12 23734 7.36000000 1888568381 1888568381 -3.00000000
-10.42074585 -6.67716503 2.85732818 46 13 23735 12.70200000 1888568384 1888568384 13.00000000
-11.25515842 -7.20905018 -0.23330377 2 14 23736 13.36800000 1888568386 1888568386 -1.00000000
-7.84263897 -5.02329493 2.49553323 40 15 23736 9.64200000 1888568388 1888568388 15.00000000
-1.61863029 -1.03316820 -0.51453227 4 0 23745 1.98800000 1888568409 1888568409 -15.00000000
-1.86152160 -1.18729079 -0.50973910 4 2 23747 2.26600000 1888568414 1888568414 -13.00000000
-2.16198325 -1.37839639 -0.49839309 3 4 23748 2.61200000 1888568418 1888568418 -11.00000000
-29.42998505 -18.75619125 3.05324006 20 5 23749 35.03200000 1888568420 1888568420 5.00000000
-2.59565258 -1.65361309 -0.48744980 2 6 23750 3.11600000 1888568423 1888568423 -9.00000000
-19.49331856 -12.41383076 2.83760571 33 7 23751 23.28400000 1888568425 1888568425 7.00000000
-3.22022128 -2.04992723 -0.46870950 1 8 23752 3.84600000 1888568427 1888568427 -7.00000000
-16.05408096 -10.21576405 3.01386642 17 9 23753 19.26600000 1888568430 1888568430 9.00000000
-4.24097252 -2.69867659 -0.43978786 3 10 23753 5.04600000 1888568432 1888568432 -5.00000000
-10.69123173 -6.80057716 2.46296263 9 11 23754 12.90800000 1888568434 1888568434 11.00000000
-6.22589350 -3.95869780 -0.38665804 3 12 23755 7.38800000 1888568437 1888568437 -3.00000000
-10.45172787 -6.64310789 2.85912800 44 13 23756 12.71000000 1888568439 1888568439 13.00000000
-9.86203384 -6.26588297 -0.20394883 12 14 23757 11.68600000 1888568441 1888568441 -1.00000000
-7.86099768 -4.99451637 2.49553323 38 15 23757 9.64200000 1888568443 1888568443 15.00000000
-1.63201904 -1.03371406 -0.51763809 5 0 23765 2.00000000 1888568464 1888568464 -15.00000000
-20.74392319 -13.13404274 0.42856130 14 1 23766 24.55600000 1888568467 1888568467 1.00000000
-1.85742140 -1.17557478 -0.50748956 4 2 23767 2.25600000 1888568469 1888568469 -13.00000000
-20.71647644 -13.10653687 1.28474307 7 3 23768 24.54800000 1888568471 1888568471 3.00000000
-2.18005443 -1.37923849 -0.50144607 3 4 23768 2.62800000 1888568473 1888568473 -11.00000000
