# .PCD v0.7 - Point Cloud Data file format
VERSION 0.7
FIELDS x y z intensity laser_id azimuth distance_m adjustedtime timestamp vertical_angle
SIZE 4 4 4 1 1 2 8 8 4 8
TYPE F F F U U U F U U F
COUNT 1 1 1 1 1 1 1 1 1 1
WIDTH 521
HEIGHT 1
VIEWPOINT 0 0 0 1 0 0 0
POINTS 521
DATA ascii
-1.19598532 2.77038956 -0.58654684 2 4 33665 3.07400000 1888995967 1888995967 -11.00000000
-4.63747835 10.74744415 1.02407992 17 5 33666 11.75000000 1888995970 1888995970 5.00000000
-1.49263072 3.46086049 -0.59695393 2 6 33667 3.81600000 1888995972 1888995972 -9.00000000
-4.63168621 10.74432945 1.43659580 19 7 33668 11.78800000 1888995974 1888995974 7.00000000
-4.61724281 10.71596909 -1.43269598 2 8 33669 11.75600000 1888995976 1888995976 -7.00000000
-4.63138294 10.74878597 1.85374844 15 9 33669 11.85000000 1888995979 1888995979 9.00000000
-4.62918568 10.74884892 -1.02390563 4 10 33670 11.74800000 1888995981 1888995981 -5.00000000
-4.45562744 10.35082340 2.19048738 50 11 33671 11.48000000 1888995983 1888995983 11.00000000
-4.61068964 10.71619701 -0.61138862 8 12 33672 11.68200000 1888995986 1888995986 -3.00000000
-3.89173412 9.04954529 2.27425528 62 13 33673 10.11000000 1888995988 1888995988 13.00000000
-4.61098909 10.72720528 -0.20380920 8 14 33674 11.67800000 1888995990 1888995990 -1.00000000
-3.69470692 8.59552670 2.50692129 40 15 33674 9.68600000 1888995993 1888995993 15.00000000
-0.85546964 1.99788594 -0.58234286 4 0 33682 2.25000000 1888996013 1888996013 -15.00000000
-4.60042763 10.74914169 0.20408843 20 1 33683 11.69400000 1888996016 1888996016 1.00000000
-1.00403607 2.34711576 -0.58937174 3 2 33684 2.62000000 1888996018 1888996018 -13.00000000
-4.59578609 10.74866772 0.61264473 18 3 33685 11.70600000 1888996020 1888996020 3.00000000
-1.18167663 2.76371646 -0.58425713 2 4 33685 3.06200000 1888996023 1888996023 -11.00000000
-4.59053850 10.74158096 1.02198827 17 5 33686 11.72600000 1888996025 1888996025 5.00000000
-1.47743714 3.45878339 -0.59570247 2 6 33687 3.80800000 1888996027 1888996027 -9.00000000
-4.59337378 10.75860596 1.43635213 19 7 33688 11.78600000 1888996029 1888996029 7.00000000
-1.93071902 4.52431917 -0.60398448 2 8 33689 4.95600000 1888996032 1888996032 -7.00000000
-4.58343029 10.74570179 1.85030687 15 9 33690 11.82800000 1888996034 1888996034 9.00000000
-4.58225679 10.74295044 -1.02181387 4 10 33690 11.72400000 1888996036 1888996036 -5.00000000
-4.42331886 10.37534332 2.19239545 46 11 33691 11.49000000 1888996039 1888996039 11.00000000
-4.57325506 10.73222542 -0.61138862 8 12 33692 11.68200000 1888996041 1888996041 -3.00000000
-3.89372087 9.14196205 2.29405093 60 13 33693 10.19800000 1888996043 1888996043 13.00000000
-4.56568336 10.72483540 -0.20346016 17 14 33694 11.65800000 1888996046 1888996046 -1.00000000
-3.66317797 8.60901070 2.50692129 40 15 33695 9.68600000 1888996048 1888996048 15.00000000
-0.84245682 1.98663163 -0.57820177 4 0 33702 2.23400000 1888996069 1888996069 -15.00000000
-4.55039167 10.73567677 0.20352997 13 1 33703 11.66200000 1888996071 1888996071 1.00000000
-0.99583703 2.35060620 -0.58937174 3 2 33704 2.62000000 1888996073 1888996073 -13.00000000
-4.55232573 10.74545860 0.61159796 21 3 33704 11.68600000 1888996076 1888996076 3.00000000
-1.16896009 2.76059294 -0.58273065 2 4 33705 3.05400000 1888996078 1888996078 -11.00000000
-4.54369688 10.73552227 1.01989651 17 5 33706 11.70200000 1888996080 1888996080 5.00000000
-1.46689391 3.46755815 -0.59632820 2 6 33707 3.81200000 1888996082 1888996082 -9.00000000
-4.54960632 10.75994778 1.43440223 19 7 33708 11.77000000 1888996085 1888996085 7.00000000
-1.94118845 4.59320021 -0.61227161 2 8 33709 5.02400000 1888996087 1888996087 -7.00000000
-4.54051208 10.74889755 1.84811676 12 9 33710 11.81400000 1888996089 1888996089 9.00000000
-4.53852654 10.74419785 -1.02041948 4 10 33710 11.70800000 1888996092 1888996092 -5.00000000
-4.38402081 10.38348579 2.19086885 46 11 33711 11.48200000 1888996094 1888996094 11.00000000
-4.52178717 10.71500206 -0.60950452 8 12 33712 11.64600000 1888996096 1888996096 -3.00000000
-3.89208031 9.22731972 2.31204700 57 13 33713 10.27800000 1888996099 1888996099 13.00000000
-4.52122736 10.72412395 -0.20314601 17 14 33714 11.64000000 1888996101 1888996101 -1.00000000
-3.63235784 8.61577034 2.50536847 36 15 33714 9.68000000 1888996103 1888996103 15.00000000
-0.84150106 2.00380945 -0.58234286 4 0 33722 2.25000000 1888996124 1888996124 -15.00000000
-4.49895859 10.71830559 0.20290168 10 1 33723 11.62600000 1888996126 1888996126 1.00000000
-0.98913360 2.35766196 -0.59027159 3 2 33724 2.62400000 1888996128 1888996128 -13.00000000
-4.51092577 10.75207520 0.61107463 21 3 33724 11.67600000 1888996131 1888996131 3.00000000
-1.17222333 2.79543519 -0.58921820 4 4 33725 3.08800000 1888996133 1888996133 -11.00000000
-4.50234461 10.74212933 1.01902497 46 5 33726 11.69200000 1888996135 1888996135 5.00000000
-1.43951571 3.43621802 -0.59007078 2 6 33727 3.77200000 1888996138 1888996138 -9.00000000
-4.50051928 10.74829769 1.43074608 19 7 33728 11.74000000 1888996140 1888996140 7.00000000
-4.49097919 10.73077106 -1.42830873 2 8 33729 11.72000000 1888996142 1888996142 -7.00000000
-4.49839020 10.75374794 1.84623957 15 9 33730 11.80200000 1888996145 1888996145 9.00000000
-4.50560808 10.77100277 -1.02146530 4 10 33730 11.72000000 1888996147 1888996147 -5.00000000
-4.34623432 10.39510345 2.19010568 46 11 33731 11.47800000 1888996149 1888996149 11.00000000
-4.48281670 10.72703457 -0.60929519 8 12 33732 11.64200000 1888996152 1888996152 -3.00000000
-3.89289522 9.31996918 2.33184266 64 13 33733 10.36600000 1888996154 1888996154 13.00000000
-4.47837257 10.72692299 -0.20290168 17 14 33734 11.62600000 1888996156 1888996156 -1.00000000
-3.60226107 8.62839794 2.50536847 38 15 33734 9.68000000 1888996158 1888996158 15.00000000
-0.83742893 2.01179385 -0.58389574 4 0 33740 2.25600000 1888996179 1888996179 -15.00000000
-4.46219110 10.72500134 0.20276205 13 1 33741 11.61800000 1888996181 1888996181 1.00000000
-0.98022538 2.35715914 -0.58937174 3 2 33742 2.62000000 1888996184 1888996184 -13.00000000
-4.46834660 10.75037575 0.61013258 23 3 33743 11.65800000 1888996186 1888996186 3.00000000
-1.16192842 2.79547834 -0.58845496 4 4 33743 3.08400000 1888996188 1888996188 -11.00000000
-4.46628189 10.75070095 1.01850200 76 5 33744 11.68600000 1888996191 1888996191 5.00000000
-1.44083393 3.46991324 -0.59507668 2 6 33745 3.80400000 1888996193 1888996193 -9.00000000
-4.45759869 10.74038124 1.42782128 21 7 33746 11.71600000 1888996195 1888996195 7.00000000
-4.44811821 10.72282314 -1.42538381 2 8 33747 11.69600000 1888996198 1888996198 -7.00000000
-4.46192217 10.75609970 1.84436238 15 9 33747 11.79000000 1888996200 1888996200 9.00000000
-2.75630593 6.64774704 -0.62961310 4 10 33748 7.22400000 1888996202 1888996202 -5.00000000
-4.31280422 10.40689182 2.18972397 43 11 33749 11.47600000 1888996205 1888996205 11.00000000
-4.44145155 10.72261238 -0.60824847 8 12 33750 11.62200000 1888996207 1888996207 -3.00000000
-3.89192295 9.40057373 2.34893894 57 13 33751 10.44200000 1888996209 1888996209 13.00000000
-4.43776941 10.72430992 -0.20258753 17 14 33752 11.60800000 1888996211 1888996211 -1.00000000
-3.57362843 8.64029598 2.50536847 38 15 33753 9.68000000 1888996214 1888996214 15.00000000
-0.83260989 2.02006292 -0.58544868 4 0 33760 2.26200000 1888996234 1888996234 -15.00000000
-4.41863298 10.72572041 0.20248282 13 1 33761 11.60200000 1888996237 1888996237 1.00000000
-0.97050744 2.35696244 -0.58847195 3 2 33762 2.61600000 1888996239 1888996239 -13.00000000
-4.41898441 10.73189163 0.60824847 21 3 33762 11.62200000 1888996241 1888996241 3.00000000
-1.15589917 2.80859470 -0.59036303 4 4 33763 3.09400000 1888996244 1888996244 -11.00000000
-4.42418003 10.75517082 1.01745617 80 5 33764 11.67400000 1888996246 1888996246 5.00000000
-1.43171763 3.48222947 -0.59632820 2 6 33765 3.81200000 1888996248 1888996248 -9.00000000
-4.41857195 10.75220394 1.42733371 21 7 33766 11.71200000 1888996251 1888996251 7.00000000
-4.40311909 10.71992302 -1.42294645 2 8 33767 11.67600000 1888996253 1888996253 -7.00000000
-4.41271639 10.74862576 1.84029508 15 9 33768 11.76400000 1888996255 1888996255 9.00000000
-2.72551751 6.63889647 -0.62786996 4 10 33768 7.20400000 1888996258 1888996258 -5.00000000
-4.27645111 10.42188358 2.18972397 46 11 33769 11.47600000 1888996260 1888996260 11.00000000
-4.40096426 10.73065948 -0.60782981 8 12 33770 11.61400000 1888996262 1888996262 -3.00000000
-3.88125968 9.46819496 2.36243606 64 13 33771 10.50200000 1888996264 1888996264 13.00000000
-4.39727497 10.73233414 -0.20244792 8 14 33772 11.60000000 1888996267 1888996267 -1.00000000
-3.54271436 8.65092945 2.50485063 38 15 33773 9.67800000 1888996269 1888996269 15.00000000
-0.82338870 2.01966739 -0.58441341 4 0 33782 2.25800000 1888996290 1888996290 -15.00000000
-4.37364388 10.73334885 0.20230830 13 1 33783 11.59200000 1888996292 1888996292 1.00000000
-0.96292037 2.36428118 -0.58937174 3 2 33784 2.62000000 1888996294 1888996294 -13.00000000
-4.37473106 10.74138069 0.60782981 21 3 33784 11.61400000 1888996297 1888996297 3.00000000
-1.14214563 2.80573893 -0.58883655 4 4 33785 3.08600000 1888996299 1888996299 -11.00000000
-4.37158728 10.74439621 1.01484144 80 5 33786 11.64400000 1888996301 1888996301 5.00000000
-1.41833627 3.48770118 -0.59632820 2 6 33787 3.81200000 1888996304 1888996304 -9.00000000
-4.36977911 10.75070095 1.42489636 21 7 33788 11.69200000 1888996306 1888996306 7.00000000
-4.36491394 10.74410725 -1.42392147 2 8 33789 11.68400000 1888996308 1888996308 -7.00000000
-4.36213827 10.73727512 1.83560205 18 9 33789 11.73400000 1888996311 1888996311 9.00000000
-2.69550848 6.63823700 -0.62682408 4 10 33790 7.19200000 1888996313 1888996313 -5.00000000
-4.23640251 10.43822670 2.18972397 50 11 33791 11.47600000 1888996315 1888996315 11.00000000
-4.35672617 10.74007607 -0.60741109 8 12 33792 11.60600000 1888996317 1888996317 -3.00000000
-3.88148665 9.57332611 2.38493109 68 13 33793 10.60200000 1888996320 1888996320 13.00000000
-4.34251499 10.71577930 -0.20181963 8 14 33794 11.56400000 1888996322 1888996322 -1.00000000
-3.51164699 8.66984081 2.50640368 38 15 33795 9.68400000 1888996324 1888996324 15.00000000
-0.81344146 2.01536345 -0.58234286 4 0 33802 2.25000000 1888996345 1888996345 -15.00000000
-4.32567692 10.72258759 0.20181963 16 1 33803 11.56400000 1888996347 1888996347 1.00000000
-0.95320410 2.36401320 -0.58847195 3 2 33804 2.61600000 1888996350 1888996350 -13.00000000
-4.33198166 10.74361992 0.60709709 21 3 33804 11.60000000 1888996352 1888996352 3.00000000
-1.13381255 2.81335044 -0.58959979 2 4 33805 3.09000000 1888996354 1888996354 -11.00000000
-4.31991148 10.72447681 1.01152956 17 5 33806 11.60600000 1888996357 1888996357 5.00000000
-1.40910423 3.49996042 -0.59757966 2 6 33807 3.82000000 1888996359 1888996359 -9.00000000
-4.32926130 10.75852203 1.42392147 21 7 33808 11.68400000 1888996361 1888996361 7.00000000
-4.33182764 10.77032757 -1.42538381 2 8 33809 11.69600000 1888996364 1888996364 -7.00000000
-4.32463169 10.75243568 1.83560205 18 9 33809 11.73400000 1888996366 1888996366 9.00000000
-2.66786146 6.63651371 -0.62577826 4 10 33810 7.18000000 1888996368 1888996368 -5.00000000
-4.20140409 10.45659447 2.19048738 46 11 33811 11.48000000 1888996370 1888996370 11.00000000
-4.31474352 10.74409771 -0.60678309 8 12 33812 11.59400000 1888996373 1888996373 -3.00000000
-3.87563038 9.65553951 2.40202737 66 13 33813 10.67800000 1888996375 1888996375 13.00000000
-4.30136061 10.72159290 -0.20164511 8 14 33814 11.55400000 1888996377 1888996377 -1.00000000
-3.47848606 8.67487335 2.50433302 36 15 33815 9.67600000 1888996380 1888996380 15.00000000
-0.80567116 2.01432157 -0.58130759 4 0 33820 2.24600000 1888996400 1888996400 -15.00000000
-4.28083515 10.70827198 0.20129606 16 1 33821 11.53400000 1888996403 1888996403 1.00000000
-0.94866490 2.37423468 -0.59027159 3 2 33822 2.62400000 1888996405 1888996405 -13.00000000
-4.29302073 10.74419308 0.60636437 21 3 33822 11.58600000 1888996407 1888996407 3.00000000
-1.12496853 2.81689858 -0.58959979 2 4 33823 3.09000000 1888996410 1888996410 -11.00000000
-4.28324413 10.73059368 1.01083231 55 5 33824 11.59800000 1888996412 1888996412 5.00000000
-1.38785398 3.47868371 -0.59319949 2 6 33825 3.79200000 1888996414 1888996414 -9.00000000
-4.28514719 10.74625492 1.42050910 21 7 33826 11.65600000 1888996416 1888996416 7.00000000
-1.84471714 4.62851381 -0.61178410 2 8 33827 5.02000000 1888996419 1888996419 -7.00000000
-4.28424835 10.74945450 1.83278620 21 9 33827 11.71600000 1888996421 1888996421 9.00000000
-4.27206469 10.72432709 -1.00996077 4 10 33828 11.58800000 1888996423 1888996423 -5.00000000
-4.16417599 10.45879841 2.18819761 46 11 33829 11.46800000 1888996426 1888996426 11.00000000
-4.27210712 10.73533154 -0.60552704 8 12 33830 11.57000000 1888996428 1888996428 -3.00000000
-3.87984848 9.75458336 2.42362261 66 13 33831 10.77400000 1888996430 1888996430 13.00000000
-4.26026917 10.71647072 -0.20129606 8 14 33832 11.53400000 1888996433 1888996433 -1.00000000
-3.45344567 8.68695068 2.50485063 38 15 33832 9.67800000 1888996435 1888996435 15.00000000
-0.80432427 2.03149128 -0.58544868 4 0 33840 2.26200000 1888996456 1888996456 -15.00000000
-4.24269485 10.72128963 0.20126115 16 1 33841 11.53200000 1888996458 1888996458 1.00000000
-0.93893802 2.37390733 -0.58937174 3 2 33842 2.62000000 1888996460 1888996460 -13.00000000
-4.24814463 10.74054050 0.60531765 21 3 33842 11.56600000 1888996463 1888996463 3.00000000
-1.11801600 2.82811141 -0.59112626 2 4 33843 3.09800000 1888996465 1888996465 -11.00000000
-4.24868965 10.75289154 1.01152956 76 5 33844 11.60600000 1888996467 1888996467 5.00000000
-1.39166546 3.52392745 -0.60008264 2 6 33845 3.83600000 1888996469 1888996469 -9.00000000
-4.23886395 10.73899078 1.41758418 21 7 33846 11.63200000 1888996472 1888996472 7.00000000
-1.82709241 4.63123178 -0.61129665 2 8 33847 5.01600000 1888996474 1888996474 -7.00000000
-4.24380016 10.75699329 1.83153474 18 9 33847 11.70800000 1888996476 1888996476 9.00000000
-4.23021889 10.72805309 -1.00891483 4 10 33848 11.57600000 1888996479 1888996479 -5.00000000
-4.12764263 10.47327042 2.18819761 50 11 33849 11.46800000 1888996481 1888996481 11.00000000
-4.21777201 10.70743752 -0.60311955 8 12 33850 11.52400000 1888996483 1888996483 -3.00000000
-3.87433076 9.84059811 2.44161868 59 13 33851 10.85400000 1888996486 1888996486 13.00000000
-4.21990681 10.72383308 -0.20115644 17 14 33852 11.52600000 1888996488 1888996488 -1.00000000
-3.42229033 8.70134830 2.50536847 38 15 33853 9.68000000 1888996490 1888996490 15.00000000
-0.79722810 2.03428650 -0.58544868 4 0 33860 2.26200000 1888996511 1888996511 -15.00000000
-4.19868040 10.71927643 0.20094700 16 1 33861 11.51400000 1888996513 1888996513 1.00000000
-0.92922497 2.37354112 -0.58847195 3 2 33862 2.61600000 1888996516 1888996516 -13.00000000
-4.19783354 10.72813988 0.60374761 21 3 33863 11.53600000 1888996518 1888996518 3.00000000
-1.11242950 2.84296632 -0.59341598 2 4 33863 3.11000000 1888996520 1888996520 -11.00000000
-4.19951820 10.73796844 1.00874054 76 5 33864 11.57400000 1888996522 1888996522 5.00000000
-1.37360287 3.51404524 -0.59757966 2 6 33865 3.82000000 1888996525 1888996525 -9.00000000
-4.19701767 10.74262714 1.41612172 21 7 33866 11.62000000 1888996527 1888996527 7.00000000
-1.79936230 4.60799503 -0.60739678 2 8 33867 4.98400000 1888996529 1888996529 -7.00000000
-4.19472885 10.74230003 1.82652879 15 9 33867 11.67600000 1888996532 1888996532 9.00000000
-4.18984747 10.73532963 -1.00821757 4 10 33868 11.56800000 1888996534 1888996534 -5.00000000
-4.09605312 10.50041771 2.19086885 50 11 33869 11.48200000 1888996536 1888996536 11.00000000
-4.18544865 10.73512077 -0.60385227 8 12 33870 11.53800000 1888996539 1888996539 -3.00000000
-3.86825967 9.92669201 2.45961475 64 13 33871 10.93400000 1888996541 1888996541 13.00000000
-4.17736769 10.72545433 -0.20091210 19 14 33872 11.51200000 1888996543 1888996543 -1.00000000
-3.39832449 8.72525024 2.50899172 38 15 33872 9.69400000 1888996546 1888996546 15.00000000
-0.79012227 2.03705692 -0.58544868 4 0 33880 2.26200000 1888996566 1888996566 -15.00000000
-4.15690088 10.72268105 0.20073758 13 1 33881 11.50200000 1888996569 1888996569 1.00000000
-0.92375040 2.38403869 -0.59027159 3 2 33882 2.62400000 1888996571 1888996571 -13.00000000
-4.15603209 10.73155308 0.60311955 21 3 33883 11.52400000 1888996573 1888996573 3.00000000
-1.09399092 2.82486320 -0.58883655 2 4 33883 3.08600000 1888996575 1888996575 -11.00000000
-1.36417913 3.52618790 -0.59883112 2 6 33885 3.82800000 1888996580 1888996580 -9.00000000
-4.15662956 10.74980640 1.41514683 19 7 33886 11.61200000 1888996582 1888996582 7.00000000
-4.12756062 10.68017006 -1.40588474 2 8 33887 11.53600000 1888996585 1888996585 -7.00000000
-4.14678717 10.73549080 1.82277441 18 9 33888 11.65200000 1888996587 1888996587 9.00000000
-4.14947701 10.74245548 -1.00752044 4 10 33888 11.56000000 1888996589 1888996589 -5.00000000
-4.05866766 10.51282024 2.19048738 46 11 33889 11.48000000 1888996592 1888996592 11.00000000
-4.13788462 10.72357845 -0.60238683 12 12 33890 11.51000000 1888996594 1888996594 -3.00000000
-3.86864686 10.03104496 2.48211002 62 13 33891 11.03400000 1888996596 1888996596 13.00000000
-4.12911463 10.71198273 -0.20038854 19 14 33892 11.48200000 1888996599 1888996599 -1.00000000
-3.35868239 8.71781731 2.50329781 40 15 33893 9.67200000 1888996601 1888996601 15.00000000
-0.78197753 2.03605890 -0.58441341 4 0 33899 2.25800000 1888996622 1888996622 -15.00000000
-4.11558723 10.72147179 0.20045833 13 1 33900 11.48600000 1888996624 1888996624 1.00000000
-0.91723567 2.39072776 -0.59117138 3 2 33901 2.62800000 1888996626 1888996626 -13.00000000
-4.11613131 10.73408604 0.60249156 23 3 33902 11.51200000 1888996628 1888996628 3.00000000
-1.08742905 2.83580780 -0.59036303 2 4 33902 3.09400000 1888996631 1888996631 -11.00000000
-4.11135674 10.72723579 1.00507998 17 5 33903 11.53200000 1888996633 1888996633 5.00000000
-1.35247838 3.53069210 -0.59883112 2 6 33904 3.82800000 1888996635 1888996635 -9.00000000
-4.11315155 10.74313831 1.41246569 19 7 33905 11.59000000 1888996638 1888996638 7.00000000
-4.10205364 10.71975422 -1.40929711 2 8 33906 11.56400000 1888996640 1888996640 -7.00000000
-4.10739231 10.73370552 1.82027149 15 9 33906 11.63600000 1888996642 1888996642 9.00000000
-2.57078862 6.72166729 -0.62961310 4 10 33907 7.22400000 1888996645 1888996645 -5.00000000
-4.02308273 10.52438736 2.19010568 50 11 33908 11.47800000 1888996647 1888996647 11.00000000
-4.09659863 10.72231579 -0.60154951 8 12 33909 11.49400000 1888996649 1888996649 -3.00000000
-3.85621691 10.09843445 2.49560690 62 13 33910 11.09400000 1888996652 1888996652 13.00000000
-4.08430052 10.70132923 -0.19993477 17 14 33911 11.45600000 1888996654 1888996654 -1.00000000
-3.33127809 8.72832584 2.50329781 36 15 33911 9.67200000 1888996656 1888996656 15.00000000
-0.77692461 2.04419374 -0.58596629 4 0 33919 2.26400000 1888996677 1888996677 -15.00000000
-4.06251526 10.69464588 0.19969043 13 1 33920 11.44200000 1888996679 1888996679 1.00000000
-0.90750152 2.39027119 -0.59027159 3 2 33921 2.62400000 1888996681 1888996681 -13.00000000
-4.07509422 10.73905277 0.60196817 21 3 33922 11.50200000 1888996684 1888996684 3.00000000
-1.07752359 2.83958626 -0.59036303 4 4 33922 3.09400000 1888996686 1888996686 -11.00000000
-4.06894112 10.72848129 1.00385988 17 5 33923 11.51800000 1888996688 1888996688 5.00000000
-1.33804524 3.52985024 -0.59789252 2 6 33924 3.82200000 1888996691 1888996691 -9.00000000
-4.07070255 10.74443626 1.41075957 19 7 33925 11.57600000 1888996693 1888996693 7.00000000
-4.06179762 10.72658253 -1.40832210 2 8 33926 11.55600000 1888996695 1888996695 -7.00000000
-4.06872272 10.75053501 1.82058430 18 9 33927 11.63800000 1888996698 1888996698 9.00000000
-2.55859375 6.76041412 -0.63240206 4 10 33927 7.25600000 1888996700 1888996700 -5.00000000
-3.97868061 10.51816750 2.18590784 46 11 33928 11.45600000 1888996702 1888996702 11.00000000
-4.04784489 10.70665932 -0.59987473 8 12 33929 11.46200000 1888996704 1888996704 -3.00000000
-3.82163215 10.11365604 2.49605680 54 13 33930 11.09600000 1888996707 1888996707 13.00000000
-4.04550791 10.71177959 -0.19986495 10 14 33931 11.45200000 1888996709 1888996709 -1.00000000
-3.29721808 8.73505497 2.50174499 36 15 33932 9.66600000 1888996711 1888996711 15.00000000
-0.76738793 2.04160261 -0.58441341 4 0 33940 2.25800000 1888996732 1888996732 -15.00000000
-4.02328968 10.70946407 0.19969043 13 1 33941 11.44200000 1888996734 1888996734 1.00000000
-0.89736462 2.38993263 -0.58937174 3 2 33942 2.62000000 1888996737 1888996737 -13.00000000
-4.02868891 10.73521709 0.60092145 23 3 33943 11.48200000 1888996739 1888996739 3.00000000
-1.06848836 2.84719276 -0.59112626 4 4 33943 3.09800000 1888996741 1888996741 -11.00000000
-4.02749252 10.73772621 1.00333691 17 5 33944 11.51200000 1888996744 1888996744 5.00000000
-1.32717896 3.54027987 -0.59883112 2 6 33945 3.82800000 1888996746 1888996746 -9.00000000
-4.02224064 10.73511887 1.40759087 21 7 33946 11.55000000 1888996748 1888996748 7.00000000
-1.73763394 4.64010525 -0.60837173 2 8 33947 4.99200000 1888996751 1888996751 -7.00000000
-4.02493668 10.74802303 1.81776845 18 9 33947 11.62000000 1888996753 1888996753 9.00000000
-2.54078245 6.78840637 -0.63414520 4 10 33948 7.27600000 1888996755 1888996755 -5.00000000
-3.93872714 10.52900124 2.18514466 46 11 33949 11.45200000 1888996757 1888996757 11.00000000
-4.00437927 10.71019840 -0.59924668 8 12 33950 11.45000000 1888996760 1888996760 -3.00000000
-3.78317380 10.12394428 2.49515700 53 13 33951 11.09200000 1888996762 1888996762 13.00000000
-4.00412130 10.72091579 -0.19976024 8 14 33952 11.44600000 1888996764 1888996764 -1.00000000
-3.26873469 8.75193977 2.50329781 38 15 33952 9.67200000 1888996767 1888996767 15.00000000
-0.76295030 2.05151153 -0.58648396 4 0 33960 2.26600000 1888996787 1888996787 -15.00000000
-3.98448896 10.71969414 0.19962062 10 1 33961 11.43800000 1888996790 1888996790 1.00000000
-0.89173126 2.40035748 -0.59117138 3 2 33962 2.62800000 1888996792 1888996792 -13.00000000
-3.98423934 10.73049068 0.59987473 18 3 33963 11.46200000 1888996794 1888996794 3.00000000
-1.05854321 2.85090518 -0.59112626 4 4 33963 3.09800000 1888996797 1888996797 -11.00000000
-3.98582745 10.74051189 1.00229108 17 5 33964 11.50000000 1888996799 1888996799 5.00000000
-1.31618679 3.54859519 -0.59945685 2 6 33965 3.83200000 1888996801 1888996801 -9.00000000
-3.97991371 10.73606396 1.40588474 21 7 33966 11.53600000 1888996804 1888996804 7.00000000
-1.71452963 4.62752819 -0.60593438 2 8 33967 4.97200000 1888996806 1888996806 -7.00000000
-3.98208642 10.75344086 1.81620419 18 9 33968 11.61000000 1888996808 1888996808 9.00000000
-3.97971177 10.74702835 -1.00263965 4 10 33968 11.50400000 1888996810 1888996810 -5.00000000
-3.90603876 10.55373383 2.18743443 43 11 33969 11.46400000 1888996813 1888996813 11.00000000
-3.95865417 10.70163250 -0.59799063 8 12 33970 11.42600000 1888996815 1888996815 -3.00000000
-3.74240541 10.12246609 2.49155784 53 13 33971 11.07600000 1888996817 1888996817 13.00000000
-3.95003915 10.68980980 -0.19892253 23 14 33972 11.39800000 1888996820 1888996820 -1.00000000
-3.23730469 8.76567459 2.50381541 38 15 33973 9.67400000 1888996822 1888996822 15.00000000
-0.75213873 2.04315281 -0.58337814 4 0 33979 2.25400000 1888996843 1888996843 -15.00000000
-3.94339538 10.71783447 0.19934139 23 1 33980 11.42200000 1888996845 1888996845 1.00000000
-0.88645679 2.41061735 -0.59297097 3 2 33981 2.63600000 1888996847 1888996847 -13.00000000
-3.94243288 10.72677231 0.59893268 13 3 33982 11.44400000 1888996850 1888996850 3.00000000
-1.04908347 2.85439968 -0.59112626 2 4 33982 3.09800000 1888996852 1888996852 -11.00000000
-3.94400573 10.73683834 1.00072229 12 5 33983 11.48200000 1888996854 1888996854 5.00000000
-1.30577362 3.55664897 -0.60008264 2 6 33984 3.83600000 1888996857 1888996857 -9.00000000
-3.94155431 10.74174881 1.40490985 21 7 33985 11.52800000 1888996859 1888996859 7.00000000
-1.69780779 4.62946081 -0.60544688 2 8 33986 4.96800000 1888996861 1888996861 -7.00000000
-3.93672132 10.73437023 1.81088531 25 9 33986 11.57600000 1888996863 1888996863 9.00000000
-2.48080301 6.76812983 -0.63065898 4 10 33987 7.23600000 1888996866 1888996866 -5.00000000
-3.88655257 10.60902786 2.19621158 53 11 33988 11.51000000 1888996868 1888996868 11.00000000
-3.92657804 10.72407818 -0.59851402 8 12 33989 11.43600000 1888996870 1888996870 -3.00000000
-3.70814800 10.13299084 2.49110794 55 13 33990 11.07400000 1888996873 1888996873 13.00000000
-3.20311475 8.75765800 2.49863911 38 15 33991 9.65400000 1888996877 1888996877 15.00000000
-0.74235803 2.03850484 -0.58130759 4 0 33999 2.24600000 1888996898 1888996898 -15.00000000
-0.87936914 2.41735959 -0.59387076 3 2 34001 2.64000000 1888996903 1888996903 -13.00000000
-3.90564799 10.74234581 0.59903735 10 3 34002 11.44600000 1888996905 1888996905 3.00000000
-1.04045498 2.86173439 -0.59188950 2 4 34002 3.10200000 1888996907 1888996907 -11.00000000
-3.90173984 10.73743153 0.99950206 17 5 34003 11.46800000 1888996910 1888996910 5.00000000
-1.29065335 3.55375838 -0.59883112 2 6 34004 3.82800000 1888996912 1888996912 -9.00000000
-3.90809870 10.76663780 1.40637219 19 7 34005 11.54000000 1888996914 1888996914 7.00000000
-1.71481001 4.72679710 -0.61739010 2 8 34006 5.06600000 1888996916 1888996916 -7.00000000
-3.90341163 10.76543999 1.81370115 12 9 34007 11.59400000 1888996919 1888996919 9.00000000
-2.47753716 6.83294010 -0.63588828 4 10 34007 7.29600000 1888996921 1888996921 -5.00000000
-3.86755657 10.67236614 2.20651531 59 11 34008 11.56400000 1888996923 1888996923 11.00000000
-3.91700625 10.81471252 -0.60280555 8 12 34009 11.51800000 1888996926 1888996926 -3.00000000
-3.67142797 10.14220810 2.49020815 56 13 34010 11.07000000 1888996928 1888996928 13.00000000
-3.90439796 10.79166508 -0.20031872 6 14 34011 11.47800000 1888996930 1888996930 -1.00000000
-3.16705322 8.75843906 2.49553323 36 15 34012 9.64200000 1888996933 1888996933 15.00000000
-0.73619032 2.04484725 -0.58234286 4 0 34020 2.25000000 1888996953 1888996953 -15.00000000
-3.89029646 10.81163406 0.20056306 6 1 34021 11.49200000 1888996956 1888996956 1.00000000
-0.87050319 2.42056632 -0.59387076 3 2 34022 2.64000000 1888996958 1888996958 -13.00000000
-3.90205383 10.85620403 0.60458499 7 3 34023 11.55200000 1888996960 1888996960 3.00000000
-1.02995932 2.86552858 -0.59188950 4 4 34023 3.10200000 1888996963 1888996963 -11.00000000
-3.90007997 10.85666466 1.00926352 63 5 34024 11.58000000 1888996965 1888996965 5.00000000
-1.27828705 3.56032419 -0.59914398 2 6 34025 3.83000000 1888996967 1888996967 -9.00000000
-3.89073610 10.84254742 1.41441560 46 7 34026 11.60600000 1888996969 1888996969 7.00000000
-1.68809187 4.70689058 -0.61397773 2 8 34027 5.03800000 1888996972 1888996972 -7.00000000
-3.87981343 10.81804752 1.82027149 40 9 34027 11.63600000 1888996974 1888996974 9.00000000
-2.44306469 6.81571722 -0.63344795 4 10 34028 7.26800000 1888996976 1888996976 -5.00000000
-3.82576585 10.67907619 2.20498872 59 11 34029 11.55600000 1888996979 1888996979 11.00000000
-3.92043114 10.94933987 -0.60950452 8 12 34030 11.64600000 1888996981 1888996981 -3.00000000
-3.63357377 10.15376091 2.48975825 53 13 34031 11.06800000 1888996983 1888996983 13.00000000
-3.90926480 10.93017387 -0.20262244 8 14 34032 11.61000000 1888996986 1888996986 -1.00000000
-3.13646126 8.76944065 2.49553323 36 15 34032 9.64200000 1888996988 1888996988 15.00000000
-0.73617649 2.06742382 -0.58803689 4 0 34040 2.27200000 1888997009 1888997009 -15.00000000
-3.89544320 10.94572067 0.20279697 6 1 34041 11.62000000 1888997011 1888997011 1.00000000
-0.85682398 2.40890193 -0.59027159 3 2 34042 2.62400000 1888997013 1888997013 -13.00000000
-3.87952185 10.91304111 0.60699242 26 3 34043 11.59800000 1888997016 1888997016 3.00000000
-1.02652657 2.88760495 -0.59570569 4 4 34043 3.12200000 1888997018 1888997018 -11.00000000
-3.88016963 10.92090225 1.01396990 29 5 34044 11.63400000 1888997020 1888997020 5.00000000
-1.26585138 3.56476450 -0.59914398 2 6 34045 3.83000000 1888997022 1888997022 -9.00000000
-3.88141441 10.93650532 1.42489636 42 7 34046 11.69200000 1888997025 1888997025 7.00000000
-1.67563319 4.72397995 -0.61544019 2 8 34047 5.05000000 1888997027 1888997027 -7.00000000
-3.87240481 10.91716385 1.83466339 37 9 34047 11.72800000 1888997029 1888997029 9.00000000
-2.42591572 6.84298229 -0.63519102 4 10 34048 7.28800000 1888997032 1888997032 -5.00000000
-3.78125334 10.67201042 2.20079088 59 11 34049 11.53400000 1888997034 1888997034 11.00000000
-3.90818834 11.03638268 -0.61358672 8 12 34050 11.72400000 1888997036 1888997036 -3.00000000
-3.56494904 10.07269192 2.46681333 59 13 34051 10.96600000 1888997039 1888997039 13.00000000
-3.90042901 11.02670288 -0.20415825 6 14 34052 11.69800000 1888997041 1888997041 -1.00000000
-3.10454249 8.77669334 2.49449801 36 15 34052 9.63800000 1888997043 1888997043 15.00000000
-0.72703028 2.06451440 -0.58648396 4 0 34060 2.26600000 1888997064 1888997064 -15.00000000
-3.89239812 11.05922413 0.20464692 10 1 34061 11.72600000 1888997066 1888997066 1.00000000
-0.84841013 2.41187811 -0.59027159 3 2 34062 2.62400000 1888997069 1888997069 -13.00000000
-3.83014345 10.89448547 0.60521299 26 3 34063 11.56400000 1888997071 1888997071 3.00000000
-1.01253378 2.88005781 -0.59341598 2 4 34063 3.11000000 1888997073 1888997073 -11.00000000
-3.85325313 10.96633530 1.01693320 12 5 34064 11.66800000 1888997075 1888997075 5.00000000
-1.25274575 3.56729770 -0.59883112 2 6 34065 3.82800000 1888997078 1888997078 -9.00000000
-3.87937284 11.05300713 1.43830204 38 7 34066 11.80200000 1888997080 1888997080 7.00000000
-1.67490315 4.77475691 -0.62128991 2 8 34067 5.09800000 1888997082 1888997082 -7.00000000
-3.86765671 11.03194714 1.85155833 31 9 34068 11.83600000 1888997085 1888997085 9.00000000
-2.40728784 6.86645031 -0.63658553 4 10 34068 7.30400000 1888997087 1888997087 -5.00000000
-3.74332881 10.68329144 2.20040941 59 11 34069 11.53200000 1888997089 1888997089 11.00000000
-3.91188812 11.17059898 -0.62028575 8 12 34070 11.85200000 1888997092 1888997092 -3.00000000
-3.55873656 10.16784477 2.48705888 54 13 34071 11.05600000 1888997094 1888997094 13.00000000
-3.90813375 11.17237854 -0.20660159 6 14 34072 11.83800000 1888997096 1888997096 -1.00000000
-3.07516313 8.79112339 2.49553323 36 15 34072 9.64200000 1888997098 1888997098 15.00000000
-0.71981937 2.06703949 -0.58648396 4 0 34080 2.26600000 1888997119 1888997119 -15.00000000
-3.89189410 11.18228149 0.20667140 10 1 34081 11.84200000 1888997122 1888997122 1.00000000
-0.84382737 2.42586827 -0.59297097 3 2 34082 2.63600000 1888997124 1888997124 -13.00000000
-3.78750038 10.89458370 0.60448027 26 3 34083 11.55000000 1888997126 1888997126 3.00000000
-1.00247431 2.88357472 -0.59341598 2 4 34083 3.11000000 1888997128 1888997128 -11.00000000
-3.78944707 10.90631962 1.01013505 4 5 34084 11.59000000 1888997131 1888997131 5.00000000
-1.25000608 3.59963989 -0.60352415 2 6 34085 3.85800000 1888997133 1888997133 -9.00000000
-3.87786651 11.17337608 1.45219505 40 7 34086 11.91600000 1888997135 1888997135 7.00000000
-1.64001083 4.72806120 -0.61446524 2 8 34087 5.04200000 1888997138 1888997138 -7.00000000
-3.85824084 11.12936878 1.86563742 34 9 34088 11.92600000 1888997140 1888997140 9.00000000
-2.37938905 6.86351681 -0.63553965 4 10 34088 7.29200000 1888997142 1888997142 -5.00000000
-3.70151520 10.68330765 2.19773793 59 11 34089 11.51800000 1888997145 1888997145 11.00000000
-3.91273761 11.29931164 -0.62667072 4 12 34090 11.97400000 1888997147 1888997147 -3.00000000
-3.52322245 10.18020535 2.48705888 52 13 34091 11.05600000 1888997149 1888997149 13.00000000
-3.89395094 11.25776672 -0.20792797 8 14 34092 11.91400000 1888997151 1888997151 -1.00000000
-3.03660941 8.78407669 2.49035692 38 15 34093 9.62200000 1888997154 1888997154 15.00000000
-0.70981449 2.06028271 -0.58389574 4 0 34099 2.25600000 1888997175 1888997175 -15.00000000
-3.89580631 11.31424236 0.20887040 6 1 34100 11.96800000 1888997177 1888997177 1.00000000
-0.83450997 2.42496777 -0.59207118 3 2 34101 2.63200000 1888997179 1888997179 -13.00000000
-3.74745417 10.89575100 0.60385227 26 3 34102 11.53800000 1888997181 1888997181 3.00000000
-0.99162948 2.88317013 -0.59265274 4 4 34102 3.10600000 1888997184 1888997184 -11.00000000
-3.73901081 10.87737465 1.00630021 4 5 34103 11.54600000 1888997186 1888997186 5.00000000
-1.23228610 3.58695149 -0.60070837 2 6 34104 3.84000000 1888997188 1888997188 -9.00000000
-3.87689304 11.29131413 1.46584451 40 7 34105 12.02800000 1888997191 1888997191 7.00000000
-1.63463211 4.76351547 -0.61836505 2 8 34106 5.07400000 1888997193 1888997193 -7.00000000
-3.85655928 11.24487209 1.88284516 32 9 34107 12.03600000 1888997195 1888997195 9.00000000
-2.36695743 6.90152311 -0.63832867 4 10 34107 7.32400000 1888997198 1888997198 -5.00000000
-3.65970182 10.67695141 2.19392180 56 11 34108 11.49800000 1888997200 1888997200 11.00000000
-3.91149354 11.41803455 -0.63253236 4 12 34109 12.08600000 1888997202 1888997202 -3.00000000
-3.48691940 10.18445778 2.48525929 48 13 34110 11.04800000 1888997204 1888997204 13.00000000
-3.89414692 11.38035297 -0.20995244 6 14 34111 12.03000000 1888997207 1888997207 -1.00000000
-3.00774765 8.78991795 2.48932147 38 15 34111 9.61800000 1888997209 1888997209 15.00000000
-0.70137268 2.05909061 -0.58286047 4 0 34119 2.25200000 1888997230 1888997230 -15.00000000
-3.88464355 11.41106510 0.21040621 7 1 34120 12.05600000 1888997232 1888997232 1.00000000
-0.82729554 2.43155575 -0.59297097 3 2 34121 2.63600000 1888997234 1888997234 -13.00000000
-3.70811224 10.90498352 0.60364294 23 3 34122 11.53400000 1888997237 1888997237 3.00000000
-0.98535150 2.89776635 -0.59494245 2 4 34122 3.11800000 1888997239 1888997239 -11.00000000
-3.69653130 10.87715435 1.00507998 8 5 34123 11.53200000 1888997241 1888997241 5.00000000
-1.22102833 3.59497190 -0.60133410 2 6 34124 3.84400000 1888997244 1888997244 -9.00000000
-3.87318826 11.41004467 1.47949386 38 7 34125 12.14000000 1888997246 1888997246 7.00000000
-1.62564754 4.79175043 -0.62128991 2 8 34126 5.09800000 1888997248 1888997248 -7.00000000
-3.85407400 11.36676979 1.90099168 32 9 34127 12.15200000 1888997251 1888997251 9.00000000
-5.74900913 16.95547676 -1.56636298 5 10 34127 17.97200000 1888997253 1888997253 -5.00000000
-3.61484885 10.66734886 2.18934250 59 11 34128 11.47400000 1888997255 1888997255 11.00000000
-4.17465401 12.32639885 -0.68204218 4 12 34129 13.03200000 1888997257 1888997257 -3.00000000
-3.45259738 10.20025921 2.48615909 50 13 34130 11.05200000 1888997260 1888997260 13.00000000
-5.73385811 16.94969368 -0.31232828 7 14 34131 17.89600000 1888997262 1888997262 -1.00000000
-2.97766590 8.80219364 2.48983932 38 15 34131 9.62000000 1888997264 1888997264 15.00000000
-0.69787985 2.07251143 -0.58596629 4 0 34139 2.26400000 1888997285 1888997285 -15.00000000
-3.86264682 11.47762299 0.21138355 3 1 34140 12.11200000 1888997287 1888997287 1.00000000
-0.81507534 2.42334628 -0.59027159 3 2 34141 2.62400000 1888997290 1888997290 -13.00000000
-0.97773266 2.90863204 -0.59646893 2 4 34142 3.12600000 1888997294 1888997294 -11.00000000
-3.67821002 10.94853973 1.01048362 12 5 34143 11.59400000 1888997297 1888997297 5.00000000
-1.20847213 3.59921217 -0.60133410 2 6 34144 3.84400000 1888997299 1888997299 -9.00000000
-6.24322224 18.60505295 2.40960073 22 7 34145 19.77200000 1888997301 1888997301 7.00000000
-1.59628737 4.75975466 -0.61641514 2 8 34146 5.05800000 1888997303 1888997303 -7.00000000
-3.85090494 11.48249435 1.91819942 29 9 34146 12.26200000 1888997306 1888997306 9.00000000
-5.68345642 16.95655060 -1.56461990 5 10 34147 17.95200000 1888997308 1888997308 -5.00000000
-3.57384944 10.66873169 2.18705273 56 11 34148 11.46200000 1888997310 1888997310 11.00000000
-4.14681911 12.38635063 -0.68455428 4 12 34149 13.08000000 1888997313 1888997313 -3.00000000
-3.41202402 10.19746494 2.48255992 48 13 34150 11.03600000 1888997315 1888997315 13.00000000
-5.67212105 16.96202087 -0.31218866 35 14 34151 17.88800000 1888997317 1888997317 -1.00000000
-2.94753504 8.81436539 2.49035692 36 15 34151 9.62200000 1888997320 1888997320 15.00000000
-0.69247150 2.08043361 -0.58751923 4 0 34159 2.27000000 1888997340 1888997340 -15.00000000
-0.80784088 2.42987514 -0.59117138 3 2 34161 2.62800000 1888997345 1888997345 -13.00000000
-3.68416238 11.08792114 0.61233068 2 3 34162 11.70000000 1888997347 1888997347 3.00000000
-0.96509749 2.90457463 -0.59494245 2 4 34162 3.11800000 1888997350 1888997350 -11.00000000
-3.68078399 11.08421898 1.02181387 12 5 34163 11.72400000 1888997352 1888997352 5.00000000
-1.19714558 3.60715818 -0.60195982 2 6 34164 3.84800000 1888997354 1888997354 -9.00000000
-6.17324114 18.61165810 2.40765071 51 7 34165 19.75600000 1888997356 1888997356 7.00000000
-1.59215546 4.80298281 -0.62128991 2 8 34166 5.09800000 1888997359 1888997359 -7.00000000
-4.12748718 12.45848274 2.07870126 13 9 34167 13.28800000 1888997361 1888997361 9.00000000
-5.61734009 16.95548058 -1.56270242 5 10 34167 17.93000000 1888997363 1888997363 -5.00000000
-3.53658676 10.68114185 2.18705273 56 11 34168 11.46200000 1888997366 1888997366 11.00000000
-5.61948919 16.98182297 -0.93744165 5 12 34169 17.91200000 1888997368 1888997368 -3.00000000
-3.37395978 10.20191193 2.48076034 48 13 34170 11.02800000 1888997370 1888997370 13.00000000
-5.60848475 16.96842575 -0.31194431 55 14 34171 17.87400000 1888997373 1888997373 -1.00000000
-2.91278505 8.81777287 2.48828626 38 15 34172 9.61400000 1888997375 1888997375 15.00000000
-0.68279040 2.07549787 -0.58544868 4 0 34179 2.26200000 1888997396 1888997396 -15.00000000
-0.80057079 2.43638301 -0.59207118 3 2 34181 2.63200000 1888997400 1888997400 -13.00000000
-3.68852305 11.22530937 0.61923903 2 3 34181 11.83200000 1888997403 1888997403 3.00000000
-0.95005238 2.89300394 -0.59188950 2 4 34182 3.10200000 1888997405 1888997405 -11.00000000
-3.67189288 11.18786526 1.03018093 4 5 34183 11.82000000 1888997407 1888997407 5.00000000
-1.17839026 3.59254527 -0.59883112 2 6 34184 3.82800000 1888997409 1888997409 -9.00000000
-6.10761833 18.63120842 2.40740705 42 7 34185 19.75400000 1888997412 1888997412 7.00000000
-1.56301939 4.77078247 -0.61641514 2 8 34186 5.05800000 1888997414 1888997414 -7.00000000
-4.07844162 12.45591927 2.07588530 13 9 34187 13.27000000 1888997416 1888997416 9.00000000
-5.55068016 16.95226479 -1.56061077 5 10 34187 17.90600000 1888997419 1888997419 -5.00000000
-3.49561763 10.68222713 2.18476295 56 11 34188 11.45000000 1888997421 1888997421 11.00000000
-5.54776049 16.96336746 -0.93534821 10 12 34189 17.87200000 1888997423 1888997423 -3.00000000
-3.33953881 10.21733189 2.48166013 48 13 34190 11.03200000 1888997426 1888997426 13.00000000
-5.53618050 16.94798088 -0.31121132 57 14 34191 17.83200000 1888997428 1888997428 -1.00000000
-2.88292861 8.82554626 2.48776865 38 15 34191 9.61200000 1888997430 1888997430 15.00000000
-0.67673600 2.08154297 -0.58648396 4 0 34199 2.26600000 1888997451 1888997451 -15.00000000
-0.79266322 2.44101620 -0.59252107 3 2 34201 2.63400000 1888997455 1888997455 -13.00000000
-9.54953957 29.40792274 1.62042582 15 3 34201 30.96200000 1888997458 1888997458 3.00000000
-0.94722044 2.91871095 -0.59646893 2 4 34202 3.12600000 1888997460 1888997460 -11.00000000
-8.16431141 25.17200661 2.31520510 33 5 34203 26.56400000 1888997462 1888997462 5.00000000
-1.16584277 3.59663677 -0.59883112 2 6 34204 3.82800000 1888997465 1888997465 -9.00000000
-6.04376936 18.65619087 2.40789437 40 7 34205 19.75800000 1888997467 1888997467 7.00000000
-1.54391098 4.76865530 -0.61544019 2 8 34206 5.05000000 1888997469 1888997469 -7.00000000
-4.03189707 12.46068192 2.07432103 16 9 34207 13.26000000 1888997472 1888997472 9.00000000
-5.47920465 16.93362427 -1.55712450 10 10 34207 17.86600000 1888997474 1888997474 -5.00000000
-3.45347571 10.67941952 2.18171000 56 11 34208 11.43400000 1888997476 1888997476 11.00000000
-5.48298550 16.96552658 -0.93440616 10 12 34209 17.85400000 1888997479 1888997479 -3.00000000
-3.30265546 10.22521782 2.48076034 47 13 34210 11.02800000 1888997481 1888997481 13.00000000
-5.47145844 16.95007515 -0.31089717 50 14 34211 17.81400000 1888997483 1888997483 -1.00000000
-2.85032368 8.83004093 2.48621583 38 15 34211 9.60600000 1888997485 1888997485 15.00000000
-0.67219442 2.09113240 -0.58855450 4 0 34218 2.27400000 1888997506 1888997506 -15.00000000
-0.78575563 2.44734216 -0.59342086 3 2 34220 2.63800000 1888997511 1888997511 -13.00000000
-9.46330452 29.49242592 1.62325203 21 3 34221 31.01600000 1888997513 1888997513 3.00000000
-0.93633682 2.91809726 -0.59570569 2 4 34221 3.12200000 1888997515 1888997515 -11.00000000
-8.06740856 25.15720367 2.31137037 33 5 34222 26.52000000 1888997518 1888997518 5.00000000
-1.15873253 3.61553216 -0.60133410 2 6 34223 3.84400000 1888997520 1888997520 -9.00000000
-5.97884274 18.66667747 2.40667582 42 7 34224 19.74800000 1888997522 1888997522 7.00000000
-1.54261339 4.81912279 -0.62128991 2 8 34225 5.09800000 1888997525 1888997525 -7.00000000
-3.98791289 12.45823669 2.07181811 20 9 34225 13.24400000 1888997527 1888997527 9.00000000
-5.42423487 16.95549583 -1.55747306 10 10 34226 17.87000000 1888997529 1888997529 -5.00000000
-3.41086793 10.66837311 2.17713070 53 11 34227 11.41000000 1888997532 1888997532 11.00000000
-5.41818523 16.95697975 -0.93294078 10 12 34228 17.82600000 1888997534 1888997534 -3.00000000
-3.27228594 10.24725151 2.48345971 48 13 34229 11.04000000 1888997536 1888997536 13.00000000
-5.41035604 16.95288658 -0.31061792 50 14 34230 17.79800000 1888997538 1888997538 -1.00000000
-2.81948376 8.83993626 2.48621583 38 15 34231 9.60600000 1888997541 1888997541 15.00000000
-0.66489089 2.09346604 -0.58855450 4 0 34238 2.27400000 1888997561 1888997561 -15.00000000
-0.77485102 2.44264007 -0.59162128 3 2 34240 2.63000000 1888997566 1888997566 -13.00000000
-9.34975052 29.47414780 1.62053061 21 3 34240 30.96400000 1888997568 1888997568 3.00000000
-0.93089145 2.93631959 -0.59875864 2 4 34241 3.13800000 1888997571 1888997571 -11.00000000
-7.98014641 25.18711090 2.31154466 41 5 34242 26.52200000 1888997573 1888997573 5.00000000
-1.14849007 3.62708759 -0.60258555 2 6 34243 3.85200000 1888997575 1888997575 -9.00000000
-5.90406466 18.65715218 2.40277600 49 7 34244 19.71600000 1888997578 1888997578 7.00000000
-1.51979637 4.80555153 -0.61885250 2 8 34245 5.07800000 1888997580 1888997580 -7.00000000
-3.94222450 12.47276878 2.07181811 16 9 34246 13.24400000 1888997582 1888997582 9.00000000
-5.35540867 16.94393158 -1.55468416 10 10 34246 17.83800000 1888997585 1888997585 -5.00000000
-3.37242508 10.67646980 2.17636728 56 11 34247 11.40600000 1888997587 1888997587 11.00000000
-5.35535383 16.96436119 -0.93231273 10 12 34248 17.81400000 1888997589 1888997589 -3.00000000
-3.23180580 10.24374485 2.47986031 48 13 34249 11.02400000 1888997591 1888997591 13.00000000
-5.34753895 16.96022606 -0.31040850 50 14 34250 17.78600000 1888997594 1888997594 -1.00000000
-2.78802872 8.84788227 2.48569822 38 15 34251 9.60400000 1888997596 1888997596 15.00000000
-0.65757930 2.09577417 -0.58855450 4 0 34258 2.27400000 1888997617 1888997617 -15.00000000
-0.76865095 2.45276809 -0.59342086 3 2 34260 2.63800000 1888997621 1888997621 -13.00000000
-9.23486423 29.46848679 1.61843705 21 3 34260 30.92400000 1888997624 1888997624 3.00000000
-0.91594195 2.92456317 -0.59570569 4 4 34261 3.12200000 1888997626 1888997626 -11.00000000
-7.88503647 25.19199562 2.30945277 33 5 34262 26.49800000 1888997628 1888997628 5.00000000
-1.12874544 3.60845113 -0.59883112 2 6 34263 3.82800000 1888997631 1888997631 -9.00000000
-5.83653402 18.67006874 2.40180111 47 7 34264 19.70800000 1888997633 1888997633 7.00000000
-1.49946082 4.79945850 -0.61739010 2 8 34265 5.06600000 1888997635 1888997635 -7.00000000
-3.89141631 12.45560551 2.06681204 16 9 34265 13.21200000 1888997638 1888997638 9.00000000
-5.28851128 16.93779755 -1.55241811 10 10 34266 17.81200000 1888997640 1888997640 -5.00000000
-3.33162785 10.67693233 2.17407775 56 11 34267 11.39400000 1888997642 1888997642 11.00000000
-5.29372597 16.97532463 -0.93189406 10 12 34268 17.80600000 1888997644 1888997644 -3.00000000
-3.19486928 10.25124168 2.47896051 48 13 34269 11.02000000 1888997647 1888997647 13.00000000
-5.28176260 16.95778847 -0.31002456 52 14 34270 17.76400000 1888997649 1888997649 -1.00000000
-2.76229453 8.87416077 2.49035692 40 15 34271 9.62200000 1888997651 1888997651 15.00000000
-0.65083158 2.09990191 -0.58907217 4 0 34278 2.27600000 1888997672 1888997672 -15.00000000
-0.76238954 2.46288252 -0.59522051 3 2 34280 2.64600000 1888997677 1888997677 -13.00000000
-9.12367535 29.47383118 1.61697173 21 3 34280 30.89600000 1888997679 1888997679 3.00000000
-0.90456730 2.92399144 -0.59494245 4 4 34281 3.11800000 1888997681 1888997681 -11.00000000
-7.78704739 25.18700600 2.30648947 40 5 34282 26.46400000 1888997684 1888997684 5.00000000
-1.11730897 3.61614370 -0.59945685 2 6 34283 3.83200000 1888997686 1888997686 -9.00000000
-5.77601337 18.70550346 2.40375090 45 7 34284 19.72400000 1888997688 1888997688 7.00000000
-1.47801554 4.78948879 -0.61544019 2 8 34285 5.05000000 1888997691 1888997691 -7.00000000
-3.83975959 12.44268799 2.06243205 20 9 34285 13.18400000 1888997693 1888997693 9.00000000
-5.22876787 16.95425034 -1.55224383 10 10 34286 17.81000000 1888997695 1888997695 -5.00000000
-3.29433799 10.68849659 2.17407775 56 11 34287 11.39400000 1888997697 1888997697 11.00000000
-5.22679567 16.96888733 -0.93053329 5 12 34288 17.78000000 1888997700 1888997700 -3.00000000
-3.15791965 10.25860691 2.47806072 50 13 34289 11.01600000 1888997702 1888997702 13.00000000
-5.21195316 16.94171715 -0.30939627 57 14 34290 17.72800000 1888997704 1888997704 -1.00000000
-2.72903013 8.87636280 2.48828626 38 15 34291 9.61400000 1888997707 1888997707 15.00000000
-0.63727748 2.08184123 -0.58337814 4 0 34298 2.25400000 1888997727 1888997727 -15.00000000
-0.75606686 2.47298312 -0.59702009 3 2 34300 2.65400000 1888997732 1888997732 -13.00000000
-9.00964165 29.46920967 1.61498296 20 3 34300 30.85800000 1888997734 1888997734 3.00000000
-0.89664984 2.93464136 -0.59646893 4 4 34301 3.12600000 1888997737 1888997737 -11.00000000
-7.68977118 25.18354607 2.30370069 48 5 34302 26.43200000 1888997739 1888997739 5.00000000
-1.11448097 3.65214109 -0.60477567 2 6 34303 3.86600000 1888997741 1888997741 -9.00000000
-5.71068382 18.72555161 2.40375090 45 7 34304 19.72400000 1888997743 1888997743 7.00000000
-1.47517765 4.84019136 -0.62128991 2 8 34305 5.09800000 1888997746 1888997746 -7.00000000
-3.79399967 12.44845676 2.06118059 23 9 34305 13.17600000 1888997748 1888997748 9.00000000
-5.16200781 16.94762230 -1.54997778 10 10 34306 17.78400000 1888997750 1888997750 -5.00000000
-3.25129104 10.68114948 2.17026162 59 11 34307 11.37400000 1888997753 1888997753 11.00000000
-5.16578770 16.98129654 -0.93021929 5 12 34308 17.77400000 1888997755 1888997755 -3.00000000
-3.12435842 10.27702522 2.47986031 48 13 34309 11.02400000 1888997757 1888997757 13.00000000
-5.14813328 16.94450188 -0.30911702 55 14 34310 17.71200000 1888997760 1888997760 -1.00000000
-2.69340253 8.86503124 2.48259234 40 15 34310 9.59200000 1888997762 1888997762 15.00000000
-0.63559675 2.10254526 -0.58855450 4 0 34318 2.27400000 1888997783 1888997783 -15.00000000
-0.74292392 2.46068287 -0.59342086 3 2 34320 2.63800000 1888997787 1888997787 -13.00000000
-8.89979267 29.47753525 1.61372685 15 3 34320 30.83400000 1888997790 1888997790 3.00000000
-0.88866907 2.94527149 -0.59799540 2 4 34321 3.13400000 1888997792 1888997792 -11.00000000
-7.59318972 25.18162155 2.30108595 40 5 34322 26.40200000 1888997794 1888997794 5.00000000
-1.10058582 3.65222645 -0.60414988 2 6 34323 3.86200000 1888997796 1888997796 -9.00000000
-5.64299488 18.73776817 2.40277600 49 7 34324 19.71600000 1888997799 1888997799 7.00000000
-1.46284997 4.86051846 -0.62323982 2 8 34325 5.11400000 1888997801 1888997801 -7.00000000
-3.74824619 12.45405865 2.05992913 27 9 34325 13.16800000 1888997803 1888997803 9.00000000
