# .PCD v0.7 - Point Cloud Data file format
VERSION 0.7
FIELDS x y z intensity laser_id azimuth distance_m adjustedtime timestamp vertical_angle
SIZE 4 4 4 1 1 2 8 8 4 8
TYPE F F F U U U F U U F
COUNT 1 1 1 1 1 1 1 1 1 1
WIDTH 522
HEIGHT 1
VIEWPOINT 0 0 0 1 0 0 0
POINTS 522
DATA ascii
-2.65443182 18.74481201 2.32453585 70 7 35194 19.07400000 1888500190 1888500190 7.00000000
-0.73110533 5.16934824 -0.64103276 2 8 35195 5.26000000 1888500192 1888500192 -7.00000000
-2.11840391 14.97837257 2.39595032 46 9 35195 15.31600000 1888500195 1888500195 9.00000000
-1.52675045 10.82227421 2.12446737 43 11 35197 11.13400000 1888500199 1888500199 11.00000000
-2.02693725 14.38597012 -0.76138347 4 12 35198 14.54800000 1888500202 1888500202 -3.00000000
-1.47152412 10.45719433 2.43801951 56 13 35199 10.83800000 1888500204 1888500204 13.00000000
-3.78020072 26.89752579 -0.47411206 9 14 35200 27.16600000 1888500206 1888500206 -1.00000000
-1.26257491 8.98368740 2.43082857 42 15 35200 9.39200000 1888500209 1888500209 15.00000000
-0.30611897 2.20043826 -0.59528381 4 0 35208 2.30000000 1888500229 1888500229 -15.00000000
-3.73877096 26.90937233 0.47421679 15 1 35209 27.17200000 1888500232 1888500232 1.00000000
-0.35703567 2.57301736 -0.59971952 3 2 35210 2.66600000 1888500234 1888500234 -13.00000000
-3.72949481 26.91152000 1.42385197 13 3 35211 27.20600000 1888500236 1888500236 3.00000000
-0.43092921 3.10952592 -0.61020714 2 4 35211 3.19800000 1888500238 1888500238 -11.00000000
-3.47561359 25.11178207 2.21793938 55 5 35212 25.44800000 1888500241 1888500241 5.00000000
-0.53771466 3.89006114 -0.62198341 2 6 35213 3.97600000 1888500243 1888500243 -9.00000000
-2.58844113 18.75003052 2.32404828 65 7 35214 19.07000000 1888500245 1888500245 7.00000000
-0.71197194 5.16400290 -0.64005780 2 8 35215 5.25200000 1888500248 1888500248 -7.00000000
-2.06079674 14.96646690 2.39282155 45 9 35216 15.29600000 1888500250 1888500250 9.00000000
-1.04960001 7.62268543 -0.67319095 4 10 35216 7.72400000 1888500252 1888500252 -5.00000000
-1.49056911 10.83920765 2.12675714 43 11 35217 11.14600000 1888500255 1888500255 11.00000000
-1.97996950 14.41670132 -0.76263958 4 12 35218 14.57200000 1888500257 1888500257 -3.00000000
-1.43395340 10.45454502 2.43621993 56 13 35219 10.83000000 1888500259 1888500259 13.00000000
-3.68357372 26.89074516 -0.47376302 9 14 35220 27.14600000 1888500262 1888500262 -1.00000000
-1.22911596 8.98442650 2.42979312 42 15 35221 9.38800000 1888500264 1888500264 15.00000000
-0.29713857 2.19192171 -0.59269559 4 0 35228 2.29000000 1888500285 1888500285 -15.00000000
-3.64320731 26.91036987 0.47400737 15 1 35229 27.16000000 1888500287 1888500287 1.00000000
-0.34909639 2.58197260 -0.60151911 3 2 35230 2.67400000 1888500289 1888500289 -13.00000000
-3.63339520 26.90854073 1.42301464 13 3 35231 27.19000000 1888500291 1888500291 3.00000000
-0.41954690 3.10712004 -0.60944390 2 4 35231 3.19400000 1888500294 1888500294 -11.00000000
-3.41828990 25.34885597 2.23781085 47 5 35232 25.67600000 1888500296 1888500296 5.00000000
-0.52571446 3.90366054 -0.62386066 2 6 35233 3.98800000 1888500298 1888500298 -9.00000000
-2.52191710 18.75108337 2.32307339 65 7 35234 19.06200000 1888500301 1888500301 7.00000000
-0.69288486 5.15858698 -0.63908285 2 8 35235 5.24400000 1888500303 1888500303 -7.00000000
-2.00852513 14.95364094 2.38969278 48 9 35235 15.27600000 1888500305 1888500305 9.00000000
-1.02298546 7.62630272 -0.67319095 4 10 35236 7.72400000 1888500308 1888500308 -5.00000000
-1.45168138 10.83656120 2.12523055 43 11 35237 11.13800000 1888500310 1888500310 11.00000000
-1.92857444 14.41560650 -0.76222086 4 12 35238 14.56400000 1888500312 1888500312 -3.00000000
-1.39745152 10.45948696 2.43621993 56 13 35239 10.83000000 1888500315 1888500315 13.00000000
-3.58439565 26.86379623 -0.47306493 9 14 35240 27.10600000 1888500317 1888500317 -1.00000000
-1.19778275 8.97696400 2.42668748 42 15 35240 9.37600000 1888500319 1888500319 15.00000000
-0.29049686 2.20060635 -0.59476614 4 0 35248 2.29800000 1888500340 1888500340 -15.00000000
-3.54663682 26.90309715 0.47365832 10 1 35249 27.14000000 1888500342 1888500342 1.00000000
-0.34160766 2.59476781 -0.60421854 3 2 35250 2.68600000 1888500344 1888500344 -13.00000000
-3.53762245 26.90719795 1.42228198 13 3 35251 27.17600000 1888500347 1888500347 3.00000000
-0.40818664 3.10467243 -0.60868067 2 4 35251 3.19000000 1888500349 1888500349 -11.00000000
-3.32693195 25.33890343 2.23589349 31 5 35252 25.65400000 1888500351 1888500351 5.00000000
-0.51259857 3.90938926 -0.62448639 2 6 35253 3.99200000 1888500354 1888500354 -9.00000000
-2.45490193 18.74796295 2.32161093 65 7 35254 19.05000000 1888500356 1888500356 7.00000000
-0.67796248 5.18459415 -0.64200771 2 8 35255 5.26800000 1888500358 1888500358 -7.00000000
-1.95421529 14.96481895 2.39031863 45 9 35256 15.28000000 1888500361 1888500361 9.00000000
-0.99635845 7.62982702 -0.67319095 4 10 35256 7.72400000 1888500363 1888500363 -5.00000000
-1.41181493 10.82598877 2.12217760 43 11 35257 11.12200000 1888500365 1888500365 11.00000000
-1.88443315 14.46978378 -0.76473302 4 12 35258 14.61200000 1888500367 1888500367 -3.00000000
-1.36093259 10.46430111 2.43621993 55 13 35259 10.83000000 1888500370 1888500370 13.00000000
-3.49601030 26.91778755 -0.47379792 9 14 35260 27.14800000 1888500372 1888500372 -1.00000000
-1.16238761 8.96213531 2.42151093 42 15 35261 9.35600000 1888500374 1888500374 15.00000000
-0.28232124 2.19777489 -0.59373087 4 0 35268 2.29400000 1888500395 1888500395 -15.00000000
-3.47204304 27.06605530 0.47631109 21 1 35269 27.29200000 1888500397 1888500397 1.00000000
-0.33056724 2.58048081 -0.60061932 3 2 35270 2.67000000 1888500400 1888500400 -13.00000000
-3.45989704 27.04617500 1.42898095 17 3 35271 27.30400000 1888500402 1888500402 3.00000000
-0.39884156 3.11776280 -0.61097038 2 4 35271 3.20200000 1888500404 1888500404 -11.00000000
-3.23391795 25.31478882 2.23275590 47 5 35272 25.61800000 1888500407 1888500407 5.00000000
-0.49694932 3.89547873 -0.62198341 2 6 35273 3.97600000 1888500409 1888500409 -9.00000000
-2.38743734 18.74066353 2.31966114 63 7 35274 19.03400000 1888500411 1888500411 7.00000000
-0.66086280 5.19480610 -0.64298266 2 8 35275 5.27600000 1888500414 1888500414 -7.00000000
-1.90358222 14.96337891 2.38906717 45 9 35275 15.27200000 1888500416 1888500416 9.00000000
-1.37203991 10.81526947 2.11912465 40 11 35277 11.10600000 1888500420 1888500420 11.00000000
-1.83642280 14.49608803 -0.76577973 4 12 35278 14.63200000 1888500423 1888500423 -3.00000000
-1.32537544 10.47672081 2.43801951 57 13 35279 10.83800000 1888500425 1888500425 13.00000000
-3.48699141 27.60237885 -0.48563066 3 14 35280 27.82600000 1888500427 1888500427 -1.00000000
-1.13193536 8.96019077 2.41995811 45 15 35280 9.35000000 1888500430 1888500430 15.00000000
-0.27512676 2.20258093 -0.59476614 4 0 35288 2.29800000 1888500450 1888500450 -15.00000000
-3.37828636 27.08396149 0.47641578 26 1 35289 27.29800000 1888500453 1888500453 1.00000000
-0.32107592 2.57775140 -0.59971952 3 2 35290 2.66600000 1888500455 1888500455 -13.00000000
-3.42290592 27.51988983 1.45336950 13 3 35291 27.77000000 1888500457 1888500457 3.00000000
-0.38941002 3.13082552 -0.61326009 2 4 35291 3.21400000 1888500460 1888500460 -11.00000000
-3.13792038 25.26462936 2.22735214 39 5 35292 25.55600000 1888500462 1888500462 5.00000000
-0.48286226 3.89326882 -0.62135768 2 6 35293 3.97200000 1888500464 1888500464 -9.00000000
-2.32005382 18.73312187 2.31771111 63 7 35294 19.01800000 1888500467 1888500467 7.00000000
-0.64321280 5.20102119 -0.64347011 2 8 35295 5.28000000 1888500469 1888500469 -7.00000000
-1.84872591 14.97025585 2.38906717 48 9 35296 15.27200000 1888500471 1888500471 9.00000000
-1.33427918 10.81999302 2.11912465 43 11 35297 11.10600000 1888500476 1888500476 11.00000000
-1.78825176 14.52223206 -0.76682645 4 12 35298 14.65200000 1888500478 1888500478 -3.00000000
-1.28736973 10.46967888 2.43532014 59 13 35299 10.82600000 1888500480 1888500480 13.00000000
-1.10026252 8.97386742 2.42254615 45 15 35301 9.36000000 1888500485 1888500485 15.00000000
-0.26867265 2.20726967 -0.59580141 4 0 35306 2.30200000 1888500506 1888500506 -15.00000000
-3.29438949 27.10436630 0.47659031 21 1 35307 27.30800000 1888500508 1888500508 1.00000000
-0.31415007 2.58842015 -0.60196900 3 2 35308 2.67600000 1888500510 1888500510 -13.00000000
-4.13179445 34.09341431 1.79983354 26 3 35309 34.39000000 1888500513 1888500513 3.00000000
-0.37862754 3.12423730 -0.61173362 2 4 35309 3.20600000 1888500515 1888500515 -11.00000000
-3.05398607 25.23678207 2.22404027 31 5 35310 25.51800000 1888500517 1888500517 5.00000000
-0.47110280 3.89868879 -0.62198341 2 6 35311 3.97600000 1888500520 1888500520 -9.00000000
-2.26095295 18.73834801 2.31746745 59 7 35312 19.01600000 1888500522 1888500522 7.00000000
-0.62449563 5.18330812 -0.64103276 2 8 35313 5.26000000 1888500524 1888500524 -7.00000000
-1.80288255 14.96390820 2.38718987 45 9 35313 15.26000000 1888500526 1888500526 9.00000000
-1.30028069 10.82413101 2.11912465 40 11 35315 11.10600000 1888500531 1888500531 11.00000000
-1.75213480 14.60710049 -0.77101332 4 12 35316 14.73200000 1888500533 1888500533 -3.00000000
-1.25400853 10.46980190 2.43442035 56 13 35317 10.82200000 1888500536 1888500536 13.00000000
-4.18484497 34.99127197 -0.61512750 8 14 35318 35.24600000 1888500538 1888500538 -1.00000000
-1.07363176 8.97709179 2.42254615 45 15 35318 9.36000000 1888500540 1888500540 15.00000000
-0.26096621 2.20819402 -0.59580141 4 0 35326 2.30200000 1888500561 1888500561 -15.00000000
-4.13221931 35.01766205 0.61547655 7 1 35327 35.26600000 1888500563 1888500563 1.00000000
-0.30579698 2.59530711 -0.60331875 3 2 35328 2.68200000 1888500566 1888500566 -13.00000000
-4.01649475 34.13936615 1.80150831 46 3 35329 34.42200000 1888500568 1888500568 3.00000000
-0.36588445 3.10994148 -0.60868067 2 4 35329 3.19000000 1888500570 1888500570 -11.00000000
-2.96285272 25.22156334 2.22177410 39 5 35330 25.49200000 1888500573 1888500573 5.00000000
-0.45979223 3.91992879 -0.62511212 2 6 35331 3.99600000 1888500575 1888500575 -9.00000000
-2.19414449 18.73429680 2.31600499 59 7 35332 19.00400000 1888500577 1888500577 7.00000000
-0.60778213 5.19728613 -0.64249516 2 8 35333 5.27200000 1888500579 1888500579 -7.00000000
-1.74665034 14.95864296 2.38531280 41 9 35334 15.24800000 1888500582 1888500582 9.00000000
-0.89240021 7.64268351 -0.67319095 4 10 35334 7.72400000 1888500584 1888500584 -5.00000000
-1.26248944 10.82860374 2.11912465 43 11 35335 11.10600000 1888500586 1888500586 11.00000000
-1.70113587 14.61312771 -0.77101332 4 12 35336 14.73200000 1888500589 1888500589 -3.00000000
-1.21700442 10.47024345 2.43352056 56 13 35337 10.81800000 1888500591 1888500591 13.00000000
-4.06083298 34.98977661 -0.61484826 8 14 35338 35.23000000 1888500593 1888500593 -1.00000000
-1.03894281 8.96561527 2.41840506 45 15 35339 9.34400000 1888500596 1888500596 15.00000000
-0.25149632 2.19373727 -0.59166032 4 0 35346 2.28600000 1888500616 1888500616 -15.00000000
-4.00609350 34.99810028 0.61488318 15 1 35347 35.23200000 1888500619 1888500619 1.00000000
-0.29894862 2.61572003 -0.60781777 3 2 35348 2.70200000 1888500621 1888500621 -13.00000000
-3.89956617 34.17302322 1.80255497 26 3 35349 34.44200000 1888500623 1888500623 3.00000000
-0.35547167 3.11510086 -0.60944390 2 4 35349 3.19400000 1888500626 1888500626 -11.00000000
-2.87005854 25.19018173 2.21811366 39 5 35350 25.45000000 1888500628 1888500628 5.00000000
-0.44565976 3.91758442 -0.62448639 2 6 35351 3.99200000 1888500630 1888500630 -9.00000000
-2.12828827 18.73789597 2.31551743 57 7 35352 19.00000000 1888500632 1888500632 7.00000000
-0.58739966 5.17965174 -0.64005780 2 8 35353 5.25200000 1888500635 1888500635 -7.00000000
-1.69659090 14.96042728 2.38468695 45 9 35353 15.24400000 1888500637 1888500637 9.00000000
-0.86571681 7.64575195 -0.67319095 4 10 35354 7.72400000 1888500639 1888500639 -5.00000000
-1.22424185 10.82904339 2.11836147 40 11 35355 11.10200000 1888500642 1888500642 11.00000000
-1.65011621 14.61897659 -0.77101332 4 12 35356 14.73200000 1888500644 1888500644 -3.00000000
-1.18044913 10.47442818 2.43352056 59 13 35357 10.81800000 1888500646 1888500646 13.00000000
-3.93777680 34.99578857 -0.61470866 8 14 35358 35.22200000 1888500649 1888500649 -1.00000000
-1.00791001 8.95749283 2.41529942 42 15 35358 9.33200000 1888500651 1888500651 15.00000000
-0.24469054 2.20228195 -0.59373087 4 0 35366 2.29400000 1888500672 1888500672 -15.00000000
-3.88169837 34.99199677 0.61453414 15 1 35367 35.21200000 1888500674 1888500674 1.00000000
-0.28724197 2.59350491 -0.60241890 3 2 35368 2.67800000 1888500676 1888500676 -13.00000000
-3.78069520 34.19039917 1.80276430 39 3 35369 34.44600000 1888500679 1888500679 3.00000000
-0.34718511 3.13973904 -0.61402333 2 4 35369 3.21800000 1888500681 1888500681 -11.00000000
-2.77751970 25.15845871 2.21445322 47 5 35370 25.40800000 1888500683 1888500683 5.00000000
-0.43154928 3.91518927 -0.62386066 2 6 35371 3.98800000 1888500685 1888500685 -9.00000000
-2.06134772 18.73139954 2.31381130 51 7 35372 18.98600000 1888500688 1888500688 7.00000000
-0.57235092 5.20929575 -0.64347011 2 8 35373 5.28000000 1888500690 1888500690 -7.00000000
-1.64435887 14.96625805 2.38468695 41 9 35373 15.24400000 1888500692 1888500692 9.00000000
-0.83902287 7.64872742 -0.67319095 4 10 35374 7.72400000 1888500695 1888500695 -5.00000000
-1.18386912 10.80983162 2.11378217 40 11 35375 11.07800000 1888500697 1888500697 11.00000000
-1.60732567 14.70009422 -0.77499086 4 12 35376 14.80800000 1888500699 1888500699 -3.00000000
-1.14345634 10.47461033 2.43262076 57 13 35377 10.81400000 1888500702 1888500702 13.00000000
-3.81299472 34.98546600 -0.61428982 8 14 35378 35.19800000 1888500704 1888500704 -1.00000000
-0.97747362 8.96863842 2.41736984 42 15 35378 9.34000000 1888500706 1888500706 15.00000000
-0.23826747 2.21853042 -0.59787202 4 0 35387 2.31000000 1888500727 1888500727 -15.00000000
-3.75278068 35.00002289 0.61442941 15 1 35388 35.20600000 1888500729 1888500729 1.00000000
-0.27690470 2.58678961 -0.60061932 3 2 35389 2.67000000 1888500732 1888500732 -13.00000000
-3.65408230 34.19210815 1.80213630 39 3 35390 34.43400000 1888500734 1888500734 3.00000000
-0.33567506 3.14099050 -0.61402333 2 4 35390 3.21800000 1888500736 1888500736 -11.00000000
-2.68000627 25.11894035 2.21009541 38 5 35391 25.35800000 1888500738 1888500738 5.00000000
-0.41719648 3.91674471 -0.62386066 2 6 35392 3.98800000 1888500741 1888500741 -9.00000000
-1.99058080 18.71908951 2.31137395 48 7 35393 18.96600000 1888500743 1888500743 7.00000000
-0.55115837 5.19161844 -0.64103276 2 8 35394 5.26000000 1888500745 1888500745 -7.00000000
-1.58771348 14.98031902 2.38593841 48 9 35395 15.25200000 1888500748 1888500748 9.00000000
-1.14568722 10.82776451 2.11645341 43 11 35396 11.09200000 1888500752 1888500752 11.00000000
-1.55595410 14.72972107 -0.77624691 4 12 35397 14.83200000 1888500755 1888500755 -3.00000000
-1.10464859 10.47485447 2.43172097 57 13 35398 10.81000000 1888500757 1888500757 13.00000000
-3.68474102 34.99920654 -0.61428982 8 14 35399 35.19800000 1888500759 1888500759 -1.00000000
-0.94419080 8.96831799 2.41633463 42 15 35399 9.33600000 1888500761 1888500761 15.00000000
-0.22992314 2.21358418 -0.59631908 3 0 35407 2.30400000 1888500782 1888500782 -15.00000000
-3.63079119 35.01489639 0.61446434 15 1 35408 35.20800000 1888500785 1888500785 1.00000000
-0.26807410 2.58967876 -0.60106921 3 2 35409 2.67200000 1888500787 1888500787 -13.00000000
-3.53101182 34.16889572 1.80025220 33 3 35410 34.39800000 1888500789 1888500789 3.00000000
-0.32349807 3.13042593 -0.61173362 2 4 35410 3.20600000 1888500791 1888500791 -11.00000000
-2.59067297 25.11228752 2.20870090 38 5 35411 25.34200000 1888500794 1888500794 5.00000000
-0.40514091 3.93389702 -0.62636358 2 6 35412 4.00400000 1888500796 1888500796 -9.00000000
-1.92502391 18.72394943 2.31113029 55 7 35413 18.96400000 1888500798 1888500798 7.00000000
-0.53303289 5.19351053 -0.64103276 2 8 35414 5.26000000 1888500801 1888500801 -7.00000000
-1.53259397 14.95825863 2.38155818 41 9 35415 15.22400000 1888500803 1888500803 9.00000000
-1.10668576 10.81997967 2.11416364 40 11 35416 11.08000000 1888500808 1888500808 11.00000000
-1.50047076 14.69532394 -0.77415347 4 12 35417 14.79200000 1888500810 1888500810 -3.00000000
-1.06689215 10.46701527 2.42902160 60 13 35418 10.79800000 1888500812 1888500812 13.00000000
-3.56173897 35.00389862 -0.61415017 8 14 35419 35.19000000 1888500814 1888500814 -1.00000000
-0.91170436 8.97556210 2.41736984 40 15 35420 9.34000000 1888500817 1888500817 15.00000000
-0.22219494 2.21049023 -0.59528381 3 0 35426 2.30000000 1888500838 1888500838 -15.00000000
-3.51226187 35.00286865 0.61404544 15 1 35427 35.18400000 1888500840 1888500840 1.00000000
-0.26162142 2.61188293 -0.60601813 3 2 35428 2.69400000 1888500842 1888500842 -13.00000000
-3.41788316 34.18240356 1.80035686 39 3 35429 34.40000000 1888500844 1888500844 3.00000000
-0.31311542 3.13148165 -0.61173362 2 4 35429 3.20600000 1888500847 1888500847 -11.00000000
-2.50698757 25.11677551 2.20835233 38 5 35430 25.33800000 1888500849 1888500849 5.00000000
-0.39287680 3.94308138 -0.62761509 2 6 35431 4.01200000 1888500851 1888500851 -9.00000000
-1.86233306 18.72430420 2.31039906 51 7 35432 18.95800000 1888500854 1888500854 7.00000000
-0.51737666 5.21105289 -0.64298266 2 8 35433 5.27600000 1888500856 1888500856 -7.00000000
-1.48142362 14.94753265 2.37905526 45 9 35434 15.20800000 1888500858 1888500858 9.00000000
-1.07118583 10.82749748 2.11492682 40 11 35435 11.08400000 1888500863 1888500863 11.00000000
-1.45761967 14.75984669 -0.77729362 4 12 35436 14.85200000 1888500865 1888500865 -3.00000000
-1.03179395 10.46661663 2.42812157 62 13 35437 10.79400000 1888500867 1888500867 13.00000000
-3.44290042 34.98765564 -0.61366153 8 14 35438 35.16200000 1888500870 1888500870 -1.00000000
-0.88274562 8.97069168 2.41529942 40 15 35438 9.33200000 1888500872 1888500872 15.00000000
-0.21373153 2.20356107 -0.59321326 4 0 35446 2.29200000 1888500893 1888500893 -15.00000000
-3.38947940 35.00894547 0.61394078 7 1 35447 35.17800000 1888500895 1888500895 1.00000000
-0.25250265 2.61278009 -0.60601813 3 2 35448 2.69400000 1888500897 1888500897 -13.00000000
-3.30468011 34.25774384 1.80370641 33 3 35449 34.46400000 1888500900 1888500900 3.00000000
-0.30142856 3.12473869 -0.61020714 2 4 35449 3.19800000 1888500902 1888500902 -11.00000000
-2.41700673 25.10157585 2.20626044 38 5 35450 25.31400000 1888500904 1888500904 5.00000000
-0.37835455 3.93656349 -0.62636358 2 6 35451 4.00400000 1888500907 1888500907 -9.00000000
-1.79696167 18.73069000 2.31039906 51 7 35452 18.95800000 1888500909 1888500909 7.00000000
-0.49729127 5.19306660 -0.64054525 2 8 35453 5.25600000 1888500911 1888500911 -7.00000000
-1.42961383 14.95654583 2.37968111 41 9 35454 15.21200000 1888500914 1888500914 9.00000000
-0.73214817 7.65969658 -0.67319095 4 10 35454 7.72400000 1888500916 1888500916 -5.00000000
-1.03245199 10.82139874 2.11301875 40 11 35455 11.07400000 1888500918 1888500918 11.00000000
-1.41366315 14.84437466 -0.78148049 4 12 35456 14.93200000 1888500920 1888500920 -3.00000000
-0.99562120 10.47403431 2.42902160 57 13 35457 10.79800000 1888500923 1888500923 13.00000000
-3.31923890 34.98353577 -0.61338228 4 14 35458 35.14600000 1888500925 1888500925 -1.00000000
-0.85051429 8.96410275 2.41271114 40 15 35458 9.32200000 1888500927 1888500927 15.00000000
-0.20729689 2.21775794 -0.59683675 4 0 35466 2.30600000 1888500948 1888500948 -15.00000000
-3.28583026 35.21966934 0.61743122 23 1 35467 35.37800000 1888500950 1888500950 1.00000000
-0.24247737 2.60394406 -0.60376865 3 2 35468 2.68400000 1888500953 1888500953 -13.00000000
-3.24661398 34.86511230 1.83510792 63 3 35468 35.06400000 1888500955 1888500955 3.00000000
-0.29269961 3.14922976 -0.61478657 2 4 35469 3.22200000 1888500957 1888500957 -11.00000000
-2.32863498 25.10192299 2.20556331 31 5 35470 25.30600000 1888500960 1888500960 5.00000000
-0.36169708 3.90638876 -0.62135768 2 6 35471 3.97200000 1888500962 1888500962 -9.00000000
-1.72974169 18.71708107 2.30796170 51 7 35472 18.93800000 1888500964 1888500964 7.00000000
-0.47952572 5.19872427 -0.64103276 2 8 35473 5.26000000 1888500966 1888500966 -7.00000000
-1.37946391 14.95530319 2.37874246 45 9 35473 15.20600000 1888500969 1888500969 9.00000000
-0.99341446 10.81125164 2.11034751 40 11 35475 11.06000000 1888500973 1888500973 11.00000000
-1.36183810 14.84921932 -0.78148049 4 12 35476 14.93200000 1888500976 1888500976 -3.00000000
-0.95869869 10.47356510 2.42812157 59 13 35477 10.79400000 1888500978 1888500978 13.00000000
-3.93593192 43.08199310 -0.75513071 5 14 35478 43.26800000 1888500980 1888500980 -1.00000000
-0.81992161 8.97471237 2.41478181 45 15 35478 9.33000000 1888500983 1888500983 15.00000000
-0.19938113 2.21654391 -0.59631908 4 0 35486 2.30400000 1888501003 1888501003 -15.00000000
-3.87200904 43.12994766 0.75586373 10 1 35487 43.31000000 1888501006 1888501006 1.00000000
-0.23147343 2.58342385 -0.59881973 3 2 35488 2.66200000 1888501008 1888501008 -13.00000000
-3.12538719 34.95038223 1.83898079 70 3 35489 35.13800000 1888501010 1888501010 3.00000000
-0.28205469 3.15414333 -0.61554980 2 4 35489 3.22600000 1888501013 1888501013 -11.00000000
-2.23993611 25.09799194 2.20451736 38 5 35490 25.29400000 1888501015 1888501015 5.00000000
-0.35051262 3.93517375 -0.62573785 2 6 35491 4.00000000 1888501017 1888501017 -9.00000000
-1.66281438 18.70520973 2.30576801 59 7 35492 18.92000000 1888501019 1888501019 7.00000000
-0.46102500 5.19641161 -0.64054525 2 8 35493 5.25600000 1888501022 1888501022 -7.00000000
-1.32551193 14.97009754 2.38030672 41 9 35494 15.21600000 1888501024 1888501024 9.00000000
-0.95515168 10.80878639 2.10920262 40 11 35495 11.05400000 1888501029 1888501029 11.00000000
-1.31350553 14.89367294 -0.78357393 4 12 35496 14.97200000 1888501031 1888501031 -3.00000000
-0.92042470 10.45743465 2.42362261 60 13 35497 10.77400000 1888501033 1888501033 13.00000000
-3.78534865 43.09347534 -0.75509584 11 14 35498 43.26600000 1888501036 1888501036 -1.00000000
-0.78685343 8.97573280 2.41426396 42 15 35499 9.32800000 1888501038 1888501038 15.00000000
-0.19131002 2.21337700 -0.59528381 3 0 35506 2.30000000 1888501059 1888501059 -15.00000000
-3.72023082 43.12925339 0.75561941 10 1 35507 43.29600000 1888501061 1888501061 1.00000000
-0.22345699 2.59586549 -0.60151911 3 2 35508 2.67400000 1888501063 1888501063 -13.00000000
-3.00758600 34.93866348 1.83782947 63 3 35508 35.11600000 1888501066 1888501066 3.00000000
-0.26936257 3.13554811 -0.61173362 2 4 35509 3.20600000 1888501068 1888501068 -11.00000000
-2.15146327 25.09573364 2.20364571 38 5 35510 25.28400000 1888501070 1888501070 5.00000000
-0.33610064 3.92850065 -0.62448639 2 6 35511 3.99200000 1888501072 1888501072 -9.00000000
-1.59784865 18.71485710 2.30625534 55 7 35512 18.92400000 1888501075 1888501075 7.00000000
-0.44288334 5.19798946 -0.64054525 2 8 35513 5.25600000 1888501077 1888501077 -7.00000000
-1.27107275 14.94904518 2.37623954 37 9 35514 15.19000000 1888501079 1888501079 9.00000000
-0.91708416 10.80814266 2.10843945 37 11 35515 11.05000000 1888501084 1888501084 11.00000000
-1.26218295 14.90612793 -0.78399265 4 12 35516 14.98000000 1888501086 1888501086 -3.00000000
-0.88293129 10.44893360 2.42092323 59 13 35517 10.76200000 1888501089 1888501089 13.00000000
-3.63254905 43.07852936 -0.75460714 5 14 35518 43.23800000 1888501091 1888501091 -1.00000000
-0.75740916 8.98214245 2.41529942 42 15 35518 9.33200000 1888501093 1888501093 15.00000000
-0.18358272 2.21403122 -0.59528381 3 0 35526 2.30000000 1888501114 1888501114 -15.00000000
-3.56784511 43.12005615 0.75523543 10 1 35527 43.27400000 1888501116 1888501116 1.00000000
-0.21567720 2.61216664 -0.60511833 3 2 35528 2.69000000 1888501118 1888501118 -13.00000000
-0.25873825 3.14038253 -0.61249685 4 4 35529 3.21000000 1888501123 1888501123 -11.00000000
-2.06107426 25.06933403 2.20068240 46 5 35530 25.25000000 1888501125 1888501125 5.00000000
-0.32400072 3.94933748 -0.62761509 2 6 35531 4.01200000 1888501128 1888501128 -9.00000000
-1.53251183 18.72031975 2.30625534 55 7 35532 18.92400000 1888501130 1888501130 7.00000000
-0.42699894 5.22720242 -0.64395761 2 8 35533 5.28400000 1888501132 1888501132 -7.00000000
-1.21792018 14.94157791 2.37436223 37 9 35534 15.17800000 1888501135 1888501135 9.00000000
-0.87855530 10.80149364 2.10653138 37 11 35535 11.04000000 1888501139 1888501139 11.00000000
-1.21175885 14.93035030 -0.78503937 4 12 35536 15.00000000 1888501142 1888501142 -3.00000000
-0.84645236 10.45195198 2.42092323 59 13 35537 10.76200000 1888501144 1888501144 13.00000000
-3.48247695 43.09493637 -0.75467694 5 14 35538 43.24200000 1888501146 1888501146 -1.00000000
-0.72573978 8.98088074 2.41426396 42 15 35538 9.32800000 1888501148 1888501148 15.00000000
-0.17532022 2.20307326 -0.59217799 3 0 35545 2.28800000 1888501169 1888501169 -15.00000000
-3.42293477 43.10772705 0.75481659 10 1 35546 43.25000000 1888501171 1888501171 1.00000000
-0.20670594 2.60898232 -0.60421854 3 2 35547 2.68600000 1888501174 1888501174 -13.00000000
-2.76233768 34.94288254 1.83699203 70 3 35548 35.10000000 1888501176 1888501176 3.00000000
-0.24832295 3.14122319 -0.61249685 4 4 35548 3.21000000 1888501178 1888501178 -11.00000000
-1.97448349 25.03233337 2.19684768 46 5 35549 25.20600000 1888501181 1888501181 5.00000000
-0.31152239 3.95826745 -0.62886655 2 6 35550 4.02000000 1888501183 1888501183 -9.00000000
-1.46949220 18.71342468 2.30479312 57 7 35551 18.91200000 1888501185 1888501185 7.00000000
-0.40935245 5.22463179 -0.64347011 2 8 35552 5.28000000 1888501188 1888501188 -7.00000000
-1.17035675 14.93745327 2.37311077 41 9 35552 15.17000000 1888501190 1888501190 9.00000000
-0.84196812 10.79456139 2.10462332 37 11 35554 11.03000000 1888501195 1888501195 11.00000000
-1.16689038 14.99402332 -0.78817952 4 12 35555 15.06000000 1888501197 1888501197 -3.00000000
-0.81118435 10.44692993 2.41912365 56 13 35556 10.75400000 1888501199 1888501199 13.00000000
-3.33692408 43.07235336 -0.75408357 5 14 35557 43.20800000 1888501201 1888501201 -1.00000000
-0.69379073 8.97565460 2.41219354 42 15 35558 9.32000000 1888501204 1888501204 15.00000000
-0.16821510 2.21137714 -0.59424853 3 0 35565 2.29600000 1888501224 1888501224 -15.00000000
-3.27062392 43.09548569 0.75439775 10 1 35566 43.22600000 1888501227 1888501227 1.00000000
-0.19789189 2.61357427 -0.60511833 3 2 35567 2.69000000 1888501229 1888501229 -13.00000000
-2.64554286 34.93989944 1.83636403 63 3 35567 35.08800000 1888501231 1888501231 3.00000000
-0.23765229 3.14598632 -0.61326009 2 4 35568 3.21400000 1888501234 1888501234 -11.00000000
-1.88499606 25.01125908 2.19440722 46 5 35569 25.17800000 1888501236 1888501236 5.00000000
-0.29711112 3.95145130 -0.62761509 2 6 35570 4.01200000 1888501238 1888501238 -9.00000000
-1.40297318 18.70260429 2.30284309 57 7 35571 18.89600000 1888501241 1888501241 7.00000000
-0.39170519 5.23394680 -0.64444506 2 8 35572 5.28800000 1888501243 1888501243 -7.00000000
-1.11545336 14.93967247 2.37279797 41 9 35573 15.16800000 1888501245 1888501245 9.00000000
-0.58745223 7.86796188 -0.69027346 4 10 35573 7.92000000 1888501248 1888501248 -5.00000000
-0.80340791 10.78568745 2.10233355 37 11 35574 11.01800000 1888501250 1888501250 11.00000000
-0.77471280 10.44969749 2.41912365 56 13 35576 10.75400000 1888501254 1888501254 13.00000000
-3.18493056 43.06180191 -0.75369960 11 14 35577 43.18600000 1888501257 1888501257 -1.00000000
-0.66273993 8.98187542 2.41322875 45 15 35578 9.32400000 1888501259 1888501259 15.00000000
-0.16105415 2.21965790 -0.59631908 3 0 35585 2.30400000 1888501280 1888501280 -15.00000000
-3.11916208 43.09267807 0.75415337 10 1 35586 43.21200000 1888501282 1888501282 1.00000000
-0.18792553 2.60258698 -0.60241890 3 2 35587 2.67800000 1888501284 1888501284 -13.00000000
-2.52226925 34.93099213 1.83542204 63 3 35587 35.07000000 1888501287 1888501287 3.00000000
-0.22723350 3.15462947 -0.61478657 2 4 35588 3.22200000 1888501289 1888501289 -11.00000000
-1.79582250 24.99185181 2.19214129 54 5 35589 25.15200000 1888501291 1888501291 5.00000000
-0.28388110 3.96034575 -0.62886655 2 6 35590 4.02000000 1888501294 1888501294 -9.00000000
-1.33668935 18.69352722 2.30113697 48 7 35591 18.88200000 1888501296 1888501296 7.00000000
-0.37258548 5.22340202 -0.64298266 2 8 35592 5.27600000 1888501298 1888501298 -7.00000000
-1.06604600 14.94526005 2.37311077 41 9 35592 15.17000000 1888501301 1888501301 9.00000000
-0.55998433 7.86996460 -0.69027346 4 10 35593 7.92000000 1888501303 1888501303 -5.00000000
-0.76519793 10.78059292 2.10080695 37 11 35594 11.01000000 1888501305 1888501305 11.00000000
-1.06726289 15.07352638 -0.79194766 4 12 35595 15.13200000 1888501307 1888501307 -3.00000000
-0.73685890 10.43289948 2.41462469 56 13 35596 10.73400000 1888501310 1888501310 13.00000000
-0.63219589 8.99569607 2.41633463 6 15 35598 9.33600000 1888501314 1888501314 15.00000000
-0.15330511 2.22020650 -0.59631908 4 0 35605 2.30400000 1888501335 1888501335 -15.00000000
-0.17910679 2.60711551 -0.60331875 3 2 35607 2.68200000 1888501340 1888501340 -13.00000000
-2.39909005 34.92164993 1.83447993 63 3 35607 35.05200000 1888501342 1888501342 3.00000000
-0.21460983 3.13189936 -0.61020714 2 4 35608 3.19800000 1888501344 1888501344 -11.00000000
-1.70667171 24.97013855 2.18970084 46 5 35609 25.12400000 1888501347 1888501347 5.00000000
-0.26871163 3.94160461 -0.62573785 2 6 35610 4.00000000 1888501349 1888501349 -9.00000000
-1.27088988 18.69015694 2.30016208 48 7 35611 18.87400000 1888501351 1888501351 7.00000000
-0.35811123 5.28012609 -0.64980733 2 8 35612 5.33200000 1888501354 1888501354 -7.00000000
-1.01373708 14.94691944 2.37279797 41 9 35612 15.16800000 1888501356 1888501356 9.00000000
-0.52578604 7.77247906 -0.68155789 4 10 35613 7.82000000 1888501358 1888501358 -5.00000000
-0.72861928 10.79886818 2.10385990 40 11 35614 11.02600000 1888501360 1888501360 11.00000000
-1.01812673 15.12897110 -0.79466915 4 12 35615 15.18400000 1888501363 1888501363 -3.00000000
-0.69991475 10.42763042 2.41282511 59 13 35616 10.72600000 1888501365 1888501365 13.00000000
-3.42800021 51.20556641 -0.89579713 8 14 35617 51.32800000 1888501367 1888501367 -1.00000000
-0.45072210 6.75031376 1.81276858 2 15 35618 7.00400000 1888501370 1888501370 15.00000000
-0.14568056 2.22265577 -0.59683675 3 0 35625 2.30600000 1888501390 1888501390 -15.00000000
-3.34821486 51.22086334 0.89597166 12 1 35626 51.33800000 1888501393 1888501393 1.00000000
-0.17051226 2.61550331 -0.60511833 3 2 35627 2.69000000 1888501395 1888501395 -13.00000000
-2.27691627 34.92582703 1.83427060 63 3 35627 35.04800000 1888501397 1888501397 3.00000000
-0.20469517 3.14830232 -0.61326009 2 4 35628 3.21400000 1888501400 1888501400 -11.00000000
-1.61692083 24.93618011 2.18621469 46 5 35629 25.08400000 1888501402 1888501402 5.00000000
-0.25826561 3.99377131 -0.63387245 2 6 35630 4.05200000 1888501404 1888501404 -9.00000000
-1.20576906 18.69646072 2.30040574 57 7 35631 18.87600000 1888501406 1888501406 7.00000000
-0.33916834 5.27341986 -0.64883238 2 8 35632 5.32400000 1888501409 1888501409 -7.00000000
-0.96092254 14.94050980 2.37123370 45 9 35632 15.15800000 1888501411 1888501411 9.00000000
-0.50502843 7.87368202 -0.69027346 4 10 35633 7.92000000 1888501413 1888501413 -5.00000000
-0.69029313 10.79154968 2.10195184 37 11 35634 11.01600000 1888501416 1888501416 11.00000000
-0.96658200 15.15236568 -0.79571587 4 12 35635 15.20400000 1888501418 1888501418 -3.00000000
-0.66326380 10.42611980 2.41192532 57 13 35636 10.72200000 1888501420 1888501420 13.00000000
-3.24721289 51.18528748 -0.89523864 8 14 35637 51.29600000 1888501423 1888501423 -1.00000000
-0.42833477 6.75177145 1.81276858 2 15 35637 7.00400000 1888501425 1888501425 15.00000000
-0.13720344 2.21158195 -0.59373087 3 0 35645 2.29400000 1888501446 1888501446 -15.00000000
-3.16890621 51.22425461 0.89583200 12 1 35646 51.33000000 1888501448 1888501448 1.00000000
-0.16210133 2.62775278 -0.60781777 3 2 35647 2.70200000 1888501450 1888501450 -13.00000000
-2.15449643 34.92558670 1.83385193 68 3 35647 35.04000000 1888501453 1888501453 3.00000000
-0.19394538 3.15291691 -0.61402333 2 4 35648 3.21800000 1888501455 1888501455 -11.00000000
-1.52791584 24.90985489 2.18342566 54 5 35649 25.05200000 1888501457 1888501457 5.00000000
-0.24191129 3.95521450 -0.62761509 2 6 35650 4.01200000 1888501459 1888501459 -9.00000000
-1.14061975 18.70253754 2.30064940 51 7 35651 18.87800000 1888501462 1888501462 7.00000000
-0.32112008 5.28051615 -0.64956361 2 8 35652 5.33000000 1888501464 1888501464 -7.00000000
-0.90888447 14.94574547 2.37154651 45 9 35652 15.16000000 1888501466 1888501466 9.00000000
-0.47754106 7.87539673 -0.69027346 4 10 35653 7.92000000 1888501469 1888501469 -5.00000000
-0.65226394 10.78801441 2.10080695 37 11 35654 11.01000000 1888501471 1888501471 11.00000000
-0.91536719 15.18355751 -0.79718131 4 12 35655 15.23200000 1888501473 1888501473 -3.00000000
-3.06744647 51.17834854 -0.89492452 8 14 35657 51.27800000 1888501478 1888501478 -1.00000000
-0.40174150 6.72244120 1.80448639 2 15 35658 6.97200000 1888501480 1888501480 15.00000000
-0.12954687 2.21978426 -0.59580141 3 0 35666 2.30200000 1888501501 1888501501 -15.00000000
-2.97974491 51.21157074 0.89541316 12 1 35667 51.30600000 1888501503 1888501503 1.00000000
-0.15179190 2.61665654 -0.60511833 3 2 35668 2.69000000 1888501506 1888501506 -13.00000000
-2.01979971 34.92363358 1.83332860 68 3 35669 35.03000000 1888501508 1888501508 3.00000000
-0.18216135 3.14968657 -0.61326009 2 4 35669 3.21400000 1888501510 1888501510 -11.00000000
-1.43511546 24.88942909 2.18115973 45 5 35670 25.02600000 1888501512 1888501512 5.00000000
-0.22922693 3.98762870 -0.63262099 2 6 35671 4.04400000 1888501515 1888501515 -9.00000000
-1.07104170 18.68875504 2.29845572 57 7 35672 18.86000000 1888501517 1888501517 7.00000000
-0.29995215 5.24994755 -0.64566380 2 8 35673 5.29800000 1888501519 1888501519 -7.00000000
-0.85319805 14.93319893 2.36904359 45 9 35673 15.14400000 1888501522 1888501522 9.00000000
-0.44164842 7.75376606 -0.67946619 4 10 35674 7.79600000 1888501524 1888501524 -5.00000000
-0.61182910 10.77465248 2.09775400 37 11 35675 10.99400000 1888501526 1888501526 11.00000000
-0.86083931 15.20675182 -0.79822803 4 12 35676 15.25200000 1888501529 1888501529 -3.00000000
-0.54801357 9.71071053 2.24546146 2 13 35677 9.98200000 1888501531 1888501531 13.00000000
-2.88153267 51.21919250 -0.89544809 8 14 35678 51.30800000 1888501533 1888501533 -1.00000000
-0.40008432 7.11149168 1.90853167 15 15 35678 7.37400000 1888501536 1888501536 15.00000000
-0.12200923 2.22408080 -0.59683675 3 0 35686 2.30600000 1888501556 1888501556 -15.00000000
-2.81930828 51.55710602 0.90127718 12 1 35687 51.64200000 1888501559 1888501559 1.00000000
-0.14244501 2.61327863 -0.60421854 3 2 35688 2.68600000 1888501561 1888501561 -13.00000000
-1.89733934 34.92050171 1.83280516 68 3 35689 35.02000000 1888501563 1888501563 3.00000000
-0.17180485 3.16206551 -0.61554980 2 4 35689 3.22600000 1888501565 1888501565 -11.00000000
-1.34801090 24.89030838 2.18081093 53 5 35690 25.02200000 1888501568 1888501568 5.00000000
-0.21551909 3.99234939 -0.63324672 2 6 35691 4.04800000 1888501570 1888501570 -9.00000000
-1.00537264 18.68445015 2.29748082 55 7 35692 18.85200000 1888501572 1888501572 7.00000000
-0.28162459 5.25096273 -0.64566380 2 8 35693 5.29800000 1888501575 1888501575 -7.00000000
-0.79824853 14.93228054 2.36841774 41 9 35694 15.14000000 1888501577 1888501577 9.00000000
-0.41458002 7.75526047 -0.67946619 4 10 35694 7.79600000 1888501579 1888501579 -5.00000000
-0.57463264 10.78456402 2.09928060 43 11 35695 11.00200000 1888501582 1888501582 11.00000000
-0.80817628 15.21764183 -0.79864669 4 12 35696 15.26000000 1888501584 1888501584 -3.00000000
-0.40739712 7.69649220 1.77936280 2 13 35697 7.91000000 1888501586 1888501586 13.00000000
-3.13003850 59.32844162 -1.03702199 10 14 35698 59.42000000 1888501589 1888501589 -1.00000000
-0.47231400 8.98229218 2.41012287 24 15 35699 9.31200000 1888501591 1888501591 15.00000000
-0.11552028 2.23409963 -0.59942490 3 0 35704 2.31600000 1888501612 1888501612 -15.00000000
-3.05827332 59.34619904 1.03726637 14 1 35705 59.43400000 1888501614 1888501614 1.00000000
-0.13463427 2.62149787 -0.60601813 3 2 35706 2.69400000 1888501616 1888501616 -13.00000000
-1.78670537 34.90833664 1.83186316 68 3 35707 35.00200000 1888501618 1888501618 3.00000000
-0.16227151 3.17043233 -0.61707628 2 4 35707 3.23400000 1888501621 1888501621 -11.00000000
-1.26950467 24.88845062 2.18028808 45 5 35708 25.01600000 1888501623 1888501623 5.00000000
-0.20157172 3.96538711 -0.62886655 2 6 35709 4.02000000 1888501625 1888501625 -9.00000000
-0.94586533 18.67165756 2.29553103 46 7 35710 18.83600000 1888501628 1888501628 7.00000000
-0.26512685 5.25182152 -0.64566380 2 8 35711 5.29800000 1888501630 1888501630 -7.00000000
-0.75374091 14.93063736 2.36779213 45 9 35711 15.13600000 1888501632 1888501632 9.00000000
-0.39341754 7.82020044 -0.68504411 4 10 35712 7.86000000 1888501635 1888501635 -5.00000000
-0.54104406 10.79219818 2.10042548 40 11 35713 11.00800000 1888501637 1888501637 11.00000000
-0.76195920 15.25202179 -0.80032146 4 12 35714 15.29200000 1888501639 1888501639 -3.00000000
-0.38321590 7.69773436 1.77936280 2 13 35715 7.91000000 1888501642 1888501642 13.00000000
-2.93967462 59.25809097 -1.03562582 10 14 35716 59.34000000 1888501644 1888501644 -1.00000000
-0.44575667 8.98558331 2.41064048 42 15 35716 9.31400000 1888501646 1888501646 15.00000000
-0.10688390 2.21712279 -0.59476614 3 0 35724 2.29800000 1888501667 1888501667 -15.00000000
-2.85033035 59.34053421 1.03698707 14 1 35725 59.41800000 1888501669 1888501669 1.00000000
-0.12548271 2.62195206 -0.60601813 3 2 35726 2.69400000 1888501671 1888501671 -13.00000000
-1.66446114 34.90637970 1.83144450 68 3 35727 34.99400000 1888501674 1888501674 3.00000000
-0.15082961 3.16313529 -0.61554980 2 4 35727 3.22600000 1888501676 1888501676 -11.00000000
-1.10149693 23.18518639 2.03072882 14 5 35728 23.30000000 1888501678 1888501678 5.00000000
-0.18922307 3.99763727 -0.63387245 2 6 35729 4.05200000 1888501681 1888501681 -9.00000000
-0.88068330 18.67484474 2.29553103 46 7 35730 18.83600000 1888501683 1888501683 7.00000000
-0.24828358 5.28444147 -0.64956361 2 8 35731 5.33000000 1888501685 1888501685 -7.00000000
-0.69790393 14.90962124 2.36403775 48 9 35732 15.11200000 1888501688 1888501688 9.00000000
-0.36369541 7.76978064 -0.68051201 4 10 35732 7.80800000 1888501690 1888501690 -5.00000000
-0.50327748 10.79205990 2.10004377 31 11 35733 11.00600000 1888501692 1888501692 11.00000000
-0.71242273 15.33439255 -0.80450833 4 12 35734 15.37200000 1888501694 1888501694 -3.00000000
-2.73326778 59.27798080 -1.03580034 10 14 35736 59.35000000 1888501699 1888501699 -1.00000000
-0.09914404 2.21748233 -0.59476614 3 0 35744 2.29800000 1888501722 1888501722 -15.00000000
-2.64744639 59.44601440 1.03866255 14 1 35745 59.51400000 1888501724 1888501724 1.00000000
-0.11684781 2.63405490 -0.60871756 3 2 35746 2.70600000 1888501727 1888501727 -13.00000000
-1.54260504 34.91197968 1.83144450 68 3 35747 34.99400000 1888501729 1888501729 3.00000000
-0.13961397 3.15971994 -0.61478657 2 4 35747 3.22200000 1888501731 1888501731 -11.00000000
-1.09300530 24.83500290 2.17488432 53 5 35748 24.95400000 1888501734 1888501734 5.00000000
-0.17353737 3.95880389 -0.62761509 2 6 35749 4.01200000 1888501736 1888501736 -9.00000000
-0.81549060 18.67780495 2.29553103 44 7 35750 18.83600000 1888501738 1888501738 7.00000000
-0.22845605 5.25354433 -0.64566380 2 8 35751 5.29800000 1888501741 1888501741 -7.00000000
-0.64828640 14.90790653 2.36341190 45 9 35751 15.10800000 1888501743 1888501743 9.00000000
-0.33795097 7.80285120 -0.68330103 4 10 35752 7.84000000 1888501745 1888501745 -5.00000000
-0.65940571 15.34875870 -0.80513632 4 12 35754 15.38400000 1888501750 1888501750 -3.00000000
-0.35162550 8.21811295 1.89903677 12 13 35755 8.44200000 1888501752 1888501752 13.00000000
-2.87291026 67.42053986 -1.17789781 11 14 35756 67.49200000 1888501754 1888501754 -1.00000000
-0.38211045 8.96724510 2.40494657 40 15 35756 9.29200000 1888501757 1888501757 15.00000000
-0.09156208 2.22167516 -0.59580141 3 0 35764 2.30200000 1888501777 1888501777 -15.00000000
-2.72608733 66.42795563 1.16048026 16 1 35765 66.49400000 1888501780 1888501780 1.00000000
-0.10765252 2.63444686 -0.60871756 3 2 35766 2.70600000 1888501782 1888501782 -13.00000000
-1.42008054 34.90118408 1.83060706 68 3 35767 34.97800000 1888501784 1888501784 3.00000000
-0.12858364 3.16018796 -0.61478657 2 4 35767 3.22200000 1888501787 1888501787 -11.00000000
-1.00542116 24.81676865 2.17296696 45 5 35768 24.93200000 1888501789 1888501789 5.00000000
-0.16003600 3.96728063 -0.62886655 2 6 35769 4.02000000 1888501791 1888501791 -9.00000000
-0.74965060 18.66467094 2.29358101 42 7 35770 18.82000000 1888501794 1888501794 7.00000000
-0.21011637 5.25431013 -0.64566380 2 8 35771 5.29800000 1888501796 1888501796 -7.00000000
-0.59411335 14.92202568 2.36528921 48 9 35772 15.12000000 1888501798 1888501798 9.00000000
-0.31055337 7.80000162 -0.68295240 4 10 35772 7.83600000 1888501800 1888501800 -5.00000000
-0.35428265 8.93756771 1.73865151 3 11 35773 9.11200000 1888501803 1888501803 11.00000000
-0.60582453 15.35096741 -0.80513632 4 12 35774 15.38400000 1888501805 1888501805 -3.00000000
-0.40992546 10.43330002 2.41057539 42 13 35775 10.71600000 1888501807 1888501807 13.00000000
-2.63848901 67.45413208 -1.17831671 11 14 35776 67.51600000 1888501810 1888501810 -1.00000000
-0.34939161 8.97244644 2.40598178 45 15 35777 9.29600000 1888501812 1888501812 15.00000000
-0.08424330 2.23356414 -0.59890729 3 0 35784 2.31400000 1888501833 1888501833 -15.00000000
-2.49419379 66.43707275 1.16048026 16 1 35785 66.49400000 1888501835 1888501835 1.00000000
-0.09758271 2.61143804 -0.60331875 3 2 35786 2.68200000 1888501837 1888501837 -13.00000000
-1.29802132 34.89994049 1.83029306 68 3 35787 34.97200000 1888501840 1888501840 3.00000000
-0.11784361 3.16846514 -0.61631304 2 4 35787 3.23000000 1888501842 1888501842 -11.00000000
-0.91746169 24.78428841 2.16982937 38 5 35788 24.89600000 1888501844 1888501844 5.00000000
-0.14589570 3.95991898 -0.62761509 2 6 35789 4.01200000 1888501847 1888501847 -9.00000000
-0.68376678 18.64733505 2.29114366 42 7 35790 18.80000000 1888501849 1888501849 7.00000000
-0.19293244 5.28675175 -0.64956361 2 8 35791 5.33000000 1888501851 1888501851 -7.00000000
-0.54433870 14.91601753 2.36403775 45 9 35791 15.11200000 1888501853 1888501853 9.00000000
-0.28636155 7.88466358 -0.69027346 4 10 35792 7.92000000 1888501856 1888501856 -5.00000000
-0.33258498 9.20165443 1.78978837 6 11 35793 9.38000000 1888501858 1888501858 11.00000000
-0.55223596 15.35298824 -0.80513632 4 12 35794 15.38400000 1888501860 1888501860 -3.00000000
-0.37029731 10.34508228 2.38987994 51 13 35795 10.62400000 1888501863 1888501863 13.00000000
-2.40002441 67.37899780 -1.17685068 11 14 35796 67.43200000 1888501865 1888501865 -1.00000000
-0.31936091 8.96583271 2.40391135 42 15 35796 9.28800000 1888501867 1888501867 15.00000000
-0.07624798 2.22805262 -0.59735435 3 0 35804 2.30800000 1888501888 1888501888 -15.00000000
-2.26240611 66.44937134 1.16055012 16 1 35805 66.49800000 1888501890 1888501890 1.00000000
-0.08873038 2.61955309 -0.60511833 3 2 35806 2.69000000 1888501893 1888501893 -13.00000000
-1.17558444 34.88629532 1.82935107 68 3 35807 34.95400000 1888501895 1888501895 3.00000000
-0.10678288 3.16885710 -0.61631304 2 4 35807 3.23000000 1888501897 1888501897 -11.00000000
-0.83020848 24.76543617 2.16791201 38 5 35808 24.87400000 1888501900 1888501900 5.00000000
-0.13312553 3.99199247 -0.63262099 2 6 35809 4.04400000 1888501902 1888501902 -9.00000000
-0.61867124 18.64960861 2.29114366 53 7 35810 18.80000000 1888501904 1888501904 7.00000000
-0.17342953 5.25564861 -0.64566380 2 8 35811 5.29800000 1888501906 1888501906 -7.00000000
-0.48914668 14.90211773 2.36153460 18 9 35812 15.09600000 1888501909 1888501909 9.00000000
-0.25883719 7.88561535 -0.69027346 4 10 35812 7.92000000 1888501911 1888501911 -5.00000000
-0.32006699 9.80319500 1.90656352 12 11 35813 9.99200000 1888501913 1888501913 11.00000000
-0.49786276 15.33086777 -0.80388027 4 12 35814 15.36000000 1888501916 1888501916 -3.00000000
-0.33638588 10.41448212 2.40562654 53 13 35815 10.69400000 1888501918 1888501918 13.00000000
-2.42498112 75.48555756 -1.31828499 12 14 35816 75.53600000 1888501920 1888501920 -1.00000000
-0.28625056 8.95921993 2.40184069 40 15 35817 9.28000000 1888501923 1888501923 15.00000000
-0.06858882 2.23216701 -0.59838963 3 0 35824 2.31200000 1888501943 1888501943 -15.00000000
-2.03495979 66.60476685 1.16313303 16 1 35825 66.64600000 1888501946 1888501946 1.00000000
-0.08005926 2.63542962 -0.60871756 3 2 35826 2.70600000 1888501948 1888501948 -13.00000000
-1.05362046 34.88419724 1.82903695 68 3 35827 34.94800000 1888501950 1888501950 3.00000000
-0.09548378 3.16136122 -0.61478657 2 4 35827 3.22200000 1888501953 1888501953 -11.00000000
-0.74238050 24.72237778 2.16390276 45 5 35828 24.82800000 1888501955 1888501955 5.00000000
-0.11883639 3.98058581 -0.63074374 2 6 35829 4.03200000 1888501957 1888501957 -9.00000000
-0.55321485 18.63974953 2.28968120 44 7 35830 18.78800000 1888501959 1888501959 7.00000000
-0.15625373 5.29590654 -0.65053856 2 8 35831 5.33800000 1888501962 1888501962 -7.00000000
-0.31422406 10.77761364 2.09584594 37 11 35833 10.98400000 1888501969 1888501969 11.00000000
-0.44503930 15.35646915 -0.80513632 4 12 35834 15.38400000 1888501971 1888501971 -3.00000000
-0.30036718 10.42728043 2.40832591 55 13 35835 10.70600000 1888501973 1888501973 13.00000000
-0.25626272 8.95046425 2.39925265 40 15 35836 9.27000000 1888501978 1888501978 15.00000000
-0.06058632 2.22466826 -0.59631908 3 0 35844 2.30400000 1888501999 1888501999 -15.00000000
-1.83696294 67.88680267 1.18540239 16 1 35845 67.92200000 1888502001 1888502001 1.00000000
-0.07096415 2.63958907 -0.60961735 3 2 35846 2.71000000 1888502003 1888502003 -13.00000000
-0.93200547 34.89365387 1.82935107 68 3 35847 34.95400000 1888502006 1888502006 3.00000000
-0.08476251 3.17345047 -0.61707628 2 4 35847 3.23400000 1888502008 1888502008 -11.00000000
-0.65486318 24.67901039 2.15989351 38 5 35848 24.78200000 1888502010 1888502010 5.00000000
-0.10525315 3.99282455 -0.63262099 2 6 35849 4.04400000 1888502012 1888502012 -9.00000000
-0.13828278 5.31626415 -0.65297592 2 8 35851 5.35800000 1888502017 1888502017 -7.00000000
-0.28815585 11.07811642 1.75519466 3 9 35851 11.22000000 1888502019 1888502019 9.00000000
-0.20377935 7.88722992 -0.69027346 4 10 35852 7.92000000 1888502022 1888502022 -5.00000000
-0.27629909 10.76686859 2.09355640 37 11 35853 10.97200000 1888502024 1888502024 11.00000000
-0.39438403 15.47373295 -0.81120729 4 12 35854 15.50000000 1888502026 1888502026 -3.00000000
-0.26391801 10.42631721 2.40787601 52 13 35855 10.70400000 1888502029 1888502029 13.00000000
-2.10246563 83.63683319 -1.46034753 22 14 35856 83.67600000 1888502031 1888502031 -1.00000000
-0.22462982 8.93585491 2.39511156 40 15 35856 9.25400000 1888502033 1888502033 15.00000000
-0.05334728 2.23065090 -0.59787202 3 0 35863 2.31000000 1888502054 1888502054 -15.00000000
-1.61078799 67.84854126 1.18463445 16 1 35864 67.87800000 1888502056 1888502056 1.00000000
-0.06184328 2.62422442 -0.60601813 3 2 35865 2.69400000 1888502059 1888502059 -13.00000000
-0.81619543 34.89255905 1.82914162 68 3 35866 34.95000000 1888502061 1888502061 3.00000000
-0.07414667 3.16978860 -0.61631304 2 4 35866 3.23000000 1888502063 1888502063 -11.00000000
-0.57311356 24.68502998 2.16024232 38 5 35867 24.78600000 1888502065 1888502065 5.00000000
-0.09173886 3.98130250 -0.63074374 2 6 35868 4.03200000 1888502068 1888502068 -9.00000000
-0.42591780 18.62522125 2.28748751 34 7 35869 18.77000000 1888502070 1888502070 7.00000000
-0.11930156 5.25715590 -0.64566380 2 8 35870 5.29800000 1888502072 1888502072 -7.00000000
-0.26638338 11.82950783 1.87408495 9 9 35871 11.98000000 1888502075 1888502075 9.00000000
