# .PCD v0.7 - Point Cloud Data file format
VERSION 0.7
FIELDS x y z intensity laser_id azimuth distance_m adjustedtime timestamp vertical_angle
SIZE 4 4 4 1 1 2 8 8 4 8
TYPE F F F U U U F U U F
COUNT 1 1 1 1 1 1 1 1 1 1
WIDTH 538
HEIGHT 1
VIEWPOINT 0 0 0 1 0 0 0
POINTS 538
DATA ascii
8.22251987 5.16597986 -0.50891483 17 12 5786 9.72400000 1889018602 1889018602 -3.00000000
8.30749989 5.21734810 2.26480722 74 13 5787 10.06800000 1889018604 1889018604 13.00000000
8.23604870 5.17047071 -0.16974211 16 14 5788 9.72600000 1889018607 1889018607 -1.00000000
7.47150421 4.68868303 2.36353540 45 15 5789 9.13200000 1889018609 1889018609 15.00000000
1.94032979 1.21480834 -0.61340111 4 0 5795 2.37000000 1889018630 1889018630 -15.00000000
8.23308945 5.15260077 0.16953267 13 1 5796 9.71400000 1889018632 1889018632 1.00000000
2.28978896 1.43248653 -0.62356430 3 2 5797 2.77200000 1889018634 1889018634 -13.00000000
8.24596882 5.15865850 0.50975221 89 3 5797 9.74000000 1889018637 1889018637 3.00000000
2.74321270 1.71548140 -0.62890643 5 4 5798 3.29600000 1889018639 1889018639 -11.00000000
8.25638008 5.16116285 0.85186023 81 5 5799 9.77400000 1889018641 1889018641 5.00000000
3.45764256 2.16057491 -0.64576149 4 6 5800 4.12800000 1889018643 1889018643 -9.00000000
24.09621811 15.05114079 3.48838806 3 7 5801 28.62400000 1889018646 1889018646 7.00000000
4.65408087 2.90593410 -0.67369372 4 8 5802 5.52800000 1889018648 1889018648 -7.00000000
17.86194992 11.14838505 3.33486986 14 9 5803 21.31800000 1889018650 1889018650 9.00000000
7.14614296 4.46020460 -0.73698896 13 10 5803 8.45600000 1889018653 1889018653 -5.00000000
16.29515266 10.16652966 3.73336887 33 11 5804 19.56600000 1889018655 1889018655 11.00000000
8.22604847 5.13022947 -0.50807744 17 12 5805 9.70800000 1889018657 1889018657 -3.00000000
8.29664230 5.17224455 2.25715899 66 13 5806 10.03400000 1889018660 1889018660 13.00000000
8.23278332 5.13043928 -0.16932325 14 14 5807 9.70200000 1889018662 1889018662 -1.00000000
7.49439478 4.67029619 2.36612368 45 15 5807 9.14200000 1889018664 1889018664 15.00000000
1.93963552 1.20496964 -0.61184824 4 0 5815 2.36400000 1889018685 1889018685 -15.00000000
8.23233795 5.11222601 0.16914873 13 1 5816 9.69200000 1889018687 1889018687 1.00000000
2.30967641 1.43373489 -0.62761343 3 2 5817 2.79000000 1889018689 1889018689 -13.00000000
8.24356270 5.11720276 0.50849617 89 3 5817 9.71600000 1889018692 1889018692 3.00000000
2.75085235 1.70693040 -0.62928808 5 4 5818 3.29800000 1889018694 1889018694 -11.00000000
8.24725533 5.11550808 0.84907126 81 5 5819 9.74200000 1889018696 1889018696 5.00000000
3.48866725 2.16306543 -0.65014166 4 6 5820 4.15600000 1889018699 1889018699 -9.00000000
24.13173676 14.95648003 3.48595071 14 7 5821 28.60400000 1889018701 1889018701 7.00000000
4.67094612 2.89385247 -0.67466867 4 8 5822 5.53600000 1889018703 1889018703 -7.00000000
17.85541344 11.05788612 3.32642245 9 9 5823 21.26400000 1889018706 1889018706 9.00000000
7.16166830 4.43523264 -0.73698896 13 10 5823 8.45600000 1889018708 1889018708 -5.00000000
16.33221054 10.11062050 3.73375034 37 11 5824 19.56800000 1889018710 1889018710 11.00000000
8.22012901 5.08677006 -0.50661206 17 12 5825 9.68000000 1889018713 1889018713 -3.00000000
8.30470276 5.13710165 2.25445938 70 13 5826 10.02200000 1889018715 1889018715 13.00000000
8.22683048 5.08694696 -0.16883458 14 14 5827 9.67400000 1889018717 1889018717 -1.00000000
7.49422073 4.63394737 2.36094737 45 15 5827 9.12200000 1889018719 1889018719 15.00000000
1.93725169 1.19413686 -0.60977769 4 0 5835 2.35600000 1889018740 1889018740 -15.00000000
8.23821640 5.07611561 0.16890439 13 1 5836 9.67800000 1889018742 1889018742 1.00000000
2.30803013 1.42157602 -0.62581384 3 2 5837 2.78200000 1889018745 1889018745 -13.00000000
8.25035763 5.07962465 0.50776345 76 3 5838 9.70200000 1889018747 1889018747 3.00000000
2.75679398 1.69731772 -0.62928808 5 4 5838 3.29800000 1889018749 1889018749 -11.00000000
8.24300289 5.07311296 0.84680521 77 5 5839 9.71600000 1889018752 1889018752 5.00000000
3.45918202 2.12810302 -0.64325851 4 6 5840 4.11200000 1889018754 1889018754 -9.00000000
24.16012383 14.85759544 3.48253846 35 7 5841 28.57600000 1889018756 1889018756 7.00000000
4.68271017 2.87856960 -0.67491245 4 8 5842 5.53800000 1889018759 1889018759 -7.00000000
17.86674118 10.98309708 3.32172942 4 9 5842 21.23400000 1889018761 1889018761 9.00000000
7.17710638 4.41020679 -0.73698896 13 10 5843 8.45600000 1889018763 1889018763 -5.00000000
16.36405754 10.05149364 3.73298717 33 11 5844 19.56400000 1889018766 1889018766 11.00000000
8.22932434 5.05282021 -0.50608867 12 12 5845 9.67000000 1889018768 1889018768 -3.00000000
8.30099297 5.09482956 2.24861073 74 13 5846 9.99600000 1889018770 1889018770 13.00000000
8.23260593 5.05087852 -0.16859025 16 14 5847 9.66000000 1889018772 1889018772 -1.00000000
7.50950766 4.60543871 2.36042976 45 15 5848 9.12000000 1889018775 1889018775 15.00000000
1.94305634 1.18837523 -0.61029530 4 0 5855 2.35800000 1889018795 1889018795 -15.00000000
8.22688103 5.02959633 0.16831101 13 1 5856 9.64400000 1889018798 1889018798 1.00000000
2.30632687 1.40944600 -0.62401420 3 2 5857 2.77400000 1889018800 1889018800 -13.00000000
8.25181866 5.04286385 0.50682139 81 3 5857 9.68400000 1889018802 1889018802 3.00000000
2.76605272 1.68973136 -0.63005131 5 4 5858 3.30200000 1889018805 1889018805 -11.00000000
8.24195671 5.03288651 0.84488779 73 5 5859 9.69400000 1889018807 1889018807 5.00000000
3.46321726 2.11395693 -0.64263278 6 6 5860 4.10800000 1889018809 1889018809 -9.00000000
24.19828224 14.76489830 3.48058844 35 7 5861 28.56000000 1889018812 1889018812 7.00000000
4.67578220 2.85186982 -0.67247504 4 8 5862 5.51800000 1889018814 1889018814 -7.00000000
18.04686546 11.00288773 3.34769750 4 9 5863 21.40000000 1889018816 1889018816 9.00000000
7.17884827 4.37683010 -0.73559445 8 10 5863 8.44000000 1889018819 1889018819 -5.00000000
16.36886787 9.97592068 3.72611809 15 11 5864 19.52800000 1889018821 1889018821 11.00000000
8.22303295 5.00951624 -0.50462329 12 12 5865 9.64200000 1889018823 1889018823 -3.00000000
8.31040382 5.06075478 2.24636126 72 13 5866 9.98600000 1889018825 1889018825 13.00000000
8.23481369 5.01275301 -0.16827610 14 14 5867 9.64200000 1889018828 1889018828 -1.00000000
7.53048897 4.58221006 2.36198258 45 15 5868 9.12600000 1889018830 1889018830 15.00000000
1.95008254 1.18427074 -0.61133057 4 0 5873 2.36200000 1889018851 1889018851 -15.00000000
8.22896576 4.99542427 0.16803177 13 1 5874 9.62800000 1889018853 1889018853 1.00000000
2.30074739 1.39612782 -0.62131482 3 2 5875 2.76200000 1889018855 1889018855 -13.00000000
8.24200821 5.00137329 0.50525135 84 3 5875 9.65400000 1889018858 1889018858 3.00000000
2.76799035 1.67899680 -0.62928808 5 4 5876 3.29800000 1889018860 1889018860 -11.00000000
8.24239445 4.99767208 0.84331894 77 5 5877 9.67600000 1889018862 1889018862 5.00000000
3.47321987 2.10511422 -0.64325851 4 6 5878 4.11200000 1889018865 1889018865 -9.00000000
24.25982857 14.69806194 3.48278213 38 7 5879 28.57800000 1889018867 1889018867 7.00000000
4.68811464 2.83922315 -0.67296249 4 8 5880 5.52200000 1889018869 1889018869 -7.00000000
17.98312187 10.89096546 3.32986403 4 9 5880 21.28600000 1889018872 1889018872 9.00000000
6.68806076 4.04883862 -0.68399829 8 10 5881 7.84800000 1889018874 1889018874 -5.00000000
16.41692352 9.93461132 3.72993422 3 11 5882 19.54800000 1889018876 1889018876 11.00000000
8.21993160 4.97228718 -0.50347191 17 12 5883 9.62000000 1889018878 1889018878 -3.00000000
8.29958057 5.01848841 2.23916268 78 13 5884 9.95400000 1889018881 1889018881 13.00000000
8.23340702 4.97651339 -0.16792706 16 14 5885 9.62200000 1889018883 1889018883 -1.00000000
7.55476809 4.56452417 2.36508846 45 15 5886 9.13800000 1889018885 1889018885 15.00000000
1.96413279 1.18343842 -0.61443639 4 0 5893 2.37400000 1889018906 1889018906 -15.00000000
8.22579765 4.95428896 0.16761291 13 1 5894 9.60400000 1889018908 1889018908 1.00000000
2.30226779 1.38607800 -0.62041503 3 2 5895 2.75800000 1889018911 1889018911 -13.00000000
8.23546124 4.95815086 0.50378591 57 3 5895 9.62600000 1889018913 1889018913 3.00000000
2.77383423 1.66932452 -0.62928808 5 4 5896 3.29800000 1889018915 1889018915 -11.00000000
8.24954605 4.96270800 0.84227312 77 5 5897 9.66400000 1889018918 1889018918 5.00000000
3.50424719 2.10722923 -0.64763868 6 6 5898 4.14000000 1889018920 1889018920 -9.00000000
4.68948889 2.81772923 -0.67174381 4 8 5900 5.51200000 1889018925 1889018925 -7.00000000
8.35100174 5.01778841 1.54306960 2 9 5900 9.86400000 1889018927 1889018927 9.00000000
6.69190550 4.01931286 -0.68295240 8 10 5901 7.83600000 1889018929 1889018929 -5.00000000
8.31832600 4.99420357 1.88595617 3 11 5902 9.88400000 1889018931 1889018931 11.00000000
8.22011280 4.93328619 -0.50242519 17 12 5903 9.60000000 1889018934 1889018934 -3.00000000
8.28195477 4.96843433 2.22971487 75 13 5904 9.91200000 1889018936 1889018936 13.00000000
8.23357868 4.93745899 -0.16757801 16 14 5905 9.60200000 1889018938 1889018938 -1.00000000
7.56899834 4.53713179 2.36457086 40 15 5906 9.13600000 1889018941 1889018941 15.00000000
1.95830274 1.17062783 -0.61133057 4 0 5913 2.36200000 1889018961 1889018961 -15.00000000
8.23445797 4.92041683 0.16743839 13 1 5914 9.59400000 1889018964 1889018964 1.00000000
2.32047629 1.38602746 -0.62401420 3 2 5915 2.77400000 1889018966 1889018966 -13.00000000
8.22528362 4.91298676 0.50211114 44 3 5915 9.59400000 1889018968 1889018968 3.00000000
2.77964425 1.65963185 -0.62928808 5 4 5916 3.29800000 1889018971 1889018971 -11.00000000
8.24628830 4.92162848 0.84018135 81 5 5917 9.64000000 1889018973 1889018973 5.00000000
3.50479579 2.09093618 -0.64638722 4 6 5918 4.13200000 1889018975 1889018975 -9.00000000
8.37806129 4.99630928 1.19773185 2 7 5919 9.82800000 1889018977 1889018977 7.00000000
4.70441151 2.80439210 -0.67247504 6 8 5920 5.51800000 1889018980 1889018980 -7.00000000
18.31323242 10.91687679 3.37679434 14 9 5920 21.58600000 1889018982 1889018982 9.00000000
6.68535566 3.98369050 -0.68086064 12 10 5921 7.81200000 1889018984 1889018984 -5.00000000
8.34582901 4.97116518 1.88824582 3 11 5922 9.89600000 1889018987 1889018987 11.00000000
8.22698689 4.89843178 -0.50179714 12 12 5923 9.58800000 1889018989 1889018989 -3.00000000
8.29087448 4.93451118 2.22746539 75 13 5924 9.90200000 1889018991 1889018991 13.00000000
8.23014069 4.89641953 -0.16715916 14 14 5925 9.57800000 1889018994 1889018994 -1.00000000
6.92986536 4.12283659 2.16062140 36 15 5925 8.34800000 1889018996 1889018996 15.00000000
1.95406890 1.15885782 -0.60874242 4 0 5933 2.35200000 1889019017 1889019017 -15.00000000
8.23266125 4.88042641 0.16705443 13 1 5934 9.57200000 1889019019 1889019019 1.00000000
2.33200622 1.38189292 -0.62581384 3 2 5935 2.78200000 1889019021 1889019021 -13.00000000
8.22863674 4.87609959 0.50127381 26 3 5935 9.57800000 1889019024 1889019024 3.00000000
2.77866387 1.64591670 -0.62776160 5 4 5936 3.29000000 1889019026 1889019026 -11.00000000
8.23598766 4.87657166 0.83739239 81 5 5937 9.60800000 1889019028 1889019028 5.00000000
3.51207328 2.07868934 -0.64638722 4 6 5938 4.13200000 1889019030 1889019030 -9.00000000
24.45170784 14.46646118 3.48838806 21 7 5939 28.62400000 1889019033 1889019033 7.00000000
4.72613239 2.79502702 -0.67418122 4 8 5940 5.53200000 1889019035 1889019035 -7.00000000
18.36312866 10.85992432 3.37898445 9 9 5940 21.60000000 1889019037 1889019037 9.00000000
6.67692423 3.94714928 -0.67859459 46 10 5941 7.78600000 1889019040 1889019040 -5.00000000
8.36313057 4.94200230 1.88824582 3 11 5942 9.89600000 1889019042 1889019042 11.00000000
8.23199749 4.86257410 -0.50106442 12 12 5943 9.57400000 1889019044 1889019044 -3.00000000
8.29630184 4.89860487 2.22431612 75 13 5944 9.88800000 1889019047 1889019047 13.00000000
8.22307301 4.85343075 -0.16667049 14 14 5945 9.55000000 1889019049 1889019049 -1.00000000
7.59383345 4.48025370 2.36250019 45 15 5946 9.12800000 1889019051 1889019051 15.00000000
1.96476233 1.15594828 -0.61081296 4 0 5953 2.36000000 1889019072 1889019072 -15.00000000
8.22206783 4.83543968 0.16649596 13 1 5954 9.54000000 1889019074 1889019074 1.00000000
2.32337618 1.36584353 -0.62221462 3 2 5955 2.76600000 1889019077 1889019077 -13.00000000
8.24645329 4.84590721 0.50127381 26 3 5956 9.57800000 1889019079 1889019079 3.00000000
2.79454827 1.64217532 -0.63005131 5 4 5956 3.30200000 1889019081 1889019081 -11.00000000
8.23577976 4.83770180 0.83564925 85 5 5957 9.58800000 1889019083 1889019083 5.00000000
3.50908709 2.06041598 -0.64450997 4 6 5958 4.12000000 1889019086 1889019086 -9.00000000
8.32713795 4.88745689 1.18554497 18 7 5959 9.72800000 1889019088 1889019088 7.00000000
4.73757219 2.77951717 -0.67442495 6 8 5960 5.53400000 1889019090 1889019090 -7.00000000
8.34856796 4.89807558 1.53305781 2 9 5960 9.80000000 1889019093 1889019093 9.00000000
8.34984398 4.89490747 1.88137674 3 11 5962 9.86000000 1889019097 1889019097 11.00000000
8.21962643 4.81664276 -0.49928501 17 12 5963 9.54000000 1889019100 1889019100 -3.00000000
8.29485416 4.85878134 2.21936703 72 13 5964 9.86600000 1889019102 1889019102 13.00000000
8.23306179 4.82065582 -0.16653086 14 14 5965 9.54200000 1889019104 1889019104 -1.00000000
7.60364723 4.45211840 2.36094737 45 15 5965 9.12200000 1889019107 1889019107 15.00000000
1.97212231 1.15103042 -0.61184824 4 0 5973 2.36400000 1889019127 1889019127 -15.00000000
8.22162437 4.79663277 0.16614690 13 1 5974 9.52000000 1889019130 1889019130 1.00000000
2.33149648 1.35968852 -0.62311441 3 2 5975 2.77000000 1889019132 1889019132 -13.00000000
8.23743629 4.80200434 0.49970371 21 3 5976 9.54800000 1889019134 1889019134 3.00000000
2.80026340 1.63241053 -0.63005131 5 4 5976 3.30200000 1889019136 1889019136 -11.00000000
8.23884487 4.80089903 0.83425474 85 5 5977 9.57200000 1889019139 1889019139 5.00000000
3.51967168 2.05014300 -0.64513576 4 6 5978 4.12400000 1889019141 1889019141 -9.00000000
24.52637482 14.28042221 3.48473191 24 7 5979 28.59400000 1889019143 1889019143 7.00000000
4.74381447 2.76096582 -0.67393744 6 8 5980 5.53000000 1889019146 1889019146 -7.00000000
18.45915222 10.73917007 3.38242602 43 9 5981 21.62200000 1889019148 1889019148 9.00000000
16.62853813 9.67027092 3.73909307 3 11 5982 19.59600000 1889019153 1889019153 11.00000000
8.20876312 4.77186155 -0.49761027 17 12 5983 9.50800000 1889019155 1889019155 -3.00000000
8.28817558 4.81609011 2.21306849 70 13 5984 9.83800000 1889019157 1889019157 13.00000000
8.22908878 4.77983522 -0.16611201 14 14 5985 9.51800000 1889019160 1889019160 -1.00000000
7.62158489 4.42518997 2.36146498 45 15 5986 9.12400000 1889019162 1889019162 15.00000000
1.97947192 1.14607537 -0.61288351 4 0 5993 2.36800000 1889019183 1889019183 -15.00000000
8.22447205 4.75989151 0.16586767 13 1 5994 9.50400000 1889019185 1889019185 1.00000000
2.34297562 1.35544515 -0.62491405 3 2 5995 2.77800000 1889019187 1889019187 -13.00000000
8.22475529 4.75622368 0.49792430 13 3 5996 9.51400000 1889019189 1889019189 3.00000000
2.79744697 1.61771178 -0.62814319 5 4 5996 3.29200000 1889019192 1889019192 -11.00000000
8.24347878 4.76513147 0.83303457 81 5 5997 9.55800000 1889019194 1889019194 5.00000000
3.52338600 2.03586793 -0.64450997 4 6 5998 4.12000000 1889019196 1889019196 -9.00000000
24.54685020 14.17784309 3.48058844 14 7 5999 28.56000000 1889019199 1889019199 7.00000000
4.73279333 2.73247957 -0.67101258 6 8 6000 5.50600000 1889019201 1889019201 -7.00000000
18.50834846 10.68580055 3.38492894 50 9 6000 21.63800000 1889019203 1889019203 9.00000000
16.66049194 9.61118603 3.73871136 15 11 6002 19.59400000 1889019208 1889019208 11.00000000
8.21671867 4.73819017 -0.49708691 17 12 6003 9.49800000 1889019210 1889019210 -3.00000000
8.28805256 4.77739763 2.20856953 70 13 6004 9.81800000 1889019213 1889019213 13.00000000
8.22839737 4.74109793 -0.16576296 16 14 6005 9.49800000 1889019215 1889019215 -1.00000000
7.65128231 4.40857172 2.36612368 45 15 6005 9.14200000 1889019217 1889019217 15.00000000
1.97340906 1.13338602 -0.60977769 4 0 6013 2.35600000 1889019238 1889019238 -15.00000000
8.23410034 4.72717142 0.16572805 19 1 6014 9.49600000 1889019240 1889019240 1.00000000
2.33755159 1.34143865 -0.62221462 3 2 6015 2.76600000 1889019242 1889019242 -13.00000000
8.23264503 4.72251606 0.49740094 13 3 6016 9.50400000 1889019245 1889019245 3.00000000
2.80477953 1.60891378 -0.62852484 5 4 6016 3.29400000 1889019247 1889019247 -11.00000000
8.23067856 4.71947908 0.83007127 77 5 6017 9.52400000 1889019249 1889019249 5.00000000
3.54075384 2.02945065 -0.64638722 4 6 6018 4.13200000 1889019252 1889019252 -9.00000000
8.25212574 4.72794962 1.16775203 9 7 6019 9.58200000 1889019254 1889019254 7.00000000
4.75436068 2.72284818 -0.67271876 4 8 6020 5.52000000 1889019256 1889019256 -7.00000000
18.55253220 10.62083626 3.38586760 50 9 6021 21.64400000 1889019259 1889019259 9.00000000
16.66667557 9.53737068 3.73260546 26 11 6022 19.56200000 1889019263 1889019263 11.00000000
8.22107220 4.70253754 -0.49635422 17 12 6023 9.48400000 1889019265 1889019265 -3.00000000
8.29114437 4.74069929 2.20497012 72 13 6024 9.80200000 1889019268 1889019268 13.00000000
8.21191025 4.69349337 -0.16509977 16 14 6025 9.46000000 1889019270 1889019270 -1.00000000
7.65229225 4.37187386 2.36146498 45 15 6026 9.12400000 1889019272 1889019272 15.00000000
1.97192526 1.12431026 -0.60822475 4 0 6031 2.35000000 1889019293 1889019293 -15.00000000
8.22111225 4.68543720 0.16516958 19 1 6032 9.46400000 1889019295 1889019295 1.00000000
2.35191369 1.33987629 -0.62491405 3 2 6033 2.77800000 1889019298 1889019298 -13.00000000
8.23182106 4.68773413 0.49645889 13 3 6034 9.48600000 1889019300 1889019300 3.00000000
2.80811429 1.59912288 -0.62814319 5 4 6034 3.29200000 1889019302 1889019302 -11.00000000
8.22814941 4.68374205 0.82832819 77 5 6035 9.50400000 1889019305 1889019305 5.00000000
3.54711223 2.01831698 -0.64638722 4 6 6036 4.13200000 1889019307 1889019307 -9.00000000
8.25140858 4.69316864 1.16555846 24 7 6037 9.56400000 1889019309 1889019309 7.00000000
4.76289129 2.70789838 -0.67271876 6 8 6038 5.52000000 1889019312 1889019312 -7.00000000
18.59770203 10.57355309 3.38837051 50 9 6038 21.66000000 1889019314 1889019314 9.00000000
6.68109798 3.79693437 -0.67231941 42 10 6039 7.71400000 1889019316 1889019316 -5.00000000
16.69655609 9.48496342 3.73260546 37 11 6040 19.56200000 1889019318 1889019318 11.00000000
8.22364712 4.66978359 -0.49562150 17 12 6041 9.47000000 1889019321 1889019321 -3.00000000
8.29074383 4.70597124 2.20092106 74 13 6042 9.78400000 1889019323 1889019323 13.00000000
8.21791840 4.66273737 -0.16492525 14 14 6043 9.45000000 1889019325 1889019325 -1.00000000
7.65682936 4.34438324 2.35887671 45 15 6043 9.11400000 1889019328 1889019328 15.00000000
1.98256409 1.12122405 -0.61029530 4 0 6051 2.35800000 1889019348 1889019348 -15.00000000
8.21304703 4.64293432 0.16468091 16 1 6052 9.43600000 1889019351 1889019351 1.00000000
2.34979010 1.32782352 -0.62311441 3 2 6053 2.77000000 1889019353 1889019353 -13.00000000
8.24117756 4.65504217 0.49604020 10 3 6054 9.47800000 1889019355 1889019355 3.00000000
2.80171347 1.58255208 -0.62547189 5 4 6054 3.27800000 1889019358 1889019358 -11.00000000
8.22362995 4.64323664 0.82623643 77 5 6055 9.48000000 1889019360 1889019360 5.00000000
3.54037333 1.99815559 -0.64388424 6 6 6056 4.11600000 1889019362 1889019362 -9.00000000
8.24180603 4.64970636 1.16190231 42 7 6057 9.53400000 1889019365 1889019365 7.00000000
4.78960562 2.70100737 -0.67515618 4 8 6058 5.54000000 1889019367 1889019367 -7.00000000
18.63633156 10.50531864 3.38837051 50 9 6059 21.66000000 1889019369 1889019369 9.00000000
6.67869043 3.76478457 -0.67075062 46 10 6059 7.69600000 1889019371 1889019371 -5.00000000
16.72272110 9.42276859 3.73107910 41 11 6060 19.55400000 1889019374 1889019374 11.00000000
8.21031475 4.62438679 -0.49384210 17 12 6061 9.43600000 1889019376 1889019376 -3.00000000
8.29353619 4.66935396 2.19732189 74 13 6062 9.76800000 1889019378 1889019378 13.00000000
8.22717381 4.63010025 -0.16478562 10 14 6063 9.44200000 1889019381 1889019381 -1.00000000
7.68280315 4.32197332 2.36198258 45 15 6064 9.12600000 1889019383 1889019383 15.00000000
1.98666024 1.11395001 -0.61029530 4 0 6072 2.35800000 1889019404 1889019404 -15.00000000
8.21430969 4.60400152 0.16436677 16 1 6073 9.41800000 1889019406 1889019406 1.00000000
2.34444022 1.31348729 -0.62041503 3 2 6074 2.75800000 1889019408 1889019408 -13.00000000
8.24075794 4.61504602 0.49499348 13 3 6075 9.45800000 1889019411 1889019411 3.00000000
2.81434655 1.57610989 -0.62699836 5 4 6075 3.28600000 1889019413 1889019413 -11.00000000
8.23016167 4.60722542 0.82519054 77 5 6076 9.46800000 1889019415 1889019415 5.00000000
3.55801630 1.99095368 -0.64576149 4 6 6077 4.12800000 1889019418 1889019418 -9.00000000
8.23973560 4.60880804 1.15922117 72 7 6078 9.51200000 1889019420 1889019420 7.00000000
4.78387928 2.67471576 -0.67296249 4 8 6079 5.52200000 1889019422 1889019422 -7.00000000
18.70047379 10.45562553 3.39337635 50 9 6079 21.69200000 1889019424 1889019424 9.00000000
16.76057243 9.36332893 3.73184228 41 11 6081 19.55800000 1889019429 1889019429 11.00000000
8.21325779 4.58647299 -0.49300471 17 12 6082 9.42000000 1889019431 1889019431 -3.00000000
8.27826405 4.62087870 2.18877387 78 13 6083 9.73000000 1889019434 1889019434 13.00000000
8.22662544 4.59017134 -0.16443658 12 14 6084 9.42200000 1889019436 1889019436 -1.00000000
7.70459080 4.29889393 2.36405325 45 15 6084 9.13400000 1889019438 1889019438 15.00000000
1.99728990 1.11076427 -0.61236584 4 0 6092 2.36600000 1889019459 1889019459 -15.00000000
8.21809578 4.56849909 0.16412243 13 1 6093 9.40400000 1889019461 1889019461 1.00000000
2.34901094 1.30529559 -0.62041503 3 2 6094 2.75800000 1889019464 1889019464 -13.00000000
8.22888184 4.57073545 0.49331874 13 3 6095 9.42600000 1889019466 1889019466 3.00000000
2.82498002 1.56913626 -0.62814319 4 4 6095 3.29200000 1889019468 1889019468 -11.00000000
8.23922634 4.57459974 0.82449335 81 5 6096 9.46000000 1889019471 1889019471 5.00000000
3.56148982 1.97660458 -0.64513576 4 6 6097 4.12400000 1889019473 1889019473 -9.00000000
8.24362183 4.57327652 1.15751505 90 7 6098 9.49800000 1889019475 1889019475 7.00000000
4.77756262 2.64933634 -0.67076886 4 8 6099 5.50400000 1889019477 1889019477 -7.00000000
18.73521614 10.38509941 3.39275074 50 9 6100 21.68800000 1889019480 1889019480 9.00000000
16.79658890 9.30666924 3.73260546 41 11 6101 19.56200000 1889019484 1889019484 11.00000000
8.21873474 4.55196953 -0.49237669 17 12 6102 9.40800000 1889019487 1889019487 -3.00000000
8.26706505 4.57685184 2.18157530 76 13 6103 9.69800000 1889019489 1889019489 13.00000000
8.21285439 4.54496717 -0.16384318 14 14 6104 9.38800000 1889019491 1889019491 -1.00000000
7.71691418 4.26875639 2.36301780 45 15 6105 9.13000000 1889019494 1889019494 15.00000000
1.98762226 1.09632134 -0.60822475 4 0 6112 2.35000000 1889019514 1889019514 -15.00000000
8.22873878 4.53688812 0.16401772 16 1 6113 9.39800000 1889019517 1889019517 1.00000000
2.36379337 1.30273163 -0.62311441 3 2 6114 2.77000000 1889019519 1889019519 -13.00000000
8.23254013 4.53523731 0.49258602 15 3 6115 9.41200000 1889019521 1889019521 3.00000000
2.82012248 1.55358183 -0.62585348 4 4 6115 3.28000000 1889019524 1889019524 -11.00000000
8.23420048 4.53427887 0.82240158 81 5 6116 9.43600000 1889019526 1889019526 5.00000000
3.57182884 1.96606565 -0.64576149 4 6 6117 4.12800000 1889019528 1889019528 -9.00000000
8.23692608 4.53203297 1.15434647 90 7 6118 9.47200000 1889019530 1889019530 7.00000000
4.78678131 2.63264322 -0.67076886 4 8 6119 5.50400000 1889019533 1889019533 -7.00000000
18.76608849 10.32101059 3.39212489 50 9 6119 21.68400000 1889019535 1889019535 9.00000000
16.82897377 9.24798203 3.73260546 41 11 6121 19.56200000 1889019540 1889019540 11.00000000
8.21881962 4.51459885 -0.49143463 17 12 6122 9.39000000 1889019542 1889019542 -3.00000000
8.27615833 4.54421473 2.17977571 75 13 6123 9.69000000 1889019544 1889019544 13.00000000
8.20412636 4.50280094 -0.16335453 16 14 6124 9.36000000 1889019547 1889019547 -1.00000000
7.73610830 4.24593115 2.36457086 42 15 6124 9.13600000 1889019549 1889019549 15.00000000
1.99143696 1.08937657 -0.60822475 4 0 6132 2.35000000 1889019570 1889019570 -15.00000000
8.21469879 4.49182749 0.16342433 13 1 6133 9.36400000 1889019572 1889019572 1.00000000
2.36832619 1.29447258 -0.62311441 3 2 6134 2.77000000 1889019574 1889019574 -13.00000000
8.23605251 4.49976969 0.49185333 13 3 6135 9.39800000 1889019577 1889019577 3.00000000
2.83758855 1.55031741 -0.62852484 5 4 6135 3.29400000 1889019579 1889019579 -11.00000000
8.22549725 4.49213934 0.81996125 85 5 6136 9.40800000 1889019581 1889019581 5.00000000
3.57173467 1.94979966 -0.64450997 4 6 6137 4.12000000 1889019583 1889019583 -9.00000000
8.24572468 4.49944973 1.15337145 92 7 6138 9.46400000 1889019586 1889019586 7.00000000
4.82033968 2.62922597 -0.67418122 4 8 6139 5.53200000 1889019588 1889019588 -7.00000000
18.80546951 10.25733376 3.39275074 50 9 6139 21.68800000 1889019590 1889019590 9.00000000
16.85770416 9.18730259 3.73184228 45 11 6141 19.55800000 1889019595 1889019595 11.00000000
8.22400475 4.48014975 -0.49080661 21 12 6142 9.37800000 1889019597 1889019597 -3.00000000
8.27656651 4.50691032 2.17572665 73 13 6143 9.67200000 1889019600 1889019600 13.00000000
8.21452522 4.47126770 -0.16324981 14 14 6144 9.35400000 1889019602 1889019602 -1.00000000
7.73052073 4.20781803 2.35835910 45 15 6144 9.11200000 1889019604 1889019604 15.00000000
1.99484956 1.08311498 -0.60822475 4 0 6150 2.35000000 1889019625 1889019625 -15.00000000
8.20240688 4.45169020 0.16290076 13 1 6151 9.33400000 1889019627 1889019627 1.00000000
2.36552954 1.28330886 -0.62131482 3 2 6152 2.76200000 1889019630 1889019630 -13.00000000
8.23961353 4.46816063 0.49122527 10 3 6153 9.38600000 1889019632 1889019632 3.00000000
2.83726740 1.53858757 -0.62737995 4 4 6153 3.28800000 1889019634 1889019634 -11.00000000
8.23081112 4.46152878 0.81908965 89 5 6154 9.39800000 1889019636 1889019636 5.00000000
3.56742144 1.93292284 -0.64263278 4 6 6155 4.10800000 1889019639 1889019639 -9.00000000
8.23538208 4.46028757 1.14995909 90 7 6156 9.43600000 1889019641 1889019641 7.00000000
4.83206701 2.61595964 -0.67466867 6 8 6157 5.53600000 1889019643 1889019643 -7.00000000
6.68316364 3.61658859 -0.66482401 17 10 6158 7.62800000 1889019648 1889019648 -5.00000000
16.87266922 9.12682438 3.72878933 45 11 6159 19.54200000 1889019650 1889019650 11.00000000
8.21519947 4.44194174 -0.48944587 17 12 6160 9.35200000 1889019653 1889019653 -3.00000000
8.28211308 4.47625399 2.17347717 72 13 6161 9.66200000 1889019655 1889019655 13.00000000
8.21621609 4.43878603 -0.16300547 16 14 6162 9.34000000 1889019657 1889019657 -1.00000000
7.74540138 4.18442965 2.35887671 45 15 6162 9.11400000 1889019659 1889019659 15.00000000
2.00882387 1.08164024 -0.61133057 4 0 6170 2.36200000 1889019680 1889019680 -15.00000000
8.21085262 4.41924047 0.16276114 13 1 6171 9.32600000 1889019683 1889019683 1.00000000
2.36999488 1.27504373 -0.62131482 3 2 6172 2.76200000 1889019685 1889019685 -13.00000000
8.23229313 4.42707443 0.48986456 10 3 6173 9.36000000 1889019687 1889019687 3.00000000
2.84607911 1.53053391 -0.62814319 4 4 6173 3.29200000 1889019689 1889019689 -11.00000000
8.21825600 4.41767693 0.81630069 81 5 6174 9.36600000 1889019692 1889019692 5.00000000
3.59154797 1.92980826 -0.64576149 6 6 6175 4.12800000 1889019694 1889019694 -9.00000000
8.22991562 4.42024231 1.14703429 85 7 6176 9.41200000 1889019696 1889019696 7.00000000
4.83767128 2.59719872 -0.67418122 4 8 6177 5.53200000 1889019699 1889019699 -7.00000000
17.85661316 9.58265877 3.20972228 27 9 6178 20.51800000 1889019701 1889019701 9.00000000
6.68521404 3.58758545 -0.66377813 12 10 6178 7.61600000 1889019703 1889019703 -5.00000000
16.91134453 9.07158470 3.73031592 41 11 6179 19.55000000 1889019706 1889019706 11.00000000
8.20425129 4.39908123 -0.48787579 17 12 6180 9.32200000 1889019708 1889019708 -3.00000000
8.27707672 4.43626976 2.16807818 68 13 6181 9.63800000 1889019710 1889019710 13.00000000
8.21755886 4.40252399 -0.16272624 16 14 6182 9.32400000 1889019712 1889019712 -1.00000000
7.76920128 4.16057301 2.36146498 42 15 6183 9.12400000 1889019715 1889019715 15.00000000
2.00917888 1.07280171 -0.61029530 4 0 6190 2.35800000 1889019736 1889019736 -15.00000000
8.21211529 4.38301945 0.16248190 12 1 6191 9.31000000 1889019738 1889019738 1.00000000
2.38130856 1.27043235 -0.62311441 3 2 6192 2.77000000 1889019740 1889019740 -13.00000000
8.22478580 4.38609409 0.48850381 10 3 6193 9.33400000 1889019742 1889019742 3.00000000
2.85140419 1.52058995 -0.62814319 4 4 6193 3.29200000 1889019745 1889019745 -11.00000000
8.22131920 4.38240242 0.81508052 77 5 6194 9.35200000 1889019747 1889019747 5.00000000
3.59128881 1.91354406 -0.64450997 6 6 6195 4.12000000 1889019749 1889019749 -9.00000000
8.23478222 4.38588858 1.14557183 90 7 6196 9.40000000 1889019752 1889019752 7.00000000
4.83268976 2.57283330 -0.67223132 4 8 6197 5.51600000 1889019754 1889019754 -7.00000000
17.85333443 9.50078201 3.20315218 40 9 6198 20.47600000 1889019756 1889019756 9.00000000
16.94290733 9.01249790 3.73031592 41 11 6199 19.55000000 1889019761 1889019761 11.00000000
8.20015907 4.36010218 -0.48672441 17 12 6200 9.30000000 1889019763 1889019763 -3.00000000
8.27530384 4.39820433 2.16357923 68 13 6201 9.61800000 1889019765 1889019765 13.00000000
8.20991898 4.36161613 -0.16227247 14 14 6202 9.29800000 1889019768 1889019768 -1.00000000
7.78466177 4.13569307 2.36198258 45 15 6202 9.12600000 1889019770 1889019770 15.00000000
2.01291156 1.06578183 -0.61029530 4 0 6210 2.35800000 1889019791 1889019791 -15.00000000
8.21852779 4.34964991 0.16230738 15 1 6211 9.30000000 1889019793 1889019793 1.00000000
2.38228345 1.26028967 -0.62221462 3 2 6212 2.76600000 1889019795 1889019795 -13.00000000
8.21885872 4.34615326 0.48724777 10 3 6213 9.31000000 1889019798 1889019798 3.00000000
2.84281039 1.50328541 -0.62509024 5 4 6213 3.27600000 1889019800 1889019800 -11.00000000
8.21542931 4.34250546 0.81298876 77 5 6214 9.32800000 1889019802 1889019802 5.00000000
3.60143971 1.90284204 -0.64513576 6 6 6215 4.12400000 1889019805 1889019805 -9.00000000
8.23775482 4.35062790 1.14386570 85 7 6216 9.38600000 1889019807 1889019807 7.00000000
4.86972904 2.57077622 -0.67613113 4 8 6217 5.54800000 1889019809 1889019809 -7.00000000
17.84271240 9.41535664 3.19533038 31 9 6218 20.42600000 1889019812 1889019812 9.00000000
16.97773743 8.95513248 3.73107910 41 11 6219 19.55400000 1889019816 1889019816 11.00000000
8.21179485 4.32958841 -0.48651505 17 12 6220 9.29600000 1889019818 1889019818 -3.00000000
8.27509022 4.36111450 2.15953016 74 13 6221 9.60000000 1889019821 1889019821 13.00000000
8.20209408 4.32081556 -0.16181871 16 14 6222 9.27200000 1889019823 1889019823 -1.00000000
7.78879547 4.10309219 2.35887671 45 15 6222 9.11400000 1889019825 1889019825 15.00000000
2.00825119 1.05390835 -0.60770714 3 0 6231 2.34800000 1889019846 1889019846 -15.00000000
8.22024822 4.31206703 0.16202815 15 1 6232 9.28400000 1889019848 1889019848 1.00000000
2.40241957 1.25969434 -0.62626374 4 2 6233 2.78400000 1889019851 1889019851 -13.00000000
8.22690392 4.31372786 0.48682907 13 3 6233 9.30200000 1889019853 1889019853 3.00000000
2.86221218 1.50014699 -0.62814319 5 4 6234 3.29200000 1889019855 1889019855 -11.00000000
8.21540642 4.30404377 0.81141996 78 5 6235 9.31000000 1889019858 1889019858 5.00000000
3.59789014 1.88413095 -0.64325851 6 6 6236 4.11200000 1889019860 1889019860 -9.00000000
8.24309349 4.31488228 1.14240324 85 7 6237 9.37400000 1889019862 1889019862 7.00000000
4.86680651 2.54646850 -0.67442495 6 8 6238 5.53400000 1889019864 1889019864 -7.00000000
17.85446739 9.34202671 3.19157600 18 9 6238 20.40200000 1889019867 1889019867 9.00000000
16.99652672 8.88556957 3.72802615 41 11 6240 19.53800000 1889019871 1889019871 11.00000000
8.21521759 4.29298639 -0.48578236 21 12 6241 9.28200000 1889019874 1889019874 -3.00000000
8.28583622 4.32804871 2.15818048 72 13 6242 9.59400000 1889019876 1889019876 13.00000000
8.21433067 4.28887320 -0.16174890 16 14 6243 9.26800000 1889019878 1889019878 -1.00000000
7.79693174 4.07094049 2.35680628 45 15 6243 9.10600000 1889019881 1889019881 15.00000000
2.02048659 1.05135059 -0.61029530 4 0 6251 2.35800000 1889019901 1889019901 -15.00000000
8.20331669 4.26673746 0.16139986 12 1 6252 9.24800000 1889019904 1889019904 1.00000000
2.38086677 1.23781681 -0.61951518 3 2 6253 2.75400000 1889019906 1889019906 -13.00000000
8.23379803 4.27894068 0.48630571 13 3 6254 9.29200000 1889019908 1889019908 3.00000000
2.86220503 1.48743093 -0.62699836 5 4 6254 3.28600000 1889019911 1889019911 -11.00000000
8.21446800 4.26707458 0.80985117 75 5 6255 9.29200000 1889019913 1889019913 5.00000000
3.61496377 1.87702227 -0.64513576 6 6 6256 4.12400000 1889019915 1889019915 -9.00000000
8.24577141 4.27968073 1.14069700 85 7 6257 9.36000000 1889019917 1889019917 7.00000000
4.88623810 2.53494954 -0.67588741 6 8 6258 5.54600000 1889019920 1889019920 -7.00000000
17.85351562 9.25833702 3.18531847 4 9 6259 20.36200000 1889019922 1889019922 9.00000000
17.02395439 8.82437897 3.72726297 41 11 6260 19.53400000 1889019927 1889019927 11.00000000
8.21064663 4.25417709 -0.48463094 17 12 6261 9.26000000 1889019929 1889019929 -3.00000000
8.28012848 4.28834486 2.15278149 75 13 6262 9.57000000 1889019931 1889019931 13.00000000
8.21326923 4.25189972 -0.16143475 14 14 6263 9.25000000 1889019934 1889019934 -1.00000000
7.81694746 4.04499960 2.35835910 45 15 6264 9.11200000 1889019936 1889019936 15.00000000
2.02414417 1.04429126 -0.61029530 4 0 6271 2.35800000 1889019957 1889019957 -15.00000000
8.20394230 4.23074436 0.16112062 12 1 6272 9.23200000 1889019959 1889019959 1.00000000
2.39210176 1.23307002 -0.62131482 4 2 6273 2.76200000 1889019961 1889019961 -13.00000000
8.23374081 4.24429226 0.48546833 13 3 6273 9.27600000 1889019964 1889019964 3.00000000
2.87785101 1.48282623 -0.62928808 5 4 6274 3.29800000 1889019966 1889019966 -11.00000000
8.22399902 4.23563766 0.80932820 78 5 6275 9.28600000 1889019968 1889019968 5.00000000
3.61798120 1.86258388 -0.64450997 6 6 6276 4.12000000 1889019970 1889019970 -9.00000000
8.23241806 4.23633862 1.13679719 92 7 6277 9.32800000 1889019973 1889019973 7.00000000
4.88093472 2.51061392 -0.67393744 6 8 6278 5.53000000 1889019975 1889019975 -7.00000000
8.36400414 4.30036020 1.48956895 2 9 6279 9.52200000 1889019977 1889019977 9.00000000
6.68716860 3.43821335 -0.65785152 12 10 6279 7.54800000 1889019980 1889019980 -5.00000000
17.05814552 8.76669598 3.72802615 45 11 6280 19.53800000 1889019982 1889019982 11.00000000
8.20412731 4.21453905 -0.48337489 17 12 6281 9.23600000 1889019984 1889019984 -3.00000000
8.26731014 4.24517298 2.14558315 78 13 6282 9.53800000 1889019987 1889019987 13.00000000
8.21560764 4.21681213 -0.16119042 16 14 6283 9.23600000 1889019989 1889019989 -1.00000000
7.83547401 4.02170181 2.35991216 45 15 6283 9.11800000 1889019991 1889019991 15.00000000
2.03465676 1.04073834 -0.61236584 4 0 6291 2.36600000 1889020012 1889020012 -15.00000000
8.20797729 4.19661951 0.16091119 12 1 6292 9.22000000 1889020014 1889020014 1.00000000
2.39986181 1.22648609 -0.62221462 3 2 6293 2.76600000 1889020016 1889020016 -13.00000000
8.22716427 4.20461845 0.48421228 13 3 6293 9.25200000 1889020019 1889020019 3.00000000
2.87426782 1.46830606 -0.62737995 5 4 6294 3.28800000 1889020021 1889020021 -11.00000000
8.22631264 4.20056248 0.80810803 78 5 6295 9.27200000 1889020023 1889020023 5.00000000
3.62797976 1.85173953 -0.64513576 6 6 6296 4.12400000 1889020026 1889020026 -9.00000000
8.23477745 4.20126152 1.13509107 99 7 6297 9.31400000 1889020028 1889020028 7.00000000
4.88613224 2.49175739 -0.67344999 6 8 6298 5.52600000 1889020030 1889020030 -7.00000000
19.93457985 10.16155815 3.54386640 21 9 6299 22.65400000 1889020033 1889020033 9.00000000
6.69025421 3.41032577 -0.65697998 12 10 6299 7.53800000 1889020035 1889020035 -5.00000000
17.08514404 8.70531559 3.72726297 41 11 6300 19.53400000 1889020037 1889020037 11.00000000
8.20099163 4.17681122 -0.48232818 17 12 6301 9.21600000 1889020040 1889020040 -3.00000000
8.26297569 4.20656395 2.14063430 74 13 6302 9.51600000 1889020042 1889020042 13.00000000
8.20888996 4.17722607 -0.16077156 16 14 6303 9.21200000 1889020044 1889020044 -1.00000000
7.84429932 3.99169803 2.35835910 45 15 6303 9.11200000 1889020046 1889020046 15.00000000
2.02431417 1.02699316 -0.60822475 4 0 6310 2.35000000 1889020067 1889020067 -15.00000000
8.21471500 4.16576004 0.16077156 12 1 6311 9.21200000 1889020069 1889020069 1.00000000
2.40913033 1.22116435 -0.62356430 4 2 6312 2.77200000 1889020072 1889020072 -13.00000000
8.21328449 4.16143131 0.48253751 15 3 6313 9.22000000 1889020074 1889020074 3.00000000
2.87386727 1.45610452 -0.62623513 5 4 6313 3.28200000 1889020076 1889020076 -11.00000000
8.22242260 4.16425800 0.80636495 82 5 6314 9.25200000 1889020079 1889020079 5.00000000
3.63762522 1.84148288 -0.64576149 6 6 6315 4.12800000 1889020081 1889020081 -9.00000000
8.23272324 4.16586447 1.13289738 97 7 6316 9.29600000 1889020083 1889020083 7.00000000
4.89082527 2.47374868 -0.67296249 6 8 6317 5.52200000 1889020086 1889020086 -7.00000000
20.07569313 10.15415955 3.56326413 21 9 6317 22.77800000 1889020088 1889020088 9.00000000
6.67485523 3.37463713 -0.65436530 12 10 6318 7.50800000 1889020090 1889020090 -5.00000000
17.10866165 8.64595509 3.72611809 41 11 6319 19.52800000 1889020093 1889020093 11.00000000
8.21123219 4.14779186 -0.48211882 17 12 6320 9.21200000 1889020095 1889020095 -3.00000000
8.26122284 4.17123461 2.13658500 75 13 6321 9.49800000 1889020097 1889020097 13.00000000
8.19770432 4.13736725 -0.16028289 18 14 6322 9.18400000 1889020099 1889020099 -1.00000000
7.85818529 3.96429205 2.35835910 45 15 6323 9.11200000 1889020102 1889020102 15.00000000
2.01753139 1.01471269 -0.60511893 4 0 6330 2.33800000 1889020122 1889020122 -15.00000000
8.20419312 4.12448549 0.16028289 12 1 6331 9.18400000 1889020125 1889020125 1.00000000
2.42382598 1.21799755 -0.62626374 4 2 6332 2.78400000 1889020127 1889020127 -13.00000000
8.22168541 4.13148165 0.48222351 15 3 6332 9.21400000 1889020129 1889020129 3.00000000
2.88595009 1.44958878 -0.62776160 5 4 6333 3.29000000 1889020132 1889020132 -11.00000000
8.21910286 4.12659121 0.80462182 82 5 6334 9.23200000 1889020134 1889020134 5.00000000
3.63696885 1.82522988 -0.64450997 6 6 6335 4.12000000 1889020136 1889020136 -9.00000000
8.23479462 4.13087082 1.13119125 99 7 6336 9.28200000 1889020139 1889020139 7.00000000
4.90297937 2.45844102 -0.67344999 9 8 6337 5.52600000 1889020141 1889020141 -7.00000000
8.30541611 4.16266918 1.47142255 2 9 6338 9.40600000 1889020143 1889020143 9.00000000
6.69371939 3.35488796 -0.65506256 8 10 6338 7.51600000 1889020146 1889020146 -5.00000000
17.13171577 8.58266449 3.72459149 45 11 6339 19.52000000 1889020148 1889020148 11.00000000
8.21851730 4.11552668 -0.48170015 17 12 6340 9.20400000 1889020150 1889020150 -3.00000000
8.26876259 4.13888311 2.13478541 76 13 6341 9.49000000 1889020152 1889020152 13.00000000
8.20136642 4.10335827 -0.16007347 16 14 6342 9.17200000 1889020155 1889020155 -1.00000000
7.85988045 3.93078899 2.35473561 45 15 6343 9.09800000 1889020157 1889020157 15.00000000
2.03143454 1.01283586 -0.60822475 4 0 6350 2.35000000 1889020178 1889020178 -15.00000000
8.19706345 4.08511877 0.15986404 12 1 6351 9.16000000 1889020180 1889020180 1.00000000
8.19645596 4.08303070 -2.11408997 8 2 6352 9.39800000 1889020182 1889020182 -13.00000000
8.22533035 4.09741449 0.48159546 13 3 6352 9.20200000 1889020185 1889020185 3.00000000
2.89450741 1.44125628 -0.62852484 5 4 6353 3.29400000 1889020187 1889020187 -11.00000000
8.21918774 4.09077406 0.80322731 82 5 6354 9.21600000 1889020189 1889020189 5.00000000
3.64331794 1.81252337 -0.64450997 6 6 6355 4.12000000 1889020192 1889020192 -9.00000000
8.22783375 4.09149456 1.12826633 100 7 6356 9.25800000 1889020194 1889020194 7.00000000
4.91153145 2.44131160 -0.67344999 6 8 6357 5.52600000 1889020196 1889020196 -7.00000000
18.73804283 9.31387711 3.31422067 9 9 6357 21.18600000 1889020199 1889020199 9.00000000
6.75178099 3.35455132 -0.65959466 8 10 6358 7.56800000 1889020201 1889020201 -5.00000000
17.15102005 8.51757145 3.72230196 45 11 6359 19.50800000 1889020203 1889020203 11.00000000
8.20420933 4.07260466 -0.48002538 17 12 6360 9.17200000 1889020205 1889020205 -3.00000000
8.26919460 4.10306501 2.13118625 75 13 6361 9.47400000 1889020208 1889020208 13.00000000
8.20847416 4.07115126 -0.15993385 16 14 6362 9.16400000 1889020210 1889020210 -1.00000000
7.88393879 3.90847731 2.35784149 45 15 6363 9.11000000 1889020212 1889020212 15.00000000
2.03842139 1.00745058 -0.60926002 4 0 6370 2.35400000 1889020233 1889020233 -15.00000000
8.20051575 4.05116653 0.15965462 12 1 6371 9.14800000 1889020235 1889020235 1.00000000
8.18619633 4.04231501 -2.10779142 8 2 6372 9.37000000 1889020238 1889020238 -13.00000000
8.21451187 4.05629730 0.48013008 10 3 6372 9.17400000 1889020240 1889020240 3.00000000
2.89952064 1.43114376 -0.62852484 5 4 6373 3.29400000 1889020242 1889020242 -11.00000000
8.22448349 4.05765104 0.80235577 97 5 6374 9.20600000 1889020245 1889020245 5.00000000
3.64607930 1.79804730 -0.64388424 4 6 6375 4.11600000 1889020247 1889020247 -9.00000000
8.22069931 4.05221701 1.12534153 99 7 6376 9.23400000 1889020249 1889020249 7.00000000
4.91646194 2.42239738 -0.67296249 9 8 6377 5.52200000 1889020252 1889020252 -7.00000000
20.63277626 10.16600704 3.64304590 16 9 6377 23.28800000 1889020254 1889020254 9.00000000
6.90286493 3.39962411 -0.67319095 4 10 6378 7.72400000 1889020256 1889020256 -5.00000000
17.18064690 8.45765209 3.72230196 45 11 6379 19.50800000 1889020258 1889020258 11.00000000
8.21120739 4.04041481 -0.47960672 17 12 6380 9.16400000 1889020261 1889020261 -3.00000000
8.26423073 4.06471443 2.12623739 74 13 6381 9.45200000 1889020263 1889020263 13.00000000
8.20648384 4.03453302 -0.15961970 18 14 6382 9.14600000 1889020265 1889020265 -1.00000000
7.90446901 3.88434148 2.35991216 45 15 6383 9.11800000 1889020268 1889020268 15.00000000
2.04868984 1.00408614 -0.61133057 4 0 6389 2.36200000 1889020288 1889020288 -15.00000000
8.20313072 4.01867199 0.15944518 12 1 6390 9.13600000 1889020291 1889020291 1.00000000
8.19080448 4.01086140 -2.10554194 8 2 6391 9.36000000 1889020293 1889020293 -13.00000000
8.20998001 4.02025127 0.47908333 10 3 6391 9.15400000 1889020295 1889020295 3.00000000
2.89719701 1.41806841 -0.62699836 5 4 6392 3.28600000 1889020298 1889020298 -11.00000000
8.21641731 4.01984835 0.80026400 78 5 6393 9.18200000 1889020300 1889020300 5.00000000
3.64492369 1.78247547 -0.64263278 6 6 6394 4.10800000 1889020302 1889020302 -9.00000000
8.21804142 4.01708794 1.12314785 95 7 6395 9.21600000 1889020304 1889020304 7.00000000
4.91733313 2.40259480 -0.67198753 6 8 6396 5.51400000 1889020307 1889020307 -7.00000000
20.56875801 10.04983521 3.62583804 5 9 6396 23.17800000 1889020309 1889020309 9.00000000
7.54428291 3.68448377 -0.73454863 13 10 6397 8.42800000 1889020311 1889020311 -5.00000000
8.19763565 4.00002527 -0.47803661 17 12 6399 9.13400000 1889020316 1889020316 -3.00000000
8.26190090 4.02959824 2.12218833 66 13 6400 9.43400000 1889020318 1889020318 13.00000000
8.20184326 3.99853444 -0.15927066 14 14 6401 9.12600000 1889020321 1889020321 -1.00000000
7.91663313 3.85948968 2.35991216 45 15 6401 9.11800000 1889020323 1889020323 15.00000000
2.04696918 0.99439639 -0.60977769 4 0 6409 2.35600000 1889020344 1889020344 -15.00000000
8.20631504 3.98477244 0.15923576 18 1 6410 9.12400000 1889020346 1889020346 1.00000000
8.19598961 3.97799110 -2.10329247 8 2 6411 9.35000000 1889020348 1889020348 -13.00000000
8.20779228 3.98371959 0.47814131 10 3 6411 9.13600000 1889020351 1889020351 3.00000000
2.89153123 1.40280509 -0.62470865 5 4 6412 3.27400000 1889020353 1889020353 -11.00000000
8.21068001 3.98158050 0.79834658 78 5 6413 9.16000000 1889020355 1889020355 5.00000000
3.65823364 1.77318788 -0.64388424 6 6 6414 4.11600000 1889020357 1889020357 -9.00000000
8.22486782 3.98491502 1.12217295 92 7 6415 9.20800000 1889020360 1889020360 7.00000000
4.92926311 2.38714576 -0.67247504 6 8 6416 5.51800000 1889020362 1889020362 -7.00000000
8.31686687 4.02769613 1.46360087 2 9 6416 9.35600000 1889020364 1889020364 9.00000000
7.56606483 3.66246724 -0.73542017 13 10 6417 8.43800000 1889020367 1889020367 -5.00000000
17.25372314 8.34820747 3.72573638 15 11 6418 19.52600000 1889020369 1889020369 11.00000000
8.20076084 3.96616840 -0.47740859 17 12 6419 9.12200000 1889020371 1889020371 -3.00000000
8.26188087 3.99394917 2.11858892 70 13 6420 9.41800000 1889020374 1889020374 13.00000000
8.18874264 3.95683002 -0.15874709 16 14 6421 9.09600000 1889020376 1889020376 -1.00000000
7.93072557 3.83044791 2.35991216 45 15 6422 9.11800000 1889020378 1889020378 15.00000000
2.04155326 0.98341107 -0.60718948 4 0 6428 2.34600000 1889020399 1889020399 -15.00000000
8.20326805 3.94972992 0.15892161 21 1 6429 9.10600000 1889020401 1889020401 1.00000000
8.19684410 3.94487476 -2.10014296 8 2 6430 9.33600000 1889020404 1889020404 -13.00000000
8.21444893 3.95158148 0.47772262 10 3 6431 9.12800000 1889020406 1889020406 3.00000000
2.89793634 1.39405978 -0.62509024 5 4 6431 3.27600000 1889020408 1889020408 -11.00000000
8.20049477 3.94310689 0.79608053 75 5 6432 9.13400000 1889020410 1889020410 5.00000000
3.65697217 1.75762415 -0.64263278 6 6 6433 4.10800000 1889020413 1889020413 -9.00000000
8.22730064 3.95246077 1.12071049 90 7 6434 9.19600000 1889020415 1889020415 7.00000000
4.94073105 2.37250519 -0.67296249 6 8 6435 5.52200000 1889020417 1889020417 -7.00000000
20.80941772 9.99253941 3.65618634 45 9 6435 23.37200000 1889020420 1889020420 9.00000000
7.56918716 3.63304639 -0.73454863 13 10 6436 8.42800000 1889020422 1889020422 -5.00000000
17.27423286 8.28754902 3.72421002 41 11 6437 19.51800000 1889020424 1889020424 11.00000000
8.20846462 3.93636107 -0.47709459 17 12 6438 9.11600000 1889020427 1889020427 -3.00000000
8.26805019 3.96316051 2.11678934 72 13 6439 9.41000000 1889020429 1889020429 13.00000000
8.19460583 3.92619729 -0.15860747 16 14 6440 9.08800000 1889020431 1889020431 -1.00000000
7.93749332 3.80300975 2.35835910 45 15 6440 9.11200000 1889020434 1889020434 15.00000000
2.04497361 0.97627872 -0.60718948 4 0 6448 2.34600000 1889020454 1889020454 -15.00000000
8.19354343 3.90987539 0.15846784 18 1 6449 9.08000000 1889020457 1889020457 1.00000000
8.19121647 3.90700984 -2.09519410 8 2 6450 9.31400000 1889020459 1889020459 -13.00000000
8.22098064 3.91944551 0.47730392 10 3 6451 9.12000000 1889020461 1889020461 3.00000000
2.91518998 1.38984978 -0.62776160 5 4 6451 3.29000000 1889020463 1889020463 -11.00000000
8.21241093 3.91360068 0.79590625 82 5 6452 9.13200000 1889020466 1889020466 5.00000000
3.65238476 1.73975122 -0.64075559 6 6 6453 4.09600000 1889020468 1889020468 -9.00000000
8.22491646 3.91603780 1.11851680 90 7 6454 9.17800000 1889020470 1889020470 7.00000000
4.95256758 2.35695052 -0.67344999 6 8 6455 5.52600000 1889020473 1889020473 -7.00000000
20.86552429 9.92553616 3.65962791 11 9 6456 23.39400000 1889020475 1889020475 9.00000000
7.58542109 3.60831451 -0.73489720 13 10 6456 8.43200000 1889020477 1889020477 -5.00000000
17.29596329 8.22382832 3.72268343 45 11 6457 19.51000000 1889020480 1889020480 11.00000000
8.19509697 3.89482427 -0.47552449 17 12 6458 9.08600000 1889020482 1889020482 -3.00000000
8.27479362 3.93093085 2.11498976 72 13 6459 9.40200000 1889020484 1889020484 13.00000000
8.20464802 3.89585328 -0.15853766 16 14 6460 9.08400000 1889020487 1889020487 -1.00000000
7.95661449 3.77637672 2.35991216 45 15 6461 9.11800000 1889020489 1889020489 15.00000000
2.05203080 0.97042876 -0.60822475 4 0 6469 2.35000000 1889020510 1889020510 -15.00000000
8.19516373 3.87383628 0.15822351 21 1 6470 9.06600000 1889020512 1889020512 1.00000000
8.17552853 3.86280894 -2.08754587 8 2 6471 9.28000000 1889020514 1889020514 -13.00000000
8.21361923 3.87905288 0.47604784 10 3 6472 9.09600000 1889020516 1889020516 3.00000000
2.92914057 1.38334775 -0.62966967 5 4 6472 3.30000000 1889020519 1889020519 -11.00000000
