# .PCD v0.7 - Point Cloud Data file format
VERSION 0.7
FIELDS x y z intensity laser_id azimuth distance_m adjustedtime timestamp vertical_angle
SIZE 4 4 4 1 1 2 8 8 4 8
TYPE F F F U U U F U U F
COUNT 1 1 1 1 1 1 1 1 1 1
WIDTH 525
HEIGHT 1
VIEWPOINT 0 0 0 1 0 0 0
POINTS 525
DATA ascii
-1.94351649 0.27418125 -0.52592027 4 0 27803 2.03200000 1889179707 1889179707 -15.00000000
-4.27688599 0.60412222 0.07539440 5 1 27804 4.32000000 1889179710 1889179710 1.00000000
-2.23054552 0.31546795 -0.52008682 4 2 27805 2.31200000 1889179712 1889179712 -13.00000000
-4.37429571 0.61943907 0.23153427 5 3 27806 4.42400000 1889179714 1889179714 3.00000000
-2.61449289 0.37023541 -0.51327622 3 4 27806 2.69000000 1889179716 1889179716 -11.00000000
-5.06381655 0.71798289 0.44745758 10 5 27807 5.13400000 1889179719 1889179719 5.00000000
-3.14487290 0.44646174 -0.50309324 3 6 27808 3.21600000 1889179721 1889179721 -9.00000000
-5.60121059 0.79617298 0.69465524 2 7 27809 5.70000000 1889179723 1889179723 7.00000000
-3.96398664 0.56415886 -0.49162093 6 8 27810 4.03400000 1889179726 1889179726 -7.00000000
-17.91544342 2.55293560 2.86619234 45 9 27811 18.32200000 1889179728 1889179728 9.00000000
-4.71024323 0.67120564 -0.41625583 5 10 27811 4.77600000 1889179730 1889179730 -5.00000000
-12.60211849 1.79803526 2.47441101 50 11 27812 12.96800000 1889179733 1889179733 11.00000000
-4.34190083 0.62026364 -0.22985952 2 12 27813 4.39200000 1889179735 1889179735 -3.00000000
-11.91995049 1.70495117 2.77994514 54 13 27814 12.35800000 1889179737 1889179737 13.00000000
-4.21831274 0.60411102 -0.07438216 5 14 27815 4.26200000 1889179740 1889179740 -1.00000000
-10.03188801 1.43846881 2.71552944 42 15 27816 10.49200000 1889179742 1889179742 15.00000000
-1.95019543 0.28206986 -0.52799088 5 0 27823 2.04000000 1889179763 1889179763 -15.00000000
-4.23319101 0.61302912 0.07466140 5 1 27824 4.27800000 1889179765 1889179765 1.00000000
-2.21785927 0.32157430 -0.51738745 4 2 27825 2.30000000 1889179767 1889179767 -13.00000000
-4.34838820 0.63126123 0.23027821 5 3 27826 4.40000000 1889179769 1889179769 3.00000000
-2.61318469 0.37935942 -0.51327622 3 4 27826 2.69000000 1889179772 1889179772 -11.00000000
-5.03959131 0.73250216 0.44554016 10 5 27827 5.11200000 1889179774 1889179774 5.00000000
-3.15502405 0.45914352 -0.50497043 3 6 27828 3.22800000 1889179776 1889179776 -9.00000000
-5.58268261 0.81343025 0.69270533 2 7 27829 5.68400000 1889179779 1889179779 7.00000000
-3.96199322 0.57799232 -0.49162093 6 8 27830 4.03400000 1889179781 1889179781 -7.00000000
-17.90883446 2.61261654 2.86650515 49 9 27830 18.32400000 1889179783 1889179783 9.00000000
-4.70787144 0.68764335 -0.41625583 8 10 27831 4.77600000 1889179786 1889179786 -5.00000000
-12.59576511 1.84201396 2.47441101 50 11 27832 12.96800000 1889179788 1889179788 11.00000000
-4.31006622 0.63107562 -0.22828944 4 12 27833 4.36200000 1889179790 1889179790 -3.00000000
-11.89078808 1.74315727 2.77454638 52 13 27834 12.33400000 1889179793 1889179793 13.00000000
-4.20628548 0.61737996 -0.07420763 5 14 27835 4.25200000 1889179795 1889179795 -1.00000000
-10.03088474 1.47228897 2.71656466 45 15 27835 10.49600000 1889179797 1889179797 15.00000000
-1.94728792 0.28859237 -0.52747321 5 0 27843 2.03800000 1889179818 1889179818 -15.00000000
-4.22904730 0.62750846 0.07462649 7 1 27844 4.27600000 1889179820 1889179820 1.00000000
-2.22443366 0.33045956 -0.51918703 4 2 27845 2.30800000 1889179822 1889179822 -13.00000000
-4.30664778 0.64055938 0.22818477 5 3 27846 4.36000000 1889179825 1889179825 3.00000000
-2.61961198 0.38963416 -0.51480269 3 4 27846 2.69800000 1889179827 1889179827 -11.00000000
-5.02123833 0.74774146 0.44414568 10 5 27847 5.09600000 1889179829 1889179829 5.00000000
-3.15730953 0.47073641 -0.50559622 3 6 27848 3.23200000 1889179832 1889179832 -9.00000000
-5.57980919 0.83291250 0.69270533 2 7 27849 5.68400000 1889179834 1889179834 7.00000000
-3.95798826 0.59152532 -0.49137720 6 8 27850 4.03200000 1889179836 1889179836 -7.00000000
-17.90499878 2.67911506 2.86744380 45 9 27851 18.33000000 1889179839 1889179839 9.00000000
-4.74879265 0.71055913 -0.42009068 5 10 27851 4.82000000 1889179841 1889179841 -5.00000000
-12.60673237 1.88858795 2.47784567 50 11 27852 12.98600000 1889179843 1889179843 11.00000000
-4.27228403 0.64078426 -0.22640535 4 12 27853 4.32600000 1889179845 1889179845 -3.00000000
-11.86343288 1.78147006 2.76959729 50 13 27854 12.31200000 1889179848 1889179848 13.00000000
-4.19421768 0.63057244 -0.07403311 7 14 27855 4.24200000 1889179850 1889179850 -1.00000000
-10.02924252 1.50961912 2.71759987 45 15 27856 10.50000000 1889179852 1889179852 15.00000000
-1.94244874 0.29480818 -0.52643794 5 0 27863 2.03400000 1889179873 1889179873 -15.00000000
-4.21101475 0.63986355 0.07434725 7 1 27864 4.26000000 1889179875 1889179875 1.00000000
-2.23097301 0.33939463 -0.52098662 4 2 27865 2.31600000 1889179878 1889179878 -13.00000000
-4.29253864 0.65378410 0.22755674 7 3 27866 4.34800000 1889179880 1889179880 3.00000000
-2.61629510 0.39848033 -0.51442105 3 4 27866 2.69600000 1889179882 1889179882 -11.00000000
-4.97920513 0.75925750 0.44065943 9 5 27867 5.05600000 1889179885 1889179885 5.00000000
-3.15759993 0.48205271 -0.50590909 1 6 27868 3.23400000 1889179887 1889179887 -9.00000000
-5.61611414 0.85838306 0.69758010 2 7 27869 5.72400000 1889179889 1889179889 7.00000000
-3.94412565 0.60353607 -0.48991477 6 8 27870 4.02000000 1889179892 1889179892 -7.00000000
-17.86672783 2.73399353 2.86275077 57 9 27870 18.30000000 1889179894 1889179894 9.00000000
-5.21894217 0.79954261 -0.46192545 9 10 27871 5.30000000 1889179896 1889179896 -5.00000000
-4.24830627 0.65235883 -0.22525395 6 12 27873 4.30400000 1889179901 1889179901 -3.00000000
-11.84943771 1.82168579 2.76779771 53 13 27874 12.30400000 1889179903 1889179903 13.00000000
-4.16432095 0.64095032 -0.07354444 8 14 27875 4.21400000 1889179905 1889179905 -1.00000000
-10.02036190 1.54228127 2.71656466 47 15 27875 10.49600000 1889179908 1889179908 15.00000000
-1.93568099 0.30069715 -0.52488500 4 0 27883 2.02800000 1889179928 1889179928 -15.00000000
-4.19690037 0.65271503 0.07413782 7 1 27884 4.24800000 1889179931 1889179931 1.00000000
-2.23362565 0.34777972 -0.52188647 4 2 27885 2.32000000 1889179933 1889179933 -13.00000000
-4.27838993 0.66691816 0.22692871 13 3 27886 4.33600000 1889179935 1889179935 3.00000000
-2.61100864 0.40700573 -0.51365781 3 4 27886 2.69200000 1889179938 1889179938 -11.00000000
-4.95290184 0.77294701 0.43856770 9 5 27887 5.03200000 1889179940 1889179940 5.00000000
-3.16565657 0.49459651 -0.50747341 3 6 27888 3.24400000 1889179942 1889179942 -9.00000000
-5.61308336 0.87798172 0.69758010 2 7 27889 5.72400000 1889179945 1889179945 7.00000000
-3.95376205 0.61914265 -0.49137720 4 8 27890 4.03200000 1889179947 1889179947 -7.00000000
-17.85463524 2.79915404 2.86243773 49 9 27891 18.29800000 1889179949 1889179949 9.00000000
-5.22399282 0.81898957 -0.46262267 9 10 27891 5.30800000 1889179951 1889179951 -5.00000000
-12.00750923 1.88462007 2.36259699 15 11 27892 12.38200000 1889179954 1889179954 11.00000000
-4.22429943 0.66377389 -0.22410257 6 12 27893 4.28200000 1889179956 1889179956 -3.00000000
-11.84878159 1.86394548 2.76914740 52 13 27894 12.31000000 1889179958 1889179958 13.00000000
-4.15218163 0.65392709 -0.07336992 14 14 27895 4.20400000 1889179961 1889179961 -1.00000000
-10.01082611 1.57839561 2.71552944 45 15 27896 10.49200000 1889179963 1889179963 15.00000000
-1.94034326 0.30836171 -0.52643794 5 0 27903 2.03400000 1889179984 1889179984 -15.00000000
-4.18472195 0.66578996 0.07396330 7 1 27904 4.23800000 1889179986 1889179986 1.00000000
-2.22470021 0.35434830 -0.52008682 4 2 27905 2.31200000 1889179988 1889179988 -13.00000000
-4.28589725 0.68342102 0.22745207 24 3 27906 4.34600000 1889179991 1889179991 3.00000000
-2.61344957 0.41673565 -0.51442105 3 4 27906 2.69600000 1889179993 1889179993 -11.00000000
-4.94427109 0.78928888 0.43804476 9 5 27907 5.02600000 1889179995 1889179995 5.00000000
-3.13660192 0.50127935 -0.50309324 3 6 27908 3.21600000 1889179998 1889179998 -9.00000000
-3.96529746 0.63513774 -0.49308336 6 8 27910 4.04600000 1889180002 1889180002 -7.00000000
-17.84525490 2.85834670 2.86243773 53 9 27910 18.29800000 1889180004 1889180004 9.00000000
-5.22897100 0.83848155 -0.46331993 9 10 27911 5.31600000 1889180007 1889180007 -5.00000000
-12.53780365 2.01271987 2.46830511 37 11 27912 12.93600000 1889180009 1889180009 11.00000000
-4.21801281 0.67788160 -0.22389323 8 12 27913 4.27800000 1889180011 1889180011 -3.00000000
-11.84220314 1.90529406 2.76914740 52 13 27914 12.31000000 1889180014 1889180014 13.00000000
-4.14987373 0.66841698 -0.07336992 19 14 27915 4.20400000 1889180016 1889180016 -1.00000000
-10.00553608 1.61158407 2.71552944 45 15 27915 10.49200000 1889180018 1889180018 15.00000000
-1.94306874 0.31575263 -0.52747321 4 0 27923 2.03800000 1889180039 1889180039 -15.00000000
-4.18237257 0.68039328 0.07396330 7 1 27924 4.23800000 1889180041 1889180041 1.00000000
-2.21575618 0.36085880 -0.51828724 4 2 27925 2.30400000 1889180044 1889180044 -13.00000000
-4.27757215 0.69741327 0.22713806 5 3 27926 4.34000000 1889180046 1889180046 3.00000000
-2.61197901 0.42585576 -0.51442105 3 4 27926 2.69600000 1889180048 1889180048 -11.00000000
-4.93362045 0.80525905 0.43734753 9 5 27927 5.01800000 1889180051 1889180051 5.00000000
-3.15042925 0.51477343 -0.50559622 3 6 27928 3.23200000 1889180053 1889180053 -9.00000000
-3.94934344 0.64672977 -0.49137720 4 8 27930 4.03200000 1889180057 1889180057 -7.00000000
-17.80151939 2.91830087 2.85711908 61 9 27931 18.26400000 1889180060 1889180060 9.00000000
-5.23780918 0.85866290 -0.46436581 9 10 27931 5.32800000 1889180062 1889180062 -5.00000000
-12.53845119 2.05774450 2.46983171 53 11 27932 12.94400000 1889180064 1889180064 11.00000000
-4.20182514 0.69033450 -0.22316052 8 12 27933 4.26400000 1889180067 1889180067 -3.00000000
-11.82778835 1.94535446 2.76734781 51 13 27934 12.30200000 1889180069 1889180069 13.00000000
-4.13962269 0.68159914 -0.07323030 22 14 27935 4.19600000 1889180071 1889180071 -1.00000000
-9.99956226 1.64824533 2.71552944 42 15 27936 10.49200000 1889180074 1889180074 15.00000000
-1.94957769 0.32379937 -0.52954376 4 0 27943 2.04600000 1889180094 1889180094 -15.00000000
-4.19575262 0.69761217 0.07424254 5 1 27944 4.25400000 1889180097 1889180097 1.00000000
-2.22217226 0.36987087 -0.52008682 4 2 27945 2.31200000 1889180099 1889180099 -13.00000000
-4.26920128 0.71135575 0.22682403 7 3 27946 4.33400000 1889180101 1889180101 3.00000000
-2.60660338 0.43432531 -0.51365781 3 4 27946 2.69200000 1889180104 1889180104 -11.00000000
-4.91898775 0.82050878 0.43630165 9 5 27947 5.00600000 1889180106 1889180106 5.00000000
-3.14471650 0.52511668 -0.50497043 3 6 27948 3.22800000 1889180108 1889180108 -9.00000000
-3.94118810 0.65952873 -0.49064597 6 8 27950 4.02600000 1889180113 1889180113 -7.00000000
-17.46638107 2.92286968 2.80486989 45 9 27950 17.93000000 1889180115 1889180115 9.00000000
-5.24853516 0.87924528 -0.46558598 9 10 27951 5.34200000 1889180117 1889180117 -5.00000000
-12.53700066 2.10247350 2.47097659 50 11 27952 12.95000000 1889180120 1889180120 11.00000000
-4.19348049 0.70400536 -0.22284651 14 12 27953 4.25800000 1889180122 1889180122 -3.00000000
-11.81131744 1.98501444 2.76509833 51 13 27954 12.29200000 1889180124 1889180124 13.00000000
-4.13130236 0.69504964 -0.07312559 29 14 27955 4.19000000 1889180127 1889180127 -1.00000000
-9.99404144 1.68139601 2.71552944 42 15 27955 10.49200000 1889180129 1889180129 15.00000000
-1.93129396 0.32769415 -0.52488500 4 0 27963 2.02800000 1889180150 1889180150 -15.00000000
-4.20906353 0.71493274 0.07452177 5 1 27964 4.27000000 1889180152 1889180152 1.00000000
-2.23239446 0.37958544 -0.52278626 4 2 27965 2.32400000 1889180154 1889180154 -13.00000000
-4.28441286 0.72926998 0.22776608 16 3 27966 4.35200000 1889180157 1889180157 3.00000000
-2.59345889 0.44144478 -0.51136810 3 4 27966 2.68000000 1889180159 1889180159 -11.00000000
-4.89645290 0.83432758 0.43455854 9 5 27967 4.98600000 1889180161 1889180161 5.00000000
-3.15844226 0.53874779 -0.50747341 3 6 27968 3.24400000 1889180163 1889180163 -9.00000000
-7.16569424 1.22356737 0.89257109 2 7 27969 7.32400000 1889180166 1889180166 7.00000000
-3.94081879 0.67361647 -0.49088973 6 8 27970 4.02800000 1889180168 1889180168 -7.00000000
-17.02575493 2.91026545 2.73572588 66 9 27970 17.48800000 1889180170 1889180170 9.00000000
-5.23954248 0.89655262 -0.46506304 9 10 27971 5.33600000 1889180173 1889180173 -5.00000000
-12.52184486 2.14489698 2.46945000 50 11 27972 12.94200000 1889180175 1889180175 11.00000000
-4.20477724 0.72100192 -0.22357920 22 12 27973 4.27200000 1889180177 1889180177 -3.00000000
-11.80239582 2.02590179 2.76464844 52 13 27974 12.29000000 1889180180 1889180180 13.00000000
-4.10520124 0.70540255 -0.07270672 35 14 27975 4.16600000 1889180182 1889180182 -1.00000000
-9.98239994 1.71529007 2.71397662 42 15 27975 10.48600000 1889180184 1889180184 15.00000000
-1.93775225 0.33575290 -0.52695560 5 0 27983 2.03600000 1889180205 1889180205 -15.00000000
-4.20654249 0.72962075 0.07452177 5 1 27984 4.27000000 1889180207 1889180207 1.00000000
-2.23873591 0.38870910 -0.52458584 4 2 27985 2.33200000 1889180210 1889180210 -13.00000000
-4.28184080 0.74422091 0.22776608 7 3 27986 4.35200000 1889180212 1889180212 3.00000000
-2.60544205 0.45284829 -0.51403946 3 4 27986 2.69400000 1889180214 1889180214 -11.00000000
-4.88173342 0.84936517 0.43351266 9 5 27987 4.97400000 1889180216 1889180216 5.00000000
-3.14486599 0.54773587 -0.50559622 3 6 27988 3.23200000 1889180219 1889180219 -9.00000000
-3.94039893 0.68770969 -0.49113345 6 8 27990 4.03000000 1889180223 1889180223 -7.00000000
-16.57714462 2.89615631 2.66533041 48 9 27991 17.03800000 1889180226 1889180226 9.00000000
-5.22656775 0.91312212 -0.46419150 9 10 27991 5.32600000 1889180228 1889180228 -5.00000000
-12.49107456 2.18453479 2.46487069 50 11 27992 12.91800000 1889180230 1889180230 11.00000000
-4.18452883 0.73257518 -0.22263716 24 12 27993 4.25400000 1889180233 1889180233 -3.00000000
-11.79141331 2.06641483 2.76374865 53 13 27994 12.28600000 1889180235 1889180235 13.00000000
-4.10862255 0.72076470 -0.07281144 42 14 27995 4.17200000 1889180237 1889180237 -1.00000000
-9.96683788 1.74845564 2.71138835 45 15 27995 10.47600000 1889180239 1889180239 15.00000000
-1.92895913 0.34116903 -0.52488500 4 0 28003 2.02800000 1889180260 1889180260 -15.00000000
-4.19215584 0.74220818 0.07431234 5 1 28004 4.25800000 1889180263 1889180263 1.00000000
-2.23736548 0.39652139 -0.52458584 4 2 28005 2.33200000 1889180265 1889180265 -13.00000000
-4.27725029 0.75881392 0.22766142 7 3 28006 4.35000000 1889180267 1889180267 3.00000000
-2.60964465 0.46296906 -0.51518428 3 4 28006 2.70000000 1889180269 1889180269 -11.00000000
-4.87677717 0.86605209 0.43333834 9 5 28007 4.97200000 1889180272 1889180272 5.00000000
-3.13904500 0.55801868 -0.50497043 3 6 28008 3.22800000 1889180274 1889180274 -9.00000000
-7.15697765 1.27356315 0.89257109 2 7 28009 7.32400000 1889180276 1889180276 7.00000000
-3.95165467 0.70389688 -0.49283963 4 8 28010 4.04400000 1889180279 1889180279 -7.00000000
-16.20133018 2.88881397 2.60651112 48 9 28011 16.66200000 1889180281 1889180281 9.00000000
-5.23707867 0.93380886 -0.46541166 9 10 28011 5.34000000 1889180283 1889180283 -5.00000000
-12.47177696 2.22605371 2.46258092 50 11 28012 12.90600000 1889180286 1889180286 11.00000000
-4.17408180 0.74577230 -0.22221847 24 12 28013 4.24600000 1889180288 1889180288 -3.00000000
-4.10411358 0.73474967 -0.07277653 50 14 28015 4.17000000 1889180292 1889180292 -1.00000000
-9.96226406 1.78531492 2.71190596 42 15 28016 10.47800000 1889180295 1889180295 15.00000000
-1.93155873 0.34858647 -0.52592027 4 0 28023 2.03200000 1889180316 1889180316 -15.00000000
-4.18166780 0.75541508 0.07417273 5 1 28024 4.25000000 1889180318 1889180318 1.00000000
-4.10374880 0.74207866 -0.96279049 5 2 28025 4.28000000 1889180320 1889180320 -13.00000000
-4.27457571 0.77373970 0.22766142 9 3 28026 4.35000000 1889180322 1889180322 3.00000000
-2.61767197 0.47382402 -0.51709241 3 4 28026 2.71000000 1889180325 1889180325 -11.00000000
-4.86980343 0.88235950 0.43298972 9 5 28027 4.96800000 1889180327 1889180327 5.00000000
-3.14485288 0.57038265 -0.50622195 3 6 28028 3.23600000 1889180329 1889180329 -9.00000000
-7.15248871 1.29853797 0.89257109 2 7 28029 7.32400000 1889180332 1889180332 7.00000000
-3.92182994 0.71271729 -0.48942727 4 8 28030 4.01600000 1889180334 1889180334 -7.00000000
-15.87241650 2.88736892 2.55520058 56 9 28031 16.33400000 1889180336 1889180336 9.00000000
-5.24358845 0.95386690 -0.46628323 9 10 28031 5.35000000 1889180339 1889180339 -5.00000000
-12.45620441 2.26816797 2.46105433 46 11 28032 12.89800000 1889180341 1889180341 11.00000000
-4.16359377 0.75890547 -0.22179978 26 12 28033 4.23800000 1889180343 1889180343 -3.00000000
-9.82701588 1.79295957 2.30619812 5 13 28034 10.25200000 1889180345 1889180345 13.00000000
-4.10545778 0.74978977 -0.07284635 64 14 28035 4.17400000 1889180348 1889180348 -1.00000000
-9.95248795 1.81764698 2.71087074 42 15 28035 10.47400000 1889180350 1889180350 15.00000000
-1.93033016 0.35532674 -0.52592027 4 0 28043 2.03200000 1889180371 1889180371 -15.00000000
-4.19473839 0.77290606 0.07445197 5 1 28044 4.26600000 1889180373 1889180373 1.00000000
-4.10496616 0.75710583 -0.96369034 5 2 28045 4.28400000 1889180375 1889180375 -13.00000000
-4.26202822 0.78684300 0.22713806 7 3 28046 4.34000000 1889180378 1889180378 3.00000000
-2.61214066 0.48224565 -0.51632917 3 4 28046 2.70600000 1889180380 1889180380 -11.00000000
-4.85885668 0.89790469 0.43229249 9 5 28047 4.96000000 1889180382 1889180382 5.00000000
-3.14284253 0.58135676 -0.50622195 3 6 28048 3.23600000 1889180385 1889180385 -9.00000000
-3.93102932 0.72857326 -0.49088973 4 8 28050 4.02800000 1889180389 1889180389 -7.00000000
-15.74182224 2.92041636 2.53580260 48 9 28051 16.21000000 1889180392 1889180392 9.00000000
-5.23826790 0.97180122 -0.46610892 9 10 28051 5.34800000 1889180394 1889180394 -5.00000000
-12.44435024 2.31091738 2.46029115 50 11 28052 12.89400000 1889180396 1889180396 11.00000000
-4.16091919 0.77343446 -0.22179978 24 12 28053 4.23800000 1889180398 1889180398 -3.00000000
-9.74023151 1.81227970 2.28730226 3 13 28054 10.16800000 1889180401 1889180401 13.00000000
-4.09888411 0.76338363 -0.07277653 71 14 28055 4.17000000 1889180403 1889180403 -1.00000000
-9.94988060 1.85308409 2.71190596 42 15 28055 10.47800000 1889180405 1889180405 15.00000000
-1.93490088 0.36245641 -0.52747321 4 0 28061 2.03800000 1889180426 1889180426 -15.00000000
-4.18639326 0.78497475 0.07434725 5 1 28062 4.26000000 1889180428 1889180428 1.00000000
-4.10639811 0.77071714 -0.96459013 5 2 28063 4.28800000 1889180431 1889180431 -13.00000000
-4.25967503 0.79948521 0.22713806 5 3 28063 4.34000000 1889180433 1889180433 3.00000000
-2.60096526 0.48863709 -0.51442105 3 4 28064 2.69600000 1889180435 1889180435 -11.00000000
-4.85797024 0.91353297 0.43246680 9 5 28065 4.96200000 1889180438 1889180438 5.00000000
-3.13323545 0.58976579 -0.50497043 3 6 28066 3.22800000 1889180440 1889180440 -9.00000000
-3.94237614 0.74349451 -0.49259588 6 8 28068 4.04200000 1889180444 1889180444 -7.00000000
-15.70979404 2.96271729 2.53204823 52 9 28068 16.18600000 1889180447 1889180447 9.00000000
-5.23714685 0.98862249 -0.46628323 9 10 28069 5.35000000 1889180449 1889180449 -5.00000000
-12.45053291 2.35255265 2.46296263 53 11 28070 12.90800000 1889180451 1889180451 11.00000000
-4.15846872 0.78650254 -0.22179978 28 12 28071 4.23800000 1889180454 1889180454 -3.00000000
-4.07878304 0.77290612 -0.07246239 82 14 28073 4.15200000 1889180458 1889180458 -1.00000000
-9.93451977 1.88253498 2.70931768 45 15 28073 10.46800000 1889180461 1889180461 15.00000000
-1.92793119 0.36812130 -0.52592027 4 0 28081 2.03200000 1889180481 1889180481 -15.00000000
-4.17969942 0.79883248 0.07427744 5 1 28082 4.25600000 1889180484 1889180484 1.00000000
-4.09411240 0.78321564 -0.96234059 5 2 28083 4.27800000 1889180486 1889180486 -13.00000000
-4.25867796 0.81546795 0.22724272 5 3 28084 4.34200000 1889180488 1889180488 3.00000000
-2.58767462 0.49549785 -0.51213133 3 4 28084 2.68400000 1889180491 1889180491 -11.00000000
-4.84692478 0.92898470 0.43176955 9 5 28085 4.95400000 1889180493 1889180493 5.00000000
-3.11563778 0.59772182 -0.50246751 3 6 28086 3.21200000 1889180495 1889180495 -9.00000000
-3.95145321 0.75949961 -0.49405831 6 8 28088 4.05400000 1889180500 1889180500 -7.00000000
-15.69107056 3.01878381 2.53079677 52 9 28089 16.17800000 1889180502 1889180502 9.00000000
-5.22192478 1.00463903 -0.46523735 9 10 28089 5.33800000 1889180504 1889180504 -5.00000000
-12.43067837 2.39377141 2.46067286 50 11 28090 12.89600000 1889180507 1889180507 11.00000000
-4.15177584 0.80025750 -0.22159044 32 12 28091 4.23400000 1889180509 1889180509 -3.00000000
-11.76008606 2.26889324 2.76509833 49 13 28092 12.29200000 1889180511 1889180511 13.00000000
-4.09176731 0.79017234 -0.07274163 84 14 28093 4.16800000 1889180514 1889180514 -1.00000000
-9.91617298 1.91673434 2.70621204 45 15 28094 10.45600000 1889180516 1889180516 15.00000000
-1.92846525 0.37555429 -0.52643794 4 0 28102 2.03400000 1889180537 1889180537 -15.00000000
-4.17281771 0.81338125 0.07420763 5 1 28103 4.25200000 1889180539 1889180539 1.00000000
-4.09695244 0.79933560 -0.96369034 5 2 28104 4.28400000 1889180541 1889180541 -13.00000000
-4.22052002 0.82344419 0.22535862 7 3 28104 4.30600000 1889180544 1889180544 3.00000000
-2.60896325 0.50949425 -0.51671076 3 4 28105 2.70800000 1889180546 1889180546 -11.00000000
-4.84348726 0.94674337 0.43176955 9 5 28106 4.95400000 1889180548 1889180548 5.00000000
-3.13281226 0.61293006 -0.50559622 3 6 28107 3.23200000 1889180550 1889180550 -9.00000000
-3.93695498 0.77168626 -0.49259588 6 8 28109 4.04200000 1889180555 1889180555 -7.00000000
-15.67990112 3.07627416 2.53079677 48 9 28110 16.17800000 1889180557 1889180557 9.00000000
-5.23775864 1.02760744 -0.46698046 9 10 28110 5.35800000 1889180560 1889180560 -5.00000000
-12.41411495 2.43780279 2.45914626 50 11 28111 12.88800000 1889180562 1889180562 11.00000000
-4.14097548 0.81392837 -0.22117175 34 12 28112 4.22600000 1889180564 1889180564 -3.00000000
-11.75169086 2.31198072 2.76509833 55 13 28113 12.29200000 1889180567 1889180567 13.00000000
-4.09276772 0.80593681 -0.07281144 84 14 28114 4.17200000 1889180569 1889180569 -1.00000000
-9.17019558 1.80577016 2.50433302 13 15 28114 9.67600000 1889180571 1889180571 15.00000000
-1.93851209 0.38453898 -0.52954376 4 0 28122 2.04600000 1889180592 1889180592 -15.00000000
-4.16210747 0.82638443 0.07406801 5 1 28123 4.24400000 1889180594 1889180594 1.00000000
-4.08649206 0.81211233 -0.96189070 8 2 28124 4.27600000 1889180596 1889180596 -13.00000000
-4.20978403 0.83661431 0.22493994 14 3 28124 4.29800000 1889180599 1889180599 3.00000000
-2.60716891 0.51859814 -0.51671076 3 4 28125 2.70800000 1889180601 1889180601 -11.00000000
-4.85578537 0.96675682 0.43316403 9 5 28126 4.97000000 1889180603 1889180603 5.00000000
-3.13065386 0.62386185 -0.50559622 3 6 28127 3.23200000 1889180606 1889180606 -9.00000000
-3.93813062 0.78620136 -0.49308336 6 8 28129 4.04600000 1889180610 1889180610 -7.00000000
-15.66519260 3.13021445 2.53017116 52 9 28130 16.17400000 1889180613 1889180613 9.00000000
-5.23413992 1.04588437 -0.46698046 9 10 28130 5.35800000 1889180615 1889180615 -5.00000000
-12.40745544 2.48150635 2.45952797 46 11 28131 12.89000000 1889180617 1889180617 11.00000000
-4.13810921 0.82837808 -0.22117175 28 12 28132 4.22600000 1889180620 1889180620 -3.00000000
-11.73208427 2.35069060 2.76239896 52 13 28133 12.28000000 1889180622 1889180622 13.00000000
-4.08992958 0.82021832 -0.07281144 92 14 28134 4.17200000 1889180624 1889180624 -1.00000000
-9.89686775 1.98477542 2.70465899 35 15 28134 10.45000000 1889180626 1889180626 15.00000000
-1.93343890 0.39020085 -0.52850848 4 0 28141 2.04200000 1889180647 1889180647 -15.00000000
-4.15934420 0.84018195 0.07406801 5 1 28142 4.24400000 1889180649 1889180649 1.00000000
-4.08377647 0.82565916 -0.96189070 8 2 28143 4.27600000 1889180652 1889180652 -13.00000000
-4.19313526 0.84853113 0.22420724 15 3 28144 4.28400000 1889180654 1889180654 3.00000000
-2.59004092 0.52412581 -0.51365781 3 4 28144 2.69200000 1889180656 1889180656 -11.00000000
-4.87989092 0.98839104 0.43560439 9 5 28145 4.99800000 1889180659 1889180659 5.00000000
-3.13243961 0.63502502 -0.50622195 3 6 28146 3.23600000 1889180661 1889180661 -9.00000000
-3.93161106 0.79846621 -0.49259588 6 8 28148 4.04200000 1889180666 1889180666 -7.00000000
-15.63979530 3.17626739 2.52766800 56 9 28148 16.15800000 1889180668 1889180668 9.00000000
-5.24040508 1.06522000 -0.46785203 9 10 28149 5.36800000 1889180670 1889180670 -5.00000000
-12.40685368 2.52420282 2.46105433 46 11 28150 12.89800000 1889180673 1889180673 11.00000000
-4.13533974 0.84209597 -0.22117175 20 12 28151 4.22600000 1889180675 1889180675 -3.00000000
-11.71849632 2.38841510 2.76104927 51 13 28152 12.27400000 1889180677 1889180677 13.00000000
-4.07543135 0.83137828 -0.07260201 94 14 28153 4.16000000 1889180679 1889180679 -1.00000000
-1.93206513 0.39694744 -0.52850848 4 0 28161 2.04200000 1889180702 1889180702 -15.00000000
-4.17793179 0.85912621 0.07445197 5 1 28162 4.26600000 1889180705 1889180705 1.00000000
-4.08277798 0.84030205 -0.96234059 6 2 28163 4.27800000 1889180707 1889180707 -13.00000000
-4.18834209 0.86202878 0.22410257 17 3 28163 4.28200000 1889180709 1889180709 3.00000000
-2.59781003 0.53514409 -0.51556593 3 4 28164 2.70200000 1889180712 1889180712 -11.00000000
-4.87250853 1.00461435 0.43525577 9 5 28165 4.99400000 1889180714 1889180714 5.00000000
-3.12826943 0.64555615 -0.50590909 3 6 28166 3.23400000 1889180716 1889180716 -9.00000000
-3.92879987 0.81218523 -0.49259588 6 8 28168 4.04200000 1889180721 1889180721 -7.00000000
-15.61450768 3.23076701 2.52547789 44 9 28169 16.14400000 1889180723 1889180723 9.00000000
-5.23665476 1.08350599 -0.46785203 9 10 28169 5.36800000 1889180726 1889180726 -5.00000000
-12.40181160 2.56829166 2.46181774 50 11 28170 12.90200000 1889180728 1889180728 11.00000000
-4.14410925 0.85895807 -0.22179978 16 12 28171 4.23800000 1889180730 1889180730 -3.00000000
-11.71581173 2.43049335 2.76239896 53 13 28172 12.28000000 1889180732 1889180732 13.00000000
-4.06075668 0.84315991 -0.07239258 99 14 28173 4.14800000 1889180735 1889180735 -1.00000000
-8.53795719 1.77434301 2.33661842 9 15 28174 9.02800000 1889180737 1889180737 15.00000000
-1.92499483 0.40250301 -0.52695560 4 0 28181 2.03600000 1889180758 1889180758 -15.00000000
-4.16707850 0.87206620 0.07431234 5 1 28182 4.25800000 1889180760 1889180760 1.00000000
-4.08363485 0.85534751 -0.96324039 5 2 28183 4.28200000 1889180762 1889180762 -13.00000000
-4.18530750 0.87664360 0.22410257 14 3 28183 4.28200000 1889180765 1889180765 3.00000000
-2.59592605 0.54420888 -0.51556593 3 4 28184 2.70200000 1889180767 1889180767 -11.00000000
-4.85532236 1.01875246 0.43403560 9 5 28185 4.98000000 1889180769 1889180769 5.00000000
-3.12793016 0.65687793 -0.50622195 3 6 28186 3.23600000 1889180772 1889180772 -9.00000000
-3.93371129 0.82752895 -0.49357083 6 8 28188 4.05000000 1889180776 1889180776 -7.00000000
-15.59790897 3.28130889 2.52453947 48 9 28188 16.13800000 1889180779 1889180779 9.00000000
-5.22114277 1.09931564 -0.46680614 6 10 28189 5.35600000 1889180781 1889180781 -5.00000000
-12.40237617 2.61359072 2.46372581 50 11 28190 12.91200000 1889180783 1889180783 11.00000000
-4.14499378 0.87424284 -0.22200912 12 12 28191 4.24200000 1889180785 1889180785 -3.00000000
-11.71488380 2.47298431 2.76419854 52 13 28192 12.28800000 1889180788 1889180788 13.00000000
-4.06561470 0.85898292 -0.07253220 98 14 28193 4.15600000 1889180790 1889180790 -1.00000000
-8.27844334 1.75057864 2.26725483 9 15 28194 8.76000000 1889180792 1889180792 15.00000000
-1.92735720 0.41002402 -0.52799088 4 0 28201 2.04000000 1889180813 1889180813 -15.00000000
-4.14445019 0.88244230 0.07396330 5 1 28202 4.23800000 1889180815 1889180815 1.00000000
-4.07871819 0.86919063 -0.96279049 5 2 28203 4.28000000 1889180818 1889180818 -13.00000000
-4.18417501 0.89166397 0.22420724 14 3 28203 4.28400000 1889180820 1889180820 3.00000000
-2.59209061 0.55285752 -0.51518428 3 4 28204 2.70000000 1889180822 1889180822 -11.00000000
-4.84589148 1.03444672 0.43351266 9 5 28205 4.97400000 1889180825 1889180825 5.00000000
-3.12561822 0.66779244 -0.50622195 3 6 28206 3.23600000 1889180827 1889180827 -9.00000000
-3.91915178 0.83876252 -0.49210840 6 8 28208 4.03800000 1889180832 1889180832 -7.00000000
-15.57670116 3.33366871 2.52297497 56 9 28208 16.12800000 1889180834 1889180834 9.00000000
-5.22896290 1.12003803 -0.46785203 6 10 28209 5.36800000 1889180836 1889180836 -5.00000000
-12.38549900 2.65522099 2.46219921 50 11 28210 12.90400000 1889180838 1889180838 11.00000000
-4.13020039 0.88619220 -0.22138110 8 12 28211 4.23000000 1889180841 1889180841 -3.00000000
-11.70617962 2.51386189 2.76419854 53 13 28212 12.28800000 1889180843 1889180843 13.00000000
-4.05281639 0.87106836 -0.07235768 100 14 28213 4.14600000 1889180845 1889180845 -1.00000000
-8.25717354 1.77621508 2.26311374 6 15 28214 8.74400000 1889180848 1889180848 15.00000000
-1.93150568 0.41831210 -0.52954376 4 0 28222 2.04600000 1889180868 1889180868 -15.00000000
-4.14509678 0.89847374 0.07403311 5 1 28223 4.24200000 1889180871 1889180871 1.00000000
-4.06026936 0.88082892 -0.95919132 5 2 28224 4.26400000 1889180873 1889180873 -13.00000000
-4.17697525 0.90614688 0.22399789 14 3 28224 4.28000000 1889180875 1889180875 3.00000000
-2.59580255 0.56360400 -0.51632917 3 4 28225 2.70600000 1889180878 1889180878 -11.00000000
-4.86348391 1.05685472 0.43543008 9 5 28226 4.99600000 1889180880 1889180880 5.00000000
-3.09998655 0.67420626 -0.50246751 3 6 28227 3.21200000 1889180882 1889180882 -9.00000000
-3.92380953 0.85481149 -0.49308336 6 8 28229 4.04600000 1889180887 1889180887 -7.00000000
-15.57016850 3.39199924 2.52391362 20 9 28229 16.13400000 1889180889 1889180889 9.00000000
-5.25207567 1.14513767 -0.47029239 6 10 28230 5.39600000 1889180891 1889180891 -5.00000000
-12.39486504 2.70478392 2.46601534 50 11 28231 12.92400000 1889180894 1889180894 11.00000000
-4.11911917 0.89961958 -0.22096241 8 12 28232 4.22200000 1889180896 1889180896 -3.00000000
-11.68546486 2.55425358 2.76149917 52 13 28233 12.27600000 1889180898 1889180898 13.00000000
-4.06131744 0.88848096 -0.07256711 100 14 28234 4.15800000 1889180901 1889180901 -1.00000000
-9.86260796 2.15761018 2.70517659 42 15 28234 10.45200000 1889180903 1889180903 15.00000000
-1.93569374 0.42629826 -0.53109670 4 0 28242 2.05200000 1889180924 1889180924 -15.00000000
-4.13998270 0.91250694 0.07399821 15 1 28243 4.24000000 1889180926 1889180926 1.00000000
-2.21888375 0.48947746 -0.52458584 4 2 28244 2.33200000 1889180928 1889180928 -13.00000000
-4.17378664 0.92072171 0.22399789 14 3 28244 4.28000000 1889180931 1889180931 3.00000000
-2.60532188 0.57520109 -0.51861882 3 4 28245 2.71800000 1889180933 1889180933 -11.00000000
-4.85003757 1.07167566 0.43455854 9 5 28246 4.98600000 1889180935 1889180935 5.00000000
-3.12075949 0.69014162 -0.50622195 3 6 28247 3.23600000 1889180937 1889180937 -9.00000000
-3.92467809 0.86936158 -0.49357083 6 8 28249 4.05000000 1889180942 1889180942 -7.00000000
-5.24026585 1.16173899 -0.46959513 10 10 28250 5.38800000 1889180947 1889180947 -5.00000000
-12.39301491 2.74973464 2.46754193 50 11 28251 12.93200000 1889180949 1889180949 11.00000000
-4.12570286 0.91615736 -0.22148576 8 12 28252 4.23200000 1889180951 1889180951 -3.00000000
-11.66506386 2.59249115 2.75879979 51 13 28253 12.26400000 1889180954 1889180954 13.00000000
-4.05233526 0.90134966 -0.07246239 100 14 28254 4.15200000 1889180956 1889180956 -1.00000000
-9.84709072 2.19206476 2.70310616 42 15 28255 10.44400000 1889180958 1889180958 15.00000000
-1.92484319 0.43060616 -0.52850848 4 0 28261 2.04200000 1889180979 1889180979 -15.00000000
-4.12717676 0.92404610 0.07382368 7 1 28262 4.23000000 1889180981 1889180981 1.00000000
-4.06558943 0.91100228 -0.96189070 8 2 28263 4.27600000 1889180984 1889180984 -13.00000000
-4.16470098 0.93397421 0.22368388 14 3 28264 4.27400000 1889180986 1889180986 3.00000000
-2.58807468 0.58040065 -0.51556593 3 4 28264 2.70200000 1889180988 1889180988 -11.00000000
-4.84645748 1.08775306 0.43455854 9 5 28265 4.98600000 1889180990 1889180990 5.00000000
-3.12230849 0.70135248 -0.50684768 3 6 28266 3.24000000 1889180993 1889180993 -9.00000000
-3.92952037 0.88411444 -0.49454579 4 8 28268 4.05800000 1889180997 1889180997 -7.00000000
-12.61930370 2.83925462 2.04866576 6 9 28268 13.09600000 1889181000 1889181000 9.00000000
-5.23249722 1.17823458 -0.46924651 9 10 28269 5.38400000 1889181002 1889181002 -5.00000000
-12.39914989 2.79426908 2.47059488 50 11 28270 12.94800000 1889181004 1889181004 11.00000000
-4.12848711 0.93115193 -0.22179978 8 12 28271 4.23800000 1889181007 1889181007 -3.00000000
-11.65069962 2.62987232 2.75745010 51 13 28272 12.25800000 1889181009 1889181009 13.00000000
-4.04932404 0.91478276 -0.07246239 100 14 28273 4.15200000 1889181011 1889181011 -1.00000000
-9.85146236 2.22554374 2.70621204 45 15 28273 10.45600000 1889181014 1889181014 15.00000000
-1.91579318 0.43560919 -0.52643794 4 0 28281 2.03400000 1889181034 1889181034 -15.00000000
-4.09662819 0.93223506 0.07333501 8 1 28282 4.20200000 1889181037 1889181037 1.00000000
-4.06808472 0.92648649 -0.96324039 13 2 28283 4.28200000 1889181039 1889181039 -13.00000000
-4.17699385 0.95205683 0.22452125 12 3 28284 4.29000000 1889181041 1889181041 3.00000000
-2.59751797 0.59204894 -0.51785558 3 4 28284 2.71400000 1889181043 1889181043 -11.00000000
-4.83097601 1.10200512 0.43351266 9 5 28285 4.97400000 1889181046 1889181046 5.00000000
-3.11598969 0.71136779 -0.50622195 3 6 28286 3.23600000 1889181048 1889181048 -9.00000000
-3.93415093 0.89959562 -0.49552074 4 8 28288 4.06600000 1889181053 1889181053 -7.00000000
-12.40855026 2.83965826 2.01612735 6 9 28289 12.88800000 1889181055 1889181055 9.00000000
-5.21669960 1.19382548 -0.46820065 9 10 28289 5.37200000 1889181057 1889181057 -5.00000000
-12.35104656 2.82876730 2.46296263 50 11 28290 12.90800000 1889181060 1889181060 11.00000000
-4.11937141 0.94421864 -0.22148576 8 12 28291 4.23200000 1889181062 1889181062 -3.00000000
-11.64334774 2.67096066 2.75790000 55 13 28292 12.26000000 1889181064 1889181064 13.00000000
-4.03831005 0.92712218 -0.07232277 100 14 28293 4.14400000 1889181067 1889181067 -1.00000000
-9.83570766 2.25990582 2.70414138 45 15 28294 10.44800000 1889181069 1889181069 15.00000000
-1.91614330 0.44272879 -0.52695560 4 0 28301 2.03600000 1889181090 1889181090 -15.00000000
-4.09529734 0.94697976 0.07336992 19 1 28302 4.20400000 1889181092 1889181092 1.00000000
-4.05913019 0.93936300 -0.96189070 19 2 28303 4.27600000 1889181094 1889181094 -13.00000000
-4.17169952 0.96618080 0.22441658 10 3 28304 4.28800000 1889181096 1889181096 3.00000000
-2.58395982 0.59845454 -0.51556593 3 4 28304 2.70200000 1889181099 1889181099 -11.00000000
-4.82709980 1.11886168 0.43351266 9 5 28305 4.97400000 1889181101 1889181101 5.00000000
-3.11348748 0.72224027 -0.50622195 3 6 28306 3.23600000 1889181103 1889181103 -9.00000000
-3.93872118 0.91511989 -0.49649569 4 8 28308 4.07400000 1889181108 1889181108 -7.00000000
-12.21819782 2.83876801 1.98671770 13 9 28308 12.70000000 1889181110 1889181110 9.00000000
-5.22220373 1.21428406 -0.46907219 9 10 28309 5.38200000 1889181113 1889181113 -5.00000000
-12.21680641 2.84293985 2.43815732 12 11 28310 12.77800000 1889181115 1889181115 11.00000000
-4.11799526 0.95904523 -0.22159044 6 12 28311 4.23400000 1889181117 1889181117 -3.00000000
-11.63395405 2.71158719 2.75790000 51 13 28312 12.26000000 1889181120 1889181120 13.00000000
-4.05062866 0.94484687 -0.07260201 100 14 28313 4.16000000 1889181122 1889181122 -1.00000000
-9.83568478 2.29426503 2.70621204 45 15 28313 10.45600000 1889181124 1889181124 15.00000000
-1.92022836 0.45073909 -0.52850848 4 0 28321 2.04200000 1889181145 1889181145 -15.00000000
-4.09002018 0.96081197 0.07333501 19 1 28322 4.20200000 1889181147 1889181147 1.00000000
-4.04823875 0.95174235 -0.96009111 16 2 28323 4.26800000 1889181149 1889181149 -13.00000000
-4.16246891 0.97936457 0.22410257 10 3 28324 4.28200000 1889181152 1889181152 3.00000000
-2.58949924 0.60926914 -0.51709241 3 4 28324 2.71000000 1889181154 1889181154 -11.00000000
-4.83674002 1.13890111 0.43473285 9 5 28325 4.98800000 1889181156 1889181156 5.00000000
-3.11094737 0.73310399 -0.50622195 3 6 28326 3.23600000 1889181159 1889181159 -9.00000000
-3.91231871 0.92339104 -0.49357083 4 8 28328 4.05000000 1889181163 1889181163 -7.00000000
-5.23150635 1.23571157 -0.47029239 10 10 28329 5.39600000 1889181168 1889181168 -5.00000000
-4.09713030 0.96927559 -0.22064839 14 12 28331 4.21600000 1889181172 1889181172 -3.00000000
-11.60166168 2.74679303 2.75250101 50 13 28332 12.23600000 1889181175 1889181175 13.00000000
-4.04730606 0.95898044 -0.07260201 100 14 28333 4.16000000 1889181177 1889181177 -1.00000000
-9.83660889 2.33252788 2.70880008 42 15 28334 10.46600000 1889181179 1889181179 15.00000000
-1.93359625 0.46136093 -0.53264958 4 0 28342 2.05800000 1889181200 1889181200 -15.00000000
-4.07869148 0.97393841 0.07319539 17 1 28343 4.19400000 1889181202 1889181202 1.00000000
-4.04093218 0.96566761 -0.95919132 13 2 28344 4.26400000 1889181205 1889181205 -13.00000000
-4.14913893 0.99229145 0.22357920 10 3 28345 4.27200000 1889181207 1889181207 3.00000000
-2.57961106 0.61692947 -0.51556593 3 4 28345 2.70200000 1889181209 1889181209 -11.00000000
-4.84997225 1.16079485 0.43630165 9 5 28346 5.00600000 1889181212 1889181212 5.00000000
-3.10823965 0.74450123 -0.50622195 3 6 28347 3.23600000 1889181214 1889181214 -9.00000000
-3.91083813 0.93818730 -0.49381459 4 8 28349 4.05200000 1889181219 1889181219 -7.00000000
-12.19565010 2.92566538 1.98640490 100 9 28349 12.69800000 1889181221 1889181221 9.00000000
-5.23469114 1.25673819 -0.47098964 10 10 28350 5.40400000 1889181223 1889181223 -5.00000000
-12.18278790 2.92707753 2.43548608 96 11 28351 12.76400000 1889181225 1889181225 11.00000000
-4.08966637 0.98335195 -0.22043905 16 12 28352 4.21200000 1889181228 1889181228 -3.00000000
-11.48541546 2.76376557 2.72730660 59 13 28353 12.12400000 1889181230 1889181230 13.00000000
-4.03209925 0.97099906 -0.07239258 100 14 28354 4.14800000 1889181232 1889181232 -1.00000000
-9.83404160 2.36820674 2.71035314 42 15 28354 10.47200000 1889181235 1889181235 15.00000000
-1.92446399 0.46628797 -0.53057903 4 0 28362 2.05000000 1889181255 1889181255 -15.00000000
-4.08692694 0.99099714 0.07340482 19 1 28363 4.20600000 1889181258 1889181258 1.00000000
-4.04321814 0.98114586 -0.96054101 16 2 28364 4.27000000 1889181260 1889181260 -13.00000000
-4.15535402 1.00912523 0.22410257 10 3 28365 4.28200000 1889181262 1889181262 3.00000000
-2.59842777 0.63102663 -0.51976371 3 4 28365 2.72400000 1889181265 1889181265 -11.00000000
-4.83427477 1.17489421 0.43525577 9 5 28366 4.99400000 1889181267 1889181267 5.00000000
-3.12865496 0.76094854 -0.50997633 3 6 28367 3.26000000 1889181269 1889181269 -9.00000000
-3.92489791 0.95606124 -0.49600822 4 8 28369 4.07000000 1889181274 1889181274 -7.00000000
-12.18868351 2.97128081 1.98703063 100 9 28370 12.70200000 1889181276 1889181276 9.00000000
-5.23414421 1.27594674 -0.47133824 10 10 28370 5.40800000 1889181278 1889181278 -5.00000000
-12.20492077 2.97749567 2.44197345 100 11 28371 12.79800000 1889181281 1889181281 11.00000000
-4.09008932 0.99856895 -0.22064839 16 12 28372 4.21600000 1889181283 1889181283 -3.00000000
-11.30721664 2.76267529 2.68726540 56 13 28373 11.94600000 1889181285 1889181285 13.00000000
-4.02480030 0.98411787 -0.07232277 100 14 28374 4.14400000 1889181288 1889181288 -1.00000000
-9.81966591 2.40285683 2.70880008 42 15 28375 10.46600000 1889181290 1889181290 15.00000000
-1.91352701 0.47036147 -0.52799088 4 0 28381 2.04000000 1889181311 1889181311 -15.00000000
-4.07585096 1.00263369 0.07326520 17 1 28382 4.19800000 1889181313 1889181313 1.00000000
-4.03994226 0.99454826 -0.96054101 16 2 28383 4.27000000 1889181315 1889181315 -13.00000000
-4.15586329 1.02385485 0.22431190 8 3 28384 4.28600000 1889181318 1889181318 3.00000000
-2.58297706 0.63635242 -0.51709241 3 4 28384 2.71000000 1889181320 1889181320 -11.00000000
-4.83808994 1.19282651 0.43595302 9 5 28385 5.00200000 1889181322 1889181322 5.00000000
-3.12611437 0.77131939 -0.50997633 3 6 28386 3.26000000 1889181325 1889181325 -9.00000000
-3.92556000 0.97002381 -0.49649569 4 8 28388 4.07400000 1889181329 1889181329 -7.00000000
-12.18504143 3.01097941 1.98796916 100 9 28388 12.70800000 1889181331 1889181331 9.00000000
-5.21054268 1.28851390 -0.46959513 10 10 28389 5.38800000 1889181334 1889181334 -5.00000000
-12.19497967 3.01795244 2.44197345 100 11 28390 12.79800000 1889181336 1889181336 11.00000000
-4.10808086 1.01740825 -0.22179978 6 12 28391 4.23800000 1889181338 1889181338 -3.00000000
-11.12775707 2.75796413 2.64677405 57 13 28392 11.76600000 1889181341 1889181341 13.00000000
-4.02927828 0.99938476 -0.07246239 100 14 28393 4.15200000 1889181343 1889181343 -1.00000000
-9.81581879 2.43462443 2.70983529 42 15 28393 10.47000000 1889181345 1889181345 15.00000000
-1.91562223 0.47797343 -0.52902615 4 0 28401 2.04400000 1889181366 1889181366 -15.00000000
-4.06456566 1.01491725 0.07312559 22 1 28402 4.19000000 1889181368 1889181368 1.00000000
-4.04211807 1.01006150 -0.96189070 22 2 28403 4.27600000 1889181371 1889181371 -13.00000000
-4.16388988 1.04126251 0.22493994 8 3 28404 4.29800000 1889181373 1889181373 3.00000000
-2.58835864 0.64726996 -0.51861882 3 4 28404 2.71800000 1889181375 1889181375 -11.00000000
-4.83969498 1.21115839 0.43647596 9 5 28405 5.00800000 1889181378 1889181378 5.00000000
-3.10807323 0.77838773 -0.50747341 4 6 28406 3.24400000 1889181380 1889181380 -9.00000000
-3.92600107 0.98468655 -0.49698317 4 8 28408 4.07800000 1889181384 1889181384 -7.00000000
-12.19308376 3.06042862 1.99109793 100 9 28409 12.72800000 1889181387 1889181387 9.00000000
-5.21954060 1.31008947 -0.47081533 10 10 28409 5.40200000 1889181389 1889181389 -5.00000000
-12.18437099 3.06050253 2.44197345 96 11 28410 12.79800000 1889181391 1889181391 11.00000000
-4.11031532 1.03320253 -0.22211380 6 12 28411 4.24400000 1889181394 1889181394 -3.00000000
-10.95931339 2.75685668 2.60898232 62 13 28412 11.59800000 1889181396 1889181396 13.00000000
-4.02188683 1.01246715 -0.07239258 100 14 28413 4.14800000 1889181398 1889181398 -1.00000000
-9.81244946 2.47200084 2.71138835 45 15 28414 10.47600000 1889181401 1889181401 15.00000000
-1.92143309 0.48655418 -0.53109670 4 0 28421 2.05200000 1889181421 1889181421 -15.00000000
-4.06487513 1.03008151 0.07319539 22 1 28422 4.19400000 1889181424 1889181424 1.00000000
-4.02534485 1.02081180 -0.95874137 13 2 28423 4.26200000 1889181426 1889181426 -13.00000000
-4.14474249 1.05186057 0.22410257 8 3 28424 4.28200000 1889181428 1889181428 3.00000000
-2.59369516 0.65823281 -0.52014530 3 4 28424 2.72600000 1889181431 1889181431 -11.00000000
-4.83930016 1.22902560 0.43682459 9 5 28425 5.01200000 1889181433 1889181433 5.00000000
-3.09385014 0.78631270 -0.50559622 3 6 28426 3.23200000 1889181435 1889181435 -9.00000000
-3.92253995 0.99838483 -0.49698317 4 8 28428 4.07800000 1889181440 1889181440 -7.00000000
-12.19818306 3.10474348 1.99360085 100 9 28428 12.74400000 1889181442 1889181442 9.00000000
-5.21300507 1.32780933 -0.47064102 10 10 28429 5.40000000 1889181444 1889181444 -5.00000000
-12.18883324 3.10689449 2.44502640 93 11 28430 12.81400000 1889181447 1889181447 11.00000000
-4.09507227 1.04458201 -0.22148576 6 12 28431 4.23200000 1889181449 1889181449 -3.00000000
-10.76835728 2.74882340 2.56579161 57 13 28432 11.40600000 1889181451 1889181451 13.00000000
-4.02995300 1.02946961 -0.07260201 100 14 28433 4.16000000 1889181454 1889181454 -1.00000000
-9.80794144 2.50548267 2.71242356 45 15 28433 10.48000000 1889181456 1889181456 15.00000000
-1.92346525 0.49421978 -0.53213197 4 0 28441 2.05600000 1889181477 1889181477 -15.00000000
-4.06900167 1.04625618 0.07333501 22 1 28442 4.20200000 1889181479 1889181479 1.00000000
-4.04062986 1.03971279 -0.96324039 9 2 28443 4.28200000 1889181481 1889181481 -13.00000000
-4.14104557 1.06632197 0.22410257 8 3 28444 4.28200000 1889181484 1889181484 3.00000000
-2.59328294 0.66777205 -0.52052695 3 4 28444 2.72800000 1889181486 1889181486 -11.00000000
-4.84848595 1.24939060 0.43804476 9 5 28445 5.02600000 1889181488 1889181488 5.00000000
-3.11021447 0.80204004 -0.50872487 3 6 28446 3.25200000 1889181490 1889181490 -9.00000000
-3.91326499 1.01058185 -0.49625197 4 8 28448 4.07200000 1889181495 1889181495 -7.00000000
-12.19109631 3.14829206 1.99422657 100 9 28448 12.74800000 1889181497 1889181497 9.00000000
-5.22762823 1.35098326 -0.47238412 10 10 28449 5.42000000 1889181500 1889181500 -5.00000000
-12.19311905 3.15335512 2.44807935 87 11 28450 12.83000000 1889181502 1889181502 11.00000000
-4.10300255 1.06187260 -0.22211380 6 12 28451 4.24400000 1889181504 1889181504 -3.00000000
-10.59268475 2.74339986 2.52620029 56 13 28452 11.23000000 1889181507 1889181507 13.00000000
-4.02246332 1.04252708 -0.07253220 100 14 28453 4.15600000 1889181509 1889181509 -1.00000000
-9.80848598 2.54212689 2.71501184 47 15 28453 10.49000000 1889181511 1889181511 15.00000000
-1.91051197 0.49800721 -0.52902615 4 0 28461 2.04400000 1889181532 1889181532 -15.00000000
-4.07306433 1.06247222 0.07347463 22 1 28462 4.21000000 1889181534 1889181534 1.00000000
-4.03886127 1.05430317 -0.96369034 5 2 28463 4.28400000 1889181537 1889181537 -13.00000000
-4.14116335 1.08177996 0.22431190 8 3 28464 4.28600000 1889181539 1889181539 3.00000000
-2.58523750 0.67533159 -0.51938206 3 4 28464 2.72200000 1889181541 1889181541 -11.00000000
-4.84795046 1.26731527 0.43839338 9 5 28465 5.03000000 1889181543 1889181543 5.00000000
-3.11312914 0.81439161 -0.50966346 3 6 28466 3.25800000 1889181546 1889181546 -9.00000000
-3.90779328 1.02373254 -0.49600822 6 8 28468 4.07000000 1889181550 1889181550 -7.00000000
-12.17756462 3.19245267 1.99391365 97 9 28469 12.74600000 1889181553 1889181553 9.00000000
-5.21131706 1.36619139 -0.47133824 10 10 28469 5.40800000 1889181555 1889181555 -5.00000000
-12.18963337 3.19789052 2.44960594 68 11 28470 12.83800000 1889181557 1889181557 11.00000000
-4.09540701 1.07517397 -0.22190446 6 12 28471 4.24000000 1889181560 1889181560 -3.00000000
-10.42472267 2.73876452 2.48840857 55 13 28472 11.06200000 1889181562 1889181562 13.00000000
-4.00332785 1.05249417 -0.07225296 100 14 28473 4.14000000 1889181564 1889181564 -1.00000000
-9.80702591 2.57831430 2.71708226 47 15 28473 10.49800000 1889181566 1889181566 15.00000000
-1.91249740 0.50566071 -0.53006142 4 0 28481 2.04800000 1889181587 1889181587 -15.00000000
-4.06353140 1.07514894 0.07336992 21 1 28482 4.20400000 1889181590 1889181590 1.00000000
-4.03892422 1.06939256 -0.96459013 5 2 28483 4.28800000 1889181592 1889181592 -13.00000000
-4.13736200 1.09622872 0.22431190 8 3 28484 4.28600000 1889181594 1889181594 3.00000000
-2.58476233 0.68485451 -0.51976371 3 4 28484 2.72400000 1889181596 1889181596 -11.00000000
-4.84542322 1.28474057 0.43856770 9 5 28485 5.03200000 1889181599 1889181599 5.00000000
-3.10072088 0.82272053 -0.50809914 3 6 28486 3.24800000 1889181601 1889181601 -9.00000000
-3.91762567 1.04093540 -0.49771440 6 8 28488 4.08400000 1889181606 1889181606 -7.00000000
-12.18352795 3.23950911 1.99672949 100 9 28489 12.76400000 1889181608 1889181608 9.00000000
-5.20459080 1.38386190 -0.47116396 10 10 28489 5.40600000 1889181610 1889181610 -5.00000000
-12.17839718 3.24042082 2.44960594 65 11 28490 12.83800000 1889181613 1889181613 11.00000000
-4.10320902 1.09254646 -0.22253248 6 12 28491 4.25200000 1889181615 1889181615 -3.00000000
-10.28705215 2.74101830 2.45781517 64 13 28492 10.92600000 1889181617 1889181617 13.00000000
-4.01122284 1.06955314 -0.07246239 100 14 28493 4.15200000 1889181619 1889181619 -1.00000000
