# .PCD v0.7 - Point Cloud Data file format
VERSION 0.7
FIELDS x y z intensity laser_id azimuth distance_m adjustedtime timestamp vertical_angle
SIZE 4 4 4 1 1 2 8 8 4 8
TYPE F F F U U U F U U F
COUNT 1 1 1 1 1 1 1 1 1 1
WIDTH 534
HEIGHT 1
VIEWPOINT 0 0 0 1 0 0 0
POINTS 534
DATA ascii
4.29267120 7.16685247 -0.73088807 8 10 3092 8.38600000 1888811015 1888811015 -5.00000000
6.08382797 10.15326691 2.30077481 46 11 3093 12.05800000 1888811018 1888811018 11.00000000
8.44088078 14.08136463 -0.86040312 9 12 3094 16.44000000 1888811020 1888811020 -3.00000000
5.21253204 8.69228363 2.33994079 60 13 3095 10.40200000 1888811022 1888811022 13.00000000
8.45095444 14.08701706 -0.28674304 7 14 3096 16.43000000 1888811025 1888811025 -1.00000000
4.53015900 7.54840088 2.35887671 40 15 3097 9.11400000 1888811027 1888811027 15.00000000
1.18041754 1.96144164 -0.61340111 4 0 3104 2.37000000 1888811048 1888811048 -15.00000000
8.45966339 14.05145359 0.28628927 10 1 3105 16.40400000 1888811050 1888811050 1.00000000
1.39653397 2.31871939 -0.62491405 3 2 3106 2.77800000 1888811052 1888811052 -13.00000000
8.46662426 14.05191231 0.85977507 47 3 3107 16.42800000 1888811055 1888811055 3.00000000
1.68090868 2.78977585 -0.63310426 2 4 3107 3.31800000 1888811057 1888811057 -11.00000000
2.12680984 3.52704453 -0.65233171 2 6 3109 4.17000000 1888811062 1888811062 -9.00000000
8.53309822 14.14547920 2.02839327 45 7 3110 16.64400000 1888811064 1888811064 7.00000000
2.87083077 4.75715303 -0.68222457 6 8 3111 5.59800000 1888811066 1888811066 -7.00000000
6.51884747 10.80215359 1.99829388 43 9 3111 12.77400000 1888811068 1888811068 9.00000000
4.32281065 7.16035271 -0.73175961 8 10 3112 8.39600000 1888811071 1888811071 -5.00000000
6.11923218 10.13196850 2.30077481 43 11 3113 12.05800000 1888811073 1888811073 11.00000000
8.44143867 13.97146988 -0.85548353 9 12 3114 16.34600000 1888811075 1888811075 -3.00000000
5.24284220 8.67403507 2.33994079 57 13 3115 10.40200000 1888811078 1888811078 13.00000000
8.44006252 13.95818329 -0.28471857 7 14 3116 16.31400000 1888811080 1888811080 -1.00000000
4.55316639 7.53003025 2.35784149 40 15 3116 9.11000000 1888811082 1888811082 15.00000000
1.18124568 1.94739890 -0.61029530 4 0 3124 2.35800000 1888811103 1888811103 -15.00000000
8.45575333 13.93465042 0.28450912 10 1 3125 16.30200000 1888811105 1888811105 1.00000000
1.41675425 2.33382034 -0.63031286 3 2 3126 2.80200000 1888811108 1888811108 -13.00000000
8.46274948 13.93521023 0.85443681 47 3 3127 16.32600000 1888811110 1888811110 3.00000000
1.69878912 2.79731584 -0.63615721 2 4 3127 3.33400000 1888811112 1888811112 -11.00000000
19.62634468 32.30506516 3.30703759 31 5 3128 37.94400000 1888811115 1888811115 5.00000000
2.14629030 3.53141546 -0.65452182 2 6 3129 4.18400000 1888811117 1888811117 -9.00000000
8.53188992 14.03249454 2.01645017 42 7 3130 16.54600000 1888811119 1888811119 7.00000000
2.89154506 4.75388718 -0.68319952 9 8 3131 5.60600000 1888811121 1888811121 -7.00000000
6.56044912 10.78156376 1.99891961 43 9 3132 12.77800000 1888811124 1888811124 9.00000000
4.33949327 7.13160324 -0.73036510 8 10 3132 8.38000000 1888811126 1888811126 -5.00000000
6.15456200 10.11054707 2.30077481 43 11 3133 12.05800000 1888811128 1888811128 11.00000000
8.44444942 13.86686134 -0.85087800 9 12 3134 16.25800000 1888811131 1888811131 -3.00000000
5.27714348 8.66233826 2.34174037 56 13 3135 10.41000000 1888811133 1888811133 13.00000000
8.44086361 13.85008812 -0.28311294 7 14 3136 16.22200000 1888811135 1888811135 -1.00000000
4.57771778 7.50834322 2.35628867 40 15 3137 9.10400000 1888811138 1888811138 15.00000000
1.19240713 1.94964850 -0.61236584 4 0 3145 2.36600000 1888811158 1888811158 -15.00000000
8.45250034 13.81486607 0.28269407 10 1 3146 16.19800000 1888811161 1888811161 1.00000000
1.41309047 2.30866671 -0.62491405 3 2 3147 2.77800000 1888811163 1888811163 -13.00000000
8.46683407 13.82744980 0.84972656 47 3 3148 16.23600000 1888811165 1888811165 3.00000000
1.70697999 2.78772187 -0.63539398 2 4 3148 3.33000000 1888811168 1888811168 -11.00000000
9.57570267 15.63224983 1.60383999 21 5 3149 18.40200000 1888811170 1888811170 5.00000000
2.15199423 3.51173520 -0.65233171 2 6 3150 4.17000000 1888811172 1888811172 -9.00000000
8.53035164 13.91481686 2.00401950 49 7 3151 16.44400000 1888811174 1888811174 7.00000000
2.91310072 4.75002575 -0.68417448 9 8 3152 5.61400000 1888811177 1888811177 -7.00000000
6.60424042 10.76870155 2.00079679 43 9 3152 12.79000000 1888811179 1888811179 9.00000000
4.38018942 7.13942575 -0.73280549 8 10 3153 8.40800000 1888811181 1888811181 -5.00000000
6.18336201 10.07453537 2.29772186 50 11 3154 12.04200000 1888811184 1888811184 11.00000000
8.44087410 13.74731255 -0.84543502 14 12 3155 16.15400000 1888811186 1888811186 -3.00000000
5.31089735 8.64625931 2.34264016 55 13 3156 10.41400000 1888811188 1888811188 13.00000000
8.44236469 13.73898220 -0.28147241 10 14 3157 16.12800000 1888811191 1888811191 -1.00000000
4.60288763 7.49067259 2.35577106 40 15 3157 9.10200000 1888811193 1888811193 15.00000000
1.19717801 1.94218528 -0.61133057 4 0 3165 2.36200000 1888811214 1888811214 -15.00000000
8.45973778 13.71889591 0.28133279 10 1 3166 16.12000000 1888811216 1888811216 1.00000000
1.42318690 2.30703712 -0.62581384 3 2 3167 2.78200000 1888811218 1888811218 -13.00000000
8.46470165 13.71622753 0.84470236 47 3 3168 16.14000000 1888811221 1888811221 3.00000000
1.72701108 2.79845381 -0.63921010 2 4 3168 3.35000000 1888811223 1888811223 -11.00000000
9.55694580 15.48005581 1.59163821 21 5 3169 18.26200000 1888811225 1888811225 5.00000000
2.16735339 3.50924397 -0.65327030 2 6 3170 4.17600000 1888811227 1888811227 -9.00000000
8.52252769 13.79376316 1.99085760 45 7 3171 16.33600000 1888811230 1888811230 7.00000000
2.92548895 4.73307419 -0.68319952 6 8 3172 5.60600000 1888811232 1888811232 -7.00000000
6.64386702 10.74894333 2.00142264 40 9 3172 12.79400000 1888811234 1888811234 9.00000000
4.40613174 7.12578726 -0.73297977 8 10 3173 8.41000000 1888811237 1888811237 -5.00000000
6.21849108 10.05289078 2.29772186 43 11 3174 12.04200000 1888811239 1888811239 11.00000000
8.42995453 13.62265587 -0.83957338 9 12 3175 16.04200000 1888811241 1888811241 -3.00000000
5.33283997 8.61441326 2.33904099 55 13 3176 10.39800000 1888811244 1888811244 13.00000000
8.44921017 13.64312649 -0.28011113 10 14 3177 16.05000000 1888811246 1888811246 -1.00000000
4.63205814 7.47948694 2.35732388 40 15 3177 9.10800000 1888811248 1888811248 15.00000000
1.20565021 1.94148695 -0.61236584 4 0 3184 2.36600000 1888811269 1888811269 -15.00000000
8.45031261 13.60243893 0.27951774 10 1 3185 16.01600000 1888811271 1888811271 1.00000000
1.43494403 2.30892539 -0.62761343 3 2 3186 2.79000000 1888811274 1888811274 -13.00000000
8.45319462 13.59648895 0.83905005 50 3 3187 16.03200000 1888811276 1888811276 3.00000000
1.73006201 2.78270769 -0.63692045 2 4 3187 3.33800000 1888811278 1888811278 -11.00000000
9.58191967 15.40598202 1.58728039 21 5 3188 18.21200000 1888811280 1888811280 5.00000000
2.17897844 3.50203753 -0.65327030 2 6 3189 4.17600000 1888811283 1888811283 -9.00000000
8.51787090 13.68453217 1.97915816 45 7 3190 16.24000000 1888811285 1888811285 7.00000000
2.93906975 4.71997643 -0.68271208 6 8 3191 5.60200000 1888811287 1888811287 -7.00000000
6.67716932 10.71897984 2.00017118 40 9 3192 12.78600000 1888811290 1888811290 9.00000000
4.42763042 7.10775471 -0.73263115 4 10 3192 8.40600000 1888811292 1888811292 -5.00000000
6.25490856 10.03721237 2.29886675 46 11 3193 12.04800000 1888811294 1888811294 11.00000000
8.43176174 13.52513599 -0.83528185 9 12 3194 15.96000000 1888811297 1888811297 -3.00000000
5.35518980 8.58675957 2.33634162 57 13 3195 10.38600000 1888811299 1888811299 13.00000000
8.43936443 13.52681065 -0.27829608 9 14 3196 15.94600000 1888811301 1888811301 -1.00000000
4.65581322 7.46244621 2.35680628 40 15 3196 9.10600000 1888811303 1888811303 15.00000000
1.21037018 1.93399143 -0.61133057 4 0 3204 2.36200000 1888811324 1888811324 -15.00000000
8.45954037 13.51184273 0.27826115 10 1 3205 15.94400000 1888811327 1888811327 1.00000000
1.44299495 2.30390263 -0.62761343 3 2 3206 2.79000000 1888811329 1888811329 -13.00000000
8.45606518 13.49581528 0.83465385 50 3 3207 15.94800000 1888811331 1888811331 3.00000000
1.73351061 2.76666975 -0.63463074 2 4 3207 3.32600000 1888811333 1888811333 -11.00000000
9.55098534 15.23738861 1.57333541 15 5 3208 18.05200000 1888811336 1888811336 5.00000000
2.20063424 3.50947213 -0.65608615 2 6 3209 4.19400000 1888811338 1888811338 -9.00000000
8.52655602 13.59249592 1.97013986 40 7 3210 16.16600000 1888811340 1888811340 7.00000000
2.95763779 4.71305132 -0.68319952 6 8 3211 5.60600000 1888811343 1888811343 -7.00000000
6.71244431 10.69226074 1.99954534 40 9 3212 12.78200000 1888811345 1888811345 9.00000000
4.45665169 7.09900570 -0.73332840 4 10 3212 8.41400000 1888811347 1888811347 -5.00000000
6.29408360 10.02196789 2.30039334 46 11 3213 12.05600000 1888811350 1888811350 11.00000000
8.43217087 13.42120934 -0.83067632 9 12 3214 15.87200000 1888811352 1888811352 -3.00000000
5.38720417 8.57131481 2.33724141 59 13 3215 10.39000000 1888811354 1888811354 13.00000000
8.43118095 13.40923977 -0.27648103 7 14 3216 15.84200000 1888811356 1888811356 -1.00000000
4.68107605 7.44206142 2.35577106 40 15 3217 9.10200000 1888811359 1888811359 15.00000000
1.21471632 1.92669868 -0.61029530 4 0 3223 2.35800000 1888811380 1888811380 -15.00000000
8.44776154 13.39407158 0.27641121 10 1 3224 15.83800000 1888811382 1888811382 1.00000000
1.44854724 2.29580855 -0.62671363 3 2 3225 2.78600000 1888811384 1888811384 -13.00000000
8.45173359 13.39000797 0.82983893 50 3 3226 15.85600000 1888811386 1888811386 3.00000000
1.74057984 2.75758553 -0.63386750 2 4 3226 3.32200000 1888811389 1888811389 -11.00000000
9.57380390 15.16183090 1.56880331 47 5 3227 18.00000000 1888811391 1888811391 5.00000000
2.20804024 3.49547505 -0.65483469 2 6 3228 4.18600000 1888811393 1888811393 -9.00000000
8.51962185 13.48191833 1.95819664 47 7 3229 16.06800000 1888811396 1888811396 7.00000000
2.98385811 4.71999693 -0.68563694 4 8 3230 5.62600000 1888811398 1888811398 -7.00000000
6.74786425 10.66994190 1.99954534 43 9 3231 12.78200000 1888811400 1888811400 9.00000000
4.47164869 7.07071638 -0.73193395 4 10 3231 8.39800000 1888811403 1888811403 -5.00000000
6.32518339 9.99772263 2.29962993 43 11 3232 12.05200000 1888811405 1888811405 11.00000000
8.43817902 13.33241749 -0.82690811 9 12 3233 15.80000000 1888811407 1888811407 -3.00000000
5.41247082 8.54846287 2.33589172 57 13 3234 10.38400000 1888811409 1888811409 13.00000000
8.42745018 13.30518723 -0.27491030 9 14 3235 15.75200000 1888811412 1888811412 -1.00000000
4.70133162 7.42242241 2.35421801 40 15 3235 9.09600000 1888811414 1888811414 15.00000000
1.22350633 1.92570794 -0.61133057 4 0 3243 2.36200000 1888811435 1888811435 -15.00000000
8.43975830 13.27843189 0.27463105 10 1 3244 15.73600000 1888811437 1888811437 1.00000000
1.45446110 2.28744912 -0.62581384 3 2 3245 2.78200000 1888811439 1888811439 -13.00000000
8.45232773 13.28796005 0.82533801 50 3 3246 15.77000000 1888811442 1888811442 3.00000000
1.75651717 2.76143217 -0.63615721 2 4 3246 3.33400000 1888811444 1888811444 -11.00000000
9.56570148 15.03250790 1.55886757 31 5 3247 17.88600000 1888811446 1888811446 5.00000000
2.21916747 3.48607993 -0.65452182 2 6 3248 4.18400000 1888811449 1888811449 -9.00000000
8.51544857 13.37172604 1.94649720 34 7 3249 15.97200000 1888811451 1888811451 7.00000000
2.98858333 4.69113588 -0.68295580 4 8 3250 5.60400000 1888811453 1888811453 -7.00000000
6.78719139 10.64965439 2.00017118 43 9 3251 12.78600000 1888811456 1888811456 9.00000000
4.50808191 7.07354641 -0.73385137 4 10 3251 8.42000000 1888811458 1888811458 -5.00000000
6.35793257 9.97227192 2.29886675 46 11 3252 12.04800000 1888811460 1888811460 11.00000000
8.42022514 13.20184708 -0.82062781 9 12 3253 15.68000000 1888811462 1888811462 -3.00000000
5.44437408 8.53280354 2.33679152 57 13 3254 10.38800000 1888811465 1888811465 13.00000000
8.42650318 13.20152283 -0.27337450 9 14 3255 15.66400000 1888811467 1888811467 -1.00000000
4.73240900 7.41410828 2.35680628 40 15 3255 9.10600000 1888811469 1888811469 15.00000000
1.23438752 1.92793322 -0.61340111 4 0 3263 2.37000000 1888811491 1888811491 -15.00000000
8.44183636 13.17985058 0.27319998 10 1 3264 15.65400000 1888811493 1888811493 1.00000000
1.46033418 2.27907658 -0.62491405 3 2 3265 2.77800000 1888811496 1888811496 -13.00000000
8.44570160 13.18081951 0.82041848 47 3 3265 15.67600000 1888811498 1888811498 3.00000000
1.77674043 2.77181220 -0.63997334 2 4 3266 3.35400000 1888811500 1888811500 -11.00000000
9.56649303 14.91852093 1.55050063 46 5 3267 17.79000000 1888811503 1888811503 5.00000000
2.23345590 3.48163772 -0.65514755 2 6 3268 4.18800000 1888811505 1888811505 -9.00000000
8.51168251 13.26339912 1.93504143 40 7 3269 15.87800000 1888811507 1888811507 7.00000000
3.01137471 4.69069815 -0.68441826 4 8 3270 5.61600000 1888811509 1888811509 -7.00000000
6.82246971 10.62708855 2.00017118 43 9 3270 12.78600000 1888811512 1888811512 9.00000000
4.52413225 7.04435587 -0.73245686 4 10 3271 8.40400000 1888811514 1888811514 -5.00000000
6.39694834 9.95662498 2.30039334 46 11 3272 12.05600000 1888811516 1888811516 11.00000000
8.41658306 13.09508801 -0.81581289 9 12 3273 15.58800000 1888811519 1888811519 -3.00000000
5.46991014 8.50719070 2.33499193 59 13 3274 10.38000000 1888811521 1888811521 13.00000000
8.43358898 13.11148262 -0.27211791 9 14 3275 15.59200000 1888811523 1888811523 -1.00000000
4.41547346 6.86462212 2.18702102 24 15 3275 8.45000000 1888811526 1888811526 15.00000000
1.24320447 1.92685926 -0.61443639 4 0 3283 2.37400000 1888811546 1888811546 -15.00000000
8.44549942 13.08477879 0.27183869 10 1 3284 15.57600000 1888811549 1888811549 1.00000000
1.47039497 2.27723956 -0.62581384 3 2 3285 2.78200000 1888811551 1888811551 -13.00000000
8.44410515 13.07260227 0.81560355 52 3 3286 15.58400000 1888811553 1888811553 3.00000000
1.78001368 2.75569868 -0.63768369 2 4 3286 3.34200000 1888811556 1888811556 -11.00000000
9.55903625 14.79299831 1.54091358 46 5 3287 17.68000000 1888811558 1888811558 5.00000000
2.24237823 3.46884346 -0.65420896 2 6 3288 4.18200000 1888811560 1888811560 -9.00000000
8.51373196 13.16526413 1.92504811 36 7 3289 15.79600000 1888811562 1888811562 7.00000000
3.02341700 4.67349100 -0.68344325 4 8 3290 5.60800000 1888811565 1888811565 -7.00000000
6.85922766 10.59869480 1.99954534 40 9 3291 12.78200000 1888811567 1888811567 9.00000000
4.54003429 7.01513958 -0.73106235 4 10 3291 8.38800000 1888811569 1888811569 -5.00000000
6.42953062 9.93093872 2.29962993 46 11 3292 12.05200000 1888811572 1888811572 11.00000000
8.41446972 12.99186802 -0.81120729 9 12 3293 15.50000000 1888811574 1888811574 -3.00000000
5.49321461 8.47823238 2.33229256 56 13 3294 10.36800000 1888811576 1888811576 13.00000000
8.41730976 12.98631668 -0.27012834 9 14 3295 15.47800000 1888811579 1888811579 -1.00000000
4.79480076 7.39464283 2.36146498 40 15 3296 9.12400000 1888811581 1888811581 15.00000000
1.24571085 1.91602933 -0.61236584 4 0 3303 2.36600000 1888811602 1888811602 -15.00000000
8.44532967 12.98481274 0.27037269 10 1 3304 15.49200000 1888811604 1888811604 1.00000000
1.48471177 2.28189349 -0.62851322 3 2 3305 2.79400000 1888811606 1888811606 -13.00000000
8.43839359 12.96919441 0.81089330 47 3 3305 15.49400000 1888811609 1888811609 3.00000000
1.78962195 2.74946856 -0.63768369 2 4 3306 3.34200000 1888811611 1888811611 -11.00000000
9.56604099 14.69108677 1.53376675 15 5 3307 17.59800000 1888811613 1888811613 5.00000000
2.25986385 3.46927094 -0.65577328 2 6 3308 4.19200000 1888811615 1888811615 -9.00000000
8.53579235 13.09887600 1.91968584 36 7 3309 15.75200000 1888811618 1888811618 7.00000000
3.04296422 4.66789770 -0.68417448 6 8 3310 5.61400000 1888811620 1888811620 -7.00000000
6.88539171 10.55814075 1.99641669 43 9 3311 12.76200000 1888811622 1888811622 9.00000000
4.57102394 7.00926208 -0.73210824 4 10 3311 8.40000000 1888811625 1888811625 -5.00000000
6.46844769 9.91501236 2.30115652 50 11 3312 12.06000000 1888811627 1888811627 11.00000000
8.40846348 12.88380623 -0.80628777 9 12 3313 15.40600000 1888811629 1888811629 -3.00000000
5.52703714 8.46553326 2.33409214 55 13 3314 10.37600000 1888811632 1888811632 13.00000000
8.42212963 12.89490891 -0.26883686 9 14 3315 15.40400000 1888811634 1888811634 -1.00000000
4.80767584 7.36091042 2.35577106 38 15 3315 9.10200000 1888811636 1888811636 15.00000000
1.24815679 1.90520561 -0.61029530 4 0 3323 2.35800000 1888811657 1888811657 -15.00000000
8.43579769 12.87162876 0.26862743 10 1 3324 15.39200000 1888811659 1888811659 1.00000000
1.49266803 2.27669692 -0.62851322 3 2 3325 2.79400000 1888811661 1888811661 -13.00000000
8.43761921 12.86950779 0.80649710 50 3 3325 15.41000000 1888811664 1888811664 3.00000000
1.79059470 2.73007154 -0.63463074 2 4 3326 3.32600000 1888811666 1888811666 -11.00000000
8.54066467 13.01676655 1.36206996 4 5 3327 15.62800000 1888811668 1888811668 5.00000000
2.26979232 3.45805860 -0.65514755 2 6 3328 4.18800000 1888811671 1888811671 -9.00000000
8.55749321 13.03249550 1.91432369 38 7 3329 15.70800000 1888811673 1888811673 7.00000000
3.06032968 4.65890646 -0.68441826 9 8 3330 5.61600000 1888811675 1888811675 -7.00000000
6.92220449 10.53404236 1.99641669 47 9 3331 12.76200000 1888811678 1888811678 9.00000000
4.59436893 6.99159861 -0.73193395 4 10 3331 8.39800000 1888811680 1888811680 -5.00000000
6.49870443 9.88580990 2.29962993 46 11 3332 12.05200000 1888811682 1888811682 11.00000000
8.42485237 12.81098938 -0.80356628 9 12 3333 15.35400000 1888811685 1888811685 -3.00000000
5.55869579 8.44944477 2.33499193 57 13 3334 10.38000000 1888811687 1888811687 13.00000000
8.41542149 12.78692245 -0.26719636 9 14 3335 15.31000000 1888811689 1888811689 -1.00000000
4.83227873 7.34246969 2.35525322 45 15 3335 9.10000000 1888811691 1888811691 15.00000000
1.25905681 1.90728605 -0.61236584 4 0 3343 2.36600000 1888811712 1888811712 -15.00000000
8.42668056 12.76033878 0.26691711 10 1 3344 15.29400000 1888811714 1888811714 1.00000000
1.49201274 2.25846505 -0.62491405 3 2 3345 2.77800000 1888811717 1888811717 -13.00000000
8.44508839 12.77851105 0.80272889 52 3 3346 15.33800000 1888811719 1888811719 3.00000000
1.80660820 2.73363185 -0.63692045 2 4 3346 3.33800000 1888811721 1888811721 -11.00000000
9.56288528 14.46439362 1.51703286 25 5 3347 17.40600000 1888811724 1888811724 5.00000000
2.26441407 3.42375255 -0.65014166 2 6 3348 4.15600000 1888811726 1888811726 -9.00000000
8.58759880 12.97936726 1.91091132 36 7 3349 15.68000000 1888811728 1888811728 7.00000000
3.07986045 4.65316153 -0.68514943 6 8 3350 5.62200000 1888811731 1888811731 -7.00000000
6.96145964 10.51761818 1.99766815 43 9 3350 12.77000000 1888811733 1888811733 9.00000000
4.62864590 6.99046993 -0.73350275 4 10 3351 8.41600000 1888811735 1888811735 -5.00000000
6.53100443 9.85979176 2.29886675 43 11 3352 12.04800000 1888811738 1888811738 11.00000000
8.41546154 12.69992256 -0.79843736 9 12 3353 15.25600000 1888811740 1888811740 -3.00000000
5.59676981 8.44298363 2.33859110 55 13 3354 10.39600000 1888811742 1888811742 13.00000000
8.42021847 12.69747353 -0.26593977 9 14 3355 15.23800000 1888811744 1888811744 -1.00000000
4.86556530 7.33436823 2.35835910 40 15 3356 9.11200000 1888811747 1888811747 15.00000000
1.26784658 1.90609658 -0.61340111 4 0 3363 2.37000000 1888811767 1888811767 -15.00000000
8.42575264 12.66258907 0.26548600 14 1 3364 15.21200000 1888811770 1888811770 1.00000000
1.49772751 2.24999881 -0.62401420 3 2 3365 2.77400000 1888811772 1888811772 -13.00000000
8.43318844 12.66896915 0.79759997 52 3 3365 15.24000000 1888811774 1888811774 3.00000000
1.81831574 2.73057723 -0.63768369 2 4 3366 3.34200000 1888811777 1888811777 -11.00000000
9.58238888 14.38449574 1.51215219 45 5 3367 17.35000000 1888811779 1888811779 5.00000000
2.29278326 3.44048452 -0.65483469 2 6 3368 4.18600000 1888811781 1888811781 -9.00000000
8.62734699 12.94105339 1.90969265 40 7 3369 15.67000000 1888811784 1888811784 7.00000000
3.09167862 4.63577652 -0.68417448 6 8 3370 5.61400000 1888811786 1888811786 -7.00000000
6.99776936 10.48874664 1.99704242 40 9 3371 12.76600000 1888811788 1888811788 9.00000000
4.65080738 6.97095537 -0.73315412 4 10 3371 8.41200000 1888811791 1888811791 -5.00000000
6.56320190 9.83366871 2.29810357 46 11 3372 12.04400000 1888811793 1888811793 11.00000000
8.40539837 12.58907890 -0.79330844 9 12 3373 15.15800000 1888811795 1888811795 -3.00000000
5.62404251 8.42015553 2.33769131 56 13 3374 10.39200000 1888811797 1888811797 13.00000000
8.41782951 12.59817123 -0.26447377 9 14 3375 15.15400000 1888811800 1888811800 -1.00000000
4.88684320 7.31091547 2.35628867 42 15 3376 9.10400000 1888811802 1888811802 15.00000000
1.27631092 1.90509164 -0.61443639 4 0 3382 2.37400000 1888811823 1888811823 -15.00000000
8.41871166 12.56148911 0.26395020 21 1 3383 15.12400000 1888811825 1888811825 1.00000000
1.51386213 2.25796866 -0.62761343 3 2 3384 2.79000000 1888811827 1888811827 -13.00000000
8.42955208 12.57291794 0.79330844 52 3 3384 15.15800000 1888811830 1888811830 3.00000000
1.82079911 2.71474957 -0.63539398 2 4 3385 3.33000000 1888811832 1888811832 -11.00000000
9.58008289 14.27818871 1.50430810 25 5 3386 17.26000000 1888811834 1888811834 5.00000000
2.31408763 3.44762373 -0.65765047 2 6 3387 4.20400000 1888811837 1888811837 -9.00000000
8.66910648 12.91072464 1.90944886 45 7 3388 15.66800000 1888811839 1888811839 7.00000000
3.10371375 4.62055540 -0.68344325 6 8 3389 5.60800000 1888811841 1888811841 -7.00000000
7.03068638 10.46671009 1.99704242 40 9 3389 12.76600000 1888811844 1888811844 9.00000000
4.67167568 6.95218706 -0.73280549 4 10 3390 8.40800000 1888811846 1888811846 -5.00000000
6.59796619 9.81510830 2.29886675 43 11 3391 12.04800000 1888811848 1888811848 11.00000000
8.40474701 12.49815655 -0.78933090 9 12 3392 15.08200000 1888811850 1888811850 -3.00000000
5.64105606 8.38529015 2.33319235 56 13 3393 10.37200000 1888811853 1888811853 13.00000000
8.41601753 12.50548649 -0.26311249 9 14 3394 15.07600000 1888811855 1888811855 -1.00000000
4.91213942 7.29627228 2.35680628 40 15 3395 9.10600000 1888811857 1888811857 15.00000000
1.27430654 1.88781524 -0.61029530 4 0 3402 2.35800000 1888811878 1888811878 -15.00000000
8.43117428 12.48562241 0.26297286 35 1 3403 15.06800000 1888811880 1888811880 1.00000000
1.52609813 2.25912976 -0.62941307 3 2 3404 2.79800000 1888811883 1888811883 -13.00000000
8.43202209 12.48218155 0.78943557 50 3 3404 15.08400000 1888811885 1888811885 3.00000000
1.82586730 2.70187068 -0.63386750 2 4 3405 3.32200000 1888811887 1888811887 -11.00000000
9.57630348 14.16543293 1.49594116 30 5 3406 17.16400000 1888811890 1888811890 5.00000000
2.31725502 3.42643476 -0.65514755 2 6 3407 4.18800000 1888811892 1888811892 -9.00000000
8.70967197 12.87380886 1.90847397 36 7 3408 15.66000000 1888811894 1888811894 7.00000000
3.12538671 4.61791277 -0.68466198 6 8 3409 5.61800000 1888811897 1888811897 -7.00000000
7.06717920 10.44210529 1.99704242 43 9 3409 12.76600000 1888811899 1888811899 9.00000000
4.69814920 6.93913698 -0.73315412 4 10 3410 8.41200000 1888811901 1888811901 -5.00000000
6.63438892 9.79526901 2.29962993 46 11 3411 12.05200000 1888811903 1888811903 11.00000000
8.40575027 12.40591049 -0.78535336 9 12 3412 15.00600000 1888811906 1888811906 -3.00000000
5.67466545 8.37199974 2.33499193 59 13 3413 10.38000000 1888811908 1888811908 13.00000000
8.40911674 12.40155411 -0.26154175 9 14 3414 14.98600000 1888811910 1888811910 -1.00000000
4.93432474 7.27428484 2.35525322 42 15 3415 9.10000000 1888811913 1888811913 15.00000000
1.27871561 1.88016081 -0.60926002 4 0 3422 2.35400000 1888811933 1888811933 -15.00000000
8.41396332 12.36683750 0.26108801 38 1 3423 14.96000000 1888811936 1888811936 1.00000000
1.53397465 2.25378895 -0.62941307 3 2 3424 2.79800000 1888811938 1888811938 -13.00000000
8.43171406 12.38827896 0.78535336 55 3 3424 15.00600000 1888811940 1888811940 3.00000000
1.83970714 2.70197177 -0.63539398 4 4 3425 3.33000000 1888811943 1888811943 -11.00000000
9.57409668 14.05617046 1.48792279 14 5 3426 17.07200000 1888811945 1888811945 5.00000000
2.33587551 3.42811966 -0.65702474 2 6 3427 4.20000000 1888811947 1888811947 -9.00000000
8.74561214 12.83020592 1.90652406 36 7 3428 15.64400000 1888811949 1888811949 7.00000000
3.14148736 4.60697508 -0.68466198 6 8 3429 5.61800000 1888811952 1888811952 -7.00000000
7.10692453 10.42226887 1.99798095 50 9 3429 12.77200000 1888811954 1888811954 9.00000000
4.71336031 6.90952778 -0.73175961 4 10 3430 8.39600000 1888811956 1888811956 -5.00000000
6.67407370 9.78015900 2.30153799 50 11 3431 12.06200000 1888811959 1888811959 11.00000000
8.40621281 12.31381130 -0.78137583 9 12 3432 14.93000000 1888811961 1888811961 -3.00000000
5.70605278 8.35535908 2.33589172 57 13 3433 10.38400000 1888811963 1888811963 13.00000000
8.39933681 12.29452133 -0.25990123 9 14 3434 14.89200000 1888811966 1888811966 -1.00000000
4.95624018 7.25469208 2.35421801 40 15 3434 9.09600000 1888811968 1888811968 15.00000000
1.28963876 1.88206029 -0.61133057 4 0 3442 2.36200000 1888811989 1888811989 -15.00000000
8.41637802 12.27801323 0.25983143 49 1 3443 14.88800000 1888811991 1888811991 1.00000000
1.53742409 2.24199200 -0.62761343 3 2 3444 2.79000000 1888811993 1888811993 -13.00000000
8.43311310 12.29782581 0.78148049 52 3 3444 14.93200000 1888811996 1888811996 3.00000000
1.85134876 2.69877148 -0.63615721 2 4 3445 3.33400000 1888811998 1888811998 -11.00000000
2.33776546 3.40528822 -0.65420896 2 6 3447 4.18200000 1888812002 1888812002 -9.00000000
8.77236366 12.77341747 1.90262413 35 7 3448 15.61200000 1888812005 1888812005 7.00000000
3.16654205 4.60907030 -0.68661189 6 8 3449 5.63400000 1888812007 1888812007 -7.00000000
7.15221024 10.41042233 2.00048399 50 9 3449 12.78800000 1888812009 1888812009 9.00000000
4.74083614 6.89795923 -0.73228258 8 10 3450 8.40200000 1888812012 1888812012 -5.00000000
6.70038605 9.74547768 2.29886675 46 11 3451 12.04800000 1888812014 1888812014 11.00000000
8.39594841 12.20704937 -0.77645624 9 12 3452 14.83600000 1888812016 1888812016 -3.00000000
5.73518372 8.33539104 2.33589172 60 13 3453 10.38400000 1888812019 1888812019 13.00000000
8.40818787 12.21571064 -0.25885409 9 14 3454 14.83200000 1888812021 1888812021 -1.00000000
4.98498821 7.23965979 2.35525322 40 15 3455 9.10000000 1888812023 1888812023 15.00000000
1.30135918 1.88572323 -0.61391878 4 0 3461 2.37200000 1888812044 1888812044 -15.00000000
8.41501141 12.18914795 0.25853994 63 1 3462 14.81400000 1888812046 1888812046 1.00000000
1.54263556 2.23367453 -0.62671363 3 2 3463 2.78600000 1888812049 1888812049 -13.00000000
8.42944336 12.20094109 0.77718896 52 3 3464 14.85000000 1888812051 1888812051 3.00000000
1.86251998 2.69584799 -0.63692045 4 4 3464 3.33800000 1888812053 1888812053 -11.00000000
8.37724876 12.11634827 -2.33306360 3 6 3466 14.91400000 1888812058 1888812058 -9.00000000
8.79208946 12.71160507 1.89774942 33 7 3467 15.57200000 1888812060 1888812060 7.00000000
3.17729092 4.59201479 -0.68563694 6 8 3468 5.62600000 1888812062 1888812062 -7.00000000
7.20355272 10.41101456 2.00517702 57 9 3468 12.81800000 1888812065 1888812065 9.00000000
4.77275610 6.89530611 -0.73367703 8 10 3469 8.41800000 1888812067 1888812067 -5.00000000
6.72819567 9.71674919 2.29734039 43 11 3470 12.04000000 1888812069 1888812069 11.00000000
8.39430237 12.11839294 -0.77258337 9 12 3471 14.76200000 1888812072 1888812072 -3.00000000
5.76279306 8.31632614 2.33589172 57 13 3472 10.38400000 1888812074 1888812074 13.00000000
8.40649891 12.12695408 -0.25756261 9 14 3473 14.75800000 1888812076 1888812076 -1.00000000
5.00990868 7.22713900 2.35628867 40 15 3473 9.10400000 1888812079 1888812079 15.00000000
1.30462515 1.87641072 -0.61236584 4 0 3481 2.36600000 1888812099 1888812099 -15.00000000
8.41526031 12.09895897 0.25724846 56 1 3482 14.74000000 1888812102 1888812102 1.00000000
1.54597104 2.22187757 -0.62491405 3 2 3483 2.77800000 1888812104 1888812104 -13.00000000
8.42405891 12.10259438 0.77279276 62 3 3484 14.76600000 1888812106 1888812106 3.00000000
1.86743259 2.68288469 -0.63539398 4 4 3484 3.33000000 1888812108 1888812108 -11.00000000
8.55591011 12.28744602 1.30995083 4 5 3485 15.03000000 1888812111 1888812111 5.00000000
2.36201930 3.39091754 -0.65452182 2 6 3486 4.18400000 1888812113 1888812113 -9.00000000
8.84321690 12.69060898 1.89921188 35 7 3487 15.58400000 1888812115 1888812115 7.00000000
3.18876004 4.57438231 -0.68466198 6 8 3488 5.61800000 1888812118 1888812118 -7.00000000
7.25070190 10.39750481 2.00767994 57 9 3489 12.83400000 1888812120 1888812120 9.00000000
4.80705261 6.89331198 -0.73524582 8 10 3489 8.43600000 1888812122 1888812122 -5.00000000
6.77105904 9.70608521 2.30039334 43 11 3490 12.05600000 1888812125 1888812125 11.00000000
8.38854599 12.02022743 -0.76818717 13 12 3491 14.67800000 1888812127 1888812127 -3.00000000
5.78286314 8.28337669 2.33229256 56 13 3492 10.36800000 1888812129 1888812129 13.00000000
8.39725399 12.02376080 -0.25599191 9 14 3493 14.66800000 1888812132 1888812132 -1.00000000
5.04410887 7.21981335 2.35991216 45 15 3494 9.11800000 1888812134 1888812134 15.00000000
1.31149375 1.87161648 -0.61236584 4 0 3502 2.36600000 1888812155 1888812155 -15.00000000
8.41363525 12.00253582 0.25585228 56 1 3503 14.66000000 1888812157 1888812157 1.00000000
1.55969858 2.22417402 -0.62716353 4 2 3504 2.78800000 1888812159 1888812159 -13.00000000
8.42362690 12.00786972 0.76871055 50 3 3505 14.68800000 1888812161 1888812161 3.00000000
1.87048841 2.66637897 -0.63310426 4 4 3505 3.31800000 1888812164 1888812164 -11.00000000
9.80260849 13.96842098 1.49297786 5 5 3506 17.13000000 1888812166 1888812166 5.00000000
2.38578176 3.39840508 -0.65765047 2 6 3507 4.20400000 1888812168 1888812168 -9.00000000
8.88510704 12.65161419 1.89823687 28 7 3508 15.57600000 1888812171 1888812171 7.00000000
3.20550442 4.56266403 -0.68466198 6 8 3509 5.61800000 1888812173 1888812173 -7.00000000
7.29830742 10.38829517 2.01080871 60 9 3509 12.85400000 1888812175 1888812175 9.00000000
4.83686829 6.88216734 -0.73594308 13 10 3510 8.44400000 1888812178 1888812178 -5.00000000
6.80884600 9.68441486 2.30115652 43 11 3511 12.06000000 1888812180 1888812180 11.00000000
8.39118195 11.93058968 -0.76441896 9 12 3512 14.60600000 1888812182 1888812182 -3.00000000
5.81991291 8.27168846 2.33499193 57 13 3513 10.38000000 1888812185 1888812185 13.00000000
8.40098286 11.93566799 -0.25477022 9 14 3514 14.59800000 1888812187 1888812187 -1.00000000
5.06038427 7.18952417 2.35577106 40 15 3514 9.10200000 1888812189 1888812189 15.00000000
1.31690478 1.86544883 -0.61184824 4 0 3522 2.36400000 1888812210 1888812210 -15.00000000
8.41395378 11.91429043 0.25459570 45 1 3523 14.58800000 1888812212 1888812212 1.00000000
1.56632853 2.21712446 -0.62671363 4 2 3524 2.78600000 1888812214 1888812214 -13.00000000
8.42745113 11.92456818 0.76525635 55 3 3525 14.62200000 1888812217 1888812217 3.00000000
1.88431668 2.66624641 -0.63463074 2 4 3525 3.32600000 1888812219 1888812219 -11.00000000
9.87891293 13.97316265 1.49716139 15 5 3526 17.17800000 1888812221 1888812221 5.00000000
2.39306736 3.38360524 -0.65639901 2 6 3527 4.19600000 1888812224 1888812224 -9.00000000
16.50093269 23.32236290 3.50788713 28 7 3528 28.78400000 1888812226 1888812226 7.00000000
3.22829247 4.56116867 -0.68612438 6 8 3529 5.63000000 1888812228 1888812228 -7.00000000
7.35003138 10.38082123 2.01456308 57 9 3530 12.87800000 1888812231 1888812231 9.00000000
4.84934902 6.84898090 -0.73420000 13 10 3530 8.42400000 1888812233 1888812233 -5.00000000
6.83807039 9.65418053 2.29962993 46 11 3531 12.05200000 1888812235 1888812235 11.00000000
8.39813519 11.85233688 -0.76127881 9 12 3532 14.54600000 1888812237 1888812237 -3.00000000
5.85551214 8.26086140 2.33769131 56 13 3533 10.39200000 1888812240 1888812240 13.00000000
8.39401436 11.83775997 -0.25330421 9 14 3534 14.51400000 1888812242 1888812242 -1.00000000
5.08446598 7.16777706 2.35473561 38 15 3535 9.09800000 1888812244 1888812244 15.00000000
1.32676733 1.86556351 -0.61340111 4 0 3542 2.37000000 1888812265 1888812265 -15.00000000
8.41259861 11.82456017 0.25330421 45 1 3543 14.51400000 1888812267 1888812267 1.00000000
1.57292819 2.21005583 -0.62626374 4 2 3544 2.78400000 1888812270 1888812270 -13.00000000
8.42732239 11.83650589 0.76148814 52 3 3545 14.55000000 1888812272 1888812272 3.00000000
1.89816689 2.66604996 -0.63615721 4 4 3545 3.33400000 1888812274 1888812274 -11.00000000
9.95652390 13.97916508 1.50151908 20 5 3546 17.22800000 1888812277 1888812277 5.00000000
2.40371752 3.37362266 -0.65608615 2 6 3547 4.19400000 1888812279 1888812279 -9.00000000
16.55920029 23.23229027 3.50301242 35 7 3548 28.74400000 1888812281 1888812281 7.00000000
3.24419427 4.54987240 -0.68612438 6 8 3549 5.63000000 1888812284 1888812284 -7.00000000
7.40276432 10.38212490 2.01956892 57 9 3549 12.91000000 1888812286 1888812286 9.00000000
4.87322664 6.83201218 -0.73420000 13 10 3550 8.42400000 1888812288 1888812288 -5.00000000
6.86716700 9.62385941 2.29810357 50 11 3551 12.04400000 1888812290 1888812290 11.00000000
8.37679577 11.73516750 -0.75562656 9 12 3552 14.43800000 1888812293 1888812293 -3.00000000
5.88431263 8.24037170 2.33769131 57 13 3553 10.39200000 1888812295 1888812295 13.00000000
8.39576435 11.75306320 -0.25211746 9 14 3554 14.44600000 1888812297 1888812297 -1.00000000
5.11382198 7.15873718 2.35732388 45 15 3554 9.10800000 1888812300 1888812300 15.00000000
1.33327127 1.86092091 -0.61340111 4 0 3562 2.37000000 1888812320 1888812320 -15.00000000
8.41188622 11.73660946 0.25204766 45 1 3563 14.44200000 1888812323 1888812323 1.00000000
1.57495558 2.19663310 -0.62401420 3 2 3564 2.77400000 1888812325 1888812325 -13.00000000
8.41620541 11.73398399 0.75677794 52 3 3565 14.46000000 1888812327 1888812327 3.00000000
1.91661549 2.67217040 -0.63921010 2 4 3565 3.35000000 1888812330 1888812330 -11.00000000
8.53130150 11.89007092 1.28031790 4 5 3566 14.69000000 1888812332 1888812332 5.00000000
2.41663074 3.36681628 -0.65639901 2 6 3567 4.19600000 1888812334 1888812334 -9.00000000
13.67038536 19.03837395 2.87782264 16 7 3568 23.61400000 1888812337 1888812337 7.00000000
3.25542402 4.53207111 -0.68514943 6 8 3569 5.62200000 1888812339 1888812339 -7.00000000
7.46382141 10.38700676 2.02582622 54 9 3570 12.95000000 1888812341 1888812341 9.00000000
4.91564751 6.84084749 -0.73698896 13 10 3570 8.45600000 1888812343 1888812343 -5.00000000
6.90644836 9.60780048 2.30001163 50 11 3571 12.05400000 1888812346 1888812346 11.00000000
8.38739109 11.66369629 -0.75290507 9 12 3572 14.38600000 1888812348 1888812348 -3.00000000
5.90848875 8.21345425 2.33589172 46 13 3573 10.38400000 1888812350 1888812350 13.00000000
8.40286636 11.67661476 -0.25110522 9 14 3574 14.38800000 1888812353 1888812353 -1.00000000
5.13889694 7.13837814 2.35680628 38 15 3575 9.10600000 1888812355 1888812355 15.00000000
1.33685088 1.85358942 -0.61236584 4 0 3580 2.36600000 1888812376 1888812376 -15.00000000
8.40659523 11.65174484 0.25079107 35 1 3581 14.37000000 1888812378 1888812378 1.00000000
1.58412969 2.19483471 -0.62491405 3 2 3582 2.77800000 1888812380 1888812380 -13.00000000
8.41210651 11.65081024 0.75311440 55 3 3583 14.39000000 1888812383 1888812383 3.00000000
1.91580689 2.65340233 -0.63615721 2 4 3583 3.33400000 1888812385 1888812385 -11.00000000
10.09218121 13.97258377 1.50796866 60 5 3584 17.30200000 1888812387 1888812387 5.00000000
2.43066669 3.36401105 -0.65733761 2 6 3585 4.20200000 1888812390 1888812390 -9.00000000
3.27429867 4.52825594 -0.68612438 6 8 3587 5.63000000 1888812394 1888812394 -7.00000000
7.51196909 10.38882637 2.03051925 54 9 3587 12.98000000 1888812396 1888812396 9.00000000
4.93477917 6.82214212 -0.73664033 8 10 3588 8.45200000 1888812399 1888812399 -5.00000000
6.94005060 9.59082794 2.30115652 50 11 3589 12.06000000 1888812401 1888812401 11.00000000
8.37948895 11.57580948 -0.74892753 13 12 3590 14.31000000 1888812403 1888812403 -3.00000000
5.92969131 8.18853760 2.33409214 15 13 3591 10.37600000 1888812406 1888812406 13.00000000
8.39140892 11.58376217 -0.24967413 14 14 3592 14.30600000 1888812408 1888812408 -1.00000000
5.16458750 7.12935686 2.35887671 45 15 3592 9.11400000 1888812410 1888812410 15.00000000
1.34331298 1.84891164 -0.61236584 4 0 3600 2.36600000 1888812431 1888812431 -15.00000000
8.41077042 11.57218456 0.24970903 31 1 3601 14.30800000 1888812433 1888812433 1.00000000
1.59865737 2.19874883 -0.62761343 3 2 3602 2.79000000 1888812436 1888812436 -13.00000000
8.40925598 11.56161308 0.74924153 52 3 3603 14.31600000 1888812438 1888812438 3.00000000
1.92043817 2.64034796 -0.63463074 2 4 3603 3.32600000 1888812440 1888812440 -11.00000000
10.16668224 13.97271347 1.51180351 65 5 3604 17.34600000 1888812443 1888812443 5.00000000
2.44355702 3.35710311 -0.65765047 4 6 3605 4.20400000 1888812445 1888812445 -9.00000000
8.52763367 11.71147060 1.77880490 1 7 3606 14.59600000 1888812447 1888812447 7.00000000
3.28774762 4.51358986 -0.68563694 6 8 3607 5.62600000 1888812449 1888812449 -7.00000000
7.56046581 10.37559223 2.03333521 57 9 3608 12.99800000 1888812452 1888812452 9.00000000
4.95034933 6.79360342 -0.73542017 8 10 3608 8.43800000 1888812454 1888812454 -5.00000000
6.97579956 9.56971645 2.30191970 46 11 3609 12.06400000 1888812456 1888812456 11.00000000
8.37748051 11.48839378 -0.74515933 9 12 3610 14.23800000 1888812459 1888812459 -3.00000000
4.99352741 6.84532547 1.95617437 15 13 3611 8.69600000 1888812461 1888812461 13.00000000
8.38817787 11.49463367 -0.24838264 9 14 3612 14.23200000 1888812463 1888812463 -1.00000000
5.18726587 7.10569906 2.35732388 42 15 3613 9.10800000 1888812466 1888812466 15.00000000
1.34519482 1.83797562 -0.61029530 4 0 3620 2.35800000 1888812486 1888812486 -15.00000000
8.40267944 11.47660255 0.24827793 21 1 3621 14.22600000 1888812489 1888812489 1.00000000
1.60977721 2.19787145 -0.62896317 3 2 3622 2.79600000 1888812491 1888812491 -13.00000000
8.41178894 11.48063374 0.74589205 57 3 3623 14.25200000 1888812493 1888812493 3.00000000
1.92964292 2.63362837 -0.63463074 2 4 3623 3.32600000 1888812496 1888812496 -11.00000000
10.22835064 13.95481682 1.51372099 60 5 3624 17.36800000 1888812498 1888812498 5.00000000
2.45058846 3.34218097 -0.65639901 6 6 3625 4.19600000 1888812500 1888812500 -9.00000000
13.65107059 18.61089897 2.83394980 11 7 3626 23.25400000 1888812502 1888812502 7.00000000
3.30700612 4.50688744 -0.68636817 6 8 3627 5.63200000 1888812505 1888812505 -7.00000000
7.61703444 10.38072395 2.03927970 60 9 3627 13.03600000 1888812507 1888812507 9.00000000
4.96813822 6.76825142 -0.73454863 8 10 3628 8.42800000 1888812509 1888812509 -5.00000000
7.01380968 9.55163860 2.30344629 46 11 3629 12.07200000 1888812512 1888812512 11.00000000
8.38206005 11.41079140 -0.74201918 9 12 3630 14.17800000 1888812514 1888812514 -3.00000000
5.02662325 6.84041595 1.95977354 20 13 3631 8.71200000 1888812516 1888812516 13.00000000
8.38916588 11.41211319 -0.24723078 9 14 3632 14.16600000 1888812519 1888812519 -1.00000000
5.20736837 7.08378887 2.35577106 40 15 3632 9.10200000 1888812521 1888812521 15.00000000
1.35389519 1.83637869 -0.61133057 4 0 3640 2.36200000 1888812542 1888812542 -15.00000000
8.40114689 11.39087486 0.24705626 14 1 3641 14.15600000 1888812544 1888812544 1.00000000
1.61743939 2.19223881 -0.62896317 3 2 3642 2.79600000 1888812546 1888812546 -13.00000000
8.41623116 11.40299225 0.74275190 57 3 3643 14.19200000 1888812549 1888812549 3.00000000
1.94115603 2.63003564 -0.63539398 4 4 3643 3.33000000 1888812551 1888812551 -11.00000000
10.30303574 13.95429039 1.51755583 60 5 3644 17.41200000 1888812553 1888812553 5.00000000
2.45989251 3.33042836 -0.65577328 6 6 3645 4.19200000 1888812555 1888812555 -9.00000000
13.69825649 18.53918457 2.83029366 30 7 3646 23.22400000 1888812558 1888812558 7.00000000
3.32153797 4.49372005 -0.68612438 6 8 3647 5.63000000 1888812560 1888812560 -7.00000000
7.67553282 10.38425446 2.04522419 64 9 3647 13.07400000 1888812562 1888812562 9.00000000
5.00121021 6.76368380 -0.73594308 13 10 3648 8.44400000 1888812565 1888812565 -5.00000000
7.03776836 9.51447010 2.30039334 46 11 3649 12.05600000 1888812567 1888812567 11.00000000
8.37194347 11.31403160 -0.73762298 9 12 3650 14.09400000 1888812569 1888812569 -3.00000000
5.06670237 6.84475613 1.96607220 23 13 3651 8.74000000 1888812572 1888812572 13.00000000
8.38967896 11.32972717 -0.24607892 9 14 3652 14.10000000 1888812574 1888812574 -1.00000000
5.23551226 7.07022619 2.35732388 45 15 3652 9.10800000 1888812576 1888812576 15.00000000
1.36029708 1.83164155 -0.61133057 4 0 3660 2.36200000 1888812597 1888812597 -15.00000000
8.39076996 11.29406261 0.24559027 14 1 3661 14.07200000 1888812599 1888812599 1.00000000
1.62275696 2.18345141 -0.62806332 3 2 3662 2.79200000 1888812602 1888812602 -13.00000000
8.40116692 11.29981613 0.73793697 52 3 3663 14.10000000 1888812604 1888812604 3.00000000
1.96203840 2.63899899 -0.63921010 2 4 3663 3.35000000 1888812606 1888812606 -11.00000000
10.37784100 13.95341301 1.52139068 61 5 3664 17.45600000 1888812608 1888812608 5.00000000
2.47386122 3.32499123 -0.65639901 6 6 3665 4.19600000 1888812611 1888812611 -9.00000000
13.78659153 18.52310562 2.83516836 30 7 3666 23.26400000 1888812613 1888812613 7.00000000
3.33483267 4.47891378 -0.68563694 6 8 3667 5.62600000 1888812615 1888812615 -7.00000000
7.73832083 10.38932037 2.05179453 64 9 3668 13.11600000 1888812618 1888812618 9.00000000
5.02955008 6.75257683 -0.73664033 13 10 3668 8.45200000 1888812620 1888812620 -5.00000000
7.07562923 9.49614334 2.30191970 50 11 3669 12.06400000 1888812622 1888812622 11.00000000
8.36602783 11.22388840 -0.73364544 9 12 3670 14.01800000 1888812625 1888812625 -3.00000000
5.09172869 6.82859087 1.96652210 22 13 3671 8.74200000 1888812627 1888812627 13.00000000
8.39330769 11.25228596 -0.24503179 9 14 3672 14.04000000 1888812629 1888812629 -1.00000000
5.26362562 7.05655336 2.35887671 45 15 3672 9.11400000 1888812631 1888812631 15.00000000
1.37015402 1.83152270 -0.61288351 3 0 3680 2.36800000 1888812652 1888812652 -15.00000000
8.39180183 11.21347237 0.24447331 10 1 3681 14.00800000 1888812655 1888812655 1.00000000
1.62452936 2.16997361 -0.62581384 3 2 3682 2.78200000 1888812657 1888812657 -13.00000000
8.39745903 11.21287060 0.73416877 57 3 3683 14.02800000 1888812659 1888812659 3.00000000
1.97594571 2.63841987 -0.64073658 4 4 3683 3.35800000 1888812661 1888812661 -11.00000000
10.45993328 13.96174908 1.52627134 51 5 3684 17.51200000 1888812664 1888812664 5.00000000
2.48545265 3.31633568 -0.65639901 4 6 3685 4.19600000 1888812666 1888812666 -9.00000000
13.88212490 18.51616287 2.84150553 27 7 3686 23.31600000 1888812668 1888812668 7.00000000
3.34568262 4.46089363 -0.68466198 6 8 3687 5.61800000 1888812671 1888812671 -7.00000000
7.79113626 10.38436699 2.05617452 64 9 3688 13.14400000 1888812673 1888812673 9.00000000
5.05548143 6.73816681 -0.73698896 8 10 3688 8.45600000 1888812675 1888812675 -5.00000000
7.11109066 9.47452736 2.30268288 46 11 3689 12.06800000 1888812678 1888812678 11.00000000
8.37397671 11.15309048 -0.73092395 8 12 3690 13.96600000 1888812680 1888812680 -3.00000000
5.12957811 6.82947397 1.97192097 21 13 3691 8.76600000 1888812682 1888812682 13.00000000
8.37727833 11.14937973 -0.24342616 9 14 3692 13.94800000 1888812684 1888812684 -1.00000000
5.29177523 7.04030228 2.35991216 45 15 3693 9.11800000 1888812687 1888812687 15.00000000
1.37970710 1.83159828 -0.61443639 4 0 3699 2.37400000 1888812708 1888812708 -15.00000000
8.39283752 11.13767147 0.24342616 14 1 3700 13.94800000 1888812710 1888812710 1.00000000
1.63875461 2.17391133 -0.62851322 3 2 3701 2.79400000 1888812712 1888812712 -13.00000000
8.39731789 11.13552761 0.73092395 72 3 3702 13.96600000 1888812714 1888812714 3.00000000
1.97049940 2.61304283 -0.63615721 4 4 3702 3.33400000 1888812717 1888812717 -11.00000000
8.39797974 11.13236332 1.22000611 18 5 3703 13.99800000 1888812719 1888812719 5.00000000
2.50595570 3.32068944 -0.65890199 6 6 3704 4.21200000 1888812721 1888812721 -9.00000000
8.42252350 11.15679550 1.71640778 43 7 3705 14.08400000 1888812724 1888812724 7.00000000
3.37481284 4.46878338 -0.68758684 6 8 3706 5.64200000 1888812726 1888812726 -7.00000000
7.84219980 10.38053989 2.06055474 60 9 3707 13.17200000 1888812728 1888812728 9.00000000
5.06819057 6.70864725 -0.73559445 8 10 3707 8.44000000 1888812731 1888812731 -5.00000000
7.14483786 9.45402622 2.30344629 50 11 3708 12.07200000 1888812733 1888812733 11.00000000
8.37237263 11.07427788 -0.72757447 8 12 3709 13.90200000 1888812735 1888812735 -3.00000000
5.17218065 6.83884859 1.97956932 15 13 3710 8.80000000 1888812737 1888812737 13.00000000
8.36473751 11.05615425 -0.24199507 9 14 3711 13.86600000 1888812740 1888812740 -1.00000000
5.31036997 7.01902103 2.35835910 45 15 3711 9.11200000 1888812742 1888812742 15.00000000
1.37441492 1.81138122 -0.60926002 4 0 3719 2.35400000 1888812763 1888812763 -15.00000000
8.38330364 11.04459476 0.24202998 10 1 3720 13.86800000 1888812765 1888812765 1.00000000
1.64397609 2.16507363 -0.62761343 3 2 3721 2.79000000 1888812767 1888812767 -13.00000000
8.39506149 11.05207157 0.72736514 55 3 3722 13.89800000 1888812770 1888812770 3.00000000
1.97842109 2.60458517 -0.63577557 4 4 3722 3.33200000 1888812772 1888812772 -11.00000000
8.40303612 11.05856323 1.21512532 52 5 3723 13.94200000 1888812774 1888812774 5.00000000
2.50796843 3.29934096 -0.65639901 4 6 3724 4.19600000 1888812777 1888812777 -9.00000000
8.42777252 11.08308411 1.70958316 78 7 3725 14.02800000 1888812779 1888812779 7.00000000
3.37837291 4.44117689 -0.68514943 6 8 3726 5.62200000 1888812781 1888812781 -7.00000000
5.09640312 6.69725704 -0.73629171 8 10 3727 8.44800000 1888812786 1888812786 -5.00000000
7.17541647 9.42590427 2.30268288 43 11 3728 12.06800000 1888812788 1888812788 11.00000000
8.36257648 10.98142624 -0.72338760 8 12 3729 13.82200000 1888812790 1888812790 -3.00000000
5.21019220 6.83935499 1.98496807 3 13 3730 8.82400000 1888812793 1888812793 13.00000000
8.37055397 10.98394585 -0.24105264 9 14 3731 13.81200000 1888812795 1888812795 -1.00000000
5.32547092 6.98814964 2.35421801 40 15 3731 9.09600000 1888812797 1888812797 15.00000000
1.38659489 1.81424701 -0.61184824 3 0 3739 2.36400000 1888812818 1888812818 -15.00000000
8.38051033 10.96125221 0.24084321 10 1 3740 13.80000000 1888812820 1888812820 1.00000000
1.64915574 2.15622616 -0.62671363 3 2 3741 2.78600000 1888812823 1888812823 -13.00000000
8.39041042 10.97023296 0.72380626 55 3 3741 13.83000000 1888812825 1888812825 3.00000000
1.99107969 2.60234094 -0.63692045 4 4 3742 3.33800000 1888812827 1888812827 -11.00000000
8.40041351 10.97537041 1.20919883 52 5 3743 13.87400000 1888812830 1888812830 5.00000000
2.51706815 3.28742957 -0.65577328 4 6 3744 4.19200000 1888812832 1888812832 -9.00000000
8.41209030 10.98268127 1.69861495 58 7 3745 13.93800000 1888812834 1888812834 7.00000000
3.40834308 4.44826555 -0.68807429 6 8 3746 5.64600000 1888812836 1888812836 -7.00000000
7.27951717 9.50057793 1.89567280 13 9 3746 12.11800000 1888812839 1888812839 9.00000000
5.12702227 6.68891430 -0.73733759 8 10 3747 8.46000000 1888812841 1888812841 -5.00000000
7.20349693 9.39456844 2.30115652 50 11 3748 12.06000000 1888812843 1888812843 11.00000000
8.36195946 10.90145588 -0.72003806 8 12 3749 13.75800000 1888812846 1888812846 -3.00000000
8.37231636 10.90707207 -0.24000549 11 14 3751 13.75200000 1888812850 1888812850 -1.00000000
5.35924196 6.98177719 2.35835910 42 15 3751 9.11200000 1888812853 1888812853 15.00000000
1.39409781 1.81092668 -0.61236584 4 0 3759 2.36600000 1888812873 1888812873 -15.00000000
8.37967777 10.88123322 0.23972626 10 1 3760 13.73600000 1888812876 1888812876 1.00000000
1.66142952 2.15663147 -0.62851322 3 2 3761 2.79400000 1888812878 1888812878 -13.00000000
8.38911057 10.88561916 0.72024745 55 3 3762 13.76200000 1888812880 1888812880 3.00000000
2.00494504 2.60159516 -0.63844693 2 4 3762 3.34600000 1888812883 1888812883 -11.00000000
8.39853001 10.89390945 1.20344651 52 5 3763 13.80800000 1888812885 1888812885 5.00000000
