# .PCD v0.7 - Point Cloud Data file format
VERSION 0.7
FIELDS x y z intensity laser_id azimuth distance_m adjustedtime timestamp vertical_angle
SIZE 4 4 4 1 1 2 8 8 4 8
TYPE F F F U U U F U U F
COUNT 1 1 1 1 1 1 1 1 1 1
WIDTH 521
HEIGHT 1
VIEWPOINT 0 0 0 1 0 0 0
POINTS 521
DATA ascii
-1.04947042 2.86471391 -0.59303439 2 4 33988 3.10800000 1888796791 1888796791 -11.00000000
-3.92864990 10.72973728 0.99967635 17 5 33989 11.47000000 1888796793 1888796793 5.00000000
-1.29525983 3.53946376 -0.59695393 2 6 33990 3.81600000 1888796795 1888796795 -9.00000000
-3.93030357 10.74587059 1.40490985 19 7 33991 11.52800000 1888796798 1888796798 7.00000000
-1.71681297 4.69649124 -0.61397773 2 8 33992 5.03800000 1888796800 1888796800 -7.00000000
-3.92699337 10.74844837 1.81244969 18 9 33993 11.58600000 1888796802 1888796802 9.00000000
-2.48055124 6.78943825 -0.63240206 4 10 33993 7.25600000 1888796805 1888796805 -5.00000000
-3.87746072 10.61862373 2.19735646 56 11 33994 11.51600000 1888796807 1888796807 11.00000000
-3.92287779 10.74882317 -0.59966540 4 12 33995 11.45800000 1888796809 1888796809 -3.00000000
-3.69953799 10.14236069 2.49245763 54 13 33996 11.08000000 1888796811 1888796811 13.00000000
-3.90883780 10.72197247 -0.19920176 4 14 33997 11.41400000 1888796814 1888796814 -1.00000000
-3.19261861 8.75737762 2.49760389 38 15 33997 9.65000000 1888796816 1888796816 15.00000000
-0.74417782 2.05017662 -0.58441341 4 0 34005 2.25800000 1888796837 1888796837 -15.00000000
-3.89540076 10.73749828 0.19937629 6 1 34006 11.42400000 1888796839 1888796839 1.00000000
-0.86820173 2.39446282 -0.58802205 3 2 34007 2.61400000 1888796841 1888796841 -13.00000000
-3.89847946 10.75769615 0.59966540 7 3 34008 11.45800000 1888796844 1888796844 3.00000000
-1.04080212 2.87205148 -0.59379756 4 4 34008 3.11200000 1888796846 1888796846 -11.00000000
-3.90202808 10.77335835 1.00246537 25 5 34009 11.50200000 1888796848 1888796848 5.00000000
-1.29231024 3.56996751 -0.60133410 2 6 34010 3.84400000 1888796851 1888796851 -9.00000000
-3.89276958 10.75952435 1.40490985 25 7 34011 11.52800000 1888796853 1888796853 7.00000000
-1.70175874 4.70618868 -0.61446524 2 8 34012 5.04200000 1888796855 1888796855 -7.00000000
-3.89012170 10.76394844 1.81276262 25 9 34013 11.58800000 1888796858 1888796858 9.00000000
-2.45819092 6.80180311 -0.63275069 4 10 34013 7.26000000 1888796860 1888796860 -5.00000000
-3.85571146 10.67456341 2.20613360 59 11 34014 11.56200000 1888796862 1888796862 11.00000000
-3.91653013 10.84886646 -0.60448027 4 12 34015 11.55000000 1888796864 1888796864 -3.00000000
-3.66080499 10.14604664 2.49020815 55 13 34016 11.07000000 1888796867 1888796867 13.00000000
-3.90598369 10.83148861 -0.20098191 8 14 34017 11.51600000 1888796869 1888796869 -1.00000000
-3.16137481 8.76665115 2.49708605 38 15 34017 9.64800000 1888796871 1888796871 15.00000000
-0.74093366 2.06367111 -0.58751923 4 0 34025 2.27000000 1888796892 1888796892 -15.00000000
-3.90247273 10.87525463 0.20168000 6 1 34026 11.55600000 1888796894 1888796894 1.00000000
-0.86510116 2.41215348 -0.59162128 3 2 34027 2.63000000 1888796897 1888796897 -13.00000000
-3.89717102 10.86644554 0.60500365 10 3 34027 11.56000000 1888796899 1888796899 3.00000000
-1.02547085 2.86088204 -0.59074467 4 4 34028 3.09600000 1888796901 1888796901 -11.00000000
-3.90068364 10.88819885 1.01187813 63 5 34029 11.61000000 1888796904 1888796904 5.00000000
-1.27717721 3.56701779 -0.60008264 2 6 34030 3.83600000 1888796906 1888796906 -9.00000000
-3.89264297 10.87771225 1.41855919 48 7 34031 11.64000000 1888796908 1888796908 7.00000000
-1.69066882 4.72705364 -0.61641514 2 8 34032 5.05800000 1888796910 1888796910 -7.00000000
-3.87968493 10.84746933 1.82465160 43 9 34032 11.66400000 1888796913 1888796913 9.00000000
-2.45589375 6.87037849 -0.63832867 4 10 34033 7.32400000 1888796915 1888796915 -5.00000000
-3.81908727 10.68980598 2.20651531 59 11 34034 11.56400000 1888796917 1888796917 11.00000000
-3.91221786 10.95651817 -0.60971391 4 12 34035 11.65000000 1888796920 1888796920 -3.00000000
-3.61947155 10.14224529 2.48615909 53 13 34036 11.05200000 1888796922 1888796922 13.00000000
-3.90711451 10.95429897 -0.20300639 8 14 34037 11.63200000 1888796924 1888796924 -1.00000000
-3.13010526 8.77581310 2.49656844 38 15 34037 9.64600000 1888796927 1888796927 15.00000000
-0.73178619 2.06078339 -0.58596629 4 0 34045 2.26400000 1888796947 1888796947 -15.00000000
-3.90327930 10.99811363 0.20370449 10 1 34046 11.67200000 1888796950 1888796950 1.00000000
-0.85537297 2.41148520 -0.59072149 3 2 34047 2.62600000 1888796952 1888796952 -13.00000000
-3.86666012 10.90701008 0.60646904 26 3 34048 11.58800000 1888796954 1888796954 3.00000000
-1.01547825 2.86444426 -0.59074467 2 4 34048 3.09600000 1888796957 1888796957 -11.00000000
-3.87729168 10.94306374 1.01571298 17 5 34049 11.65400000 1888796959 1888796959 5.00000000
-1.26801527 3.58076453 -0.60164696 2 6 34050 3.84600000 1888796961 1888796961 -9.00000000
-3.88511539 10.97731590 1.42977118 40 7 34051 11.73200000 1888796963 1888796963 7.00000000
-1.67415810 4.73292637 -0.61641514 2 8 34052 5.05800000 1888796966 1888796966 -7.00000000
-3.87018824 10.94728756 1.83904362 31 9 34053 11.75600000 1888796968 1888796968 9.00000000
-2.43189669 6.87890911 -0.63832867 4 10 34053 7.32400000 1888796970 1888796970 -5.00000000
-3.77847934 10.69381714 2.20460725 59 11 34054 11.55400000 1888796973 1888796973 11.00000000
-3.91584706 11.08875465 -0.61630821 8 12 34055 11.77600000 1888796975 1888796975 -3.00000000
-3.58145213 10.14746761 2.48435950 53 13 34056 11.04400000 1888796977 1888796977 13.00000000
-3.90277886 11.06404686 -0.20478654 6 14 34057 11.73400000 1888796980 1888796980 -1.00000000
-3.09406519 8.77629566 2.49346256 36 15 34058 9.63400000 1888796982 1888796982 15.00000000
-0.72010761 2.05056620 -0.58234286 4 0 34065 2.25000000 1888797003 1888797003 -15.00000000
-3.89334154 11.09280586 0.20520540 10 1 34066 11.75800000 1888797005 1888797005 1.00000000
-0.84824020 2.41813421 -0.59162128 3 2 34067 2.63000000 1888797007 1888797007 -13.00000000
-3.82452011 10.90281105 0.60552704 26 3 34067 11.57000000 1888797010 1888797010 3.00000000
-1.00937057 2.87908769 -0.59303439 4 4 34068 3.10800000 1888797012 1888797012 -11.00000000
-3.83577561 10.94713020 1.01484144 12 5 34069 11.64400000 1888797014 1888797014 5.00000000
-1.25224388 3.57584715 -0.60008264 2 6 34070 3.83600000 1888797016 1888797016 -9.00000000
-3.88349700 11.09573460 1.44342053 40 7 34071 11.84400000 1888797019 1888797019 7.00000000
-1.65500510 4.73124647 -0.61544019 2 8 34072 5.05000000 1888797021 1888797021 -7.00000000
-3.86519909 11.05583000 1.85499990 34 9 34073 11.85800000 1888797023 1888797023 9.00000000
-2.39866471 6.86102533 -0.63588828 4 10 34073 7.29600000 1888797026 1888797026 -5.00000000
-3.73011899 10.67543316 2.19811964 59 11 34074 11.52000000 1888797028 1888797028 11.00000000
-3.90674782 11.18720722 -0.62101847 4 12 34075 11.86600000 1888797030 1888797030 -3.00000000
-3.55114627 10.17462635 2.48795867 53 13 34076 11.06000000 1888797033 1888797033 13.00000000
-3.90101719 11.18333721 -0.20674121 6 14 34077 11.84600000 1888797035 1888797035 -1.00000000
-3.06239986 8.77921104 2.49139214 36 15 34077 9.62600000 1888797037 1888797037 15.00000000
-0.71548033 2.06036711 -0.58441341 4 0 34085 2.25800000 1888797058 1888797058 -15.00000000
-3.88344550 11.18945122 0.20674121 10 1 34086 11.84600000 1888797060 1888797060 1.00000000
-0.83851695 2.41739798 -0.59072149 3 2 34087 2.62600000 1888797062 1888797062 -13.00000000
-3.78120255 10.90099907 0.60468966 28 3 34087 11.55400000 1888797065 1888797065 3.00000000
-0.99545610 2.87146378 -0.59074467 2 4 34088 3.09600000 1888797067 1888797067 -11.00000000
-3.77536225 10.89644432 1.00891483 4 5 34089 11.57600000 1888797069 1888797069 5.00000000
-1.24233973 3.58766294 -0.60133410 2 6 34090 3.84400000 1888797072 1888797072 -9.00000000
-3.87915134 11.20864677 1.45633864 38 7 34091 11.95000000 1888797074 1888797074 7.00000000
-1.64107549 4.74449873 -0.61641514 2 8 34092 5.05800000 1888797076 1888797076 -7.00000000
-3.86337137 11.17567158 1.87283337 32 9 34093 11.97200000 1888797079 1888797079 9.00000000
-2.38381410 6.89571905 -0.63832867 4 10 34093 7.32400000 1888797081 1888797081 -5.00000000
-3.68513846 10.66612148 2.19354010 59 11 34094 11.49600000 1888797083 1888797083 11.00000000
-3.91265392 11.33104038 -0.62824082 8 12 34095 12.00400000 1888797086 1888797086 -3.00000000
-3.51815152 10.19432831 2.48975825 52 13 34096 11.06800000 1888797088 1888797088 13.00000000
-3.90368581 11.31787300 -0.20897512 9 14 34097 11.97400000 1888797090 1888797090 -1.00000000
-3.03173614 8.78984737 2.49139214 36 15 34097 9.62600000 1888797092 1888797092 15.00000000
-0.71016598 2.06833363 -0.58596629 4 0 34105 2.26400000 1888797113 1888797113 -15.00000000
-3.88655210 11.32588196 0.20901002 7 1 34106 11.97600000 1888797115 1888797115 1.00000000
-0.82880914 2.41662359 -0.58982164 3 2 34107 2.62200000 1888797118 1888797118 -13.00000000
-3.73474693 10.89589119 0.60364294 26 3 34108 11.53400000 1888797120 1888797120 3.00000000
-0.99688524 2.90835023 -0.59761375 2 4 34108 3.13200000 1888797122 1888797122 -11.00000000
-3.72890949 10.88505363 1.00664878 4 5 34109 11.55000000 1888797125 1888797125 5.00000000
-1.23108852 3.59571552 -0.60195982 2 6 34110 3.84800000 1888797127 1888797127 -9.00000000
-3.87149334 11.31414986 1.46828187 42 7 34111 12.04800000 1888797129 1888797129 7.00000000
-1.62707353 4.75771141 -0.61739010 2 8 34112 5.06600000 1888797132 1888797132 -7.00000000
-3.86208582 11.29309082 1.89035404 35 9 34112 12.08400000 1888797134 1888797134 9.00000000
-2.35972905 6.90399837 -0.63832867 4 10 34113 7.32400000 1888797136 1888797136 -5.00000000
-3.64661503 10.67520428 2.19277692 59 11 34114 11.49200000 1888797139 1888797139 11.00000000
-3.90792346 11.44669628 -0.63389307 4 12 34115 12.11200000 1888797141 1888797141 -3.00000000
-3.47876954 10.19548130 2.48705888 52 13 34116 11.05600000 1888797143 1888797143 13.00000000
-3.89771748 11.42984867 -0.21079017 4 14 34117 12.07800000 1888797145 1888797145 -1.00000000
-2.99825287 8.79724312 2.49035692 36 15 34118 9.62200000 1888797148 1888797148 15.00000000
-0.70542574 2.07811713 -0.58803689 4 0 34125 2.27200000 1888797168 1888797168 -15.00000000
-3.88232851 11.44353199 0.21092978 7 1 34126 12.08600000 1888797171 1888797171 1.00000000
-0.82287151 2.42688417 -0.59162128 3 2 34127 2.63000000 1888797173 1888797173 -13.00000000
-3.69218087 10.88930130 0.60259622 13 3 34127 11.51400000 1888797175 1888797175 3.00000000
-0.97916597 2.88949966 -0.59303439 2 4 34128 3.10800000 1888797178 1888797178 -11.00000000
-3.69216895 10.90177822 1.00699747 12 5 34129 11.55400000 1888797180 1888797180 5.00000000
-1.21726298 3.59624863 -0.60133410 2 6 34130 3.84400000 1888797182 1888797182 -9.00000000
-3.87077928 11.44229984 1.48314989 34 7 34131 12.17000000 1888797185 1888797185 7.00000000
-1.60791290 4.75583982 -0.61641514 2 8 34132 5.05800000 1888797187 1888797187 -7.00000000
-3.85481548 11.40822792 1.90724897 32 9 34133 12.19200000 1888797189 1888797189 9.00000000
-5.73380136 16.96903801 -1.56706023 5 10 34133 17.98000000 1888797192 1888797192 -5.00000000
-3.60681677 10.68042850 2.19125056 59 11 34134 11.48400000 1888797194 1888797194 11.00000000
-4.18090439 12.38753510 -0.68518233 4 12 34135 13.09200000 1888797196 1888797196 -3.00000000
-3.43817663 10.19279003 2.48345971 53 13 34136 11.04000000 1888797198 1888797198 13.00000000
-5.71738291 16.95948029 -0.31239808 27 14 34137 17.90000000 1888797201 1888797201 -1.00000000
-2.96752667 8.80765533 2.49035692 38 15 34138 9.62200000 1888797203 1888797203 15.00000000
-0.69791567 2.07861376 -0.58751923 4 0 34144 2.27000000 1888797224 1888797224 -15.00000000
-3.87362266 11.54355049 0.21253541 3 1 34145 12.17800000 1888797226 1888797226 1.00000000
-0.81729770 2.43699002 -0.59342086 3 2 34146 2.63800000 1888797228 1888797228 -13.00000000
-0.96833080 2.88900781 -0.59227115 2 4 34147 3.10400000 1888797233 1888797233 -11.00000000
-3.68257713 10.99330807 1.01431859 12 5 34148 11.63800000 1888797235 1888797235 5.00000000
-1.22038162 3.64522195 -0.60884291 2 6 34149 3.89200000 1888797238 1888797238 -9.00000000
-5.99770832 17.92526054 2.32087970 12 7 34150 19.04400000 1888797240 1888797240 7.00000000
-1.60472417 4.79879808 -0.62128991 2 8 34151 5.09800000 1888797242 1888797242 -7.00000000
-3.84401536 11.49521828 1.91976380 13 9 34151 12.27200000 1888797245 1888797245 9.00000000
-5.66865683 16.96150398 -1.56461990 5 10 34152 17.95200000 1888797247 1888797247 -5.00000000
-3.56889153 10.68488216 2.18972397 59 11 34153 11.47600000 1888797249 1888797249 11.00000000
-4.15245104 12.43922138 -0.68727577 4 12 34154 13.13200000 1888797251 1888797251 -3.00000000
-3.40682411 10.21152973 2.48525929 54 13 34155 11.04800000 1888797254 1888797254 13.00000000
-5.65225649 16.95178795 -0.31190941 52 14 34156 17.87200000 1888797256 1888797256 -1.00000000
-2.93647075 8.81194973 2.48880386 38 15 34157 9.61600000 1888797258 1888797258 15.00000000
-0.68700469 2.07003617 -0.58441341 4 0 34164 2.25800000 1888797279 1888797279 -15.00000000
-0.81001240 2.44352746 -0.59432071 3 2 34166 2.64200000 1888797284 1888797284 -13.00000000
-3.68207669 11.10755253 0.61327273 2 3 34166 11.71800000 1888797286 1888797286 3.00000000
-0.95577073 2.88491583 -0.59074467 2 4 34167 3.09600000 1888797288 1888797288 -11.00000000
-3.67674613 11.10444927 1.02338278 12 5 34168 11.74200000 1888797291 1888797291 5.00000000
-1.19399726 3.60820150 -0.60195982 2 6 34169 3.84800000 1888797293 1888797293 -9.00000000
-6.16073704 18.62834740 2.40911317 51 7 34170 19.76800000 1888797295 1888797295 7.00000000
-1.58796346 4.80437040 -0.62128991 2 8 34171 5.09800000 1888797298 1888797298 -7.00000000
-4.12064838 12.46698761 2.07963967 13 9 34171 13.29400000 1888797300 1888797300 9.00000000
-5.60004187 16.95281029 -1.56200516 5 10 34172 17.92200000 1888797302 1888797302 -5.00000000
-3.52603340 10.68049622 2.18628955 59 11 34173 11.45800000 1888797304 1888797304 11.00000000
-5.60216427 16.97913361 -0.93702298 5 12 34174 17.90400000 1888797307 1888797307 -3.00000000
-3.36993790 10.21965790 2.48435950 54 13 34175 11.04400000 1888797309 1888797309 13.00000000
-5.58553839 16.94862366 -0.31149054 57 14 34176 17.84800000 1888797311 1888797311 -1.00000000
-2.90206742 8.81113625 2.48569822 38 15 34177 9.60400000 1888797314 1888797314 15.00000000
-0.67700583 2.06519723 -0.58234286 4 0 34185 2.25000000 1888797334 1888797334 -15.00000000
-0.79983819 2.44277596 -0.59342086 3 2 34187 2.63800000 1888797339 1888797339 -13.00000000
-3.69043875 11.27092361 0.62154180 2 3 34187 11.87600000 1888797341 1888797341 3.00000000
-0.95495999 2.91825366 -0.59685051 2 4 34188 3.12800000 1888797344 1888797344 -11.00000000
-8.21712399 25.12547112 2.31276488 24 5 34189 26.53600000 1888797346 1888797346 5.00000000
-1.18567419 3.62757468 -0.60446280 2 6 34190 3.86400000 1888797348 1888797348 -9.00000000
-6.08933735 18.64136696 2.40789437 42 7 34191 19.75800000 1888797350 1888797350 7.00000000
-1.57034385 4.81015825 -0.62128991 2 8 34192 5.09800000 1888797353 1888797353 -7.00000000
-4.07063532 12.46886253 2.07744980 16 9 34192 13.28000000 1888797355 1888797355 9.00000000
-5.52612686 16.93723297 -1.55869329 10 10 34193 17.88400000 1888797357 1888797357 -5.00000000
-3.47712564 10.66348362 2.18018365 56 11 34194 11.42600000 1888797360 1888797360 11.00000000
-5.52689934 16.95967293 -0.93482482 5 12 34195 17.86200000 1888797362 1888797362 -3.00000000
-3.33487225 10.23935318 2.48615909 51 13 34196 11.05200000 1888797364 1888797364 13.00000000
-5.51842928 16.95376968 -0.31121132 57 14 34197 17.83200000 1888797367 1888797367 -1.00000000
-2.87308693 8.82672405 2.48725104 40 15 34197 9.61000000 1888797369 1888797369 15.00000000
-0.67574656 2.08592606 -0.58751923 4 0 34205 2.27000000 1888797390 1888797390 -15.00000000
-0.79010659 2.44184494 -0.59252107 3 2 34207 2.63400000 1888797394 1888797394 -13.00000000
-9.52550220 29.43881035 1.62157726 15 3 34207 30.98400000 1888797397 1888797397 3.00000000
-0.94114310 2.91036129 -0.59456080 4 4 34208 3.11600000 1888797399 1888797399 -11.00000000
-8.13794708 25.18054199 2.31520510 41 5 34209 26.56400000 1888797401 1888797401 5.00000000
-1.16571856 3.60913420 -0.60070837 2 6 34210 3.84000000 1888797403 1888797403 -9.00000000
-6.01996088 18.64928627 2.40618825 42 7 34211 19.74400000 1888797406 1888797406 7.00000000
-1.54135430 4.77782631 -0.61641514 2 8 34212 5.05800000 1888797408 1888797408 -7.00000000
-4.01980829 12.46043587 2.07369518 16 9 34212 13.25600000 1888797410 1888797410 9.00000000
-5.46513700 16.95073128 -1.55817032 10 10 34213 17.87800000 1888797413 1888797413 -5.00000000
-3.43867779 10.67181873 2.17942023 53 11 34214 11.42200000 1888797415 1888797415 11.00000000
-5.45787001 16.94844437 -0.93315011 10 12 34215 17.83000000 1888797417 1888797417 -3.00000000
-3.29194570 10.22867107 2.48076034 48 13 34216 11.02800000 1888797420 1888797420 13.00000000
-5.45493031 16.95960426 -0.31096697 52 14 34217 17.81800000 1888797422 1888797422 -1.00000000
-2.84189844 8.84087372 2.48828626 40 15 34218 9.61400000 1888797424 1888797424 15.00000000
-0.67118275 2.09551454 -0.58958977 4 0 34224 2.27800000 1888797445 1888797445 -15.00000000
-0.77962965 2.43702722 -0.59072149 3 2 34226 2.62600000 1888797450 1888797450 -13.00000000
-9.42146683 29.46807671 1.62136793 21 3 34227 30.98000000 1888797452 1888797452 3.00000000
-0.93029106 2.90972614 -0.59379756 2 4 34227 3.11200000 1888797454 1888797454 -11.00000000
-8.04166603 25.16753578 2.31154466 33 5 34228 26.52200000 1888797456 1888797456 5.00000000
-1.15494561 3.61674356 -0.60133410 2 6 34229 3.84400000 1888797459 1888797459 -9.00000000
-5.95687771 18.66536331 2.40570092 42 7 34230 19.74000000 1888797461 1888797461 7.00000000
-1.52791476 4.79047632 -0.61739010 2 8 34231 5.06600000 1888797463 1888797463 -7.00000000
-3.97366405 12.45864201 2.07119226 16 9 34231 13.24000000 1888797466 1888797466 9.00000000
-5.40647602 16.96116638 -1.55747306 10 10 34232 17.87000000 1888797468 1888797468 -5.00000000
-3.40207791 10.67942142 2.17865705 53 11 34233 11.41800000 1888797470 1888797470 11.00000000
-5.39921331 16.95883751 -0.93273139 10 12 34234 17.82200000 1888797473 1888797473 -3.00000000
-3.25682640 10.23581696 2.47986031 47 13 34235 11.02400000 1888797475 1888797475 13.00000000
-5.39138842 16.95473099 -0.31054813 50 14 34236 17.79400000 1888797477 1888797477 -1.00000000
-2.81528091 8.85343933 2.48932147 40 15 34236 9.61800000 1888797480 1888797480 15.00000000
-0.66269827 2.09416103 -0.58855450 4 0 34244 2.27400000 1888797500 1888797500 -15.00000000
-0.77346730 2.44716644 -0.59252107 3 2 34246 2.63400000 1888797505 1888797505 -13.00000000
-9.30771828 29.46650314 1.61948383 21 3 34247 30.94400000 1888797507 1888797507 3.00000000
-0.92012858 2.91295576 -0.59379756 4 4 34247 3.11200000 1888797509 1888797509 -11.00000000
-7.94956779 25.18215370 2.31032443 41 5 34248 26.50800000 1888797512 1888797512 5.00000000
-1.15657794 3.66596532 -0.60884291 2 6 34249 3.89200000 1888797514 1888797514 -9.00000000
-5.88810539 18.67468452 2.40423846 45 7 34250 19.72800000 1888797516 1888797516 7.00000000
-1.51356995 4.80335379 -0.61836505 2 8 34251 5.07400000 1888797519 1888797519 -7.00000000
-3.92085385 12.45051289 2.06743789 16 9 34252 13.21600000 1888797521 1888797521 9.00000000
-5.33407164 16.93812752 -1.55363822 10 10 34252 17.82600000 1888797523 1888797523 -5.00000000
-3.36242151 10.68374062 2.17713070 56 11 34253 11.41000000 1888797526 1888797526 11.00000000
-5.33818531 16.97186661 -0.93241739 10 12 34254 17.81600000 1888797528 1888797528 -3.00000000
-3.22107697 10.24712276 2.47986031 48 13 34255 11.02400000 1888797530 1888797530 13.00000000
-5.32378197 16.94673920 -0.31005946 52 14 34256 17.76600000 1888797533 1888797533 -1.00000000
-2.77934051 8.85264015 2.48621583 40 15 34257 9.60600000 1888797535 1888797535 15.00000000
-0.65156174 2.08551216 -0.58544868 4 0 34265 2.26200000 1888797556 1888797556 -15.00000000
-0.76565373 2.45370531 -0.59342086 3 2 34267 2.63800000 1888797560 1888797560 -13.00000000
-9.19252014 29.47753906 1.61822772 21 3 34268 30.92000000 1888797562 1888797562 3.00000000
-0.91412169 2.93130255 -0.59685051 4 4 34268 3.12800000 1888797565 1888797565 -11.00000000
-7.84417486 25.16927338 2.30648947 40 5 34269 26.46400000 1888797567 1888797567 5.00000000
-1.13725948 3.65131974 -0.60571426 2 6 34270 3.87200000 1888797569 1888797569 -9.00000000
-5.81843948 18.69234848 2.40375090 45 7 34271 19.72400000 1888797572 1888797572 7.00000000
-1.49949253 4.82024193 -0.61982751 2 8 34272 5.08600000 1888797574 1888797574 -7.00000000
-3.87208867 12.44714737 2.06462216 20 9 34272 13.19800000 1888797576 1888797576 9.00000000
-5.27017975 16.95185661 -1.55311537 10 10 34273 17.82000000 1888797579 1888797579 -5.00000000
-3.31625080 10.67349529 2.17255116 59 11 34274 11.38600000 1888797581 1888797581 11.00000000
-5.27357531 16.98368835 -0.93199873 5 12 34275 17.80800000 1888797583 1888797583 -3.00000000
-3.18465281 10.26258278 2.48076034 47 13 34276 11.02800000 1888797586 1888797586 13.00000000
-5.25630236 16.94894791 -0.30974531 55 14 34277 17.74800000 1888797588 1888797588 -1.00000000
-2.74613309 8.85490704 2.48414516 40 15 34277 9.59800000 1888797590 1888797590 15.00000000
-0.64769590 2.09884953 -0.58855450 4 0 34285 2.27400000 1888797611 1888797611 -15.00000000
-0.75708407 2.45636296 -0.59342086 3 2 34287 2.63800000 1888797615 1888797615 -13.00000000
-9.08133698 29.48272514 1.61676240 21 3 34288 30.89200000 1888797618 1888797618 3.00000000
-0.90561777 2.94010448 -0.59799540 4 4 34288 3.13400000 1888797620 1888797620 -11.00000000
-7.75216675 25.18317223 2.30526948 40 5 34289 26.45000000 1888797622 1888797622 5.00000000
-1.11521351 3.62505841 -0.60070837 2 6 34290 3.84000000 1888797625 1888797625 -9.00000000
-5.75315571 18.71254539 2.40375090 45 7 34291 19.72400000 1888797627 1888797627 7.00000000
-1.48615587 4.83683205 -0.62128991 2 8 34292 5.09800000 1888797629 1888797629 -7.00000000
-3.82296252 12.44992542 2.06274486 20 9 34293 13.18600000 1888797632 1888797632 9.00000000
-5.20454121 16.94919968 -1.55119789 10 10 34293 17.79800000 1888797634 1888797634 -5.00000000
-3.27494144 10.67186832 2.16987991 59 11 34294 11.37200000 1888797636 1888797636 11.00000000
-5.20606041 16.97525978 -0.93053329 5 12 34295 17.78000000 1888797638 1888797638 -3.00000000
-3.14766812 10.26990986 2.47986031 48 13 34296 11.02400000 1888797641 1888797641 13.00000000
-5.19359350 16.95572090 -0.30953589 57 14 34297 17.73600000 1888797643 1888797643 -1.00000000
-2.71422529 8.86676025 2.48466277 38 15 34298 9.60000000 1888797645 1888797645 15.00000000
-0.64298642 2.10837722 -0.59062505 4 0 34304 2.28200000 1888797666 1888797666 -15.00000000
-0.74893427 2.45886016 -0.59342086 3 2 34306 2.63800000 1888797671 1888797671 -13.00000000
-8.95909119 29.43242836 1.61236620 20 3 34307 30.80800000 1888797673 1888797673 3.00000000
-0.89471966 2.93933511 -0.59723216 4 4 34307 3.13000000 1888797675 1888797675 -11.00000000
-7.66165543 25.18586731 2.30317760 40 5 34308 26.42600000 1888797678 1888797678 5.00000000
-1.10261178 3.62684655 -0.60039550 2 6 34309 3.83800000 1888797680 1888797680 -9.00000000
-5.68760872 18.72012520 2.40228844 47 7 34310 19.71200000 1888797682 1888797682 7.00000000
-1.47010815 4.84173346 -0.62128991 2 8 34311 5.09800000 1888797685 1888797685 -7.00000000
-3.78555298 12.46754456 2.06368351 23 9 34311 13.19200000 1888797687 1888797687 9.00000000
-5.14310074 16.94920540 -1.54962909 10 10 34312 17.78000000 1888797689 1888797689 -5.00000000
-3.23554611 10.66951752 2.16720867 56 11 34313 11.35800000 1888797691 1888797691 11.00000000
-5.14858103 16.98860741 -0.93032396 5 12 34314 17.77600000 1888797694 1888797694 -3.00000000
-3.11133504 10.27283096 2.47806072 48 13 34315 11.01600000 1888797696 1888797696 13.00000000
-5.13154459 16.95371056 -0.30918685 52 14 34316 17.71600000 1888797698 1888797698 -1.00000000
-2.68747544 8.87894154 2.48569822 38 15 34316 9.60400000 1888797701 1888797701 15.00000000
-0.63339460 2.10320973 -0.58855450 4 0 34324 2.27400000 1888797721 1888797721 -15.00000000
-0.74034673 2.46145940 -0.59342086 3 2 34326 2.63800000 1888797726 1888797726 -13.00000000
-8.86089802 29.47882271 1.61320353 5 3 34327 30.82400000 1888797728 1888797728 3.00000000
-0.88897514 2.95748162 -0.60028511 2 4 34327 3.14600000 1888797731 1888797731 -11.00000000
-7.55936384 25.16475296 2.29881978 32 5 34328 26.37600000 1888797733 1888797733 5.00000000
-1.09562469 3.64959311 -0.60352415 2 6 34329 3.85800000 1888797735 1888797735 -9.00000000
-5.62222862 18.73986435 2.40228844 49 7 34330 19.71200000 1888797738 1888797738 7.00000000
-1.45319843 4.84683561 -0.62128991 2 8 34331 5.09800000 1888797740 1888797740 -7.00000000
-3.73189378 12.45484352 2.05930328 27 9 34332 13.16400000 1888797742 1888797742 9.00000000
-5.08047438 16.95560455 -1.54858327 10 10 34332 17.76800000 1888797744 1888797744 -5.00000000
-3.19603014 10.67322445 2.16568208 56 11 34333 11.35000000 1888797747 1888797747 11.00000000
-5.07951450 16.97394753 -0.92854452 5 12 34334 17.74200000 1888797749 1888797749 -3.00000000
-3.07434058 10.27989483 2.47716093 50 13 34335 11.01200000 1888797751 1888797751 13.00000000
-5.06546211 16.94852829 -0.30876797 55 14 34336 17.69200000 1888797754 1888797754 -1.00000000
-2.65270305 8.88132763 2.48362756 38 15 34337 9.59600000 1888797756 1888797756 15.00000000
-0.62494797 2.10170436 -0.58751923 4 0 34344 2.27000000 1888797777 1888797777 -15.00000000
-5.04737759 16.98521805 0.30929154 38 1 34345 17.72200000 1888797779 1888797779 1.00000000
-0.73285967 2.46776485 -0.59432071 3 2 34346 2.64200000 1888797781 1888797781 -13.00000000
-9.11537552 30.71393013 1.67904210 5 3 34347 32.08200000 1888797784 1888797784 3.00000000
-0.87529474 2.94927382 -0.59799540 2 4 34347 3.13400000 1888797786 1888797786 -11.00000000
-7.47657490 25.20817947 2.30038857 48 5 34348 26.39400000 1888797788 1888797788 5.00000000
-1.08849227 3.67233443 -0.60665286 2 6 34349 3.87800000 1888797791 1888797791 -9.00000000
-5.55790758 18.76318169 2.40277600 49 7 34350 19.71600000 1888797793 1888797793 7.00000000
-1.44303250 4.87472010 -0.62421477 2 8 34351 5.12200000 1888797795 1888797795 -7.00000000
-3.68272161 12.44063282 2.05492306 27 9 34351 13.13600000 1888797797 1888797797 9.00000000
-5.01560497 16.95412827 -1.54684007 15 10 34352 17.74800000 1888797800 1888797800 -5.00000000
-3.15875411 10.68431568 2.16568208 56 11 34353 11.35000000 1888797802 1888797802 11.00000000
-5.01966763 16.98966026 -0.92843986 5 12 34354 17.74000000 1888797804 1888797804 -3.00000000
-3.03788638 10.28869534 2.47671103 51 13 34355 11.01000000 1888797807 1888797807 13.00000000
-4.99721527 16.93541908 -0.30820951 57 14 34356 17.66000000 1888797809 1888797809 -1.00000000
-2.62159657 8.88451672 2.48207474 40 15 34356 9.59000000 1888797811 1888797811 15.00000000
-0.61760783 2.10387301 -0.58751923 4 0 34364 2.27000000 1888797832 1888797832 -15.00000000
-4.98186541 16.98162460 0.30890760 45 1 34365 17.70000000 1888797834 1888797834 1.00000000
-0.72862709 2.48526835 -0.59791988 3 2 34366 2.65800000 1888797837 1888797837 -13.00000000
-9.10020542 31.05989838 1.69620836 5 3 34367 32.41000000 1888797839 1888797839 3.00000000
-0.86389047 2.94854331 -0.59723216 2 4 34367 3.13000000 1888797841 1888797841 -11.00000000
-7.37342024 25.18249702 2.29568219 32 5 34368 26.34000000 1888797844 1888797844 5.00000000
-1.07400250 3.67042398 -0.60571426 2 6 34369 3.87200000 1888797846 1888797846 -9.00000000
-5.49014950 18.77484703 2.40180111 47 7 34370 19.70800000 1888797848 1888797848 7.00000000
-1.41932595 4.85686302 -0.62128991 2 8 34371 5.09800000 1888797850 1888797850 -7.00000000
-3.63709974 12.45404720 2.05492306 27 9 34372 13.13600000 1888797853 1888797853 9.00000000
-4.95192528 16.95623398 -1.54544568 10 10 34372 17.73200000 1888797855 1888797855 -5.00000000
-3.11813951 10.68396854 2.16339231 56 11 34373 11.33800000 1888797857 1888797857 11.00000000
-3.76023364 12.89240074 -0.70381391 4 12 34374 13.44800000 1888797860 1888797860 -3.00000000
-3.00086308 10.29549503 2.47581124 51 13 34375 11.00600000 1888797862 1888797862 13.00000000
-4.93583202 16.94507980 -0.30806988 55 14 34376 17.65200000 1888797864 1888797864 -1.00000000
-2.58415627 8.87737179 2.47741580 40 15 34377 9.57200000 1888797867 1888797867 15.00000000
-0.60955173 2.10219860 -0.58648396 4 0 34383 2.26600000 1888797887 1888797887 -15.00000000
-4.92162895 16.98460770 0.30866325 37 1 34384 17.68600000 1888797890 1888797890 1.00000000
-0.71496117 2.46895242 -0.59342086 3 2 34385 2.63800000 1888797892 1888797892 -13.00000000
-9.09931564 31.44291496 1.71546793 12 3 34386 32.77800000 1888797894 1888797894 3.00000000
-0.85519952 2.95516348 -0.59799540 2 4 34386 3.13400000 1888797897 1888797897 -11.00000000
-7.28101540 25.17618561 2.29289317 32 5 34387 26.30800000 1888797899 1888797899 5.00000000
-1.06347048 3.67965841 -0.60665286 2 6 34388 3.87800000 1888797901 1888797901 -9.00000000
-5.42124987 18.77006340 2.39887619 45 7 34389 19.68400000 1888797903 1888797903 7.00000000
-1.41202009 4.89205837 -0.62518972 2 8 34390 5.13000000 1888797906 1888797906 -7.00000000
-3.59466958 12.45402431 2.05304599 27 9 34390 13.12400000 1888797908 1888797908 9.00000000
-4.88572979 16.93810272 -1.54230797 10 10 34391 17.69600000 1888797910 1888797910 -5.00000000
-3.07725525 10.67538548 2.15957618 53 11 34392 11.31800000 1888797913 1888797913 11.00000000
-4.89727259 17.00040245 -0.92718381 5 12 34393 17.71600000 1888797915 1888797915 -3.00000000
-2.96832275 10.31100750 2.47716093 50 13 34394 11.01200000 1888797917 1888797917 13.00000000
-4.87519026 16.94598198 -0.30779064 52 14 34395 17.63600000 1888797920 1888797920 -1.00000000
-2.55999327 8.89844227 2.48103929 40 15 34395 9.58600000 1888797922 1888797922 15.00000000
-0.60539907 2.11545730 -0.58958977 4 0 34403 2.27800000 1888797943 1888797943 -15.00000000
-4.89200354 17.10550499 0.31054813 42 1 34404 17.79400000 1888797945 1888797945 1.00000000
-0.70633852 2.47143316 -0.59342086 3 2 34405 2.63800000 1888797947 1888797947 -13.00000000
-9.09920597 31.85857964 1.73640239 18 3 34406 33.17800000 1888797950 1888797950 3.00000000
-0.85027057 2.97700834 -0.60181159 2 4 34406 3.15400000 1888797952 1888797952 -11.00000000
-7.18926191 25.18803596 2.29167318 32 5 34407 26.29400000 1888797954 1888797954 5.00000000
-1.04574299 3.66625190 -0.60383701 2 6 34408 3.86000000 1888797956 1888797956 -9.00000000
-5.35243177 18.77741814 2.39741373 49 7 34409 19.67200000 1888797959 1888797959 7.00000000
-1.39711046 4.90459442 -0.62616467 2 8 34410 5.13800000 1888797961 1888797961 -7.00000000
-3.54901028 12.45889759 2.05179453 23 9 34410 13.11600000 1888797963 1888797963 9.00000000
-4.82221127 16.93972397 -1.54091358 10 10 34411 17.68000000 1888797966 1888797966 -5.00000000
-3.03674936 10.67473221 2.15728641 50 11 34412 11.30600000 1888797968 1888797968 11.00000000
-3.68440676 12.95996189 -0.70611674 4 12 34413 13.49200000 1888797970 1888797970 -3.00000000
-2.92964983 10.31193352 2.47491145 51 13 34414 11.00200000 1888797973 1888797973 13.00000000
-4.81218481 16.94943047 -0.30754632 52 14 34415 17.62200000 1888797975 1888797975 -1.00000000
-2.52627802 8.89803219 2.47845125 40 15 34415 9.57600000 1888797977 1888797977 15.00000000
-0.59591097 2.11012125 -0.58751923 4 0 34423 2.27000000 1888797998 1888797998 -15.00000000
-4.83606625 17.13594818 0.31079245 11 1 34424 17.80800000 1888798000 1888798000 1.00000000
-0.69770736 2.47388363 -0.59342086 3 2 34425 2.63800000 1888798003 1888798003 -13.00000000
-9.09034348 32.25347519 1.75618529 6 3 34426 33.55600000 1888798005 1888798005 3.00000000
-0.83348280 2.95728254 -0.59723216 2 4 34426 3.13000000 1888798007 1888798007 -11.00000000
-7.09535360 25.19188309 2.28975558 32 5 34427 26.27200000 1888798009 1888798009 5.00000000
-1.04578388 3.71551561 -0.61134589 2 6 34428 3.90800000 1888798012 1888798012 -9.00000000
-5.28739119 18.79789925 2.39765739 51 7 34429 19.67400000 1888798014 1888798014 7.00000000
-1.36923838 4.87122059 -0.62128991 2 8 34430 5.09800000 1888798016 1888798016 -7.00000000
-3.49798012 12.45280361 2.04866576 27 9 34431 13.09600000 1888798019 1888798019 9.00000000
-4.75874043 16.94110870 -1.53951907 15 10 34431 17.66400000 1888798021 1888798021 -5.00000000
-3.00159144 10.69282818 2.15881300 50 11 34432 11.31400000 1888798023 1888798023 11.00000000
-3.65317154 13.02274227 -0.70883816 4 12 34433 13.54400000 1888798026 1888798026 -3.00000000
-2.89258456 10.31834412 2.47401166 56 13 34434 10.99800000 1888798028 1888798028 13.00000000
-4.74867535 16.95071983 -0.30726707 52 14 34435 17.60600000 1888798030 1888798030 -1.00000000
-2.49832964 8.91795731 2.48155689 40 15 34435 9.58800000 1888798032 1888798032 15.00000000
-0.59061575 2.11963224 -0.58958977 4 0 34443 2.27800000 1888798053 1888798053 -15.00000000
-0.69115728 2.48381352 -0.59522051 3 2 34445 2.64600000 1888798058 1888798058 -13.00000000
-9.50957966 34.19770813 1.86022925 21 3 34446 35.54400000 1888798060 1888798060 3.00000000
-0.82631069 2.97152281 -0.59952188 2 4 34446 3.14200000 1888798062 1888798062 -11.00000000
-6.99883938 25.18578148 2.28696680 32 5 34447 26.24000000 1888798065 1888798065 5.00000000
-1.03069377 3.71152997 -0.61009443 2 6 34448 3.90000000 1888798067 1888798067 -9.00000000
-4.60067511 16.57826233 2.11248326 30 7 34449 17.33400000 1888798069 1888798069 7.00000000
-1.35222626 4.87597036 -0.62128991 2 8 34450 5.09800000 1888798072 1888798072 -7.00000000
-3.44710469 12.43828773 2.04428554 30 9 34451 13.06800000 1888798074 1888798074 9.00000000
-4.69212675 16.93073654 -1.53707874 15 10 34451 17.63600000 1888798076 1888798076 -5.00000000
-2.96162820 10.69377995 2.15690494 50 11 34452 11.30400000 1888798079 1888798079 11.00000000
-3.60982227 13.04311466 -0.70925689 4 12 34453 13.55200000 1888798081 1888798081 -3.00000000
-2.85551023 10.32462215 2.47311187 56 13 34454 10.99400000 1888798083 1888798083 13.00000000
-4.68201923 16.94020844 -0.30677840 50 14 34455 17.57800000 1888798085 1888798085 -1.00000000
-2.45842648 8.90098476 2.47431016 45 15 34456 9.56000000 1888798088 1888798088 15.00000000
-0.58116513 2.11422992 -0.58751923 4 0 34463 2.27000000 1888798109 1888798109 -15.00000000
-0.68454641 2.49372792 -0.59702009 3 2 34465 2.65400000 1888798113 1888798113 -13.00000000
-9.38328075 34.20565796 1.85886848 21 3 34466 35.51800000 1888798115 1888798115 3.00000000
-0.81593311 2.97438908 -0.59952188 2 4 34466 3.14200000 1888798118 1888798118 -11.00000000
-6.90877485 25.20237350 2.28626943 40 5 34467 26.23200000 1888798120 1888798120 5.00000000
-1.02295089 3.73415709 -0.61322308 2 6 34468 3.92000000 1888798122 1888798122 -9.00000000
-4.53806067 16.57698822 2.11028957 41 7 34469 17.31600000 1888798125 1888798125 7.00000000
-1.34043586 4.89980793 -0.62372732 2 8 34470 5.11800000 1888798127 1888798127 -7.00000000
-3.40210319 12.44452763 2.04334688 37 9 34471 13.06200000 1888798129 1888798129 9.00000000
-4.63089705 16.93932343 -1.53638148 10 10 34471 17.62800000 1888798132 1888798132 -5.00000000
-2.92117763 10.69268990 2.15461516 46 11 34472 11.29200000 1888798134 1888798134 11.00000000
-3.57058358 13.07875729 -0.71051294 4 12 34473 13.57600000 1888798136 1888798136 -3.00000000
-2.82099199 10.34016609 2.47446156 60 13 34474 11.00000000 1888798138 1888798138 13.00000000
-4.62075472 16.94873238 -0.30663878 52 14 34475 17.57000000 1888798141 1888798141 -1.00000000
-2.42635560 8.89976883 2.47172189 40 15 34475 9.55000000 1888798143 1888798143 15.00000000
-0.57732028 2.12929749 -0.59114271 4 0 34483 2.28400000 1888798164 1888798164 -15.00000000
-0.67278171 2.48481631 -0.59432071 3 2 34485 2.64200000 1888798168 1888798168 -13.00000000
-9.23356819 34.12638092 1.85279751 21 3 34486 35.40200000 1888798171 1888798171 3.00000000
-0.80759662 2.98479962 -0.60104835 2 4 34486 3.15000000 1888798173 1888798173 -11.00000000
-6.81607962 25.20902634 2.28470063 40 5 34487 26.21400000 1888798175 1888798175 5.00000000
-1.00475740 3.71863508 -0.61009443 2 6 34488 3.90000000 1888798178 1888798178 -9.00000000
-4.47551155 16.57547951 2.10809588 43 7 34489 17.29800000 1888798180 1888798180 7.00000000
-1.31815290 4.88529158 -0.62128991 2 8 34490 5.09800000 1888798182 1888798182 -7.00000000
-3.35504317 12.44297695 2.04115701 30 9 34491 13.04800000 1888798185 1888798185 9.00000000
-4.56966496 16.94769096 -1.53568423 15 10 34491 17.62000000 1888798187 1888798187 -5.00000000
-2.88077068 10.69144821 2.15232539 43 11 34492 11.28000000 1888798189 1888798189 11.00000000
-3.52958202 13.10849762 -0.71145499 4 12 34493 13.59400000 1888798191 1888798191 -3.00000000
-2.78386807 10.34618664 2.47356176 59 13 34494 10.99600000 1888798194 1888798194 13.00000000
-4.55896807 16.95510292 -0.30646425 52 14 34495 17.56000000 1888798196 1888798196 -1.00000000
-2.39477324 8.90631866 2.47120428 40 15 34495 9.54800000 1888798198 1888798198 15.00000000
-0.57138121 2.13689852 -0.59269559 4 0 34503 2.29000000 1888798220 1888798220 -15.00000000
-0.66510946 2.49091506 -0.59522051 3 2 34505 2.64600000 1888798225 1888798225 -13.00000000
-9.12498760 34.17417908 1.85373962 21 3 34505 35.42000000 1888798227 1888798227 3.00000000
-0.79616058 2.98380661 -0.60028511 2 4 34506 3.14600000 1888798229 1888798229 -11.00000000
-6.73060894 25.24229050 2.28557229 48 5 34507 26.22400000 1888798232 1888798232 5.00000000
-0.99380529 3.72975492 -0.61134589 2 6 34508 3.90800000 1888798234 1888798234 -9.00000000
-4.41302824 16.57373619 2.10590219 39 7 34509 17.28000000 1888798236 1888798236 7.00000000
-1.30619633 4.90904665 -0.62372732 2 8 34510 5.11800000 1888798238 1888798238 -7.00000000
-3.31325436 12.45212460 2.04084396 23 9 34510 13.04600000 1888798241 1888798241 9.00000000
-4.50740671 16.95198631 -1.53463829 15 10 34511 17.60800000 1888798243 1888798243 -5.00000000
-2.84444141 10.70523357 2.15308881 43 11 34512 11.28400000 1888798245 1888798245 11.00000000
-3.48687863 13.13232040 -0.71208304 4 12 34513 13.60600000 1888798248 1888798248 -3.00000000
-2.74373817 10.34077263 2.46996260 62 13 34514 10.98000000 1888798250 1888798250 13.00000000
-4.49565601 16.95545006 -0.30618501 35 14 34515 17.54400000 1888798252 1888798252 -1.00000000
-2.36366963 8.91462421 2.47120428 42 15 34515 9.54800000 1888798255 1888798255 15.00000000
-0.56342602 2.13701200 -0.59217799 4 0 34523 2.28800000 1888798275 1888798275 -15.00000000
-4.74158001 17.99702454 0.32485908 4 1 34524 18.61400000 1888798278 1888798278 1.00000000
-0.65641046 2.49322152 -0.59522051 3 2 34525 2.64600000 1888798280 1888798280 -13.00000000
-8.99357414 34.18421936 1.85248351 21 3 34526 35.39600000 1888798282 1888798282 3.00000000
-0.78773832 2.99416208 -0.60181159 2 4 34526 3.15400000 1888798285 1888798285 -11.00000000
-6.64093590 25.25984955 2.28504920 40 5 34527 26.21800000 1888798287 1888798287 5.00000000
-0.97877222 3.72555900 -0.61009443 2 6 34528 3.90000000 1888798289 1888798289 -9.00000000
-4.35514784 16.58904076 2.10590219 39 7 34529 17.28000000 1888798291 1888798291 7.00000000
-1.29408991 4.93277740 -0.62616467 2 8 34530 5.13800000 1888798294 1888798294 -7.00000000
-3.26558900 12.45654202 2.03959250 20 9 34531 13.03800000 1888798296 1888798296 9.00000000
-4.44315338 16.94834328 -1.53289521 15 10 34531 17.58800000 1888798298 1888798298 -5.00000000
-2.80805087 10.71889496 2.15385199 43 11 34532 11.28800000 1888798301 1888798301 11.00000000
-3.44809818 13.17146206 -0.71354842 4 12 34533 13.63400000 1888798303 1888798303 -3.00000000
-2.70565248 10.34274578 2.46816301 59 13 34534 10.97200000 1888798305 1888798305 13.00000000
-4.42683363 16.93428040 -0.30552182 47 14 34535 17.50600000 1888798308 1888798308 -1.00000000
-2.32902694 8.91575050 2.46913362 42 15 34536 9.54000000 1888798310 1888798310 15.00000000
-0.55330324 2.12568474 -0.58855450 4 0 34541 2.27400000 1888798331 1888798331 -15.00000000
-11.27434540 43.34490204 0.78176308 10 1 34542 44.79400000 1888798333 1888798333 1.00000000
-0.65053546 2.50281572 -0.59702009 3 2 34543 2.65400000 1888798335 1888798335 -13.00000000
-8.88256168 34.17402267 1.85049474 21 3 34543 35.35800000 1888798338 1888798338 3.00000000
-0.77734095 2.99282169 -0.60104835 2 4 34544 3.15000000 1888798340 1888798340 -11.00000000
-6.55554056 25.25744629 2.28295755 40 5 34545 26.19400000 1888798342 1888798342 5.00000000
-0.97003877 3.74008822 -0.61197162 2 6 34546 3.91200000 1888798344 1888798344 -9.00000000
-4.29902649 16.58726692 2.10395241 41 7 34547 17.26400000 1888798347 1888798347 7.00000000
-1.27460515 4.92144489 -0.62421477 2 8 34548 5.12200000 1888798349 1888798349 -7.00000000
-3.21703601 12.43040466 2.03364801 27 9 34549 13.00000000 1888798351 1888798351 9.00000000
-4.38489485 16.94293022 -1.53115213 15 10 34549 17.56800000 1888798354 1888798354 -5.00000000
-2.77632880 10.73526669 2.15537834 43 11 34550 11.29600000 1888798356 1888798356 11.00000000
-3.41669679 13.22090435 -0.71564186 4 12 34551 13.67400000 1888798358 1888798358 -3.00000000
-2.67119741 10.34364796 2.46636343 59 13 34552 10.96400000 1888798361 1888798361 13.00000000
-4.36811495 16.92680550 -0.30513787 52 14 34553 17.48400000 1888798363 1888798363 -1.00000000
-2.30014968 8.91326904 2.46654558 40 15 34553 9.53000000 1888798365 1888798365 15.00000000
-0.54684001 2.13134551 -0.58958977 4 0 34561 2.27800000 1888798386 1888798386 -15.00000000
-11.14830303 43.48278046 0.78354323 32 1 34562 44.89600000 1888798388 1888798388 1.00000000
-0.64082778 2.50129580 -0.59612030 3 2 34563 2.65000000 1888798390 1888798390 -13.00000000
-8.75826073 34.18547440 1.84944797 21 3 34563 35.33800000 1888798393 1888798393 3.00000000
-0.76591545 2.99171305 -0.60028511 2 4 34564 3.14600000 1888798395 1888798395 -11.00000000
-6.45992899 25.25122261 2.28034282 40 5 34565 26.16400000 1888798397 1888798397 5.00000000
-0.95404202 3.73196840 -0.61009443 2 6 34566 3.90000000 1888798400 1888798400 -9.00000000
-4.24011707 16.59832573 2.10346484 39 7 34567 17.26000000 1888798402 1888798402 7.00000000
-1.26331019 4.94894505 -0.62713963 2 8 34568 5.14600000 1888798404 1888798404 -7.00000000
-3.17460251 12.44538689 2.03427386 23 9 34569 13.00400000 1888798407 1888798407 9.00000000
-4.32178640 16.94268799 -1.52975762 15 10 34569 17.55200000 1888798409 1888798409 -5.00000000
-2.73495936 10.72967339 2.15232539 40 11 34570 11.28000000 1888798411 1888798411 11.00000000
-3.38334394 13.28307247 -0.71836334 4 12 34571 13.72600000 1888798414 1888798414 -3.00000000
-2.63507509 10.35290909 2.46636343 57 13 34572 10.96400000 1888798416 1888798416 13.00000000
-2.26521301 8.90626621 2.46240449 38 15 34573 9.51400000 1888798420 1888798420 15.00000000
-0.53807807 2.12958956 -0.58855450 4 0 34582 2.27400000 1888798441 1888798441 -15.00000000
-11.10340500 43.97703934 0.79171097 22 1 34583 45.36400000 1888798443 1888798443 1.00000000
-0.63165575 2.50362778 -0.59612030 3 2 34584 2.65000000 1888798446 1888798446 -13.00000000
-8.62058640 34.19367599 1.84808731 14 3 34585 35.31200000 1888798448 1888798448 3.00000000
-0.75878465 3.00972962 -0.60333806 4 4 34585 3.16200000 1888798450 1888798450 -11.00000000
-6.36733484 25.27473068 2.28034282 40 5 34586 26.16400000 1888798453 1888798453 5.00000000
-0.94035727 3.73544025 -0.61009443 2 6 34587 3.90000000 1888798455 1888798455 -9.00000000
-4.17634726 16.60220528 2.10200238 39 7 34588 17.24800000 1888798457 1888798457 7.00000000
-1.25000226 4.97279406 -0.62957704 2 8 34589 5.16600000 1888798460 1888798460 -7.00000000
-3.12825131 12.44489765 2.03239655 27 9 34589 12.99200000 1888798462 1888798462 9.00000000
-4.25480556 16.93909073 -1.52801454 10 10 34590 17.53200000 1888798464 1888798464 -5.00000000
-2.69465899 10.73581696 2.15156221 40 11 34591 11.27600000 1888798467 1888798467 11.00000000
-3.34824109 13.34962654 -0.72129416 4 12 34592 13.78200000 1888798469 1888798469 -3.00000000
-2.59521723 10.35493660 2.46456385 59 13 34593 10.95600000 1888798471 1888798471 13.00000000
-4.26048088 17.01194191 -0.30611521 2 14 34594 17.54000000 1888798473 1888798473 -1.00000000
-2.23193693 8.91864586 2.46343970 42 15 34595 9.51800000 1888798476 1888798476 15.00000000
-0.53344136 2.14270258 -0.59166032 4 0 34602 2.28600000 1888798496 1888798496 -15.00000000
-0.62385285 2.50959969 -0.59702009 3 2 34604 2.65400000 1888798501 1888798501 -13.00000000
-8.49606705 34.17749405 1.84567988 7 3 34604 35.26600000 1888798503 1888798503 3.00000000
-0.74543440 3.00092793 -0.60104835 2 4 34605 3.15000000 1888798506 1888798506 -11.00000000
-6.27763081 25.29100037 2.27981997 32 5 34606 26.15800000 1888798508 1888798508 5.00000000
-0.92636132 3.73486519 -0.60946870 2 6 34607 3.89600000 1888798510 1888798510 -9.00000000
-4.11741400 16.61282921 2.10151505 39 7 34608 17.24400000 1888798513 1888798513 7.00000000
-1.23263645 4.97712708 -0.62957704 2 8 34609 5.16600000 1888798515 1888798515 -7.00000000
-3.08404112 12.46203232 2.03333521 23 9 34610 12.99800000 1888798517 1888798517 9.00000000
-4.19660854 16.95770836 -1.52836311 10 10 34610 17.53600000 1888798520 1888798520 -5.00000000
-2.65669632 10.74325180 2.15118051 46 11 34611 11.27400000 1888798522 1888798522 11.00000000
-3.31024599 13.39613438 -0.72317827 4 12 34612 13.81800000 1888798524 1888798524 -3.00000000
-2.55905581 10.36393261 2.46456385 59 13 34613 10.95600000 1888798526 1888798526 13.00000000
-4.17903709 16.93740273 -0.30450958 7 14 34614 17.44800000 1888798529 1888798529 -1.00000000
-2.19894147 8.91887951 2.46136904 38 15 34615 9.51000000 1888798531 1888798531 15.00000000
-0.52687901 2.14830399 -0.59269559 4 0 34622 2.29000000 1888798552 1888798552 -15.00000000
-0.61416191 2.50797653 -0.59612030 3 2 34624 2.65000000 1888798556 1888798556 -13.00000000
-8.37006283 34.17978287 1.84421444 14 3 34624 35.23800000 1888798559 1888798559 3.00000000
-0.73495466 3.00351167 -0.60104835 4 4 34625 3.15000000 1888798561 1888798561 -11.00000000
-6.19262314 25.32630730 2.28104019 48 5 34626 26.17200000 1888798563 1888798563 5.00000000
-0.91613168 3.74958968 -0.61134589 2 6 34627 3.90800000 1888798566 1888798566 -9.00000000
-4.05657434 16.61553001 2.10005260 39 7 34628 17.23200000 1888798568 1888798568 7.00000000
-1.20866871 4.95440006 -0.62616467 2 8 34629 5.13800000 1888798570 1888798570 -7.00000000
-3.03848505 12.45491886 2.03051925 23 9 34629 12.98000000 1888798573 1888798573 9.00000000
-4.13172722 16.94902611 -1.52627134 10 10 34630 17.51200000 1888798575 1888798575 -5.00000000
-2.61871457 10.75055218 2.15079904 43 11 34631 11.27200000 1888798577 1888798577 11.00000000
-3.26346445 13.40760708 -0.72317827 8 12 34632 13.81800000 1888798579 1888798579 -3.00000000
-2.51733685 10.35007954 2.45916486 59 13 34633 10.93200000 1888798582 1888798582 13.00000000
-4.12933397 16.99074936 -0.30520767 7 14 34634 17.48800000 1888798584 1888798584 -1.00000000
-2.16825128 8.92837811 2.46188664 40 15 34635 9.51200000 1888798586 1888798586 15.00000000
-0.51756239 2.14261866 -0.59062505 4 0 34642 2.28200000 1888798607 1888798607 -15.00000000
-4.54696751 18.83806229 0.33826253 16 1 34643 19.38200000 1888798609 1888798609 1.00000000
-0.60631746 2.51389384 -0.59702009 3 2 34644 2.65400000 1888798612 1888798612 -13.00000000
-4.54282665 18.83531952 1.01542222 12 3 34644 19.40200000 1888798614 1888798614 3.00000000
-0.72354597 3.00224161 -0.60028511 4 4 34645 3.14600000 1888798616 1888798616 -11.00000000
-4.54151773 18.85877228 1.69709659 11 5 34646 19.47200000 1888798619 1888798619 5.00000000
-0.90581048 3.76428819 -0.61322308 2 6 34647 3.92000000 1888798621 1888798621 -9.00000000
-4.00087118 16.63923836 2.10127115 43 7 34648 17.24200000 1888798623 1888798623 7.00000000
-1.19785976 4.98561144 -0.62957704 2 8 34649 5.16600000 1888798626 1888798626 -7.00000000
-2.98852992 12.43855953 2.02613926 20 9 34649 12.95200000 1888798628 1888798628 9.00000000
-4.06509686 16.93234825 -1.52348244 10 10 34650 17.48000000 1888798630 1888798630 -5.00000000
-2.58117223 10.75962830 2.15079904 43 11 34651 11.27200000 1888798632 1888798632 11.00000000
-3.22129917 13.43834019 -0.72422498 8 12 34652 13.83800000 1888798635 1888798635 -3.00000000
-2.48210073 10.36259365 2.46006465 56 13 34653 10.93600000 1888798637 1888798637 13.00000000
