# .PCD v0.7 - Point Cloud Data file format
VERSION 0.7
FIELDS x y z intensity laser_id azimuth distance_m adjustedtime timestamp vertical_angle
SIZE 4 4 4 1 1 2 8 8 4 8
TYPE F F F U U U F U U F
COUNT 1 1 1 1 1 1 1 1 1 1
WIDTH 541
HEIGHT 1
VIEWPOINT 0 0 0 1 0 0 0
POINTS 541
DATA ascii
1.56800795 1.65464759 -0.61081296 4 0 4346 2.36000000 2888912010 2888912010 -15.00000000
8.33423138 8.79166222 0.21145336 14 1 4347 12.11600000 2888912012 2888912012 1.00000000
1.87462103 1.97681999 -0.62896317 3 2 4348 2.79600000 2888912014 2888912014 -13.00000000
8.32835865 8.78239632 0.63431180 55 3 4348 12.12000000 2888912017 2888912017 3.00000000
2.26725745 2.39002609 -0.64035499 4 4 4349 3.35600000 2888912019 2888912019 -11.00000000
8.34676838 8.79565907 1.06085968 56 5 4350 12.17200000 2888912021 2888912021 5.00000000
2.86146021 3.01429629 -0.65827620 6 6 4351 4.20800000 2888912024 2888912024 -9.00000000
3.84046793 4.04276752 -0.68466198 6 8 4353 5.61800000 2888912028 2888912028 -7.00000000
8.59863949 9.04841614 1.97701871 42 9 4354 12.63800000 2888912031 2888912031 9.00000000
5.82754564 6.13237190 -0.74012655 4 10 4354 8.49200000 2888912033 2888912033 -5.00000000
8.12676525 8.54887009 2.29276085 46 11 4355 12.01600000 2888912035 2888912035 11.00000000
7.00318527 7.36178350 2.34578967 56 13 4357 10.42800000 2888912040 2888912040 13.00000000
8.35798740 8.78288841 -0.21162789 2 14 4358 12.12600000 2888912042 2888912042 -1.00000000
6.07279921 6.38152647 2.36042976 45 15 4358 9.12000000 2888912044 2888912044 15.00000000
1.57586491 1.65250945 -0.61184824 4 0 4364 2.36400000 2888912065 2888912065 -15.00000000
1.88082218 1.97092092 -0.62896317 3 2 4366 2.79600000 2888912070 2888912070 -13.00000000
2.26933217 2.37721133 -0.63882852 4 4 4367 3.34800000 2888912074 2888912074 -11.00000000
2.87364483 3.00814843 -0.65890199 6 6 4369 4.21200000 2888912079 2888912079 -9.00000000
8.62271881 9.02000809 1.97639298 42 9 4371 12.63400000 2888912086 2888912086 9.00000000
8.14272499 8.51194763 2.28970790 50 11 4373 12.00000000 2888912091 2888912091 11.00000000
7.02358294 7.33693075 2.34488988 57 13 4375 10.42400000 2888912095 2888912095 13.00000000
6.10194635 6.36972332 2.36353540 47 15 4377 9.13200000 2888912100 2888912100 15.00000000
1.57894742 1.64421189 -0.61081296 4 0 4384 2.36000000 2888912120 2888912120 -15.00000000
1.87688828 1.95310271 -0.62536395 3 2 4386 2.78000000 2888912125 2888912125 -13.00000000
2.27761650 2.36927533 -0.63882852 4 4 4387 3.34800000 2888912130 2888912130 -11.00000000
2.88823628 3.00237012 -0.65984058 6 6 4389 4.21800000 2888912134 2888912134 -9.00000000
2.99298120 3.10908127 -0.52988791 6 8 4391 4.34800000 2888912139 2888912139 -7.00000000
8.66394234 8.99688053 1.97827029 39 9 4392 12.64600000 2888912141 2888912141 9.00000000
3.00867391 3.12429118 -0.37947610 2 10 4392 4.35400000 2888912144 2888912144 -5.00000000
8.17238808 8.48347282 2.28970790 50 11 4393 12.00000000 2888912146 2888912146 11.00000000
2.98663068 3.09923482 -0.22556797 2 12 4394 4.31000000 2888912148 2888912148 -3.00000000
7.04915094 7.31236887 2.34488988 57 13 4395 10.42400000 2888912150 2888912150 13.00000000
2.99829721 3.10916853 -0.07539440 1 14 4396 4.32000000 2888912153 2888912153 -1.00000000
6.12950850 6.35394621 2.36560607 45 15 4397 9.14000000 2888912155 2888912155 15.00000000
1.59407783 1.64841127 -0.61443639 4 0 4404 2.37400000 2888912176 2888912176 -15.00000000
2.98232198 3.08289623 0.07487082 5 1 4405 4.29000000 2888912178 2888912178 1.00000000
1.88640475 1.94934011 -0.62626374 3 2 4406 2.78400000 2888912180 2888912180 -13.00000000
2.98200369 3.08149099 0.22473060 1 3 4406 4.29400000 2888912183 2888912183 3.00000000
2.28860378 2.36413169 -0.63959175 2 4 4407 3.35200000 2888912185 2888912185 -11.00000000
3.00214052 3.10013318 0.37755868 1 5 4408 4.33200000 2888912187 2888912187 5.00000000
2.89732432 2.99085116 -0.65952772 9 6 4409 4.21600000 2888912190 2888912190 -9.00000000
2.97618175 3.07010889 -0.52501315 24 8 4411 4.30800000 2888912194 2888912194 -7.00000000
2.99182081 3.08516383 -0.37598988 32 10 4412 4.31400000 2888912199 2888912199 -5.00000000
2.98352146 3.07445765 -0.22452125 20 12 4414 4.29000000 2888912203 2888912203 -3.00000000
2.98962831 3.07859969 -0.07490573 21 14 4416 4.29200000 2888912208 2888912208 -1.00000000
1.59443092 1.63730085 -0.61236584 4 0 4424 2.36600000 2888912231 2888912231 -15.00000000
3.00283265 3.08249402 0.07511516 18 1 4425 4.30400000 2888912233 2888912233 1.00000000
1.89863801 1.94832599 -0.62806332 3 2 4426 2.79200000 2888912236 2888912236 -13.00000000
3.00110555 3.07964540 0.22535862 22 3 4426 4.30600000 2888912238 2888912238 3.00000000
2.28587890 2.34488201 -0.63653880 4 4 4427 3.33600000 2888912240 2888912240 -11.00000000
3.01016164 3.08678198 0.37721005 24 5 4428 4.32800000 2888912243 2888912243 5.00000000
2.91050553 2.98354745 -0.66015345 9 6 4429 4.22000000 2888912245 2888912245 -9.00000000
3.03348446 3.10852695 0.53330022 31 7 4430 4.37600000 2888912247 2888912247 7.00000000
2.98133349 3.05401945 -0.52403820 6 8 4431 4.30000000 2888912250 2888912250 -7.00000000
3.02331710 3.09702659 0.68549585 30 9 4431 4.38200000 2888912252 2888912252 9.00000000
2.99282765 3.06472349 -0.37476969 9 10 4432 4.30000000 2888912254 2888912254 -5.00000000
2.98725557 3.05688214 -0.22399789 8 12 4434 4.28000000 2888912259 2888912259 -3.00000000
3.01737595 3.08662653 0.99653316 45 13 4435 4.43000000 2888912261 2888912261 13.00000000
3.03147101 3.09888053 1.16157985 38 15 4437 4.48800000 2888912266 2888912266 15.00000000
1.59472609 1.62620795 -0.61029530 4 0 4444 2.35800000 2888912286 2888912286 -15.00000000
2.99817038 3.05629086 0.07473120 3 1 4445 4.28200000 2888912289 2888912289 1.00000000
1.90269756 1.93890488 -0.62716353 3 2 4446 2.78800000 2888912291 2888912291 -13.00000000
2.99924707 3.05632114 0.22441658 5 3 4446 4.28800000 2888912293 2888912293 3.00000000
2.29955149 2.34249258 -0.63806528 4 4 4447 3.34400000 2888912296 2888912296 -11.00000000
2.99718642 3.05208945 0.37424675 5 5 4448 4.29400000 2888912298 2888912298 5.00000000
2.92505527 2.97759724 -0.66109204 9 6 4449 4.22600000 2888912300 2888912300 -9.00000000
3.03318572 3.08659220 0.53135031 63 7 4450 4.36000000 2888912302 2888912302 7.00000000
2.98780107 3.03934717 -0.52330697 8 8 4451 4.29400000 2888912305 2888912305 -7.00000000
3.02995491 3.08222818 0.68455720 68 9 4451 4.37600000 2888912307 2888912307 9.00000000
2.98814058 3.03863144 -0.37285227 9 10 4452 4.27800000 2888912309 2888912309 -5.00000000
3.02895164 3.07905698 0.83955956 46 11 4453 4.40000000 2888912312 2888912312 11.00000000
3.00211072 3.05070686 -0.22431190 8 12 4454 4.28600000 2888912314 2888912314 -3.00000000
3.02129650 3.06913137 0.99428368 52 13 4455 4.42000000 2888912316 2888912316 13.00000000
2.99140453 3.03770590 -0.07441706 5 14 4456 4.26400000 2888912319 2888912319 -1.00000000
3.02004266 3.06678700 1.15329766 50 15 4456 4.45600000 2888912321 2888912321 15.00000000
1.60039294 1.62063146 -0.61029530 4 0 4464 2.35800000 2888912342 2888912342 -15.00000000
3.00179386 3.03869367 0.07455668 7 1 4465 4.27200000 2888912344 2888912344 1.00000000
1.90671444 1.92947912 -0.62626374 3 2 4466 2.78400000 2888912346 2888912346 -13.00000000
3.01130104 3.04725385 0.22452125 7 3 4466 4.29000000 2888912349 2888912349 3.00000000
2.30633402 2.33305526 -0.63768369 4 4 4467 3.34200000 2888912351 2888912351 -11.00000000
3.00922275 3.04302526 0.37442106 5 5 4468 4.29600000 2888912353 2888912353 5.00000000
2.93126345 2.96315575 -0.66015345 11 6 4469 4.22000000 2888912355 2888912355 -9.00000000
3.02578950 3.05764246 0.52818173 60 7 4470 4.33400000 2888912358 2888912358 7.00000000
2.99559903 3.02607775 -0.52281946 8 8 4471 4.29000000 2888912360 2888912360 -7.00000000
3.02679825 3.05759430 0.68142855 66 9 4471 4.35600000 2888912362 2888912362 9.00000000
2.99732709 3.02676678 -0.37267795 9 10 4472 4.27600000 2888912365 2888912365 -5.00000000
3.02586436 3.05451775 0.83574343 55 11 4473 4.38000000 2888912367 2888912367 11.00000000
2.99587107 3.02318478 -0.22305584 8 12 4474 4.26200000 2888912369 2888912369 -3.00000000
3.02787542 3.05441451 0.99293393 50 13 4475 4.41400000 2888912372 2888912372 13.00000000
3.00199008 3.02724528 -0.07441706 7 14 4476 4.26400000 2888912374 2888912374 -1.00000000
3.02718115 3.05158305 1.15174472 52 15 4477 4.45000000 2888912376 2888912376 15.00000000
1.61665404 1.62627602 -0.61443639 4 0 4483 2.37400000 2888912397 2888912397 -15.00000000
3.00057364 3.01737905 0.07427744 7 1 4484 4.25600000 2888912399 2888912399 1.00000000
1.91035366 1.92038250 -0.62536395 3 2 4485 2.78000000 2888912402 2888912402 -13.00000000
3.01487565 3.02964520 0.22399789 7 3 4486 4.28000000 2888912404 2888912404 3.00000000
2.32236695 2.33374405 -0.63997334 4 4 4486 3.35400000 2888912406 2888912406 -11.00000000
3.01367474 3.02738142 0.37372383 7 5 4487 4.28800000 2888912408 2888912408 5.00000000
2.94386125 2.95621848 -0.66077918 11 6 4488 4.22400000 2888912411 2888912411 -9.00000000
3.02190256 3.03352833 0.52574432 63 7 4489 4.31400000 2888912413 2888912413 7.00000000
2.99300647 3.00347233 -0.52062583 8 8 4490 4.27200000 2888912415 2888912415 -7.00000000
3.02855468 3.03914499 0.67955130 64 9 4490 4.34400000 2888912418 2888912418 9.00000000
2.99750161 3.00693321 -0.37145779 9 10 4491 4.26200000 2888912420 2888912420 -5.00000000
3.01934123 3.02778482 0.83116400 59 11 4492 4.35600000 2888912422 2888912422 11.00000000
2.99600601 3.00333548 -0.22232315 8 12 4493 4.24800000 2888912425 2888912425 -3.00000000
3.02146935 3.02780414 0.98753512 52 13 4494 4.39000000 2888912427 2888912427 13.00000000
3.00353551 3.00878239 -0.07420763 7 14 4495 4.25200000 2888912429 2888912429 -1.00000000
3.02992892 3.03522158 1.14915657 54 15 4495 4.44000000 2888912432 2888912432 15.00000000
1.62642121 1.62471890 -0.61598933 4 0 4503 2.38000000 2888912452 2888912452 -15.00000000
3.00967312 3.00547361 0.07424254 7 1 4504 4.25400000 2888912455 2888912455 1.00000000
1.91704535 1.91370237 -0.62536395 3 2 4505 2.78000000 2888912457 2888912457 -13.00000000
3.00705385 3.00076246 0.22263716 7 3 4506 4.25400000 2888912459 2888912459 3.00000000
2.32355070 2.31868935 -0.63806528 4 4 4506 3.34400000 2888912461 2888912461 -11.00000000
3.02281332 3.01543617 0.37354952 7 5 4507 4.28600000 2888912464 2888912464 5.00000000
2.95276380 2.94452953 -0.66046631 13 6 4508 4.22200000 2888912466 2888912466 -9.00000000
3.02403784 3.01455259 0.52428192 63 7 4509 4.30200000 2888912468 2888912468 7.00000000
2.98378658 2.97338939 -0.51721346 8 8 4510 4.24400000 2888912471 2888912471 -7.00000000
3.03127646 3.01965952 0.67767411 66 9 4511 4.33200000 2888912473 2888912473 9.00000000
3.00233316 2.99082732 -0.37076053 9 10 4511 4.25400000 2888912475 2888912475 -5.00000000
3.02154517 3.00891495 0.82887429 59 11 4512 4.34400000 2888912478 2888912478 11.00000000
2.99373198 2.98017764 -0.22138110 8 12 4513 4.23000000 2888912480 2888912480 -3.00000000
3.01958799 3.00486732 0.98348600 55 13 4514 4.37200000 2888912482 2888912482 13.00000000
2.99842525 2.98276639 -0.07382368 7 14 4515 4.23000000 2888912485 2888912485 -1.00000000
3.03555369 3.01864719 1.14708602 56 15 4516 4.43200000 2888912487 2888912487 15.00000000
1.62659657 1.61358953 -0.61391878 4 0 4523 2.37200000 2888912508 2888912508 -15.00000000
3.01020646 2.98509312 0.07399821 7 1 4524 4.24000000 2888912510 2888912510 1.00000000
1.92924964 1.91248679 -0.62716353 3 2 4525 2.78800000 2888912512 2888912512 -13.00000000
3.00899816 2.98181248 0.22200912 7 3 4526 4.24200000 2888912514 2888912514 3.00000000
2.33441925 2.31332850 -0.63882852 4 4 4526 3.34800000 2888912517 2888912517 -11.00000000
3.01350451 2.98523593 0.37110916 7 5 4527 4.25800000 2888912519 2888912519 5.00000000
2.96442771 2.93559456 -0.66077918 13 6 4528 4.22400000 2888912521 2888912521 -9.00000000
3.02607775 2.99559903 0.52281946 63 7 4529 4.29000000 2888912524 2888912524 7.00000000
2.98991442 2.95876694 -0.51648229 8 8 4530 4.23800000 2888912526 2888912526 -7.00000000
3.01880789 2.98735952 0.67266822 68 9 4530 4.30000000 2888912528 2888912528 9.00000000
2.99575782 2.96351457 -0.36866879 9 10 4531 4.23000000 2888912531 2888912531 -5.00000000
3.02923775 2.99558854 0.82811105 59 11 4532 4.34000000 2888912533 2888912533 11.00000000
3.00127578 2.96690130 -0.22117175 8 12 4533 4.22600000 2888912535 2888912535 -3.00000000
3.01619720 2.98061109 0.97898698 55 13 4534 4.35200000 2888912538 2888912538 13.00000000
2.99743795 2.96103930 -0.07354444 7 14 4535 4.21400000 2888912540 2888912540 -1.00000000
3.02768087 2.99091482 1.14035666 62 15 4535 4.40600000 2888912542 2888912542 15.00000000
1.62258554 1.59841168 -0.61029530 4 0 4543 2.35800000 2888912563 2888912563 -15.00000000
3.00351024 2.95773029 0.07357935 7 1 4544 4.21600000 2888912565 2888912565 1.00000000
1.94146872 1.91120923 -0.62896317 3 2 4545 2.79600000 2888912567 2888912567 -13.00000000
3.01654124 2.96848917 0.22179978 7 3 4546 4.23800000 2888912570 2888912570 3.00000000
2.34807754 2.31067395 -0.64035499 4 4 4546 3.35600000 2888912572 2888912572 -11.00000000
3.01538444 2.96631527 0.37006328 7 5 4547 4.24600000 2888912574 2888912574 5.00000000
2.96620607 2.91691852 -0.65890199 13 6 4548 4.21200000 2888912577 2888912577 -9.00000000
3.02802205 2.97666812 0.52135706 63 7 4549 4.27800000 2888912579 2888912579 7.00000000
2.98889732 2.93718123 -0.51453239 10 8 4550 4.22200000 2888912581 2888912581 -7.00000000
3.02691841 2.97350621 0.67204249 70 9 4551 4.29600000 2888912584 2888912584 9.00000000
2.99187088 2.93907714 -0.36692569 9 10 4551 4.21000000 2888912586 2888912586 -5.00000000
3.02987051 2.97536731 0.82543969 61 11 4552 4.32600000 2888912588 2888912588 11.00000000
3.00448751 2.94941092 -0.22064839 8 12 4553 4.21600000 2888912590 2888912590 -3.00000000
3.02101970 2.96460485 0.97718740 57 13 4554 4.34400000 2888912593 2888912593 13.00000000
3.00490069 2.94775748 -0.07347463 7 14 4555 4.21000000 2888912595 2888912595 -1.00000000
3.02207088 2.96356654 1.13414502 60 15 4556 4.38200000 2888912597 2888912597 15.00000000
1.63505995 1.59949267 -0.61288351 4 0 4563 2.36800000 2888912618 2888912618 -15.00000000
2.99523020 2.92905259 0.07312559 7 1 4564 4.19000000 2888912620 2888912620 1.00000000
1.94534123 1.90169609 -0.62806332 3 2 4565 2.79200000 2888912623 2888912623 -13.00000000
3.01688552 2.94816995 0.22106709 7 3 4566 4.22400000 2888912625 2888912625 3.00000000
2.35612893 2.30246353 -0.64035499 4 4 4566 3.35600000 2888912627 2888912627 -11.00000000
3.01289368 2.94324112 0.36849448 7 5 4567 4.22800000 2888912630 2888912630 5.00000000
2.96647692 2.89688587 -0.65671188 9 6 4568 4.19800000 2888912632 2888912632 -9.00000000
3.02560997 2.95360017 0.51916343 56 7 4569 4.26000000 2888912634 2888912634 7.00000000
2.99202824 2.91979790 -0.51331365 8 8 4570 4.21200000 2888912637 2888912637 -7.00000000
3.02262473 2.94965601 0.66891378 70 9 4570 4.27600000 2888912639 2888912639 9.00000000
2.99070263 2.91748548 -0.36553118 9 10 4571 4.19400000 2888912641 2888912641 -5.00000000
3.02056003 2.94558334 0.82009709 21 11 4572 4.29800000 2888912643 2888912643 11.00000000
3.00332332 2.92775202 -0.21981102 8 12 4573 4.20000000 2888912646 2888912646 -3.00000000
3.02437139 2.94724107 0.97493786 57 13 4574 4.33400000 2888912648 2888912648 13.00000000
2.99798322 2.92050600 -0.07305577 7 14 4575 4.18600000 2888912650 2888912650 -1.00000000
3.02773046 2.94948459 1.13259208 56 15 4575 4.37600000 2888912653 2888912653 15.00000000
1.64063323 1.59377551 -0.61288351 4 0 4583 2.36800000 2888912673 2888912673 -15.00000000
3.00543618 2.91857934 0.07312559 7 1 4584 4.19000000 2888912676 2888912676 1.00000000
1.94917095 1.89217925 -0.62716353 3 2 4585 2.78800000 2888912678 2888912678 -13.00000000
3.01139188 2.92232108 0.21991569 7 3 4586 4.20200000 2888912680 2888912680 3.00000000
2.36133385 2.29149055 -0.63959175 4 4 4586 3.35200000 2888912683 2888912683 -11.00000000
3.01456857 2.92438245 0.36744860 7 5 4587 4.21600000 2888912685 2888912685 5.00000000
2.98082519 2.89063883 -0.65765047 11 6 4588 4.20400000 2888912687 2888912687 -9.00000000
3.01737261 2.92505884 0.51599479 35 7 4589 4.23400000 2888912690 2888912690 7.00000000
2.98652101 2.89414024 -0.51063257 8 8 4590 4.19000000 2888912692 2888912692 -7.00000000
3.03199673 2.93718314 0.66860092 72 9 4591 4.27400000 2888912694 2888912694 9.00000000
2.99800611 2.90425563 -0.36518255 9 10 4591 4.19000000 2888912696 2888912696 -5.00000000
3.01248932 2.91726685 0.81513602 8 11 4592 4.27200000 2888912699 2888912699 11.00000000
2.99343467 2.89780235 -0.21834561 7 12 4593 4.17200000 2888912701 2888912701 -3.00000000
3.00815940 2.91002321 -0.07305577 7 14 4595 4.18600000 2888912706 2888912706 -1.00000000
3.02602220 2.92628098 1.12793338 22 15 4596 4.35800000 2888912708 2888912708 15.00000000
1.65174794 1.59340394 -0.61495405 4 0 4603 2.37600000 2888912729 2888912729 -15.00000000
3.00265074 2.89557767 0.07281144 7 1 4604 4.17200000 2888912731 2888912731 1.00000000
1.95295811 1.88265884 -0.62626374 3 2 4605 2.78400000 2888912733 2888912733 -13.00000000
3.00719261 2.89793253 0.21886897 7 3 4606 4.18200000 2888912736 2888912736 3.00000000
2.37497306 2.28868318 -0.64111823 2 4 4606 3.36000000 2888912738 2888912738 -11.00000000
3.02188849 2.91107726 0.36710000 7 5 4607 4.21200000 2888912740 2888912740 5.00000000
2.98805141 2.87747574 -0.65702474 9 6 4608 4.20000000 2888912743 2888912743 -9.00000000
3.02613425 2.91313171 0.51575106 28 7 4609 4.23200000 2888912745 2888912745 7.00000000
2.98087120 2.86855650 -0.50795144 8 8 4610 4.16800000 2888912747 2888912747 -7.00000000
3.02321625 2.90930605 0.66453362 70 9 4610 4.24800000 2888912749 2888912749 9.00000000
3.00525403 2.89101028 -0.36483395 9 10 4611 4.18600000 2888912752 2888912752 -5.00000000
3.02265406 2.90673351 0.81513602 21 11 4612 4.27200000 2888912754 2888912754 11.00000000
2.99777222 2.88179898 -0.21792692 7 12 4613 4.16400000 2888912756 2888912756 -3.00000000
3.01677084 2.89904976 0.96593982 12 13 4614 4.29400000 2888912759 2888912759 13.00000000
3.00532007 2.88703704 -0.07274163 8 14 4615 4.16800000 2888912761 2888912761 -1.00000000
3.03013682 2.91087699 1.12586284 12 15 4615 4.35000000 2888912763 2888912763 15.00000000
1.64892972 1.57961023 -0.61184824 4 0 4623 2.36400000 2888912784 2888912784 -15.00000000
3.00551867 2.87816358 0.07263692 7 1 4624 4.16200000 2888912786 2888912786 1.00000000
1.96796405 1.88391578 -0.62896317 3 2 4625 2.79600000 2888912789 2888912789 -13.00000000
3.01296115 2.88327503 0.21855496 7 3 4626 4.17600000 2888912791 2888912791 3.00000000
2.37160015 2.26952004 -0.63806528 2 4 4626 3.34400000 2888912793 2888912793 -11.00000000
3.01763463 2.88673854 0.36535686 7 5 4627 4.19200000 2888912796 2888912796 5.00000000
2.99093914 2.86020184 -0.65546042 9 6 4628 4.19000000 2888912798 2888912798 -9.00000000
3.02193546 2.88883352 0.51331365 15 7 4629 4.21200000 2888912800 2888912800 7.00000000
2.98799586 2.85539079 -0.50746393 8 8 4630 4.16400000 2888912802 2888912802 -7.00000000
3.01529026 2.88046741 0.66046631 72 9 4631 4.22200000 2888912805 2888912805 9.00000000
2.99515772 2.86123490 -0.36239359 9 10 4631 4.15800000 2888912807 2888912807 -5.00000000
3.02710271 2.89074111 0.81360954 14 11 4632 4.26400000 2888912809 2888912809 11.00000000
3.00492406 2.86855912 -0.21771757 7 12 4633 4.16000000 2888912812 2888912812 -3.00000000
3.01559353 2.87773871 0.96234059 11 13 4634 4.27800000 2888912814 2888912814 13.00000000
2.99512267 2.85720491 -0.07225296 8 14 4635 4.14000000 2888912816 2888912816 -1.00000000
3.01981425 2.87975311 1.11809826 12 15 4636 4.32000000 2888912819 2888912819 15.00000000
1.64828718 1.56909418 -0.60977769 4 0 4641 2.35600000 2888912839 2888912839 -15.00000000
2.99861121 2.85354352 0.07225296 8 1 4642 4.14000000 2888912842 2888912842 1.00000000
1.97669673 1.88041019 -0.62986296 3 2 4643 2.80000000 2888912844 2888912844 -13.00000000
3.01476765 2.86691380 0.21803160 7 3 4644 4.16600000 2888912846 2888912846 3.00000000
2.38725448 2.27017570 -0.64035499 2 4 4644 3.35600000 2888912849 2888912849 -11.00000000
3.00214005 2.85390782 0.36239359 7 5 4645 4.15800000 2888912851 2888912851 5.00000000
2.99131846 2.84262681 -0.65358317 9 6 4646 4.17800000 2888912853 2888912853 -9.00000000
3.02667832 2.87522388 0.51258248 8 7 4647 4.20600000 2888912855 2888912855 7.00000000
2.99263310 2.84188890 -0.50673270 10 8 4648 4.15800000 2888912858 2888912858 -7.00000000
3.01952624 2.86742735 0.65952772 66 9 4648 4.21600000 2888912860 2888912860 9.00000000
2.98968196 2.83809400 -0.36065045 9 10 4649 4.13800000 2888912862 2888912862 -5.00000000
3.01765609 2.86364865 0.80864853 10 11 4650 4.23800000 2888912865 2888912865 11.00000000
2.99943089 2.84535885 -0.21667086 7 12 4651 4.14000000 2888912867 2888912867 -3.00000000
3.02037716 2.86422801 0.96099091 10 13 4652 4.27200000 2888912869 2888912869 13.00000000
2.99247408 2.83677554 -0.07197373 8 14 4653 4.12400000 2888912872 2888912872 -1.00000000
3.01853132 2.86147690 1.11447477 16 15 4653 4.30600000 2888912874 2888912874 15.00000000
1.65796590 1.56731236 -0.61133057 4 0 4661 2.36200000 2888912895 2888912895 -15.00000000
2.99547291 2.83069801 0.07193882 8 1 4662 4.12200000 2888912897 2888912897 1.00000000
1.97474885 1.86546957 -0.62716353 3 2 4663 2.78800000 2888912899 2888912899 -13.00000000
3.01313972 2.84540248 0.21719421 7 3 4664 4.15000000 2888912902 2888912902 3.00000000
2.39230943 2.25913310 -0.63959175 2 4 4664 3.35200000 2888912904 2888912904 -11.00000000
3.00773740 2.83930802 0.36187065 6 5 4665 4.15200000 2888912906 2888912906 5.00000000
2.98110938 2.81318736 -0.64920300 9 6 4666 4.15000000 2888912908 2888912908 -9.00000000
3.02803254 2.85646844 0.51112002 7 7 4667 4.19400000 2888912911 2888912911 7.00000000
2.99386978 2.82325387 -0.50527030 10 8 4668 4.14600000 2888912913 2888912913 -7.00000000
3.02089429 2.84873819 0.65765047 68 9 4668 4.20400000 2888912915 2888912915 9.00000000
2.99087191 2.81944084 -0.35960460 9 10 4669 4.12600000 2888912918 2888912918 -5.00000000
3.01763201 2.84367251 0.80597723 42 11 4670 4.22400000 2888912920 2888912920 11.00000000
3.00062203 2.82665467 -0.21604283 7 12 4671 4.12800000 2888912922 2888912922 -3.00000000
2.99362183 2.81808853 -0.07176430 8 14 4673 4.11200000 2888912927 2888912927 -1.00000000
3.01724815 2.84032965 1.11033368 10 15 4673 4.29000000 2888912929 2888912929 15.00000000
1.66765225 1.56548202 -0.61288351 4 0 4681 2.36800000 2888912950 2888912950 -15.00000000
3.00241923 2.81748772 0.07186901 8 1 4682 4.11800000 2888912952 2888912952 1.00000000
1.97840607 1.85589850 -0.62626374 3 2 4683 2.78400000 2888912955 2888912955 -13.00000000
3.00702786 2.81983924 0.21604283 7 3 4684 4.12800000 2888912957 2888912957 3.00000000
2.40877318 2.25882626 -0.64188147 2 4 4684 3.36400000 2888912959 2888912959 -11.00000000
3.01763010 2.82879162 0.36187065 6 5 4685 4.15200000 2888912961 2888912961 5.00000000
2.98514533 2.79736114 -0.64795154 9 6 4686 4.14200000 2888912964 2888912964 -9.00000000
3.01770282 2.82688141 0.50770766 7 7 4687 4.16600000 2888912966 2888912966 7.00000000
2.98921680 2.79921746 -0.50283289 8 8 4688 4.12600000 2888912968 2888912968 -7.00000000
3.02843094 2.83494711 0.65702474 66 9 4689 4.20000000 2888912971 2888912971 9.00000000
2.98905897 2.79809070 -0.35821012 9 10 4689 4.11000000 2888912973 2888912973 -5.00000000
3.00890446 2.81568313 0.80101615 52 11 4690 4.19800000 2888912975 2888912975 11.00000000
2.98713374 2.79433250 -0.21436808 7 12 4691 4.09600000 2888912978 2888912978 -3.00000000
3.01610255 2.82044458 0.95334256 51 13 4692 4.23800000 2888912980 2888912980 13.00000000
2.99613643 2.80079365 -0.07158977 7 14 4693 4.10200000 2888912982 2888912982 -1.00000000
3.02855563 2.83109927 1.11085129 10 15 4693 4.29200000 2888912984 2888912984 15.00000000
1.67593277 1.56228578 -0.61391878 4 0 4701 2.37200000 2888913005 2888913005 -15.00000000
3.00199509 2.79744720 0.07162467 8 1 4702 4.10400000 2888913008 2888913008 1.00000000
1.99342775 1.85695100 -0.62896317 3 2 4703 2.79600000 2888913010 2888913010 -13.00000000
3.01100612 2.80388117 0.21562414 7 3 4704 4.12000000 2888913012 2888913012 3.00000000
2.39940214 2.23434901 -0.63730204 4 4 4704 3.34000000 2888913014 2888913014 -11.00000000
3.02019429 2.81145334 0.36099908 6 5 4705 4.14200000 2888913017 2888913017 5.00000000
2.97753859 2.77077579 -0.64419711 9 6 4706 4.11800000 2888913019 2888913019 -9.00000000
3.02319169 2.81227446 0.50697649 7 7 4707 4.16000000 2888913021 2888913021 7.00000000
2.98734021 2.77795172 -0.50088298 10 8 4708 4.11000000 2888913024 2888913024 -7.00000000
3.02384019 2.81090927 0.65389609 64 9 4709 4.18000000 2888913026 2888913026 9.00000000
3.00756359 2.79577899 -0.35925597 9 10 4709 4.12200000 2888913028 2888913028 -5.00000000
3.02302933 2.80917215 0.80216104 50 11 4710 4.20400000 2888913031 2888913031 11.00000000
2.98662639 2.77437329 -0.21363537 9 12 4711 4.08200000 2888913033 2888913033 -3.00000000
3.02021718 2.80459499 0.95154297 11 13 4712 4.23000000 2888913035 2888913035 13.00000000
2.99417019 2.77943444 -0.07131054 7 14 4713 4.08600000 2888913037 2888913037 -1.00000000
3.02758312 2.80946755 1.10671020 10 15 4714 4.27600000 2888913040 2888913040 15.00000000
1.67030430 1.54563606 -0.60977769 4 0 4722 2.35600000 2888913061 2888913061 -15.00000000
3.01222801 2.78642559 0.07162467 8 1 4723 4.10400000 2888913063 2888913063 1.00000000
1.99735892 1.84698617 -0.62806332 3 2 4724 2.79200000 2888913065 2888913065 -13.00000000
3.00806284 2.78062463 0.21468209 7 3 4725 4.10200000 2888913067 2888913067 3.00000000
2.41045856 2.22820497 -0.63806528 4 4 4725 3.34400000 2888913070 2888913070 -11.00000000
3.01438236 2.78549099 0.35908166 6 5 4726 4.12000000 2888913072 2888913072 5.00000000
2.99057603 2.76252460 -0.64482284 9 6 4727 4.12200000 2888913074 2888913074 -9.00000000
3.02618694 2.79444122 0.50575775 7 7 4728 4.15000000 2888913077 2888913077 7.00000000
2.98583269 2.75621200 -0.49893311 10 8 4729 4.09400000 2888913079 2888913079 -7.00000000
3.02541184 2.79176974 0.65201885 64 9 4730 4.16800000 2888913081 2888913081 9.00000000
2.98996997 2.75906491 -0.35594407 9 10 4730 4.08400000 2888913084 2888913084 -5.00000000
3.02897596 2.79407978 0.80101615 14 11 4731 4.19800000 2888913086 2888913086 11.00000000
2.99824309 2.76476192 -0.21374005 7 12 4732 4.08400000 2888913088 2888913088 -3.00000000
3.01614785 2.78029847 0.94704396 18 13 4733 4.21000000 2888913090 2888913090 13.00000000
2.99110222 2.75624585 -0.07099639 7 14 4734 4.06800000 2888913093 2888913093 -1.00000000
3.02174425 2.78448200 1.10101616 10 15 4734 4.25400000 2888913095 2888913095 15.00000000
1.68137932 1.54502475 -0.61184824 4 0 4742 2.36400000 2888913116 2888913116 -15.00000000
3.00573683 2.76101351 0.07124072 8 1 4743 4.08200000 2888913118 2888913118 1.00000000
2.00666475 1.84263897 -0.62896317 3 2 4744 2.79600000 2888913120 2888913120 -13.00000000
3.00892258 2.76200390 0.21405406 7 3 4745 4.09000000 2888913123 2888913123 3.00000000
2.41388297 2.21579456 -0.63692045 4 4 4745 3.33800000 2888913125 2888913125 -11.00000000
3.00647116 2.75878692 0.35698992 6 5 4746 4.09600000 2888913127 2888913127 5.00000000
2.98273230 2.73604512 -0.64106846 9 6 4747 4.09800000 2888913130 2888913130 -9.00000000
3.02568126 2.77446961 0.50405163 7 7 4748 4.13600000 2888913132 2888913132 7.00000000
2.98811889 2.73906589 -0.49771440 10 8 4749 4.08400000 2888913134 2888913134 -7.00000000
3.02785659 2.77451944 0.65045452 48 9 4750 4.15800000 2888913137 2888913137 9.00000000
2.98783112 2.73784280 -0.35454956 11 10 4750 4.06800000 2888913139 2888913139 -5.00000000
3.01844287 2.76492429 0.79567349 16 11 4751 4.17000000 2888913141 2888913141 11.00000000
2.99903774 2.74618649 -0.21311201 7 12 4752 4.07200000 2888913143 2888913143 -3.00000000
3.01146007 2.75659537 0.94254494 56 13 4753 4.19000000 2888913146 2888913146 13.00000000
2.99037814 2.73633862 -0.07075205 7 14 4754 4.05400000 2888913148 2888913148 -1.00000000
3.00864196 2.75305080 1.09273398 26 15 4754 4.22200000 2888913150 2888913150 15.00000000
1.68051851 1.53452432 -0.60977769 4 0 4760 2.35600000 2888913171 2888913171 -15.00000000
2.99667287 2.73537946 0.07082187 8 1 4761 4.05800000 2888913173 2888913173 1.00000000
2.00956464 1.83369863 -0.62806332 3 2 4762 2.79200000 2888913176 2888913176 -13.00000000
3.01562905 2.75171781 0.21394938 7 3 4762 4.08800000 2888913178 2888913178 3.00000000
2.43243599 2.21878481 -0.63997334 4 4 4763 3.35400000 2888913180 2888913180 -11.00000000
3.01217890 2.74664330 0.35664129 6 5 4764 4.09200000 2888913183 2888913183 5.00000000
2.97963405 2.71601534 -0.63856548 9 6 4765 4.08200000 2888913185 2888913185 -9.00000000
3.02117682 2.75291729 0.50185794 8 7 4766 4.11800000 2888913187 2888913187 7.00000000
2.99083900 2.72431803 -0.49673945 10 8 4767 4.07600000 2888913189 2888913189 -7.00000000
3.02585292 2.75621176 0.64826441 32 9 4767 4.14400000 2888913192 2888913192 9.00000000
2.98905182 2.72173572 -0.35367802 11 10 4768 4.05800000 2888913194 2888913194 -5.00000000
3.01114392 2.74089098 0.79147571 16 11 4769 4.14800000 2888913196 2888913196 11.00000000
2.98844624 2.71927691 -0.21175128 7 12 4770 4.04600000 2888913199 2888913199 -3.00000000
3.01145577 2.73925328 0.93984550 46 13 4771 4.17800000 2888913201 2888913201 13.00000000
2.99895978 2.72693062 -0.07075205 8 14 4772 4.05400000 2888913203 2888913203 -1.00000000
3.01012969 2.73708701 1.09014583 24 15 4772 4.21200000 2888913206 2888913206 15.00000000
1.69588268 1.53773248 -0.61340111 4 0 4780 2.37000000 2888913226 2888913226 -15.00000000
3.00027633 2.71953034 0.07068224 7 1 4781 4.05000000 2888913229 2888913229 1.00000000
2.00440025 1.81620479 -0.62446415 3 2 4782 2.77600000 2888913231 2888913231 -13.00000000
3.01089144 2.72723842 0.21290267 7 3 4783 4.06800000 2888913233 2888913233 3.00000000
2.44016600 2.21028042 -0.63997334 4 4 4783 3.35400000 2888913236 2888913236 -11.00000000
3.01436353 2.72942567 0.35576975 6 5 4784 4.08200000 2888913238 2888913238 5.00000000
2.97445130 2.69234157 -0.63543677 9 6 4785 4.06200000 2888913240 2888913240 -9.00000000
3.01457620 2.72770381 0.49917683 8 7 4786 4.09600000 2888913242 2888913242 7.00000000
2.99149728 2.70587158 -0.49527702 10 8 4787 4.06400000 2888913245 2888913245 -7.00000000
3.02567816 2.73582888 0.64607435 16 9 4788 4.13000000 2888913247 2888913247 9.00000000
2.99262285 2.70594025 -0.35298076 11 10 4788 4.05000000 2888913249 2888913249 -5.00000000
3.00904131 2.71983147 0.78842276 30 11 4789 4.13200000 2888913252 2888913252 11.00000000
2.98606467 2.69811654 -0.21091390 7 12 4790 4.03000000 2888913254 2888913254 -3.00000000
3.01810694 2.72611213 0.93894571 15 13 4791 4.17400000 2888913256 2888913256 13.00000000
2.99658680 2.70572448 -0.07047281 8 14 4792 4.03800000 2888913259 2888913259 -1.00000000
3.01297092 2.71956396 1.08755767 56 15 4793 4.20200000 2888913261 2888913261 15.00000000
1.70698261 1.53697395 -0.61547166 4 0 4800 2.37800000 2888913282 2888913282 -15.00000000
3.00083327 2.70101428 0.07047281 8 1 4801 4.03800000 2888913284 2888913284 1.00000000
2.02086854 1.81832123 -0.62761343 3 2 4802 2.79000000 2888913286 2888913286 -13.00000000
3.00655627 2.70521569 0.21196063 8 3 4802 4.05000000 2888913289 2888913289 3.00000000
2.43326974 2.18862009 -0.63615721 4 4 4803 3.33400000 2888913291 2888913291 -11.00000000
3.01794624 2.71355844 0.35507250 6 5 4804 4.07400000 2888913293 2888913293 5.00000000
2.98089290 2.67930150 -0.63481104 9 6 4805 4.05800000 2888913295 2888913295 -9.00000000
3.01964951 2.71318412 0.49844560 7 7 4806 4.09000000 2888913298 2888913298 7.00000000
2.98024845 2.67684221 -0.49186468 12 8 4807 4.03600000 2888913300 2888913300 -7.00000000
3.02639055 2.71733236 0.64419711 10 9 4808 4.11800000 2888913302 2888913302 9.00000000
2.99612021 2.69015336 -0.35228351 11 10 4808 4.04200000 2888913305 2888913305 -5.00000000
3.01559496 2.70668864 0.78765953 54 11 4809 4.12800000 2888913307 2888913307 11.00000000
2.98951840 2.68234134 -0.21049522 7 12 4810 4.02200000 2888913309 2888913309 -3.00000000
3.00874543 2.69864511 0.93309695 16 13 4811 4.14800000 2888913312 2888913312 13.00000000
2.99410248 2.68456841 -0.07019358 7 14 4812 4.02200000 2888913314 2888913314 -1.00000000
3.02772617 2.71471620 1.08962822 62 15 4812 4.21000000 2888913316 2888913316 15.00000000
1.70369637 1.52328026 -0.61236584 4 0 4820 2.36600000 2888913337 2888913337 -15.00000000
3.00427938 2.68519235 0.07033320 8 1 4821 4.03000000 2888913339 2888913339 1.00000000
2.03882885 1.82164311 -0.63121265 3 2 4822 2.80600000 2888913341 2888913341 -13.00000000
3.00704479 2.68672013 0.21133259 8 3 4822 4.03800000 2888913344 2888913344 3.00000000
2.44089460 2.18011308 -0.63615721 4 4 4823 3.33400000 2888913346 2888913346 -11.00000000
3.01551032 2.69239163 0.35367802 6 5 4824 4.05800000 2888913348 2888913348 5.00000000
2.98138475 2.66098762 -0.63293386 9 6 4825 4.04600000 2888913351 2888913351 -9.00000000
3.02910185 2.70262718 0.49844560 8 7 4826 4.09000000 2888913353 2888913353 7.00000000
2.98957443 2.66642284 -0.49186468 10 8 4827 4.03600000 2888913355 2888913355 -7.00000000
3.01079202 2.68440366 0.63887835 8 9 4828 4.08400000 2888913358 2888913358 9.00000000
2.98764658 2.66376734 -0.35019177 11 10 4828 4.01800000 2888913360 2888913360 -5.00000000
3.02209330 2.69353342 0.78689629 68 11 4829 4.12400000 2888913362 2888913362 11.00000000
2.99140716 2.66524649 -0.20997186 11 12 4830 4.01200000 2888913365 2888913365 -3.00000000
3.00068426 2.67257285 0.92769814 36 13 4831 4.12400000 2888913367 2888913367 13.00000000
2.99748087 2.66878176 -0.07005396 7 14 4832 4.01400000 2888913369 2888913369 -1.00000000
3.02419829 2.69256926 1.08496940 68 15 4832 4.19200000 2888913371 2888913371 15.00000000
1.70664251 1.51416314 -0.61133057 4 0 4842 2.36200000 2888913392 2888913392 -15.00000000
2.99661493 2.65771461 0.06991434 7 1 4843 4.00600000 2888913394 2888913394 1.00000000
2.03997564 1.80862999 -0.62941307 3 2 4844 2.79800000 2888913397 2888913397 -13.00000000
3.01780558 2.67462730 0.21133259 10 3 4845 4.03800000 2888913399 2888913399 3.00000000
2.45512486 2.17593336 -0.63768369 4 4 4845 3.34200000 2888913401 2888913401 -11.00000000
3.01389599 2.67022324 0.35228351 6 5 4846 4.04200000 2888913404 2888913404 5.00000000
2.97974992 2.63904285 -0.63043088 9 6 4847 4.03000000 2888913406 2888913406 -9.00000000
3.02013516 2.67386985 0.49527702 8 7 4848 4.06400000 2888913408 2888913408 7.00000000
2.98789835 2.64439917 -0.48991477 8 8 4849 4.02000000 2888913411 2888913411 -7.00000000
3.01765203 2.67073202 0.63825262 8 9 4849 4.08000000 2888913413 2888913413 9.00000000
2.98591518 2.64171457 -0.34879729 13 10 4850 4.00200000 2888913415 2888913415 -5.00000000
3.01476622 2.66630197 0.78231686 68 11 4851 4.10000000 2888913418 2888913418 11.00000000
2.99862623 2.65109491 -0.20976251 11 12 4852 4.00800000 2888913420 2888913420 -3.00000000
3.01530480 2.66490293 0.92904788 59 13 4853 4.13000000 2888913422 2888913422 13.00000000
2.99721599 2.64798474 -0.06980962 8 14 4854 4.00000000 2888913424 2888913424 -1.00000000
3.01760674 2.66506195 1.07875776 70 15 4855 4.16800000 2888913427 2888913427 15.00000000
1.71336710 1.50947368 -0.61184824 3 0 4862 2.36400000 2888913447 2888913447 -15.00000000
2.98786545 2.63137865 0.06949548 6 1 4863 3.98200000 2888913450 2888913450 1.00000000
2.03603792 1.79248416 -0.62626374 3 2 4864 2.78400000 2888913452 2888913452 -13.00000000
3.01616478 2.65536690 0.21059988 7 3 4864 4.02400000 2888913454 2888913454 3.00000000
2.46565270 2.16994429 -0.63844693 4 4 4865 3.34600000 2888913457 2888913457 -11.00000000
3.01422310 2.65179038 0.35123765 8 5 4866 4.03000000 2888913459 2888913459 5.00000000
2.97411036 2.61558008 -0.62730223 9 6 4867 4.01000000 2888913461 2888913461 -9.00000000
3.01901412 2.65413666 0.49357083 7 7 4868 4.05000000 2888913464 2888913464 7.00000000
2.99711084 2.63395333 -0.48991477 10 8 4869 4.02000000 2888913466 2888913466 -7.00000000
3.01406431 2.64792013 0.63543677 8 9 4870 4.06200000 2888913468 2888913468 9.00000000
2.99212456 2.62864566 -0.34844866 10 10 4870 3.99800000 2888913471 2888913471 -5.00000000
3.00635314 2.64021611 0.77773744 64 11 4871 4.07600000 2888913473 2888913473 11.00000000
2.99135184 2.62611723 -0.20861112 8 12 4872 3.98600000 2888913475 2888913475 -3.00000000
3.01433563 2.64536357 0.92589855 57 13 4873 4.11600000 2888913477 2888913477 13.00000000
2.99742150 2.62959385 -0.06960019 8 14 4874 3.98800000 2888913480 2888913480 -1.00000000
3.01817656 2.64686966 1.07565200 68 15 4875 4.15600000 2888913482 2888913482 15.00000000
1.71981704 1.50505590 -0.61236584 4 0 4881 2.36600000 2888913503 2888913503 -15.00000000
2.99657512 2.62145615 0.06949548 8 1 4882 3.98200000 2888913505 2888913505 1.00000000
2.04197073 1.78572261 -0.62626374 3 2 4883 2.78400000 2888913507 2888913507 -13.00000000
3.01442957 2.63614678 0.20986718 8 3 4883 4.01000000 2888913510 2888913510 3.00000000
2.47579122 2.16434026 -0.63921010 4 4 4884 3.35000000 2888913512 2888913512 -11.00000000
3.01999950 2.63915801 0.35088903 8 5 4885 4.02600000 2888913514 2888913514 5.00000000
2.97979236 2.60310411 -0.62667644 9 6 4886 4.00600000 2888913517 2888913517 -9.00000000
3.01434207 2.63235903 0.49137720 7 7 4887 4.03200000 2888913519 2888913519 7.00000000
2.98040652 2.60180688 -0.48577121 9 8 4888 3.98600000 2888913521 2888913521 -7.00000000
3.02534437 2.64103627 0.63606256 8 9 4888 4.06600000 2888913524 2888913524 9.00000000
2.99482036 2.61346889 -0.34775141 10 10 4889 3.99000000 2888913526 2888913526 -5.00000000
3.01509190 2.63023233 0.77773744 68 11 4890 4.07600000 2888913528 2888913528 11.00000000
2.98800159 2.60568166 -0.20777375 8 12 4891 3.97000000 2888913530 2888913530 -3.00000000
3.00693297 2.62126708 0.92094964 56 13 4892 4.09400000 2888913533 2888913533 13.00000000
3.00310993 2.61701202 -0.06953039 9 14 4893 3.98400000 2888913535 2888913535 -1.00000000
3.02111053 2.63177085 1.07358146 76 15 4894 4.14800000 2888913537 2888913537 15.00000000
1.73089302 1.50411212 -0.61443639 4 0 4901 2.37400000 2888913558 2888913558 -15.00000000
3.00117850 2.60704589 0.06939077 8 1 4902 3.97600000 2888913560 2888913560 1.00000000
2.03936315 1.77091753 -0.62356430 3 2 4903 2.77200000 2888913563 2888913563 -13.00000000
3.00853276 2.61251330 0.20882046 8 3 4903 3.99000000 2888913565 2888913565 3.00000000
2.46850514 2.14281511 -0.63539398 4 4 4904 3.33000000 2888913567 2888913567 -11.00000000
3.02166939 2.62207127 0.35001746 8 5 4905 4.01600000 2888913570 2888913570 5.00000000
2.98289180 2.58750916 -0.62542498 8 6 4906 3.99800000 2888913572 2888913572 -9.00000000
3.01451397 2.61401796 0.48991477 7 7 4907 4.02000000 2888913574 2888913574 7.00000000
2.99097037 2.59268785 -0.48601493 5 8 4908 3.98800000 2888913577 2888913577 -7.00000000
3.01961827 2.61752105 0.63293386 10 9 4908 4.04600000 2888913579 2888913579 9.00000000
2.99639630 2.59647536 -0.34687987 8 10 4909 3.98000000 2888913581 2888913581 -5.00000000
3.01535106 2.61197901 0.77544779 66 11 4910 4.06400000 2888913583 2888913583 11.00000000
2.99858880 2.59654307 -0.20787841 7 12 4911 3.97200000 2888913586 2888913586 -3.00000000
3.00427747 2.60055184 0.91735041 55 13 4912 4.07800000 2888913588 2888913588 13.00000000
3.00012946 2.59604526 -0.06925115 8 14 4913 3.96800000 2888913590 2888913590 -1.00000000
3.02151227 2.61362600 1.07047558 72 15 4914 4.13600000 2888913593 2888913593 15.00000000
1.73587132 1.49836397 -0.61443639 4 0 4920 2.37400000 2888913613 2888913613 -15.00000000
3.01132131 2.59838581 0.06942567 6 1 4921 3.97800000 2888913616 2888913616 1.00000000
2.05407834 1.77178204 -0.62626374 3 2 4922 2.78400000 2888913618 2888913618 -13.00000000
3.00659299 2.59339046 0.20808776 6 3 4922 3.97600000 2888913620 2888913620 3.00000000
2.47262383 2.13205338 -0.63463074 4 4 4923 3.32600000 2888913623 2888913623 -11.00000000
3.00922012 2.59382510 0.34757710 6 5 4924 3.98800000 2888913625 2888913625 5.00000000
2.98247719 2.56986666 -0.62354779 8 6 4925 3.98600000 2888913627 2888913627 -9.00000000
3.02466989 2.60530257 0.49015850 7 7 4926 4.02200000 2888913629 2888913629 7.00000000
2.97097015 2.55814505 -0.48138392 26 8 4927 3.95000000 2888913632 2888913632 -7.00000000
3.00582790 2.58815932 0.62824082 8 9 4927 4.01600000 2888913634 2888913634 9.00000000
2.97780919 2.56312895 -0.34374225 6 10 4928 3.94400000 2888913636 2888913636 -5.00000000
3.02101970 2.59940434 0.77468455 64 11 4929 4.06000000 2888913639 2888913639 11.00000000
2.97538471 2.55923462 -0.20568031 7 12 4930 3.93000000 2888913641 2888913641 -3.00000000
3.00697422 2.58549285 0.91555077 59 13 4931 4.07000000 2888913643 2888913643 13.00000000
2.97232604 2.55479908 -0.06841344 9 14 4932 3.92000000 2888913646 2888913646 -1.00000000
3.01505780 2.59152842 1.06529915 72 15 4932 4.11600000 2888913648 2888913648 15.00000000
1.72642303 1.47972357 -0.60926002 4 0 4940 2.35400000 2888913669 2888913669 -15.00000000
2.99000216 2.56183672 0.06872758 17 1 4941 3.93800000 2888913671 2888913671 1.00000000
2.06321073 1.76713657 -0.62716353 3 2 4942 2.78800000 2888913673 2888913673 -13.00000000
2.99742436 2.56728888 0.20683169 16 3 4942 3.95200000 2888913676 2888913676 3.00000000
2.49198151 2.13362408 -0.63768369 5 4 4943 3.34200000 2888913678 2888913678 -11.00000000
2.99706459 2.56516767 0.34513673 18 5 4944 3.96000000 2888913680 2888913680 5.00000000
2.98542547 2.55430341 -0.62229627 8 6 4945 3.97800000 2888913682 2888913682 -9.00000000
3.02016830 2.58311629 0.48796484 17 7 4946 4.00400000 2888913685 2888913685 7.00000000
2.97233748 2.54130888 -0.48016521 15 8 4947 3.94000000 2888913687 2888913687 -7.00000000
3.01484394 2.57765126 0.62824082 8 9 4947 4.01600000 2888913689 2888913689 9.00000000
2.97613597 2.54365754 -0.34252205 31 10 4948 3.93000000 2888913692 2888913692 -5.00000000
3.01813388 2.57864094 0.77163160 68 11 4949 4.04400000 2888913694 2888913694 11.00000000
2.98126245 2.54623866 -0.20547096 21 12 4950 3.92600000 2888913696 2888913696 -3.00000000
3.01153469 2.57118464 0.91420108 50 13 4951 4.06400000 2888913699 2888913699 13.00000000
2.97514153 2.53921556 -0.06827381 17 14 4952 3.91200000 2888913701 2888913701 -1.00000000
3.00983953 2.56792164 1.06012285 72 15 4953 4.09600000 2888913703 2888913703 15.00000000
1.74628949 1.48620892 -0.61443639 4 0 4960 2.37400000 2888913724 2888913724 -15.00000000
2.98064971 2.53583479 0.06830872 17 1 4961 3.91400000 2888913726 2888913726 1.00000000
2.06342864 1.75487387 -0.62536395 3 2 4962 2.78000000 2888913729 2888913729 -13.00000000
3.00985694 2.55887294 0.20704104 19 3 4963 3.95600000 2888913731 2888913731 3.00000000
2.49193525 2.11855435 -0.63577557 5 4 4963 3.33200000 2888913733 2888913733 -11.00000000
2.99992752 2.54952931 0.34443951 15 5 4964 3.95200000 2888913735 2888913735 5.00000000
2.97625828 2.52851915 -0.61854190 8 6 4965 3.95400000 2888913738 2888913738 -9.00000000
3.00798368 2.55456805 0.48455250 14 7 4966 3.97600000 2888913740 2888913740 7.00000000
3.02532911 2.56839013 0.62855369 8 9 4967 4.01800000 2888913745 2888913745 9.00000000
3.01513982 2.55792928 0.76857865 66 11 4969 4.02800000 2888913749 2888913749 11.00000000
3.00859976 2.55057549 0.91060185 55 13 4971 4.04800000 2888913754 2888913754 13.00000000
3.01244330 2.55293059 1.05805230 72 15 4972 4.08800000 2888913759 2888913759 15.00000000
1.75146675 1.48010409 -0.61443639 4 0 4980 2.37400000 2888913779 2888913779 -15.00000000
2.07251954 1.75017500 -0.62626374 3 2 4982 2.78400000 2888913784 2888913784 -13.00000000
2.51131678 2.11997414 -0.63882852 5 4 4983 3.34800000 2888913788 2888913788 -11.00000000
2.97902679 2.51301980 -0.61729038 8 6 4985 3.94600000 2888913793 2888913793 -9.00000000
2.97331119 2.50642252 -0.47748408 7 8 4987 3.91800000 2888913798 2888913798 -7.00000000
3.02414846 2.54837418 0.62636358 10 9 4988 4.00400000 2888913800 2888913800 9.00000000
2.96944427 2.50227618 -0.33973309 4 10 4988 3.89800000 2888913802 2888913802 -5.00000000
3.01504111 2.53979993 0.76628894 26 11 4989 4.01600000 2888913805 2888913805 11.00000000
2.96993852 2.50092053 -0.20348220 3 12 4990 3.88800000 2888913807 2888913807 -3.00000000
2.99126601 2.51709580 -0.06823891 4 14 4992 3.91000000 2888913812 2888913812 -1.00000000
3.01734495 2.53814149 1.05649936 20 15 4993 4.08200000 2888913814 2888913814 15.00000000
1.75366282 1.47149777 -0.61340111 4 0 5000 2.37000000 2888913835 2888913835 -15.00000000
2.98295951 2.50211310 0.06795967 6 1 5001 3.89400000 2888913837 2888913837 1.00000000
2.07264304 1.73792148 -0.62446415 3 2 5002 2.77600000 2888913839 2888913839 -13.00000000
2.99244261 2.50828862 0.20463359 4 3 5003 3.91000000 2888913841 2888913841 3.00000000
2.51268315 2.10615039 -0.63730204 5 4 5003 3.34000000 2888913844 2888913844 -11.00000000
3.00238180 2.51572776 0.34269637 6 5 5004 3.93200000 2888913846 2888913846 5.00000000
2.98778057 2.50260568 -0.61729038 8 6 5005 3.94600000 2888913848 2888913848 -9.00000000
3.01052451 2.52076244 0.48211512 4 7 5006 3.95600000 2888913851 2888913851 7.00000000
2.97595334 2.49093175 -0.47650912 3 8 5007 3.91000000 2888913853 2888913853 -7.00000000
3.02349377 2.53072429 0.62448639 13 9 5007 3.99200000 2888913855 2888913855 9.00000000
2.99191308 2.50340271 -0.34130189 8 10 5008 3.91600000 2888913858 2888913858 -5.00000000
3.03894758 2.54185605 0.77010512 10 11 5009 4.03600000 2888913860 2888913860 11.00000000
2.98477936 2.49566293 -0.20390089 8 12 5010 3.89600000 2888913862 2888913862 -3.00000000
3.02184701 2.52576041 0.90925217 10 13 5011 4.04200000 2888913865 2888913865 13.00000000
2.98468852 2.49381733 -0.06788986 6 14 5012 3.89000000 2888913867 2888913867 -1.00000000
3.03167510 2.53307629 1.05856991 12 15 5012 4.09000000 2888913869 2888913869 15.00000000
1.75582016 1.46289420 -0.61236584 4 0 5020 2.36600000 2888913890 2888913890 -15.00000000
3.01318717 2.50960207 0.06844833 3 1 5021 3.92200000 2888913892 2888913892 1.00000000
2.08169222 1.73316979 -0.62536395 3 2 5022 2.78000000 2888913894 2888913894 -13.00000000
2.99964476 2.49655008 0.20452891 4 3 5023 3.90800000 2888913897 2888913897 3.00000000
2.50643873 2.08606362 -0.63386750 5 4 5023 3.32200000 2888913899 2888913899 -11.00000000
3.00808191 2.50268364 0.34234777 1 5 5024 3.92800000 2888913901 2888913901 5.00000000
3.01776075 2.50984502 -0.62167054 8 6 5025 3.97400000 2888913904 2888913904 -9.00000000
3.03456974 2.52292919 0.48455250 4 7 5026 3.97600000 2888913906 2888913906 7.00000000
3.01974344 2.50971127 -0.48211512 1 8 5027 3.95600000 2888913908 2888913908 -7.00000000
3.03426862 2.52088809 0.62479925 11 9 5028 3.99400000 2888913911 2888913911 9.00000000
3.01442599 2.50440264 -0.34287068 2 10 5028 3.93400000 2888913913 2888913913 -5.00000000
3.05384302 2.53624988 0.77163160 8 11 5029 4.04400000 2888913915 2888913915 11.00000000
3.01959634 2.50691724 -0.20568031 1 12 5030 3.93000000 2888913917 2888913917 -3.00000000
3.03814316 2.52141929 0.91150165 9 13 5031 4.05200000 2888913920 2888913920 13.00000000
3.01799965 2.50381255 -0.06844833 1 14 5032 3.92200000 2888913922 2888913922 -1.00000000
3.04093885 2.52194762 1.05856991 8 15 5033 4.09000000 2888913924 2888913924 15.00000000
1.76066172 1.45706367 -0.61236584 4 0 5039 2.36600000 2888913945 2888913945 -15.00000000
3.03844142 2.51361728 0.06883229 1 1 5040 3.94400000 2888913947 2888913947 1.00000000
2.09643865 1.73370862 -0.62806332 3 2 5041 2.79200000 2888913950 2888913950 -13.00000000
3.02176142 2.49804235 0.20547096 1 3 5042 3.92600000 2888913952 2888913952 3.00000000
2.52090836 2.08399487 -0.63577557 5 4 5042 3.33200000 2888913954 2888913954 -11.00000000
3.04554534 2.51680946 0.34565967 1 5 5043 3.96600000 2888913957 2888913957 5.00000000
3.02606702 2.49982405 -0.62167054 8 6 5044 3.97400000 2888913959 2888913959 -9.00000000
3.06281781 2.52928448 0.48772112 5 7 5045 4.00200000 2888913961 2888913961 7.00000000
3.02498746 2.49715614 -0.48162764 24 8 5046 3.95200000 2888913964 2888913964 -7.00000000
3.06197691 2.52769136 0.62886655 8 9 5046 4.02000000 2888913966 2888913966 9.00000000
3.00120020 2.47663903 -0.34043032 14 10 5047 3.90600000 2888913968 2888913968 -5.00000000
3.06678009 2.52985692 0.77277642 8 11 5048 4.05000000 2888913970 2888913970 11.00000000
3.01864743 2.48926592 -0.20505227 12 12 5049 3.91800000 2888913973 2888913973 -3.00000000
