# .PCD v0.7 - Point Cloud Data file format
VERSION 0.7
FIELDS x y z intensity laser_id azimuth distance_m adjustedtime timestamp vertical_angle
SIZE 4 4 4 1 1 2 8 8 4 8
TYPE F F F U U U F U U F
COUNT 1 1 1 1 1 1 1 1 1 1
WIDTH 536
HEIGHT 1
VIEWPOINT 0 0 0 1 0 0 0
POINTS 536
DATA ascii
3.72585082 34.74886322 1.83154917 48 3 612 34.99600000 2888701615 2888701615 3.00000000
0.33991101 3.17015409 -0.61974764 2 4 612 3.24800000 2888701617 2888701617 -11.00000000
2.59371686 24.15033722 2.12503123 22 5 613 24.38200000 2888701620 2888701620 5.00000000
0.43186200 4.01450777 -0.63950408 2 6 614 4.08800000 2888701622 2888701622 -9.00000000
1.97269368 18.30774307 2.26092005 38 7 615 18.55200000 2888701624 2888701624 7.00000000
1.33094931 12.33177471 1.96450400 29 9 616 12.55800000 2888701629 2888701629 9.00000000
1.22188067 11.30272007 -0.99462134 4 10 617 11.41200000 2888701631 2888701631 -5.00000000
1.14487696 10.57314491 2.06722474 50 11 618 10.83400000 2888701633 2888701633 11.00000000
1.76053643 16.23239899 -0.85569286 4 12 619 16.35000000 2888701636 2888701636 -3.00000000
1.11587310 10.27178669 2.38538098 59 13 620 10.60400000 2888701638 2888701638 13.00000000
1.12093282 10.30161572 -0.18087675 6 14 621 10.36400000 2888701640 2888701640 -1.00000000
0.95730960 8.79788303 2.37129998 45 15 621 9.16200000 2888701643 2888701643 15.00000000
0.24615508 2.23321819 -0.60201311 4 0 629 2.32600000 2888701663 2888701663 -15.00000000
1.14720726 10.39127254 0.18248236 3 1 630 10.45600000 2888701666 2888701666 1.00000000
0.29257223 2.64585209 -0.61456627 3 2 631 2.73200000 2888701668 2888701668 -13.00000000
3.72883916 33.66765213 1.77523565 19 3 632 33.92000000 2888701670 2888701670 3.00000000
0.35227156 3.18065619 -0.62203735 2 4 632 3.26000000 2888701673 2888701673 -11.00000000
2.67778158 24.13915634 2.12485695 22 5 633 24.38000000 2888701675 2888701675 5.00000000
0.44412753 3.99726963 -0.63700116 2 6 634 4.07200000 2888701677 2888701677 -9.00000000
2.03614855 18.29679871 2.26043248 40 7 635 18.54800000 2888701680 2888701680 7.00000000
1.37701523 12.33466625 1.96575546 29 9 637 12.56600000 2888701684 2888701684 9.00000000
1.25557983 11.24690342 -0.99008924 4 10 637 11.36000000 2888701686 2888701686 -5.00000000
1.18112266 10.56323051 2.06607985 50 11 638 10.82800000 2888701689 2888701689 11.00000000
1.82385600 16.28570175 -0.85883301 4 12 639 16.41000000 2888701691 2888701691 -3.00000000
1.15172160 10.26782894 2.38538098 57 13 640 10.60400000 2888701693 2888701693 13.00000000
1.15822482 10.30956364 -0.18108617 8 14 641 10.37600000 2888701696 2888701696 -1.00000000
0.98998100 8.79815388 2.37233543 45 15 642 9.16600000 2888701698 2888701698 15.00000000
0.25377735 2.23430920 -0.60253072 4 0 648 2.32800000 2888701719 2888701719 -15.00000000
1.18572807 10.42317486 0.18311065 3 1 649 10.49200000 2888701721 2888701721 1.00000000
0.30178580 2.64873981 -0.61546606 3 2 650 2.73600000 2888701723 2888701723 -13.00000000
3.60722876 31.61118698 1.66742361 5 3 651 31.86000000 2888701726 2888701726 3.00000000
0.36326224 3.18337178 -0.62280059 2 4 651 3.26400000 2888701728 2888701728 -11.00000000
2.76053023 24.15389824 2.12694883 22 5 652 24.40400000 2888701730 2888701730 5.00000000
0.46411991 4.05465174 -0.64638722 2 6 653 4.13200000 2888701733 2888701733 -9.00000000
2.09613347 18.28402901 2.25970125 40 7 654 18.54200000 2888701735 2888701735 7.00000000
1.18382800 10.31032181 -1.27426589 160 8 655 10.45600000 2888701737 2888701737 -7.00000000
1.41688550 12.34009171 1.96731985 29 9 655 12.57600000 2888701739 2888701739 9.00000000
1.28922701 11.21100903 -0.98730028 4 10 656 11.32800000 2888701742 2888701742 -5.00000000
1.21659434 10.56315708 2.06684303 50 11 657 10.83200000 2888701744 2888701744 11.00000000
1.59222567 13.80340290 -0.72820252 4 12 658 13.91400000 2888701746 2888701746 -3.00000000
1.18442273 10.25233841 2.38268161 59 13 659 10.59200000 2888701749 2888701749 13.00000000
1.19585383 10.33546257 -0.18160973 8 14 660 10.40600000 2888701751 2888701751 -1.00000000
1.01850450 8.80267715 2.37440586 45 15 660 9.17400000 2888701753 2888701753 15.00000000
0.26202446 2.23724723 -0.60356599 4 0 668 2.33200000 2888701774 2888701774 -15.00000000
1.22396815 10.43486118 0.18338989 3 1 669 10.50800000 2888701776 2888701776 1.00000000
0.31148449 2.65154123 -0.61636591 3 2 670 2.74000000 2888701779 2888701779 -13.00000000
3.73575330 31.75312233 1.67558801 39 3 671 32.01600000 2888701781 2888701781 3.00000000
0.37299570 3.17038560 -0.62051088 2 4 671 3.25200000 2888701783 2888701783 -11.00000000
2.40208530 20.38656044 1.79593122 12 5 672 20.60600000 2888701786 2888701786 5.00000000
0.47317755 4.00984812 -0.63950408 2 6 673 4.08800000 2888701788 2888701788 -9.00000000
2.16017675 18.27857208 2.25994515 40 7 674 18.54400000 2888701790 2888701790 7.00000000
1.21957719 10.30415535 -1.27402210 180 8 675 10.45400000 2888701792 2888701792 -7.00000000
1.46163964 12.33089256 1.96669412 29 9 676 12.57200000 2888701795 2888701795 9.00000000
1.33116722 11.23018265 -0.98939198 4 10 676 11.35200000 2888701797 2888701797 -5.00000000
1.25392210 10.56274509 2.06760621 50 11 677 10.83600000 2888701799 2888701799 11.00000000
1.62860918 13.69859600 -0.72296888 4 12 678 13.81400000 2888701802 2888701802 -3.00000000
1.21928120 10.24040127 2.38088202 57 13 679 10.58400000 2888701804 2888701804 13.00000000
1.23074019 10.32129765 -0.18143521 8 14 680 10.39600000 2888701806 2888701806 -1.00000000
1.05213547 8.81039429 2.37751174 45 15 681 9.18600000 2888701809 2888701809 15.00000000
0.26983231 2.23631907 -0.60356599 4 0 688 2.33200000 2888701829 2888701829 -15.00000000
1.26614261 10.47817135 0.18422760 3 1 689 10.55600000 2888701832 2888701832 1.00000000
0.32026997 2.64656854 -0.61546606 3 2 690 2.73600000 2888701834 2888701834 -13.00000000
3.84320545 31.71213150 1.67412257 39 3 691 31.98800000 2888701836 2888701836 3.00000000
0.38594973 3.18465614 -0.62356383 2 4 691 3.26800000 2888701839 2888701839 -11.00000000
2.47323298 20.37805176 1.79593122 18 5 692 20.60600000 2888701841 2888701841 5.00000000
0.49098513 4.03954697 -0.64450997 2 6 693 4.12000000 2888701843 2888701843 -9.00000000
2.22420764 18.27289200 2.26018882 40 7 694 18.54600000 2888701845 2888701845 7.00000000
1.25818014 10.32151127 -1.27670324 195 8 695 10.47600000 2888701848 2888701848 -7.00000000
1.50204420 12.32205582 1.96606839 22 9 695 12.56800000 2888701850 2888701850 9.00000000
0.98551947 8.07300186 -0.71153951 4 10 696 8.16400000 2888701852 2888701852 -5.00000000
1.29102361 10.56025219 2.06798792 53 11 697 10.83800000 2888701855 2888701855 11.00000000
1.68855202 13.79195118 -0.72820252 4 12 698 13.91400000 2888701857 2888701857 -3.00000000
1.25501943 10.23608208 2.38088202 59 13 699 10.58400000 2888701859 2888701859 13.00000000
1.26749182 10.32289219 -0.18153994 8 14 700 10.40200000 2888701862 2888701862 -1.00000000
1.08016884 8.79726982 2.37492347 45 15 700 9.17600000 2888701864 2888701864 15.00000000
0.27763689 2.23536348 -0.60356599 4 0 708 2.33200000 2888701885 2888701885 -15.00000000
1.30320418 10.47765732 0.18429741 3 1 709 10.56000000 2888701887 2888701887 1.00000000
0.33095148 2.65703726 -0.61816549 3 2 710 2.74800000 2888701889 2888701889 -13.00000000
3.95115876 31.67672157 1.67297113 39 3 711 31.96600000 2888701892 2888701892 3.00000000
0.39560589 3.17160058 -0.62127411 2 4 711 3.25600000 2888701894 2888701894 -11.00000000
2.54385662 20.36533928 1.79558265 18 5 712 20.60200000 2888701896 2888701896 5.00000000
0.50066942 4.00252676 -0.63887835 2 6 713 4.08400000 2888701898 2888701898 -9.00000000
2.28699136 18.25713730 2.25921392 42 7 714 18.53800000 2888701901 2888701901 7.00000000
1.29642498 10.33478260 -1.27889693 189 8 715 10.49400000 2888701903 2888701903 -7.00000000
1.54578471 12.32261753 1.96700692 22 9 715 12.57400000 2888701905 2888701905 9.00000000
1.00972021 8.03788280 -0.70875049 4 10 716 8.13200000 2888701908 2888701908 -5.00000000
1.32836795 10.55957699 2.06875110 50 11 717 10.84200000 2888701910 2888701910 11.00000000
1.38819933 11.01966286 -0.58208048 4 12 718 11.12200000 2888701912 2888701912 -3.00000000
1.29074240 10.23163891 2.38088202 60 13 719 10.58400000 2888701915 2888701915 13.00000000
1.30527210 10.33229256 -0.18178427 8 14 720 10.41600000 2888701917 2888701917 -1.00000000
1.10869133 8.77619553 2.37026477 42 15 720 9.15800000 2888701919 2888701919 15.00000000
0.28421405 2.22479939 -0.60097784 3 0 728 2.32200000 2888701940 2888701940 -15.00000000
1.34027755 10.47701073 0.18436722 3 1 729 10.56400000 2888701942 2888701942 1.00000000
0.33923379 2.64813399 -0.61636591 3 2 730 2.74000000 2888701945 2888701945 -13.00000000
4.06196117 31.66471672 1.67307580 39 3 731 31.96800000 2888701947 2888701947 3.00000000
0.40667444 3.17020035 -0.62127411 2 4 731 3.25600000 2888701949 2888701949 -11.00000000
2.61696029 20.37214470 1.79697716 18 5 732 20.61800000 2888701951 2888701951 5.00000000
0.51665401 4.01642847 -0.64138132 2 6 733 4.10000000 2888701954 2888701954 -9.00000000
2.35146761 18.25494957 2.25994515 40 7 734 18.54400000 2888701956 2888701956 7.00000000
1.33553970 10.35381985 -1.28182173 172 8 735 10.51800000 2888701958 2888701958 -7.00000000
1.59296346 12.33254242 1.96950996 19 9 736 12.59000000 2888701961 2888701961 9.00000000
1.41653514 10.96665478 -0.96742874 4 10 736 11.10000000 2888701963 2888701963 -5.00000000
1.36421227 10.54708767 2.06722474 50 11 737 10.83400000 2888701965 2888701965 11.00000000
1.42203891 10.97909737 -0.58019644 4 12 738 11.08600000 2888701968 2888701968 -3.00000000
1.32745218 10.23480129 2.38268161 59 13 739 10.59200000 2888701970 2888701970 13.00000000
1.34339106 10.34353828 -0.18206351 8 14 740 10.43200000 2888701972 2888701972 -1.00000000
1.14155853 8.78951454 2.37492347 45 15 740 9.17600000 2888701974 2888701974 15.00000000
0.29248130 2.22762442 -0.60201311 3 0 748 2.32600000 2888701995 2888701995 -15.00000000
1.38466096 10.53174782 0.18541436 3 1 749 10.62400000 2888701998 2888701998 1.00000000
0.34745798 2.63920546 -0.61456627 3 2 750 2.73200000 2888702000 2888702000 -13.00000000
4.16202545 31.57114029 1.66888893 28 3 751 31.88800000 2888702002 2888702002 3.00000000
0.41876441 3.17654705 -0.62280059 4 4 751 3.26400000 2888702004 2888702004 -11.00000000
2.68936014 20.37276268 1.79784870 24 5 752 20.62800000 2888702007 2888702007 5.00000000
0.53118855 4.01851749 -0.64200705 2 6 753 4.10400000 2888702009 2888702009 -9.00000000
2.41387248 18.23678970 2.25872636 40 7 754 18.53400000 2888702011 2888702011 7.00000000
1.36906481 10.32941628 -1.27938437 100 8 755 10.49800000 2888702014 2888702014 -7.00000000
1.63678193 12.33278084 1.97044849 16 9 756 12.59600000 2888702016 2888702016 9.00000000
1.08782887 8.19654369 -0.72339267 4 10 756 8.30000000 2888702018 2888702018 -5.00000000
1.40153754 10.54615402 2.06798792 53 11 757 10.83800000 2888702021 2888702021 11.00000000
1.45613909 10.94238949 -0.57852167 4 12 758 11.05400000 2888702023 2888702023 -3.00000000
1.36265552 10.22624207 2.38178182 57 13 759 10.58800000 2888702025 2888702025 13.00000000
1.38133979 10.35266018 -0.18230784 6 14 760 10.44600000 2888702027 2888702027 -1.00000000
1.17351019 8.78335667 2.37440586 42 15 761 9.17400000 2888702030 2888702030 15.00000000
0.30154625 2.23616266 -0.60460126 4 0 768 2.33600000 2888702051 2888702051 -15.00000000
0.35771284 2.64570117 -0.61636591 3 2 770 2.74000000 2888702055 2888702055 -13.00000000
3.67092276 27.11508751 1.43400526 13 3 771 27.40000000 2888702057 2888702057 3.00000000
0.42932329 3.17117500 -0.62203735 2 4 771 3.26000000 2888702060 2888702060 -11.00000000
2.76393723 20.38891792 1.80011475 24 5 772 20.65400000 2888702062 2888702062 5.00000000
0.54521257 4.01663876 -0.64200705 2 6 773 4.10400000 2888702064 2888702064 -9.00000000
2.47698140 18.22431946 2.25823903 42 7 774 18.53000000 2888702067 2888702067 7.00000000
1.68008816 12.32894993 1.97076142 16 9 776 12.59800000 2888702071 2888702071 9.00000000
1.43940365 10.54897785 2.06951427 53 11 777 10.84600000 2888702076 2888702076 11.00000000
1.49648917 10.95307064 -0.57935905 4 12 778 11.07000000 2888702078 2888702078 -3.00000000
1.39675856 10.20983887 2.37908244 59 13 779 10.57600000 2888702080 2888702080 13.00000000
1.42099702 10.37353134 -0.18276159 4 14 780 10.47200000 2888702083 2888702083 -1.00000000
1.20289266 8.78133011 2.37492347 40 15 780 9.17600000 2888702085 2888702085 15.00000000
0.30882037 2.23126912 -0.60356599 4 0 788 2.33200000 2888702106 2888702106 -15.00000000
3.72114253 26.85125160 0.47316965 5 1 789 27.11200000 2888702108 2888702108 1.00000000
0.36855292 2.65601778 -0.61906528 3 2 790 2.75200000 2888702110 2888702110 -13.00000000
3.72789407 26.83108711 1.41966510 13 3 791 27.12600000 2888702113 2888702113 3.00000000
0.44039014 3.16965699 -0.62203735 4 4 791 3.26000000 2888702115 2888702115 -11.00000000
2.83371830 20.36927795 1.79924321 24 5 792 20.64400000 2888702117 2888702117 5.00000000
0.55922991 4.01471090 -0.64200705 2 6 793 4.10400000 2888702120 2888702120 -9.00000000
2.54085541 18.21752739 2.25848269 40 7 794 18.53200000 2888702122 2888702122 7.00000000
1.72147262 12.31127262 1.96888423 13 9 796 12.58600000 2888702127 2888702127 9.00000000
1.12736630 8.06246567 -0.71223670 4 10 796 8.17200000 2888702129 2888702129 -5.00000000
1.47785091 10.55555534 2.07180405 53 11 797 10.85800000 2888702131 2888702131 11.00000000
1.53748620 10.96755981 -0.58040577 4 12 798 11.09000000 2888702133 2888702133 -3.00000000
1.43184733 10.20104122 2.37818265 62 13 799 10.57200000 2888702136 2888702136 13.00000000
1.46526957 10.42593479 -0.18377385 2 14 800 10.53000000 2888702138 2888702138 -1.00000000
1.23326898 8.77516460 2.37440586 42 15 800 9.17400000 2888702140 2888702140 15.00000000
0.31470633 2.21678877 -0.59994256 4 0 808 2.31800000 2888702162 2888702162 -15.00000000
3.81231546 26.82028198 0.47285551 10 1 809 27.09400000 2888702164 2888702164 1.00000000
0.37782192 2.65471530 -0.61906528 3 2 810 2.75200000 2888702167 2888702167 -13.00000000
3.81516027 26.80671310 1.41903710 13 3 810 27.11400000 2888702169 2888702169 3.00000000
0.45366734 3.18364954 -0.62509024 4 4 811 3.27600000 2888702171 2888702171 -11.00000000
2.90536594 20.36320686 1.79959178 24 5 812 20.64800000 2888702174 2888702174 5.00000000
0.57268178 4.00882339 -0.64138132 2 6 813 4.10000000 2888702176 2888702176 -9.00000000
2.60330653 18.20068741 2.25750780 42 7 814 18.52400000 2888702178 2888702178 7.00000000
0.76601678 5.34884834 -0.66345668 2 8 815 5.44400000 2888702180 2888702180 -7.00000000
1.76508927 12.32505035 1.97201288 13 9 815 12.60600000 2888702183 2888702183 9.00000000
1.15437150 8.05059242 -0.71153951 4 10 816 8.16400000 2888702185 2888702185 -5.00000000
1.51412964 10.54644585 2.07104087 53 11 817 10.85400000 2888702187 2888702187 11.00000000
2.35611033 16.39080048 -0.86783481 4 12 818 16.58200000 2888702190 2888702190 -3.00000000
1.46744692 10.19598103 2.37818265 57 13 819 10.57200000 2888702192 2888702192 13.00000000
3.85723972 26.76738930 -0.47205269 6 14 820 27.04800000 2888702194 2888702194 -1.00000000
1.26223934 8.75933361 2.37129998 45 15 820 9.16200000 2888702197 2888702197 15.00000000
0.32355529 2.22332358 -0.60201311 4 0 828 2.32600000 2888702217 2888702217 -15.00000000
3.90591264 26.80681038 0.47285551 57 1 829 27.09400000 2888702220 2888702220 1.00000000
0.38708630 2.65338016 -0.61906528 3 2 830 2.75200000 2888702222 2888702222 -13.00000000
3.91656137 26.81428909 1.42018855 13 3 831 27.13600000 2888702224 2888702224 3.00000000
0.46307510 3.17039061 -0.62280059 4 4 831 3.26400000 2888702227 2888702227 -11.00000000
2.97844720 20.36674118 1.80081201 24 5 832 20.66200000 2888702229 2888702229 5.00000000
0.58896112 4.02243614 -0.64388424 2 6 833 4.11600000 2888702231 2888702231 -9.00000000
2.66509533 18.17970467 2.25604534 42 7 834 18.51200000 2888702233 2888702233 7.00000000
0.78583616 5.35399818 -0.66443163 2 8 835 5.45200000 2888702236 2888702236 -7.00000000
1.81139982 12.32631588 1.97326434 13 9 836 12.61400000 2888702238 2888702238 9.00000000
1.17899013 8.02285862 -0.70944774 4 10 836 8.14000000 2888702240 2888702240 -5.00000000
1.54921973 10.52944183 2.06875110 56 11 837 10.84200000 2888702243 2888702243 11.00000000
2.41272855 16.37852478 -0.86762547 4 12 838 16.57800000 2888702245 2888702245 -3.00000000
1.50359726 10.19465256 2.37908244 57 13 839 10.57600000 2888702247 2888702247 13.00000000
3.95415735 26.77750206 -0.47247154 9 14 840 27.07200000 2888702250 2888702250 -1.00000000
1.29490054 8.75847054 2.37233543 45 15 841 9.16600000 2888702252 2888702252 15.00000000
0.33177996 2.22797084 -0.60356599 4 0 847 2.33200000 2888702273 2888702273 -15.00000000
3.99685001 26.80755615 0.47309983 42 1 848 27.10800000 2888702275 2888702275 1.00000000
0.39358145 2.63666296 -0.61546606 3 2 849 2.73600000 2888702277 2888702277 -13.00000000
4.00137138 26.80580330 1.42039788 13 3 849 27.14000000 2888702280 2888702280 3.00000000
0.47474670 3.17660427 -0.62432700 4 4 850 3.27200000 2888702282 2888702282 -11.00000000
3.04744363 20.36660576 1.80168355 24 5 851 20.67200000 2888702284 2888702284 5.00000000
0.60346740 4.02827549 -0.64513576 2 6 852 4.12400000 2888702286 2888702286 -9.00000000
2.72448349 18.16487694 2.25531411 40 7 853 18.50600000 2888702289 2888702289 7.00000000
0.80771333 5.37884617 -0.66784400 2 8 854 5.48000000 2888702291 2888702291 -7.00000000
1.85402751 12.33196163 1.97514153 13 9 855 12.62600000 2888702293 2888702293 9.00000000
1.20736575 8.03072643 -0.71049362 4 10 855 8.15200000 2888702296 2888702296 -5.00000000
1.58588147 10.53589535 2.07104087 53 11 856 10.85400000 2888702298 2888702298 11.00000000
2.47000456 16.39018250 -0.86867219 4 12 857 16.59800000 2888702300 2888702300 -3.00000000
1.53623271 10.18190289 2.37728286 59 13 858 10.56800000 2888702303 2888702303 13.00000000
4.04591990 26.78401375 -0.47282061 9 14 859 27.09200000 2888702305 2888702305 -1.00000000
1.32240963 8.75435925 2.37233543 45 15 859 9.16600000 2888702307 2888702307 15.00000000
0.33984622 2.22870898 -0.60408366 3 0 867 2.33400000 2888702328 2888702328 -15.00000000
4.09191036 26.80332375 0.47327435 21 1 868 27.11800000 2888702330 2888702330 1.00000000
0.40337160 2.63912559 -0.61636591 3 2 869 2.74000000 2888702332 2888702332 -13.00000000
4.09491682 26.79167366 1.42039788 13 3 869 27.14000000 2888702335 2888702335 3.00000000
0.48583224 3.17492795 -0.62432700 2 4 870 3.27200000 2888702337 2888702337 -11.00000000
3.12093163 20.37159920 1.80307806 24 5 871 20.68800000 2888702339 2888702339 5.00000000
0.61572814 4.01442909 -0.64325851 2 6 872 4.11200000 2888702342 2888702342 -9.00000000
2.79299617 18.18861198 2.25945759 23 7 873 18.54000000 2888702344 2888702344 7.00000000
0.82648408 5.37599373 -0.66784400 2 8 874 5.48000000 2888702346 2888702346 -7.00000000
1.89676225 12.32346249 1.97482872 13 9 875 12.62400000 2888702349 2888702349 9.00000000
1.23236001 8.00677109 -0.70875049 4 10 875 8.13200000 2888702351 2888702351 -5.00000000
1.62324691 10.53417587 2.07180405 56 11 876 10.85800000 2888702353 2888702353 11.00000000
2.52902913 16.39330482 -0.86930025 4 12 877 16.61000000 2888702356 2888702356 -3.00000000
1.56879032 10.15721893 2.37278366 60 13 878 10.54800000 2888702358 2888702358 13.00000000
4.14061117 26.77763367 -0.47296020 9 14 879 27.10000000 2888702360 2888702360 -1.00000000
1.35473120 8.76114559 2.37544131 45 15 879 9.17800000 2888702362 2888702362 15.00000000
0.34693748 2.22566080 -0.60356599 4 0 886 2.33200000 2888702383 2888702383 -15.00000000
4.18323755 26.80541420 0.47355360 57 1 887 27.13400000 2888702385 2888702385 1.00000000
0.41332430 2.64547515 -0.61816549 3 2 888 2.74800000 2888702388 2888702388 -13.00000000
4.19118977 26.79497528 1.42133987 13 3 889 27.15800000 2888702390 2888702390 3.00000000
0.49514440 3.16554070 -0.62280059 2 4 889 3.26400000 2888702392 2888702392 -11.00000000
3.02232599 19.30016899 1.70912409 5 5 890 19.61000000 2888702395 2888702395 5.00000000
0.63209665 4.03188086 -0.64638722 2 6 891 4.13200000 2888702397 2888702397 -9.00000000
2.85329628 18.17925072 2.25945759 21 7 892 18.54000000 2888702399 2888702399 7.00000000
0.85046983 5.41244411 -0.67271876 2 8 893 5.52000000 2888702402 2888702402 -7.00000000
2.24915385 14.31375790 2.29489350 15 9 893 14.67000000 2888702404 2888702404 9.00000000
1.25828540 7.99870396 -0.70840186 4 10 894 8.12800000 2888702406 2888702406 -5.00000000
1.66000319 10.54037094 2.07409382 56 11 895 10.87000000 2888702409 2888702409 11.00000000
2.59893060 16.48347282 -0.87453383 4 12 896 16.71000000 2888702411 2888702411 -3.00000000
1.60367954 10.15966034 2.37458324 59 13 897 10.55600000 2888702413 2888702413 13.00000000
4.23063469 26.77165604 -0.47309983 9 14 898 27.10800000 2888702415 2888702415 -1.00000000
1.38349378 8.74491405 2.37233543 45 15 899 9.16600000 2888702418 2888702418 15.00000000
0.35440016 2.22252846 -0.60304838 4 0 906 2.33000000 2888702438 2888702438 -15.00000000
4.27930212 26.80644608 0.47383285 10 1 907 27.15000000 2888702441 2888702441 1.00000000
0.42501652 2.65941072 -0.62176472 3 2 908 2.76400000 2888702443 2888702443 -13.00000000
4.28191328 26.79276276 1.42196798 4 3 908 27.17000000 2888702445 2888702445 3.00000000
0.50805217 3.17542458 -0.62509024 2 4 909 3.27600000 2888702448 2888702448 -11.00000000
3.09471941 19.32097816 1.71191311 5 5 910 19.64200000 2888702450 2888702450 5.00000000
0.64178801 4.00234318 -0.64200705 2 6 911 4.10400000 2888702452 2888702452 -9.00000000
2.91358995 18.14958000 2.25702024 25 7 912 18.52000000 2888702455 2888702455 7.00000000
0.86305791 5.37024355 -0.66784400 2 8 913 5.48000000 2888702457 2888702457 -7.00000000
2.30411148 14.32102108 2.29739666 15 9 914 14.68600000 2888702459 2888702459 9.00000000
1.28746438 8.00213146 -0.70909911 4 10 914 8.13600000 2888702462 2888702462 -5.00000000
1.69678581 10.53451252 2.07409382 56 11 915 10.87000000 2888702464 2888702464 11.00000000
2.66153979 16.50584793 -0.87620860 4 12 916 16.74200000 2888702466 2888702466 -3.00000000
1.63913357 10.15400028 2.37458324 59 13 917 10.55600000 2888702468 2888702468 13.00000000
4.32533550 26.76462173 -0.47323945 9 14 918 27.11600000 2888702471 2888702471 -1.00000000
1.41246819 8.73049641 2.36974716 45 15 919 9.15600000 2888702473 2888702473 15.00000000
0.36184520 2.21937132 -0.60253072 4 0 926 2.32800000 2888702494 2888702494 -15.00000000
4.37349224 26.79529190 0.47390264 15 1 927 27.15400000 2888702496 2888702496 1.00000000
0.43115449 2.63867855 -0.61726570 3 2 928 2.74400000 2888702498 2888702498 -13.00000000
3.14056969 19.22038269 1.02065587 9 3 928 19.50200000 2888702501 2888702501 3.00000000
0.51913339 3.17363167 -0.62509024 2 4 929 3.27600000 2888702503 2888702503 -11.00000000
3.17373466 19.38084221 1.71818829 5 5 930 19.71400000 2888702505 2888702505 5.00000000
0.65767229 4.01177454 -0.64388424 2 6 931 4.11600000 2888702508 2888702508 -9.00000000
2.97885489 18.15105247 2.25848269 19 7 932 18.53200000 2888702510 2888702510 7.00000000
0.88179827 5.36719799 -0.66784400 2 8 933 5.48000000 2888702512 2888702512 -7.00000000
2.35158896 14.31330109 2.29739666 15 9 933 14.68600000 2888702515 2888702515 9.00000000
1.32056272 8.02904415 -0.71188813 4 10 934 8.16800000 2888702517 2888702517 -5.00000000
1.73163402 10.51690197 2.07180405 53 11 935 10.85800000 2888702519 2888702519 11.00000000
2.72303772 16.52010536 -0.87746465 4 12 936 16.76600000 2888702521 2888702521 -3.00000000
1.67456770 10.14821720 2.37458324 56 13 937 10.55600000 2888702524 2888702524 13.00000000
4.42297220 26.77500916 -0.47369322 3 14 938 27.14200000 2888702526 2888702526 -1.00000000
1.44482589 8.73694897 2.37285304 45 15 939 9.16800000 2888702528 2888702528 15.00000000
0.37054259 2.22381139 -0.60408366 3 0 946 2.33400000 2888702549 2888702549 -15.00000000
7.20767069 43.21031570 0.76465976 86 1 947 43.81400000 2888702551 2888702551 1.00000000
0.43907869 2.62946892 -0.61546606 3 2 948 2.73600000 2888702554 2888702554 -13.00000000
3.21520805 19.25461197 1.02306330 3 3 948 19.54800000 2888702556 2888702556 3.00000000
0.52826613 3.16018200 -0.62280059 2 4 949 3.26400000 2888702558 2888702558 -11.00000000
3.25912428 19.47575951 1.72760117 5 5 950 19.82200000 2888702561 2888702561 5.00000000
0.67101926 4.00555801 -0.64325851 2 6 951 4.11200000 2888702563 2888702563 -9.00000000
3.04383755 18.15033150 2.25970125 8 7 952 18.54200000 2888702565 2888702565 7.00000000
0.90052789 5.36408758 -0.66784400 2 8 953 5.48000000 2888702568 2888702568 -7.00000000
2.07023454 12.33156586 1.98046029 13 9 953 12.66000000 2888702570 2888702570 9.00000000
1.35848761 8.08333111 -0.71711743 4 10 954 8.22800000 2888702572 2888702572 -5.00000000
1.77028859 10.52241039 2.07409382 56 11 955 10.87000000 2888702574 2888702574 11.00000000
2.78002357 16.50656128 -0.87725532 4 12 956 16.76200000 2888702577 2888702577 -3.00000000
1.70803750 10.13078022 2.37188387 57 13 957 10.54400000 2888702579 2888702579 13.00000000
7.28961658 43.19048309 -0.76455504 6 14 958 43.80800000 2888702581 2888702581 -1.00000000
1.47563648 8.73375702 2.37337065 45 15 959 9.17000000 2888702584 2888702584 15.00000000
0.38018182 2.23590207 -0.60770714 4 0 965 2.34800000 2888702604 2888702604 -15.00000000
7.35494804 43.20983124 0.76507860 100 1 966 43.83800000 2888702607 2888702607 1.00000000
0.45106930 2.64720917 -0.61996508 3 2 967 2.75600000 2888702609 2888702609 -13.00000000
3.29615068 19.34425735 1.02840149 9 3 967 19.65000000 2888702611 2888702611 3.00000000
0.54072344 3.17002463 -0.62509024 2 4 968 3.27600000 2888702614 2888702614 -11.00000000
3.32704377 19.48448372 1.72934425 5 5 969 19.84200000 2888702616 2888702616 5.00000000
0.68496412 4.00720501 -0.64388424 2 6 970 4.11600000 2888702618 2888702618 -9.00000000
2.56396341 14.98405647 1.86655092 8 7 971 15.31600000 2888702620 2888702620 7.00000000
0.91831094 5.36107159 -0.66784400 2 8 972 5.48000000 2888702623 2888702623 -7.00000000
2.44929481 14.29891014 2.29770947 41 9 972 14.68800000 2888702625 2888702625 9.00000000
1.38057125 8.05128956 -0.71467710 4 10 973 8.20000000 2888702627 2888702627 -5.00000000
1.80650103 10.52422142 2.07562017 53 11 974 10.87800000 2888702630 2888702630 11.00000000
2.83136368 16.47756577 -0.87620860 4 12 975 16.74200000 2888702632 2888702632 -3.00000000
1.73964083 10.11353779 2.36918449 60 13 976 10.53200000 2888702634 2888702634 13.00000000
7.43721294 43.19169235 -0.76500881 12 14 977 43.83400000 2888702637 2888702637 -1.00000000
1.50372279 8.73288536 2.37440586 45 15 977 9.17400000 2888702639 2888702639 15.00000000
0.38600138 2.22314095 -0.60460126 4 0 985 2.33600000 2888702660 2888702660 -15.00000000
7.51086998 43.21344757 0.76560217 100 1 986 43.86800000 2888702662 2888702662 1.00000000
0.46164319 2.65329790 -0.62176472 3 2 987 2.76400000 2888702664 2888702664 -13.00000000
3.37803364 19.41527748 1.03279781 9 3 987 19.73400000 2888702667 2888702667 3.00000000
0.54976439 3.15651298 -0.62280059 2 4 988 3.26400000 2888702669 2888702669 -11.00000000
3.55347896 20.38151932 1.81005049 18 5 989 20.76800000 2888702671 2888702671 5.00000000
0.70166469 4.02035761 -0.64638722 2 6 990 4.13200000 2888702673 2888702673 -9.00000000
2.61727667 14.98088169 1.86728203 14 7 991 15.32200000 2888702676 2888702676 7.00000000
3.31649995 18.96360207 -2.36377788 3 8 992 19.39600000 2888702678 2888702678 -7.00000000
2.49646997 14.27470684 2.29520655 45 9 992 14.67200000 2888702680 2888702680 9.00000000
1.40042126 7.99932003 -0.71049362 4 10 993 8.15200000 2888702683 2888702683 -5.00000000
1.84525979 10.52945423 2.07790995 56 11 994 10.89000000 2888702685 2888702685 11.00000000
2.89576602 16.50692749 -0.87830204 4 12 995 16.78200000 2888702687 2888702687 -3.00000000
1.77560723 10.11124229 2.37008429 59 13 996 10.53600000 2888702690 2888702690 13.00000000
3.39357281 19.30500984 -0.34213698 2 14 997 19.60400000 2888702692 2888702692 -1.00000000
1.53438103 8.71970463 2.37233543 42 15 998 9.16600000 2888702694 2888702694 15.00000000
0.39347211 2.21790695 -0.60356599 4 0 1006 2.33200000 2888702715 2888702715 -15.00000000
7.67060375 43.19350433 0.76574177 32 1 1007 43.87600000 2888702717 2888702717 1.00000000
0.47000059 2.64391351 -0.61996508 3 2 1008 2.75600000 2888702720 2888702720 -13.00000000
3.45815659 19.43362427 1.03447247 9 3 1009 19.76600000 2888702722 2888702722 3.00000000
0.56201780 3.15834260 -0.62356383 2 4 1009 3.26800000 2888702724 2888702724 -11.00000000
3.63130188 20.38601112 1.81161928 18 5 1010 20.78600000 2888702726 2888702726 5.00000000
0.71154076 3.99053288 -0.64200705 2 6 1011 4.10400000 2888702729 2888702729 -9.00000000
2.67530608 14.98877621 1.86947572 17 7 1012 15.34000000 2888702731 2888702731 7.00000000
3.37760329 18.90441895 -2.35792804 3 8 1013 19.34800000 2888702733 2888702733 -7.00000000
2.54842520 14.26351643 2.29489350 45 9 1013 14.67000000 2888702736 2888702736 9.00000000
1.42552161 7.97059822 -0.70840186 4 10 1014 8.12800000 2888702738 2888702738 -5.00000000
1.88453162 10.52648544 2.07867312 53 11 1015 10.89400000 2888702740 2888702740 11.00000000
2.96329379 16.53552246 -0.88039547 5 12 1016 16.82200000 2888702743 2888702743 -3.00000000
1.81265485 10.10466576 2.37008429 56 13 1017 10.53600000 2888702745 2888702745 13.00000000
3.40387011 18.95587730 -0.33616826 2 14 1018 19.26200000 2888702747 2888702747 -1.00000000
1.56412625 8.71049309 2.37129998 42 15 1018 9.16200000 2888702750 2888702750 15.00000000
0.40121165 2.21652007 -0.60356599 4 0 1026 2.33200000 2888702770 2888702770 -15.00000000
3.42900705 18.92492867 0.33571449 4 1 1027 19.23600000 2888702773 2888702773 1.00000000
0.47714010 2.63075209 -0.61726570 3 2 1028 2.74400000 2888702775 2888702775 -13.00000000
3.44783854 18.99106979 1.01154935 25 3 1029 19.32800000 2888702777 2888702777 3.00000000
0.57374042 3.16022491 -0.62432700 2 4 1029 3.27200000 2888702779 2888702779 -11.00000000
3.45663190 19.02061653 1.69134438 23 5 1030 19.40600000 2888702782 2888702782 5.00000000
0.72900140 4.00745964 -0.64513576 2 6 1031 4.12400000 2888702784 2888702784 -9.00000000
2.72761035 14.97934628 1.86947572 17 7 1032 15.34000000 2888702786 2888702786 7.00000000
0.97960603 5.37442636 -0.67076886 2 8 1033 5.50400000 2888702789 2888702789 -7.00000000
2.59997749 14.25019360 2.29426789 41 9 1034 14.66600000 2888702791 2888702791 9.00000000
1.46406388 8.02437496 -0.71363121 4 10 1034 8.18800000 2888702793 2888702793 -5.00000000
1.92055905 10.51598072 2.07790995 56 11 1035 10.89000000 2888702796 2888702796 11.00000000
3.01776290 16.50739479 -0.87945342 5 12 1036 16.80400000 2888702798 2888702798 -3.00000000
1.84791565 10.09827709 2.37008429 59 13 1037 10.53600000 2888702800 2888702800 13.00000000
3.42317915 18.68817520 -0.33163062 13 14 1038 19.00200000 2888702803 2888702803 -1.00000000
1.59464777 8.69710064 2.36922956 40 15 1039 9.15400000 2888702805 2888702805 15.00000000
0.41034919 2.22270513 -0.60563654 4 0 1046 2.34000000 2888702826 2888702826 -15.00000000
3.45616412 18.70243835 0.33197966 12 1 1047 19.02200000 2888702828 2888702828 1.00000000
0.48702917 2.63290286 -0.61816549 3 2 1048 2.74800000 2888702830 2888702830 -13.00000000
3.47083688 18.74521828 0.99909341 12 3 1049 19.09000000 2888702832 2888702832 3.00000000
0.58905745 3.18136835 -0.62890643 2 4 1049 3.29600000 2888702835 2888702835 -11.00000000
3.47471499 18.74788475 1.66816092 16 5 1050 19.14000000 2888702837 2888702837 5.00000000
0.74226499 4.00100613 -0.64450997 2 6 1051 4.12000000 2888702839 2888702839 -9.00000000
2.77915645 14.96582985 1.86898828 17 7 1052 15.33600000 2888702842 2888702842 7.00000000
0.98675150 5.30852079 -0.66296923 2 8 1053 5.44000000 2888702844 2888702844 -7.00000000
2.64577436 14.23372459 2.29301643 45 9 1053 14.65800000 2888702846 2888702846 9.00000000
1.48623407 7.98787498 -0.71084225 4 10 1054 8.15600000 2888702849 2888702849 -5.00000000
1.95725501 10.50921249 2.07790995 56 11 1055 10.89000000 2888702851 2888702851 11.00000000
3.08305264 16.53799248 -0.88165152 5 12 1056 16.84600000 2888702853 2888702853 -3.00000000
1.88100910 10.08027172 2.36738491 59 13 1057 10.52400000 2888702856 2888702856 13.00000000
3.49279809 18.69969940 -0.33204949 10 14 1058 19.02600000 2888702858 2888702858 -1.00000000
1.62667191 8.70885658 2.37388825 45 15 1058 9.17200000 2888702860 2888702860 15.00000000
0.41917744 2.22695470 -0.60718948 4 0 1066 2.34600000 2888702881 2888702881 -15.00000000
3.52364826 18.70205116 0.33218911 16 1 1067 19.03400000 2888702883 2888702883 1.00000000
0.49838361 2.64267683 -0.62086493 3 2 1068 2.76000000 2888702885 2888702885 -13.00000000
3.53180289 18.70943642 0.99783736 12 3 1069 19.06600000 2888702888 2888702888 3.00000000
0.59651715 3.16000080 -0.62509024 2 4 1069 3.27600000 2888702890 2888702890 -11.00000000
3.53680706 18.71802139 1.66659212 16 5 1070 19.12200000 2888702892 2888702892 5.00000000
0.75696075 4.00227261 -0.64513576 2 6 1071 4.12400000 2888702895 2888702895 -9.00000000
2.83396482 14.96969128 1.87069440 19 7 1072 15.35000000 2888702897 2888702897 7.00000000
1.01858079 5.37525797 -0.67174381 2 8 1073 5.51200000 2888702899 2888702899 -7.00000000
2.69645333 14.21616840 2.29176497 41 9 1074 14.65000000 2888702902 2888702902 9.00000000
1.51707816 7.99829817 -0.71223670 4 10 1074 8.17200000 2888702904 2888702904 -5.00000000
1.99649036 10.51581764 2.08058119 59 11 1075 10.90400000 2888702906 2888702906 11.00000000
3.14747405 16.56244850 -0.88353562 5 12 1076 16.88200000 2888702908 2888702908 -3.00000000
1.91545606 10.06981468 2.36648512 56 13 1077 10.52000000 2888702911 2888702911 13.00000000
3.56066918 18.70114517 -0.33229381 10 14 1078 19.04000000 2888702913 2888702913 -1.00000000
1.65966558 8.70852852 2.37544131 42 15 1079 9.17800000 2888702915 2888702915 15.00000000
0.42474174 2.21606588 -0.60460126 4 0 1085 2.33600000 2888702936 2888702936 -15.00000000
3.59016824 18.71382904 0.33260795 16 1 1086 19.05800000 2888702938 2888702938 1.00000000
0.50640935 2.63718200 -0.61996508 3 2 1087 2.75600000 2888702941 2888702941 -13.00000000
3.59797311 18.71919823 0.99898875 12 3 1088 19.08800000 2888702943 2888702943 3.00000000
0.60625166 3.15414953 -0.62432700 2 4 1088 3.27200000 2888702945 2888702945 -11.00000000
3.59848237 18.70423508 1.66641784 16 5 1089 19.12000000 2888702948 2888702948 5.00000000
0.76798743 3.98810196 -0.64325851 2 6 1090 4.11200000 2888702950 2888702950 -9.00000000
2.88509345 14.96800804 1.87166941 19 7 1091 15.35800000 2888702952 2888702952 7.00000000
1.03263962 5.35235929 -0.66930646 2 8 1092 5.49200000 2888702955 2888702955 -7.00000000
2.73997879 14.20180893 2.29082632 43 9 1092 14.64400000 2888702957 2888702957 9.00000000
1.53905976 7.96974850 -0.71014500 4 10 1093 8.14800000 2888702959 2888702959 -5.00000000
2.03395915 10.52263260 2.08325267 59 11 1094 10.91800000 2888702961 2888702961 11.00000000
3.20541477 16.56760788 -0.88437301 5 12 1095 16.89800000 2888702964 2888702964 -3.00000000
1.87103295 9.66163635 2.27200556 48 13 1096 10.10000000 2888702966 2888702966 13.00000000
3.62190366 18.68530846 -0.33222401 10 14 1097 19.03600000 2888702968 2888702968 -1.00000000
1.68407500 8.68809986 2.37129998 42 15 1097 9.16200000 2888702971 2888702971 15.00000000
0.43247467 2.21456981 -0.60460126 4 0 1105 2.33600000 2888702991 2888702991 -15.00000000
3.65508628 18.69922066 0.33257306 16 1 1106 19.05600000 2888702994 2888702994 1.00000000
0.51636004 2.63922310 -0.62086493 3 2 1107 2.76000000 2888702996 2888702996 -13.00000000
3.66521263 18.71632385 0.99951208 12 3 1108 19.09800000 2888702998 2888702998 3.00000000
0.61952180 3.16357398 -0.62661672 2 4 1108 3.28400000 2888703001 2888703001 -11.00000000
3.66643310 18.70524597 1.66763794 16 5 1109 19.13400000 2888703003 2888703003 5.00000000
0.78608716 4.00671959 -0.64670008 2 6 1110 4.13400000 2888703005 2888703005 -9.00000000
2.94038391 14.97342873 1.87361932 19 7 1111 15.37400000 2888703008 2888703008 7.00000000
1.04748809 5.32924366 -0.66686904 2 8 1112 5.47200000 2888703010 2888703010 -7.00000000
2.41793942 12.29027367 1.98390186 10 9 1113 12.68200000 2888703012 2888703012 9.00000000
1.56917763 7.97605705 -0.71119088 4 10 1113 8.16000000 2888703014 2888703014 -5.00000000
2.07143641 10.51932049 2.08401585 56 11 1114 10.92200000 2888703017 2888703017 11.00000000
3.28253841 16.65429497 -0.88960660 5 12 1115 16.99800000 2888703019 2888703019 -3.00000000
1.98508584 10.06227970 2.36783481 57 13 1116 10.52600000 2888703021 2888703021 13.00000000
3.69059205 18.69020844 -0.33253816 10 14 1117 19.05400000 2888703024 2888703024 -1.00000000
1.71590710 8.68186855 2.37129998 42 15 1118 9.16200000 2888703026 2888703026 15.00000000
0.44095612 2.21683598 -0.60563654 4 0 1125 2.34000000 2888703047 2888703047 -15.00000000
3.72033644 18.68634796 0.33257306 16 1 1126 19.05600000 2888703049 2888703049 1.00000000
0.52480781 2.63358235 -0.61996508 3 2 1127 2.75600000 2888703051 2888703051 -13.00000000
3.73442912 18.72300339 1.00055885 12 3 1128 19.11800000 2888703054 2888703054 3.00000000
0.62902486 3.15369081 -0.62509024 2 4 1128 3.27600000 2888703056 2888703056 -11.00000000
3.73404455 18.70405579 1.66868389 16 5 1129 19.14600000 2888703058 2888703058 5.00000000
0.80006838 4.00395107 -0.64670008 2 6 1130 4.13400000 2888703061 2888703061 -9.00000000
2.99302244 14.96502018 1.87386298 17 7 1131 15.37600000 2888703063 2888703063 7.00000000
1.06764281 5.33334064 -0.66784400 2 8 1132 5.48000000 2888703065 2888703065 -7.00000000
2.84060955 14.19008160 2.29207778 18 9 1132 14.65200000 2888703067 2888703067 9.00000000
1.60248971 7.99788094 -0.71363121 4 10 1133 8.18800000 2888703070 2888703070 -5.00000000
2.10659885 10.50432682 2.08248949 56 11 1134 10.91400000 2888703072 2888703072 11.00000000
3.34301114 16.65448380 -0.89023459 5 12 1135 17.01000000 2888703074 2888703074 -3.00000000
2.02288461 10.06866264 2.37098408 59 13 1136 10.54000000 2888703077 2888703077 13.00000000
3.75896430 18.69289398 -0.33281741 10 14 1137 19.07000000 2888703079 2888703079 -1.00000000
1.74468780 8.67613029 2.37129998 42 15 1137 9.16200000 2888703081 2888703081 15.00000000
0.44830811 2.21338987 -0.60511893 3 0 1145 2.33800000 2888703102 2888703102 -15.00000000
3.78911710 18.69088745 0.33288720 16 1 1146 19.07400000 2888703104 2888703104 1.00000000
0.53244752 2.62409520 -0.61816549 3 2 1147 2.74800000 2888703107 2888703107 -13.00000000
3.80055690 18.71376801 1.00076818 12 3 1148 19.12200000 2888703109 2888703109 3.00000000
0.64159244 3.15917182 -0.62661672 4 4 1148 3.28400000 2888703111 2888703111 -11.00000000
3.80407357 18.71433830 1.67077553 16 5 1149 19.17000000 2888703114 2888703114 5.00000000
0.81246459 3.99339128 -0.64544863 2 6 1150 4.12600000 2888703116 2888703116 -9.00000000
3.04603410 14.95837212 1.87435055 17 7 1151 15.38000000 2888703118 2888703118 7.00000000
1.09418201 5.36848354 -0.67271876 2 8 1152 5.52000000 2888703120 2888703120 -7.00000000
2.89378428 14.18538189 2.29301643 45 9 1153 14.65800000 2888703123 2888703123 9.00000000
1.63278723 8.00395203 -0.71467710 4 10 1153 8.20000000 2888703125 2888703125 -5.00000000
2.14521670 10.50652695 2.08439755 59 11 1154 10.92400000 2888703127 2888703127 11.00000000
3.40672445 16.67010880 -0.89170003 5 12 1155 17.03800000 2888703130 2888703130 -3.00000000
2.05489421 10.04626656 2.36738491 56 13 1156 10.52400000 2888703132 2888703132 13.00000000
3.82539511 18.68553734 -0.33292210 10 14 1157 19.07600000 2888703134 2888703134 -1.00000000
1.77763903 8.67535591 2.37285304 45 15 1158 9.16800000 2888703137 2888703137 15.00000000
0.45798209 2.22127175 -0.60770714 4 0 1165 2.34800000 2888703157 2888703157 -15.00000000
3.85837889 18.69713020 0.33323625 16 1 1166 19.09400000 2888703160 2888703160 1.00000000
0.54396915 2.63367128 -0.62086493 3 2 1167 2.76000000 2888703162 2888703162 -13.00000000
3.86787868 18.71016693 1.00129151 12 3 1168 19.13200000 2888703164 2888703164 3.00000000
0.65023142 3.14537740 -0.62432700 2 4 1168 3.27200000 2888703167 2888703167 -11.00000000
3.87179780 18.71265221 1.67182148 16 5 1169 19.18200000 2888703169 2888703169 5.00000000
0.82720035 3.99439955 -0.64607435 2 6 1170 4.13000000 2888703171 2888703171 -9.00000000
3.10024428 14.95736694 1.87556922 15 7 1171 15.39000000 2888703173 2888703173 7.00000000
1.10807610 5.34130669 -0.66979390 2 8 1172 5.49600000 2888703176 2888703176 -7.00000000
2.93679619 14.15636539 2.28988767 47 9 1172 14.63800000 2888703178 2888703178 9.00000000
1.68096888 8.09574223 -0.72339267 4 10 1173 8.30000000 2888703180 2888703180 -5.00000000
2.18507409 10.51435184 2.08745050 59 11 1174 10.94000000 2888703183 2888703183 11.00000000
3.46326613 16.65029526 -0.89128131 5 12 1175 17.03000000 2888703185 2888703185 -3.00000000
2.08756661 10.02758598 2.36468554 57 13 1176 10.51200000 2888703187 2888703187 13.00000000
3.89304376 18.68381500 -0.33313152 10 14 1177 19.08800000 2888703190 2888703190 -1.00000000
1.80639780 8.66941261 2.37285304 45 15 1177 9.16800000 2888703192 2888703192 15.00000000
0.46493956 2.21587825 -0.60667187 4 0 1185 2.34400000 2888703213 2888703213 -15.00000000
3.92773032 18.70311928 0.33358529 16 1 1186 19.11400000 2888703215 2888703215 1.00000000
0.55315906 2.63175631 -0.62086493 3 2 1187 2.76000000 2888703217 2888703217 -13.00000000
3.93522167 18.70632362 1.00181484 12 3 1188 19.14200000 2888703220 2888703220 3.00000000
0.66201520 3.14693093 -0.62509024 2 4 1188 3.27600000 2888703222 2888703222 -11.00000000
3.93873572 18.70682144 1.67251873 16 5 1189 19.19000000 2888703224 2888703224 5.00000000
0.84358239 4.00308514 -0.64795154 2 6 1190 4.14200000 2888703226 2888703226 -9.00000000
3.15489459 14.95810795 1.87703168 14 7 1191 15.40200000 2888703229 2888703229 7.00000000
1.12507391 5.32963753 -0.66881895 2 8 1192 5.48800000 2888703231 2888703231 -7.00000000
2.98374510 14.13443089 2.28801060 43 9 1192 14.62600000 2888703233 2888703233 9.00000000
1.69439113 8.01964855 -0.71711743 4 10 1193 8.22800000 2888703236 2888703236 -5.00000000
2.22338724 10.51434422 2.08897686 59 11 1194 10.94800000 2888703238 2888703238 11.00000000
3.52053833 16.63419533 -0.89107198 5 12 1195 17.02600000 2888703240 2888703240 -3.00000000
2.12174916 10.01642418 2.36378574 56 13 1196 10.50800000 2888703243 2888703243 13.00000000
3.95782399 18.66815567 -0.33309662 10 14 1197 19.08600000 2888703245 2888703245 -1.00000000
1.83624804 8.66116428 2.37233543 42 15 1197 9.16600000 2888703247 2888703247 15.00000000
0.46986729 2.20298815 -0.60356599 4 0 1204 2.33200000 2888703268 2888703268 -15.00000000
3.99140024 18.69781303 0.33372492 16 1 1205 19.12200000 2888703270 2888703270 1.00000000
0.56188321 2.62990761 -0.62086493 3 2 1206 2.76000000 2888703273 2888703273 -13.00000000
4.00057364 18.70879555 1.00265229 12 3 1207 19.15800000 2888703275 2888703275 3.00000000
0.66916287 3.12935948 -0.62203735 2 4 1207 3.26000000 2888703277 2888703277 -11.00000000
4.00158215 18.69755363 1.67286730 16 5 1208 19.19400000 2888703279 2888703279 5.00000000
0.85850739 4.00799227 -0.64920300 2 6 1209 4.15000000 2888703282 2888703282 -9.00000000
3.21321845 14.98832417 1.88215017 15 7 1210 15.44400000 2888703284 2888703284 7.00000000
1.14690590 5.34528637 -0.67125636 2 8 1211 5.50800000 2888703286 2888703286 -7.00000000
3.03306532 14.12392998 2.28801060 47 9 1212 14.62600000 2888703289 2888703289 9.00000000
1.72515905 8.03346539 -0.71886057 4 10 1212 8.24800000 2888703291 2888703291 -5.00000000
2.26030469 10.51651001 2.09088492 59 11 1213 10.95800000 2888703293 2888703293 11.00000000
3.59332108 16.70443916 -0.89546824 5 12 1214 17.11000000 2888703296 2888703296 -3.00000000
2.15823436 10.02457428 2.36738491 59 13 1215 10.52400000 2888703298 2888703298 13.00000000
4.02686882 18.68816185 -0.33369002 10 14 1216 19.12000000 2888703300 2888703300 -1.00000000
1.86170399 8.63992023 2.36819434 45 15 1216 9.15000000 2888703302 2888703302 15.00000000
0.47837341 2.20511055 -0.60460126 4 0 1224 2.33600000 2888703323 2888703323 -15.00000000
4.05579472 18.67985916 0.33365512 16 1 1225 19.11800000 2888703326 2888703326 1.00000000
0.57023227 2.62412167 -0.61996508 3 2 1226 2.75600000 2888703328 2888703328 -13.00000000
4.06882620 18.70837975 1.00338495 12 3 1227 19.17200000 2888703330 2888703330 3.00000000
0.68592352 3.15386224 -0.62737995 2 4 1227 3.28800000 2888703332 2888703332 -11.00000000
4.07233286 18.70878029 1.67513335 16 5 1228 19.22000000 2888703335 2888703335 5.00000000
0.86576504 3.97408915 -0.64419711 2 6 1229 4.11800000 2888703337 2888703337 -9.00000000
3.29511976 15.11278343 1.89921188 21 7 1230 15.58400000 2888703339 2888703339 7.00000000
1.16471100 5.33737135 -0.67076886 2 8 1231 5.50400000 2888703342 2888703342 -7.00000000
3.08150554 14.10939693 2.28738475 43 9 1232 14.62200000 2888703344 2888703344 9.00000000
1.74893939 8.00792980 -0.71711743 4 10 1232 8.22800000 2888703346 2888703346 -5.00000000
2.29574251 10.50280190 2.08974004 59 11 1233 10.95200000 2888703349 2888703349 11.00000000
3.64904761 16.68008804 -0.89484018 5 12 1234 17.09800000 2888703351 2888703351 -3.00000000
2.19237995 10.01317215 2.36648512 59 13 1235 10.52000000 2888703353 2888703353 13.00000000
4.09421825 18.68375778 -0.33386454 10 14 1236 19.13000000 2888703355 2888703355 -1.00000000
1.89418602 8.63681221 2.36922956 45 15 1237 9.15400000 2888703358 2888703358 15.00000000
0.48811826 2.21088791 -0.60667187 4 0 1245 2.34400000 2888703379 2888703379 -15.00000000
4.13113594 18.69610977 0.33421358 16 1 1246 19.15000000 2888703381 2888703381 1.00000000
0.57816315 2.61440301 -0.61816549 3 2 1247 2.74800000 2888703383 2888703383 -13.00000000
4.13952637 18.70309067 1.00390828 12 3 1248 19.18200000 2888703385 2888703385 3.00000000
0.69662988 3.14749336 -0.62661672 2 4 1248 3.28400000 2888703388 2888703388 -11.00000000
4.14260054 18.70150948 1.67583060 16 5 1249 19.22800000 2888703390 2888703390 5.00000000
0.88203520 3.97860360 -0.64544863 2 6 1250 4.12600000 2888703392 2888703392 -9.00000000
3.41584730 15.39517593 1.93626010 21 7 1251 15.88800000 2888703395 2888703395 7.00000000
1.18082297 5.31756353 -0.66881895 2 8 1252 5.48800000 2888703397 2888703397 -7.00000000
3.13491273 14.10572147 2.28863621 39 9 1253 14.63000000 2888703399 2888703399 9.00000000
4.16948748 18.76085091 -1.68140864 5 10 1253 19.29200000 2888703402 2888703402 -5.00000000
2.33720565 10.50773239 2.09241152 59 11 1254 10.96600000 2888703404 2888703404 11.00000000
3.71536636 16.68999481 -0.89609623 5 12 1255 17.12200000 2888703406 2888703406 -3.00000000
2.22821784 10.00126553 2.36558533 64 13 1256 10.51600000 2888703408 2888703408 13.00000000
4.16963339 18.69985390 -0.33442301 10 14 1257 19.16200000 2888703411 2888703411 -1.00000000
1.92390215 8.62826252 2.36871195 45 15 1257 9.15200000 2888703413 2888703413 15.00000000
0.49794808 2.21859550 -0.60926002 3 0 1265 2.35400000 2888703434 2888703434 -15.00000000
4.19812536 18.68938065 0.33435321 12 1 1266 19.15800000 2888703436 2888703436 1.00000000
0.58985019 2.62377667 -0.62086493 4 2 1267 2.76000000 2888703438 2888703438 -13.00000000
4.20522547 18.69047546 1.00401294 12 3 1268 19.18400000 2888703441 2888703441 3.00000000
0.70330298 3.12588882 -0.62280059 2 4 1268 3.26400000 2888703443 2888703443 -11.00000000
4.21354532 18.71220398 1.67809665 17 5 1269 19.25400000 2888703445 2888703445 5.00000000
0.89678627 3.97935462 -0.64607435 2 6 1270 4.13000000 2888703448 2888703448 -9.00000000
3.48878288 15.46836185 1.94698465 24 7 1271 15.97600000 2888703450 2888703450 7.00000000
1.20549691 5.34051847 -0.67223132 2 8 1272 5.51600000 2888703452 2888703452 -7.00000000
3.18369651 14.09276581 2.28832340 36 9 1273 14.62800000 2888703455 2888703455 9.00000000
2.37560201 10.50716972 2.09393787 53 11 1274 10.97400000 2888703459 2888703459 11.00000000
3.77977395 16.70419693 -0.89756167 5 12 1275 17.15000000 2888703461 2888703461 -3.00000000
2.25967169 9.97822189 2.36198616 60 13 1276 10.50000000 2888703464 2888703464 13.00000000
4.23444080 18.68323517 -0.33438811 2 14 1277 19.16000000 2888703466 2888703466 -1.00000000
1.95742476 8.63656616 2.37285304 45 15 1277 9.16800000 2888703468 2888703468 15.00000000
0.50229728 2.20374727 -0.60563654 4 0 1284 2.34000000 2888703489 2888703489 -15.00000000
9.77385426 42.84667206 0.76710308 32 1 1285 43.95400000 2888703491 2888703491 1.00000000
