# .PCD v0.7 - Point Cloud Data file format
VERSION 0.7
FIELDS x y z intensity laser_id azimuth distance_m adjustedtime timestamp vertical_angle
SIZE 4 4 4 1 1 2 8 8 4 8
TYPE F F F U U U F U U F
COUNT 1 1 1 1 1 1 1 1 1 1
WIDTH 532
HEIGHT 1
VIEWPOINT 0 0 0 1 0 0 0
POINTS 532
DATA ascii
6.59080696 -0.01495409 -0.57662237 16 10 9013 6.61600000 2888625046 2888625046 -5.00000000
19.63052177 -0.04796651 3.81579828 38 11 9014 19.99800000 2888625049 2888625049 11.00000000
8.12082767 -0.02126032 -0.42559600 17 12 9015 8.13200000 2888625051 2888625051 -3.00000000
16.89356232 -0.04717585 3.90020132 40 13 9016 17.33800000 2888625053 2888625053 13.00000000
8.10672951 -0.02405322 -0.14150411 16 14 9017 8.10800000 2888625055 2888625055 -1.00000000
8.16203308 -0.02564187 2.18702102 47 15 9018 8.45000000 2888625058 2888625058 15.00000000
2.22933555 -0.00972737 -0.59735435 4 0 9025 2.30800000 2888625079 2888625079 -15.00000000
8.10468197 -0.03677813 0.14146921 21 1 9026 8.10600000 2888625081 2888625081 1.00000000
2.61907768 -0.01234220 -0.60466844 7 2 9027 2.68800000 2888625083 2888625083 -13.00000000
8.13473892 -0.03975415 0.42632869 18 3 9028 8.14600000 2888625085 2888625085 3.00000000
3.13920617 -0.01534118 -0.61020714 5 4 9028 3.19800000 2888625088 2888625088 -11.00000000
8.10493660 -0.04102312 0.70909911 76 5 9029 8.13600000 2888625090 2888625090 5.00000000
3.91514301 -0.02049983 -0.62010622 4 6 9030 3.96400000 2888625092 2888625092 -9.00000000
8.12287903 -0.04394943 0.99737871 90 7 9031 8.18400000 2888625095 2888625095 7.00000000
5.26438284 -0.02940216 -0.64639497 6 8 9032 5.30400000 2888625097 2888625097 -7.00000000
8.21150494 -0.04729540 1.30059612 10 9 9033 8.31400000 2888625099 2888625099 9.00000000
6.59071493 -0.03796021 -0.57662237 16 10 9033 6.61600000 2888625102 2888625102 -5.00000000
19.63808823 -0.11653613 3.81732488 38 11 9034 20.00600000 2888625104 2888625104 11.00000000
8.09873486 -0.04947297 -0.42444462 17 12 9035 8.11000000 2888625106 2888625106 -3.00000000
16.89719200 -0.10616959 3.90110111 41 13 9036 17.34200000 2888625108 2888625108 13.00000000
8.10859585 -0.05236375 -0.14153902 18 14 9037 8.11000000 2888625111 2888625111 -1.00000000
8.16963005 -0.05275790 2.18909144 49 15 9037 8.45800000 2888625113 2888625113 15.00000000
2.21769738 -0.01741811 -0.59424853 4 0 9045 2.29600000 2888625134 2888625134 -15.00000000
8.11250305 -0.06513274 0.14160882 21 1 9046 8.11400000 2888625136 2888625136 1.00000000
2.61512136 -0.02145245 -0.60376865 7 2 9047 2.68400000 2888625138 2888625138 -13.00000000
8.11857319 -0.06801559 0.42549133 15 3 9048 8.13000000 2888625141 2888625141 3.00000000
3.13717031 -0.02628251 -0.60982555 6 4 9048 3.19600000 2888625143 2888625143 -11.00000000
8.10075951 -0.06928030 0.70875049 76 5 9049 8.13200000 2888625145 2888625145 5.00000000
3.92887473 -0.03428677 -0.62229627 6 6 9050 3.97800000 2888625148 2888625148 -9.00000000
8.11870575 -0.07226796 0.99689120 90 7 9051 8.18000000 2888625150 2888625150 7.00000000
5.23645782 -0.04752589 -0.64298266 6 8 9052 5.27600000 2888625152 2888625152 -7.00000000
8.21128941 -0.07595861 1.30059612 10 9 9053 8.31400000 2888625155 2888625155 9.00000000
6.65628815 -0.06157405 -0.58237469 4 10 9053 6.68200000 2888625157 2888625157 -5.00000000
19.64541435 -0.18515915 3.81885123 38 11 9054 20.01400000 2888625159 2888625159 11.00000000
8.10450363 -0.07780004 -0.42475861 17 12 9055 8.11600000 2888625161 2888625161 -3.00000000
16.89671898 -0.16515115 3.90110111 39 13 9056 17.34200000 2888625164 2888625164 13.00000000
8.11436272 -0.08072740 -0.14164373 20 14 9057 8.11600000 2888625166 2888625166 -1.00000000
8.17712307 -0.08135179 2.19116211 47 15 9057 8.46600000 2888625168 2888625168 15.00000000
2.23694015 -0.02537837 -0.59942490 4 0 9065 2.31600000 2888625189 2888625189 -15.00000000
8.11422539 -0.09347330 0.14164373 18 1 9066 8.11600000 2888625191 2888625191 1.00000000
2.61113334 -0.03053522 -0.60286885 7 2 9067 2.68000000 2888625194 2888625194 -13.00000000
8.11630630 -0.09491402 0.42538664 21 3 9067 8.12800000 2888625196 2888625196 3.00000000
3.13705945 -0.03723312 -0.60982555 6 4 9068 3.19600000 2888625198 2888625198 -11.00000000
8.11640549 -0.09774875 0.71014500 76 5 9069 8.14800000 2888625201 2888625201 5.00000000
3.93465662 -0.04807329 -0.62323493 6 6 9070 3.98400000 2888625203 2888625203 -9.00000000
8.12237358 -0.10065629 0.99737871 87 7 9071 8.18400000 2888625205 2888625205 7.00000000
5.23625994 -0.06580425 -0.64298266 8 8 9072 5.27600000 2888625207 2888625207 -7.00000000
8.21494293 -0.10323745 1.30122185 10 9 9072 8.31800000 2888625210 2888625210 9.00000000
8.09242916 -0.10311043 -0.70805323 17 10 9073 8.12400000 2888625212 2888625212 -5.00000000
19.64464760 -0.25373331 3.81885123 38 11 9074 20.01400000 2888625214 2888625214 11.00000000
8.11616516 -0.10624643 -0.42538664 17 12 9075 8.12800000 2888625217 2888625217 -3.00000000
16.88434792 -0.22397560 3.89840174 39 13 9076 17.33000000 2888625219 2888625219 13.00000000
8.10603333 -0.10894382 -0.14150411 22 14 9077 8.10800000 2888625221 2888625221 -1.00000000
8.17292595 -0.10984286 2.19012666 47 15 9077 8.46200000 2888625224 2888625224 15.00000000
2.22138500 -0.03295733 -0.59528381 4 0 9085 2.30000000 2888625244 2888625244 -15.00000000
8.12384701 -0.12194674 0.14181826 15 1 9086 8.12600000 2888625247 2888625247 1.00000000
2.61880469 -0.03976794 -0.60466844 7 2 9087 2.68800000 2888625249 2888625249 -13.00000000
8.11590385 -0.12466113 0.42538664 23 3 9088 8.12800000 2888625251 2888625251 3.00000000
3.12905836 -0.04806267 -0.60829908 8 4 9088 3.18800000 2888625254 2888625254 -11.00000000
8.10804653 -0.12595591 0.70944774 76 5 9089 8.14000000 2888625256 2888625256 5.00000000
3.94434047 -0.06196265 -0.62479925 8 6 9090 3.99400000 2888625258 2888625258 -9.00000000
8.12792778 -0.12910263 0.99810994 90 7 9091 8.19000000 2888625260 2888625260 7.00000000
5.23599863 -0.08408181 -0.64298266 8 8 9092 5.27600000 2888625263 2888625263 -7.00000000
8.20265865 -0.13315366 1.29934466 10 9 9093 8.30600000 2888625265 2888625265 9.00000000
8.08006668 -0.13116363 -0.70700741 17 10 9093 8.11200000 2888625267 2888625267 -5.00000000
8.10975456 -0.13447714 -0.42507264 17 12 9095 8.12200000 2888625272 2888625272 -3.00000000
16.88735962 -0.28297693 3.89930153 39 13 9096 17.33400000 2888625274 2888625274 13.00000000
8.09360695 -0.13703538 -0.14129469 16 14 9097 8.09600000 2888625277 2888625277 -1.00000000
8.17633152 -0.13986348 2.19116211 49 15 9098 8.46600000 2888625279 2888625279 15.00000000
2.20966721 -0.04049880 -0.59217799 4 0 9105 2.28800000 2888625300 2888625300 -15.00000000
8.11137581 -0.15008155 0.14160882 18 1 9106 8.11400000 2888625302 2888625302 1.00000000
2.62254691 -0.04898182 -0.60556823 7 2 9107 2.69200000 2888625304 2888625304 -13.00000000
8.12143612 -0.15168564 0.42570066 21 3 9107 8.13400000 2888625307 2888625307 3.00000000
3.13279724 -0.05905883 -0.60906231 8 4 9108 3.19200000 2888625309 2888625309 -11.00000000
8.09361362 -0.15399219 0.70822757 72 5 9109 8.12600000 2888625311 2888625311 5.00000000
3.93225026 -0.07550306 -0.62292206 8 6 9110 3.98200000 2888625313 2888625313 -9.00000000
8.13139725 -0.15755053 0.99859738 90 7 9111 8.19400000 2888625316 2888625316 7.00000000
5.23567295 -0.10235834 -0.64298266 8 8 9112 5.27600000 2888625318 2888625318 -7.00000000
8.20214367 -0.16178547 1.29934466 10 9 9113 8.30600000 2888625320 2888625320 9.00000000
8.08354378 -0.15944611 -0.70735604 17 10 9113 8.11600000 2888625323 2888625323 -5.00000000
19.65024948 -0.39102778 3.82037759 19 11 9114 20.02200000 2888625325 2888625325 11.00000000
8.11322880 -0.16286482 -0.42528197 17 12 9115 8.12600000 2888625327 2888625327 -3.00000000
16.90185547 -0.34223869 3.90290070 41 13 9116 17.35000000 2888625330 2888625330 13.00000000
8.10707378 -0.16557233 -0.14153902 22 14 9117 8.11000000 2888625332 2888625332 -1.00000000
8.16423416 -0.16673972 2.18805623 47 15 9117 8.45400000 2888625334 2888625334 15.00000000
2.22496343 -0.04854888 -0.59631908 4 0 9125 2.30400000 2888625355 2888625355 -15.00000000
8.10480499 -0.17826271 0.14150411 18 1 9126 8.10800000 2888625357 2888625357 1.00000000
2.61261868 -0.05791996 -0.60331875 9 2 9127 2.68200000 2888625359 2888625359 -13.00000000
8.13483429 -0.18034369 0.42643338 23 3 9127 8.14800000 2888625362 2888625362 3.00000000
3.13649774 -0.07008169 -0.60982555 8 4 9128 3.19600000 2888625364 2888625364 -11.00000000
8.10298634 -0.18246751 0.70909911 76 5 9129 8.13600000 2888625366 2888625366 5.00000000
3.92801285 -0.08913908 -0.62229627 8 6 9130 3.97800000 2888625369 2888625369 -9.00000000
8.12484360 -0.18579729 0.99786621 90 7 9131 8.18800000 2888625371 2888625371 7.00000000
5.24719143 -0.12090800 -0.64444506 8 8 9132 5.28800000 2888625373 2888625373 -7.00000000
8.19560432 -0.19027776 1.29840600 10 9 9133 8.30000000 2888625376 2888625376 9.00000000
8.08293819 -0.18766198 -0.70735604 17 10 9133 8.11600000 2888625378 2888625378 -5.00000000
19.64091301 -0.45943391 3.81885123 38 11 9134 20.01400000 2888625380 2888625380 11.00000000
8.10063076 -0.19090195 -0.42465395 17 12 9135 8.11400000 2888625383 2888625383 -3.00000000
16.90445518 -0.40132758 3.90380049 40 13 9136 17.35400000 2888625385 2888625385 13.00000000
8.10244846 -0.19377467 -0.14146921 18 14 9137 8.10600000 2888625387 2888625387 -1.00000000
8.16360283 -0.19523720 2.18805623 47 15 9137 8.45400000 2888625389 2888625389 15.00000000
2.22091794 -0.05621738 -0.59528381 4 0 9145 2.30000000 2888625410 2888625410 -15.00000000
8.10613251 -0.20660362 0.14153902 15 1 9146 8.11000000 2888625412 2888625412 1.00000000
2.60850430 -0.06693936 -0.60241890 9 2 9147 2.67800000 2888625415 2888625415 -13.00000000
8.11814594 -0.20974545 0.42559600 15 3 9148 8.13200000 2888625417 2888625417 3.00000000
3.14408422 -0.08123251 -0.61135203 8 4 9148 3.20400000 2888625419 2888625419 -11.00000000
8.10429096 -0.21080291 0.70927346 76 5 9149 8.13800000 2888625422 2888625422 5.00000000
3.92372847 -0.10274644 -0.62167054 8 6 9150 3.97400000 2888625424 2888625424 -9.00000000
8.12017727 -0.21405253 0.99737871 85 7 9151 8.18400000 2888625426 2888625426 7.00000000
5.22689342 -0.13869682 -0.64200771 8 8 9152 5.26800000 2888625429 2888625429 -7.00000000
8.20480251 -0.21771631 1.29997039 10 9 9152 8.31000000 2888625431 2888625431 9.00000000
8.08621693 -0.21598195 -0.70770460 17 10 9153 8.12000000 2888625433 2888625433 -5.00000000
19.66077805 -0.52857107 3.82304907 34 11 9154 20.03600000 2888625436 2888625436 11.00000000
8.09192944 -0.21896116 -0.42423525 17 12 9155 8.10600000 2888625438 2888625438 -3.00000000
16.88736725 -0.45990828 3.90020132 38 13 9156 17.33800000 2888625440 2888625440 13.00000000
8.10572052 -0.22216588 -0.14153902 18 14 9157 8.11000000 2888625442 2888625442 -1.00000000
8.17055702 -0.22537005 2.19012666 47 15 9158 8.46200000 2888625445 2888625445 15.00000000
2.21684623 -0.06385824 -0.59424853 4 0 9165 2.29600000 2888625465 2888625465 -15.00000000
8.11335754 -0.23512976 0.14167863 15 1 9166 8.11800000 2888625468 2888625468 1.00000000
2.61215043 -0.07615791 -0.60331875 9 2 9167 2.68200000 2888625470 2888625470 -13.00000000
8.11141682 -0.23649043 0.42528197 28 3 9167 8.12600000 2888625472 2888625472 3.00000000
3.13593197 -0.09197669 -0.60982555 8 4 9168 3.19600000 2888625475 2888625475 -11.00000000
8.10549736 -0.23914964 0.70944774 76 5 9169 8.14000000 2888625477 2888625477 5.00000000
3.92729497 -0.11655939 -0.62229627 8 6 9170 3.97800000 2888625479 2888625479 -9.00000000
8.11541176 -0.24227746 0.99689120 90 7 9171 8.18000000 2888625482 2888625482 7.00000000
5.21447229 -0.15658374 -0.64054525 6 8 9172 5.25600000 2888625484 2888625484 -7.00000000
8.20789814 -0.24790622 1.30059612 10 9 9173 8.31400000 2888625486 2888625486 9.00000000
8.09537125 -0.24450754 -0.70857620 17 10 9173 8.13000000 2888625489 2888625489 -5.00000000
19.65488815 -0.59707755 3.82228589 34 11 9174 20.03200000 2888625491 2888625491 11.00000000
8.09510803 -0.24732792 -0.42444462 17 12 9175 8.11000000 2888625493 2888625493 -3.00000000
16.88565826 -0.51885343 3.90020132 41 13 9176 17.33800000 2888625495 2888625495 13.00000000
8.10289669 -0.25039703 -0.14150411 16 14 9177 8.10800000 2888625498 2888625498 -1.00000000
8.16972065 -0.25388923 2.19012666 47 15 9178 8.46200000 2888625500 2888625500 15.00000000
2.22047138 -0.07172082 -0.59528381 4 0 9185 2.30000000 2888625521 2888625521 -15.00000000
8.11248684 -0.26344922 0.14167863 18 1 9186 8.11800000 2888625523 2888625523 1.00000000
2.61186886 -0.08527556 -0.60331875 9 2 9187 2.68200000 2888625525 2888625525 -13.00000000
8.11253834 -0.26486829 0.42538664 23 3 9187 8.12800000 2888625528 2888625528 3.00000000
3.12970519 -0.10272935 -0.60868067 5 4 9188 3.19000000 2888625530 2888625530 -11.00000000
8.09863949 -0.26724452 0.70892483 76 5 9189 8.13400000 2888625532 2888625532 5.00000000
3.92686415 -0.13026750 -0.62229627 8 6 9190 3.97800000 2888625535 2888625535 -9.00000000
8.12642097 -0.27100104 0.99835366 90 7 9191 8.19200000 2888625537 2888625537 7.00000000
5.22579765 -0.17518374 -0.64200771 8 8 9192 5.26800000 2888625539 2888625539 -7.00000000
8.19123650 -0.27459377 1.29809320 10 9 9192 8.29800000 2888625542 2888625542 9.00000000
8.08052921 -0.27229446 -0.70735604 17 10 9193 8.11600000 2888625544 2888625544 -5.00000000
8.10816860 -0.27605936 -0.42517731 17 12 9195 8.12400000 2888625548 2888625548 -3.00000000
16.89932442 -0.57832539 3.90380049 42 13 9196 17.35400000 2888625551 2888625551 13.00000000
8.09397984 -0.27840492 -0.14136449 16 14 9197 8.10000000 2888625553 2888625553 -1.00000000
8.16492271 -0.28227186 2.18909144 49 15 9198 8.45800000 2888625555 2888625555 15.00000000
2.22213817 -0.07954038 -0.59580141 4 0 9205 2.30200000 2888625576 2888625576 -15.00000000
8.10752106 -0.29162171 0.14160882 15 1 9206 8.11400000 2888625578 2888625578 1.00000000
2.61934519 -0.09467372 -0.60511833 9 2 9207 2.69000000 2888625581 2888625581 -13.00000000
8.11755180 -0.29340115 0.42570066 23 3 9207 8.13400000 2888625583 2888625583 3.00000000
3.12932754 -0.11365344 -0.60868067 5 4 9208 3.19000000 2888625585 2888625585 -11.00000000
8.10163975 -0.29565772 0.70927346 76 5 9209 8.13800000 2888625588 2888625588 5.00000000
3.92243743 -0.14382924 -0.62167054 8 6 9210 3.97400000 2888625590 2888625590 -9.00000000
8.13137627 -0.29958513 0.99908489 92 7 9211 8.19800000 2888625592 2888625592 7.00000000
5.23904037 -0.19393814 -0.64371389 8 8 9212 5.28200000 2888625595 2888625595 -7.00000000
8.20799446 -0.30384251 1.30090904 10 9 9212 8.31600000 2888625597 2888625597 9.00000000
6.62210846 -0.24629375 -0.57976002 4 10 9213 6.65200000 2888625599 2888625599 -5.00000000
19.67574692 -0.73523194 3.82724690 7 11 9214 20.05800000 2888625601 2888625601 11.00000000
8.10316372 -0.30421060 -0.42496797 17 12 9215 8.12000000 2888625604 2888625604 -3.00000000
16.90499306 -0.63760531 3.90560031 38 13 9216 17.36200000 2888625606 2888625606 13.00000000
8.09495640 -0.30673218 -0.14139940 16 14 9217 8.10200000 2888625608 2888625608 -1.00000000
8.15230465 -0.31033012 2.18598557 47 15 9218 8.44600000 2888625611 2888625611 15.00000000
2.21607113 -0.08668230 -0.59424853 4 0 9224 2.29600000 2888625631 2888625631 -15.00000000
8.10051537 -0.31827012 0.14150411 18 1 9225 8.10800000 2888625634 2888625634 1.00000000
2.60343885 -0.10274448 -0.60151911 9 2 9226 2.67400000 2888625636 2888625636 -13.00000000
8.12052631 -0.32047582 0.42591003 23 3 9226 8.13800000 2888625638 2888625638 3.00000000
3.12304831 -0.12379675 -0.60753584 6 4 9227 3.18400000 2888625641 2888625641 -11.00000000
8.09464169 -0.32228434 0.70875049 72 5 9228 8.13200000 2888625643 2888625643 5.00000000
3.91996503 -0.15675680 -0.62135768 8 6 9229 3.97200000 2888625645 2888625645 -9.00000000
8.12240410 -0.32622945 0.99810994 92 7 9230 8.19000000 2888625647 2888625647 7.00000000
5.23638487 -0.21123035 -0.64347011 8 8 9231 5.28000000 2888625650 2888625650 -7.00000000
8.20299435 -0.33090028 1.30028331 10 9 9231 8.31200000 2888625652 2888625652 9.00000000
6.59338474 -0.26712295 -0.57731962 16 10 9232 6.62400000 2888625654 2888625654 -5.00000000
19.66731453 -0.80023557 3.82610202 11 11 9233 20.05200000 2888625657 2888625657 11.00000000
8.09612370 -0.33083534 -0.42465395 17 12 9234 8.11400000 2888625659 2888625659 -3.00000000
16.91446877 -0.69414020 3.90829968 40 13 9235 17.37400000 2888625661 2888625661 13.00000000
8.09589291 -0.33365670 -0.14143430 16 14 9236 8.10400000 2888625664 2888625664 -1.00000000
8.16673183 -0.33657616 2.19012666 47 15 9236 8.46200000 2888625666 2888625666 15.00000000
2.22926569 -0.09499302 -0.59787202 4 0 9244 2.31000000 2888625687 2888625687 -15.00000000
8.10135269 -0.34662971 0.14153902 18 1 9245 8.11000000 2888625689 2888625689 1.00000000
2.60695839 -0.11199884 -0.60241890 9 2 9246 2.67800000 2888625691 2888625691 -13.00000000
8.11536694 -0.34864834 0.42570066 21 3 9246 8.13400000 2888625694 2888625694 3.00000000
3.12651992 -0.13486668 -0.60829908 8 4 9247 3.18800000 2888625696 2888625696 -11.00000000
8.10740185 -0.35114142 0.70997065 72 5 9248 8.14600000 2888625698 2888625698 5.00000000
3.93123507 -0.17095399 -0.62323493 4 6 9249 3.98400000 2888625700 2888625700 -9.00000000
8.11526680 -0.35432020 0.99737871 87 7 9250 8.18400000 2888625703 2888625703 7.00000000
5.22173357 -0.22889891 -0.64176399 8 8 9251 5.26600000 2888625705 2888625705 -7.00000000
8.21362972 -0.36005113 1.30216050 10 9 9251 8.32400000 2888625707 2888625707 9.00000000
6.58644104 -0.28987375 -0.57679671 16 10 9252 6.61800000 2888625710 2888625710 -5.00000000
19.67028618 -0.86914241 3.82724690 11 11 9253 20.05800000 2888625712 2888625712 11.00000000
8.08893299 -0.35882854 -0.42433992 17 12 9254 8.10800000 2888625714 2888625714 -3.00000000
16.90415573 -0.75283170 3.90650010 36 13 9255 17.36600000 2888625717 2888625717 13.00000000
8.11066055 -0.36262915 -0.14171354 14 14 9256 8.12000000 2888625719 2888625719 -1.00000000
8.16544342 -0.36650649 2.19012666 47 15 9257 8.46200000 2888625721 2888625721 15.00000000
2.22313118 -0.10250708 -0.59631908 4 0 9264 2.30400000 2888625742 2888625742 -15.00000000
8.10808372 -0.37527642 0.14167863 15 1 9265 8.11800000 2888625744 2888625744 1.00000000
2.60460496 -0.12100770 -0.60196900 7 2 9266 2.67600000 2888625747 2888625747 -13.00000000
8.10804939 -0.37811118 0.42538664 15 3 9267 8.12800000 2888625749 2888625749 3.00000000
3.11818576 -0.14541364 -0.60677260 8 4 9267 3.18000000 2888625751 2888625751 -11.00000000
8.10811615 -0.37953255 0.71014500 72 5 9268 8.14800000 2888625753 2888625753 5.00000000
3.92272162 -0.18430468 -0.62198341 4 6 9269 3.97600000 2888625756 2888625756 -9.00000000
8.11794567 -0.38283262 0.99786621 87 7 9270 8.18800000 2888625758 2888625758 7.00000000
5.20702267 -0.24646777 -0.64005780 8 8 9271 5.25200000 2888625760 2888625760 -7.00000000
8.20837688 -0.38853306 1.30153477 10 9 9271 8.32000000 2888625763 2888625763 9.00000000
6.59135914 -0.31314659 -0.57731962 16 10 9272 6.62400000 2888625765 2888625765 -5.00000000
8.23042679 -0.39245620 1.60165071 3 11 9273 8.39400000 2888625767 2888625767 11.00000000
8.09162140 -0.38725296 -0.42454928 17 12 9274 8.11200000 2888625770 2888625770 -3.00000000
8.09336662 -0.39016810 -0.14143430 16 14 9276 8.10400000 2888625774 2888625774 -1.00000000
8.16804218 -0.39376810 2.19116211 47 15 9276 8.46600000 2888625777 2888625777 15.00000000
2.21504188 -0.10988376 -0.59424853 4 0 9284 2.29600000 2888625797 2888625797 -15.00000000
8.11071873 -0.40377548 0.14174844 15 1 9285 8.12200000 2888625800 2888625800 1.00000000
2.61000562 -0.13039044 -0.60331875 9 2 9286 2.68200000 2888625802 2888625802 -13.00000000
8.11465931 -0.40681127 0.42580533 13 3 9287 8.13600000 2888625804 2888625804 3.00000000
3.11373758 -0.15610065 -0.60600936 6 4 9287 3.17600000 2888625806 2888625806 -11.00000000
8.10276222 -0.40763265 0.70979637 72 5 9288 8.14400000 2888625809 2888625809 5.00000000
3.93586445 -0.19869359 -0.62417352 2 6 9289 3.99000000 2888625811 2888625811 -9.00000000
8.12052536 -0.41136807 0.99835366 90 7 9290 8.19200000 2888625813 2888625813 7.00000000
5.21009541 -0.26484373 -0.64054525 6 8 9291 5.25600000 2888625816 2888625816 -7.00000000
8.19703388 -0.41811252 1.29997039 10 9 9292 8.31000000 2888625818 2888625818 9.00000000
6.59619522 -0.33645731 -0.57784259 16 10 9292 6.63000000 2888625820 2888625820 -5.00000000
19.65785599 -1.00614357 3.82610202 7 11 9293 20.05200000 2888625823 2888625823 11.00000000
8.10418320 -0.41621271 -0.42528197 17 12 9294 8.12600000 2888625825 2888625825 -3.00000000
8.09195518 -0.41841686 -0.14143430 14 14 9296 8.10400000 2888625830 2888625830 -1.00000000
8.16654396 -0.42370281 2.19116211 47 15 9297 8.46600000 2888625832 2888625832 15.00000000
2.21078658 -0.11741012 -0.59321326 4 0 9304 2.29200000 2888625853 2888625853 -15.00000000
8.09528160 -0.43133992 0.14150411 15 1 9305 8.10800000 2888625855 2888625855 1.00000000
2.61537242 -0.13981235 -0.60466844 7 2 9306 2.68800000 2888625857 2888625857 -13.00000000
8.10920048 -0.43492031 0.42559600 15 3 9307 8.13200000 2888625859 2888625859 3.00000000
3.12101531 -0.16738924 -0.60753584 5 4 9307 3.18400000 2888625862 2888625862 -11.00000000
8.09134293 -0.43537882 0.70892483 76 5 9308 8.13400000 2888625864 2888625864 5.00000000
3.90555930 -0.21083389 -0.61948049 4 6 9309 3.96000000 2888625866 2888625866 -9.00000000
8.12498665 -0.44003353 0.99908489 92 7 9310 8.19800000 2888625869 2888625869 7.00000000
5.21904993 -0.28356722 -0.64176399 4 8 9311 5.26600000 2888625871 2888625871 -7.00000000
8.19165707 -0.44507819 1.29934466 10 9 9311 8.30600000 2888625873 2888625873 9.00000000
6.59100199 -0.35926339 -0.57749397 68 10 9312 6.62600000 2888625876 2888625876 -5.00000000
19.65226364 -1.07464898 3.82572031 11 11 9313 20.05000000 2888625878 2888625878 11.00000000
8.10268021 -0.44449905 -0.42528197 17 12 9314 8.12600000 2888625880 2888625880 -3.00000000
16.91091156 -0.93066376 3.91009927 40 13 9315 17.38200000 2888625883 2888625883 13.00000000
8.08645248 -0.44644001 -0.14136449 14 14 9316 8.10000000 2888625885 2888625885 -1.00000000
8.15352058 -0.45014277 2.18805623 47 15 9316 8.45400000 2888625887 2888625887 15.00000000
2.21422076 -0.12534487 -0.59424853 4 0 9324 2.29600000 2888625908 2888625908 -15.00000000
8.09971619 -0.45993522 0.14160882 12 1 9325 8.11400000 2888625910 2888625910 1.00000000
2.60319495 -0.14827593 -0.60196900 7 2 9326 2.67600000 2888625912 2888625912 -13.00000000
8.12159157 -0.46402153 0.42632869 23 3 9327 8.14600000 2888625915 2888625915 3.00000000
3.12433219 -0.17850657 -0.60829908 5 4 9327 3.18800000 2888625917 2888625917 -11.00000000
8.10369778 -0.46441820 0.71014500 76 5 9328 8.14800000 2888625919 2888625919 5.00000000
3.91071582 -0.22480565 -0.62041909 4 6 9329 3.96600000 2888625922 2888625922 -9.00000000
8.11943722 -0.46816382 0.99859738 90 7 9330 8.19400000 2888625924 2888625924 7.00000000
5.21604681 -0.30166876 -0.64152020 6 8 9331 5.26400000 2888625926 2888625926 -7.00000000
8.20180321 -0.47578552 1.30122185 10 9 9332 8.31800000 2888625929 2888625929 9.00000000
6.59169674 -0.38238347 -0.57766825 51 10 9332 6.62800000 2888625931 2888625931 -5.00000000
19.64055443 -1.14278543 3.82419395 11 11 9333 20.04200000 2888625933 2888625933 11.00000000
8.09509754 -0.47243088 -0.42496797 12 12 9334 8.12000000 2888625935 2888625935 -3.00000000
16.91923141 -0.99037141 3.91279864 36 13 9335 17.39400000 2888625938 2888625938 13.00000000
8.09682178 -0.47536749 -0.14157392 18 14 9336 8.11200000 2888625940 2888625940 -1.00000000
8.15567303 -0.48025101 2.18909144 47 15 9337 8.45800000 2888625942 2888625942 15.00000000
2.21762633 -0.13330501 -0.59528381 4 0 9344 2.30000000 2888625963 2888625963 -15.00000000
8.09406948 -0.48796502 0.14153902 12 1 9345 8.11000000 2888625965 2888625965 1.00000000
2.59682584 -0.15700905 -0.60061932 9 2 9346 2.67000000 2888625968 2888625968 -13.00000000
8.10995388 -0.49176392 0.42580533 18 3 9347 8.13600000 2888625970 2888625970 3.00000000
3.12956905 -0.18976793 -0.60944390 4 4 9347 3.19400000 2888625972 2888625972 -11.00000000
8.10998154 -0.49318630 0.71084225 79 5 9348 8.15600000 2888625975 2888625975 5.00000000
3.90793562 -0.23833497 -0.62010622 4 6 9349 3.96400000 2888625977 2888625977 -9.00000000
8.10388374 -0.49565476 0.99689120 90 7 9350 8.18000000 2888625979 2888625979 7.00000000
5.21694326 -0.31999588 -0.64176399 4 8 9351 5.26600000 2888625982 2888625982 -7.00000000
8.21595383 -0.50394857 1.30372488 10 9 9351 8.33400000 2888625984 2888625984 9.00000000
8.23590279 -0.50805795 1.60394037 3 11 9353 8.40600000 2888625988 2888625988 11.00000000
8.08542538 -0.50019187 -0.42454928 17 12 9354 8.11200000 2888625991 2888625991 -3.00000000
16.90400124 -1.04870057 3.91009927 39 13 9355 17.38200000 2888625993 2888625993 13.00000000
8.10708809 -0.50437278 -0.14178336 16 14 9356 8.12400000 2888625995 2888625995 -1.00000000
8.16560459 -0.50801331 2.19219732 47 15 9356 8.47000000 2888625998 2888625998 15.00000000
2.22100353 -0.14129046 -0.59631908 4 0 9364 2.30400000 2888626018 2888626018 -15.00000000
8.09830379 -0.51659757 0.14164373 15 1 9365 8.11600000 2888626021 2888626021 1.00000000
2.59626198 -0.16607270 -0.60061932 9 2 9366 2.67000000 2888626023 2888626023 -13.00000000
8.10420132 -0.51981425 0.42559600 18 3 9367 8.13200000 2888626025 2888626025 3.00000000
3.12105060 -0.20018834 -0.60791749 4 4 9367 3.18600000 2888626028 2888626028 -11.00000000
8.10423470 -0.52123666 0.71049362 76 5 9368 8.15200000 2888626030 2888626030 5.00000000
3.92285013 -0.25299183 -0.62260920 4 6 9369 3.98000000 2888626032 2888626032 -9.00000000
8.11597061 -0.52483630 0.99859738 90 7 9370 8.19400000 2888626035 2888626035 7.00000000
5.20787096 -0.33769065 -0.64078903 4 8 9371 5.25800000 2888626037 2888626037 -7.00000000
8.20419502 -0.53341734 1.30216050 10 9 9372 8.32400000 2888626039 2888626039 9.00000000
6.59483099 -0.42878032 -0.57819122 51 10 9372 6.63400000 2888626041 2888626041 -5.00000000
19.58899689 -1.27706361 3.81579828 19 11 9373 19.99800000 2888626044 2888626044 11.00000000
8.09160233 -0.52893335 -0.42496797 17 12 9374 8.12000000 2888626046 2888626046 -3.00000000
16.89634895 -1.10744524 3.90919948 38 13 9375 17.37800000 2888626048 2888626048 13.00000000
8.10328293 -0.53253758 -0.14174844 20 14 9376 8.12200000 2888626051 2888626051 -1.00000000
8.16368771 -0.53793830 2.19219732 49 15 9377 8.47000000 2888626053 2888626053 15.00000000
2.21281266 -0.14813863 -0.59424853 4 0 9383 2.29600000 2888626074 2888626074 -15.00000000
8.10452652 -0.54398531 0.14178336 15 1 9384 8.12400000 2888626076 2888626076 1.00000000
2.60736299 -0.17546639 -0.60331875 9 2 9385 2.68200000 2888626078 2888626078 -13.00000000
8.10841179 -0.54708928 0.42591003 26 3 9386 8.13800000 2888626081 2888626081 3.00000000
3.10665798 -0.20961186 -0.60524613 4 4 9386 3.17200000 2888626083 2888626083 -11.00000000
8.10643673 -0.54837734 0.71084225 76 5 9387 8.15600000 2888626085 2888626085 5.00000000
3.91410613 -0.26546440 -0.62135768 4 6 9388 3.97200000 2888626088 2888626088 -9.00000000
8.12210846 -0.55228561 0.99957234 92 7 9389 8.20200000 2888626090 2888626090 7.00000000
5.20870304 -0.35509375 -0.64103276 2 8 9390 5.26000000 2888626092 2888626092 -7.00000000
8.18474197 -0.55797970 1.29934466 10 9 9390 8.30600000 2888626094 2888626094 9.00000000
6.58939743 -0.45037550 -0.57784259 32 10 9391 6.63000000 2888626097 2888626097 -5.00000000
19.59640694 -1.34282136 3.81808805 38 11 9392 20.01000000 2888626099 2888626099 11.00000000
8.10375214 -0.55672139 -0.42570066 17 12 9393 8.13400000 2888626101 2888626101 -3.00000000
16.90036011 -1.16400504 3.91099906 37 13 9394 17.38600000 2888626104 2888626104 13.00000000
8.08152294 -0.55802864 -0.14139940 20 14 9395 8.10200000 2888626106 2888626106 -1.00000000
8.16195679 -0.56358260 2.19219732 47 15 9395 8.47000000 2888626108 2888626108 15.00000000
2.20071959 -0.15504727 -0.59114271 4 0 9403 2.28400000 2888626129 2888626129 -15.00000000
8.09659386 -0.57184941 0.14167863 15 1 9404 8.11800000 2888626131 2888626131 1.00000000
2.60479069 -0.18442908 -0.60286885 7 2 9405 2.68000000 2888626134 2888626134 -13.00000000
8.11641407 -0.57609659 0.42643338 23 3 9406 8.14800000 2888626136 2888626136 3.00000000
3.12353230 -0.22170585 -0.60868067 4 4 9406 3.19000000 2888626138 2888626138 -11.00000000
8.09652424 -0.57610512 0.71014500 76 5 9407 8.14800000 2888626141 2888626141 5.00000000
3.91906691 -0.27954718 -0.62229627 4 6 9408 3.97800000 2888626143 2888626143 -9.00000000
8.11419106 -0.58020896 0.99884117 90 7 9409 8.19600000 2888626145 2888626145 7.00000000
5.20347166 -0.37298948 -0.64054525 2 8 9410 5.25600000 2888626147 2888626147 -7.00000000
8.20234489 -0.58939034 1.30247331 7 9 9411 8.32600000 2888626150 2888626150 9.00000000
6.57784891 -0.47266003 -0.57697099 20 10 9411 6.62000000 2888626152 2888626152 -5.00000000
19.62097168 -1.41333318 3.82381225 38 11 9412 20.04000000 2888626154 2888626154 11.00000000
8.10574341 -0.58529305 -0.42591003 17 12 9413 8.13800000 2888626157 2888626157 -3.00000000
16.90396881 -1.22355402 3.91279864 37 13 9414 17.39400000 2888626159 2888626159 13.00000000
8.09149265 -0.58710331 -0.14160882 20 14 9415 8.11400000 2888626161 2888626161 -1.00000000
8.14827633 -0.59265304 2.18909144 47 15 9416 8.45800000 2888626164 2888626164 15.00000000
2.20016503 -0.16272828 -0.59114271 4 0 9423 2.28400000 2888626184 2888626184 -15.00000000
8.09255505 -0.59996051 0.14164373 15 1 9424 8.11600000 2888626187 2888626187 1.00000000
2.59635758 -0.19294269 -0.60106921 7 2 9425 2.67200000 2888626189 2888626189 -13.00000000
8.11833668 -0.60472137 0.42664272 21 3 9426 8.15200000 2888626191 2888626191 3.00000000
3.11490798 -0.23202433 -0.60715425 4 4 9426 3.18200000 2888626194 2888626194 -11.00000000
8.10042381 -0.60480875 0.71066791 72 5 9427 8.15400000 2888626196 2888626196 5.00000000
3.88851905 -0.29101422 -0.61760324 6 6 9428 3.94800000 2888626198 2888626198 -9.00000000
8.11805439 -0.60897470 0.99957234 92 7 9429 8.20200000 2888626200 2888626200 7.00000000
5.20807648 -0.39159724 -0.64127648 4 8 9430 5.26200000 2888626203 2888626203 -7.00000000
8.20034504 -0.61658704 1.30247331 10 9 9430 8.32600000 2888626205 2888626205 9.00000000
6.58410597 -0.49621707 -0.57766825 20 10 9431 6.62800000 2888626207 2888626207 -5.00000000
19.61200333 -1.48151875 3.82304907 27 11 9432 20.03600000 2888626210 2888626210 11.00000000
8.10763454 -0.61388540 -0.42611936 17 12 9433 8.14200000 2888626212 2888626212 -3.00000000
16.90736771 -1.28314221 3.91459823 38 13 9434 17.40200000 2888626214 2888626214 13.00000000
8.09138775 -0.61549598 -0.14164373 16 14 9435 8.11600000 2888626217 2888626217 -1.00000000
8.15589714 -0.62040311 2.19167972 51 15 9435 8.46800000 2888626219 2888626219 15.00000000
2.20728779 -0.17100416 -0.59321326 4 0 9443 2.29200000 2888626240 2888626240 -15.00000000
8.09439850 -0.62851477 0.14171354 12 1 9444 8.12000000 2888626242 2888626242 1.00000000
2.58595395 -0.20124850 -0.59881973 6 2 9445 2.66200000 2888626244 2888626244 -13.00000000
8.10422897 -0.63212413 0.42601469 23 3 9446 8.14000000 2888626247 2888626247 3.00000000
3.11407924 -0.24289596 -0.60715425 4 4 9446 3.18200000 2888626249 2888626249 -11.00000000
8.12209988 -0.63494420 0.71275967 90 5 9447 8.17800000 2888626251 2888626251 5.00000000
3.89141822 -0.30489454 -0.61822903 6 6 9448 3.95200000 2888626253 2888626253 -9.00000000
8.10202599 -0.63622051 0.99786621 87 7 9449 8.18800000 2888626256 2888626256 7.00000000
5.21063566 -0.41008592 -0.64176399 4 8 9450 5.26600000 2888626258 2888626258 -7.00000000
8.19814301 -0.64520782 1.30247331 10 9 9450 8.32600000 2888626260 2888626260 9.00000000
6.59822369 -0.52045023 -0.57906276 52 10 9451 6.64400000 2888626263 2888626263 -5.00000000
8.19849491 -0.64811516 1.59859776 6 11 9452 8.37800000 2888626265 2888626265 11.00000000
8.09150505 -0.64107835 -0.42538664 17 12 9453 8.12800000 2888626267 2888626267 -3.00000000
16.89890099 -1.34184372 3.91369843 38 13 9454 17.39800000 2888626270 2888626270 13.00000000
8.10115051 -0.64468825 -0.14185315 16 14 9455 8.12800000 2888626272 2888626272 -1.00000000
8.15945911 -0.64932847 2.19323254 47 15 9455 8.47400000 2888626274 2888626274 15.00000000
2.21052861 -0.17901988 -0.59424853 4 0 9463 2.29600000 2888626295 2888626295 -15.00000000
8.09414864 -0.65692741 0.14174844 12 1 9464 8.12200000 2888626297 2888626297 1.00000000
2.59300494 -0.21090586 -0.60061932 6 2 9465 2.67000000 2888626300 2888626300 -13.00000000
8.09799194 -0.66008478 0.42580533 23 3 9466 8.13600000 2888626302 2888626302 3.00000000
3.11712599 -0.25408366 -0.60791749 4 4 9466 3.18600000 2888626304 2888626304 -11.00000000
8.10791874 -0.66231847 0.71171379 76 5 9467 8.16600000 2888626306 2888626306 5.00000000
3.89229918 -0.31863743 -0.61854190 6 6 9468 3.95400000 2888626309 2888626309 -9.00000000
8.11162663 -0.66547185 0.99932861 90 7 9469 8.20000000 2888626311 2888626311 7.00000000
5.16564751 -0.42469352 -0.63640171 4 8 9470 5.22200000 2888626313 2888626313 -7.00000000
8.19178581 -0.67492682 1.30184758 7 9 9471 8.32200000 2888626316 2888626316 9.00000000
6.60033798 -0.54380631 -0.57941139 56 10 9471 6.64800000 2888626318 2888626318 -5.00000000
19.63640213 -1.62130702 3.82991815 23 11 9472 20.07200000 2888626320 2888626320 11.00000000
8.08722687 -0.66915435 -0.42528197 17 12 9473 8.12600000 2888626323 2888626323 -3.00000000
16.89411354 -1.40082371 3.91369843 38 13 9474 17.39800000 2888626325 2888626325 13.00000000
8.08888626 -0.67213464 -0.14167863 16 14 9475 8.11800000 2888626327 2888626327 -1.00000000
8.16484451 -0.67844623 2.19530320 49 15 9475 8.48200000 2888626329 2888626329 15.00000000
2.20989013 -0.18673497 -0.59424853 4 0 9483 2.29600000 2888626350 2888626350 -15.00000000
8.09977627 -0.68585211 0.14188807 15 1 9484 8.13000000 2888626353 2888626353 1.00000000
2.59807825 -0.22045013 -0.60196900 7 2 9485 2.67600000 2888626355 2888626355 -13.00000000
8.09563828 -0.68834805 0.42580533 18 3 9486 8.13600000 2888626357 2888626357 3.00000000
3.11035132 -0.26446390 -0.60677260 5 4 9486 3.18000000 2888626359 2888626359 -11.00000000
8.10158730 -0.69027811 0.71136516 76 5 9487 8.16200000 2888626362 2888626362 5.00000000
3.89706779 -0.33272627 -0.61948049 6 6 9488 3.96000000 2888626364 2888626364 -9.00000000
8.11123276 -0.69395185 0.99957234 95 7 9489 8.20200000 2888626366 2888626366 7.00000000
5.17797804 -0.44390932 -0.63810790 4 8 9490 5.23600000 2888626369 2888626369 -7.00000000
8.19725227 -0.70419365 1.30309904 7 9 9491 8.33000000 2888626371 2888626371 9.00000000
6.59839964 -0.56684250 -0.57941139 100 10 9491 6.64800000 2888626373 2888626373 -5.00000000
19.64040375 -1.69068289 3.83182621 38 11 9492 20.08200000 2888626376 2888626376 11.00000000
8.09280205 -0.69806653 -0.42570066 17 12 9493 8.13400000 2888626378 2888626378 -3.00000000
16.89494514 -1.46029007 3.91504812 36 13 9494 17.40400000 2888626380 2888626380 13.00000000
8.08250618 -0.70002097 -0.14160882 16 14 9495 8.11400000 2888626382 2888626382 -1.00000000
8.15845299 -0.70803326 2.19426775 47 15 9496 8.47800000 2888626385 2888626385 15.00000000
2.20152736 -0.19377027 -0.59217799 4 0 9503 2.28800000 2888626406 2888626406 -15.00000000
8.09334850 -0.71377009 0.14181826 15 1 9504 8.12600000 2888626408 2888626408 1.00000000
2.59923410 -0.22968931 -0.60241890 6 2 9505 2.67800000 2888626410 2888626410 -13.00000000
8.10910225 -0.71801215 0.42664272 21 3 9506 8.15200000 2888626412 2888626412 3.00000000
3.11527610 -0.27583891 -0.60791749 4 4 9506 3.18600000 2888626415 2888626415 -11.00000000
8.09714413 -0.71837765 0.71119088 76 5 9507 8.16000000 2888626417 2888626417 5.00000000
3.88997984 -0.34580281 -0.61854190 6 6 9508 3.95400000 2888626419 2888626419 -9.00000000
8.11073780 -0.72243720 0.99981612 87 7 9509 8.20400000 2888626422 2888626422 7.00000000
5.17244291 -0.46162823 -0.63762039 6 8 9510 5.23200000 2888626424 2888626424 -7.00000000
8.19080925 -0.73245120 1.30247331 7 9 9511 8.32600000 2888626426 2888626426 9.00000000
6.59836531 -0.59004921 -0.57958567 125 10 9511 6.65000000 2888626429 2888626429 -5.00000000
19.62851524 -1.75870478 3.83068132 38 11 9512 20.07600000 2888626431 2888626431 11.00000000
8.11816502 -0.72881168 -0.42716607 17 12 9513 8.16200000 2888626433 2888626433 -3.00000000
8.08399677 -0.72858888 -0.14167863 16 14 9515 8.11800000 2888626438 2888626438 -1.00000000
8.14836407 -0.73439014 2.19219732 47 15 9515 8.47000000 2888626440 2888626440 15.00000000
2.21238041 -0.20251043 -0.59528381 4 0 9523 2.30000000 2888626461 2888626461 -15.00000000
8.08682537 -0.74165154 0.14174844 12 1 9524 8.12200000 2888626463 2888626463 1.00000000
2.59259486 -0.23822600 -0.60106921 7 2 9525 2.67200000 2888626465 2888626465 -13.00000000
8.11052418 -0.74668002 0.42685205 18 3 9526 8.15600000 2888626468 2888626468 3.00000000
3.11038423 -0.28635162 -0.60715425 4 4 9526 3.18200000 2888626470 2888626470 -11.00000000
8.09855461 -0.74700356 0.71153951 79 5 9527 8.16400000 2888626472 2888626472 5.00000000
3.87694693 -0.35828859 -0.61666465 6 6 9528 3.94200000 2888626475 2888626475 -9.00000000
8.11014366 -0.75092763 1.00005984 90 7 9529 8.20600000 2888626477 2888626477 7.00000000
5.18661261 -0.48114750 -0.63957030 8 8 9530 5.24800000 2888626479 2888626479 -7.00000000
8.18820286 -0.76103801 1.30247331 7 9 9531 8.32600000 2888626482 2888626482 9.00000000
6.58634615 -0.61215627 -0.57871413 104 10 9531 6.64000000 2888626484 2888626484 -5.00000000
19.61639214 -1.82666421 3.82953644 34 11 9532 20.07000000 2888626486 2888626486 11.00000000
8.09966278 -0.75566065 -0.42632869 17 12 9533 8.14600000 2888626488 2888626488 -3.00000000
16.91538239 -1.58110416 3.92224669 24 13 9534 17.43600000 2888626491 2888626491 13.00000000
8.09534168 -0.75810802 -0.14192297 18 14 9535 8.13200000 2888626493 2888626493 -1.00000000
8.14959812 -0.76318902 2.19323254 47 15 9535 8.47400000 2888626495 2888626495 15.00000000
2.20019364 -0.20836699 -0.59217799 4 0 9541 2.28800000 2888626516 2888626516 -15.00000000
8.08843708 -0.76743114 0.14181826 12 1 9542 8.12600000 2888626518 2888626518 1.00000000
2.58213377 -0.24544765 -0.59881973 6 2 9543 2.66200000 2888626521 2888626521 -13.00000000
8.11224937 -0.77111912 0.42706141 15 3 9543 8.16000000 2888626523 2888626523 3.00000000
3.11337829 -0.29649401 -0.60791749 4 4 9544 3.18600000 2888626525 2888626525 -11.00000000
8.10806847 -0.77357757 0.71258533 79 5 9545 8.17600000 2888626528 2888626528 5.00000000
3.88366795 -0.37121841 -0.61791611 6 6 9546 3.95000000 2888626530 2888626530 -9.00000000
8.09984016 -0.77564573 0.99908489 90 7 9547 8.19800000 2888626532 2888626532 7.00000000
5.17519522 -0.49649146 -0.63835162 8 8 9548 5.23800000 2888626534 2888626534 -7.00000000
8.21737003 -0.78834784 1.30747926 7 9 9548 8.35800000 2888626537 2888626537 9.00000000
19.61837387 -1.88903451 3.83106303 38 11 9550 20.07800000 2888626541 2888626541 11.00000000
8.08929634 -0.78033566 -0.42591003 17 12 9551 8.13800000 2888626544 2888626544 -3.00000000
16.87735748 -1.63105083 3.91459823 30 13 9552 17.40200000 2888626546 2888626546 13.00000000
8.09292030 -0.78353649 -0.14192297 16 14 9553 8.13200000 2888626548 2888626548 -1.00000000
8.15869713 -0.78990489 2.19633842 49 15 9553 8.48600000 2888626551 2888626551 15.00000000
2.20329809 -0.21642353 -0.59321326 4 0 9561 2.29200000 2888626571 2888626571 -15.00000000
8.09366894 -0.79644370 0.14195788 12 1 9562 8.13400000 2888626574 2888626574 1.00000000
2.58320045 -0.25465065 -0.59926963 5 2 9563 2.66400000 2888626576 2888626576 -13.00000000
8.09744358 -0.79966909 0.42643338 15 3 9564 8.14800000 2888626578 2888626578 3.00000000
3.11232424 -0.30735990 -0.60791749 4 4 9564 3.18600000 2888626581 2888626581 -11.00000000
8.11721516 -0.80305225 0.71363121 79 5 9565 8.18800000 2888626583 2888626583 5.00000000
3.86858821 -0.38340893 -0.61572605 6 6 9566 3.93600000 2888626585 2888626585 -9.00000000
8.10696030 -0.80489534 1.00030363 87 7 9567 8.20800000 2888626587 2888626587 7.00000000
5.16355419 -0.51357090 -0.63713294 8 8 9568 5.22800000 2888626590 2888626590 -7.00000000
8.20263195 -0.81728560 1.30560207 7 9 9569 8.34600000 2888626592 2888626592 9.00000000
6.58808899 -0.65641743 -0.57923704 40 10 9569 6.64600000 2888626594 2888626594 -5.00000000
19.61361313 -1.95769894 3.83144474 38 11 9570 20.08000000 2888626597 2888626597 11.00000000
8.10043526 -0.80995882 -0.42664272 17 12 9571 8.15200000 2888626599 2888626599 -3.00000000
16.88513374 -1.69131339 3.91774750 36 13 9572 17.41600000 2888626601 2888626601 13.00000000
8.09013557 -0.81178129 -0.14192297 14 14 9573 8.13200000 2888626604 2888626604 -1.00000000
8.16151428 -0.82038236 2.19789124 56 15 9574 8.49200000 2888626606 2888626606 15.00000000
2.20252919 -0.22411315 -0.59321326 4 0 9581 2.29200000 2888626627 2888626627 -15.00000000
8.10277653 -0.82590765 0.14216730 12 1 9582 8.14600000 2888626629 2888626629 1.00000000
2.58617330 -0.26406205 -0.60016942 4 2 9583 2.66800000 2888626631 2888626631 -13.00000000
8.10269451 -0.82732826 0.42685205 15 3 9583 8.15600000 2888626634 2888626634 3.00000000
3.10342026 -0.31742302 -0.60639101 4 4 9584 3.17800000 2888626636 2888626636 -11.00000000
8.10643482 -0.83056939 0.71293396 79 5 9585 8.18000000 2888626638 2888626638 5.00000000
3.88687682 -0.39892733 -0.61885476 4 6 9586 3.95600000 2888626640 2888626640 -9.00000000
8.10607529 -0.83339202 1.00054729 95 7 9587 8.21000000 2888626643 2888626643 7.00000000
5.16962862 -0.53240538 -0.63810790 6 8 9588 5.23600000 2888626645 2888626645 -7.00000000
8.19579887 -0.84550774 1.30497634 7 9 9589 8.34200000 2888626647 2888626647 9.00000000
6.57981205 -0.67879677 -0.57871413 40 10 9589 6.64000000 2888626650 2888626650 -5.00000000
19.61837769 -2.02736211 3.83373427 42 11 9590 20.09200000 2888626652 2888626652 11.00000000
8.09755802 -0.83822966 -0.42664272 17 12 9591 8.15200000 2888626654 2888626654 -3.00000000
16.88106537 -1.75044429 3.91819739 36 13 9592 17.41800000 2888626657 2888626657 13.00000000
8.08128548 -0.83939642 -0.14181826 16 14 9593 8.12600000 2888626659 2888626659 -1.00000000
8.15490532 -0.84704328 2.19685602 49 15 9593 8.48800000 2888626661 2888626661 15.00000000
2.19020629 -0.23058644 -0.59010744 4 0 9601 2.28000000 2888626682 2888626682 -15.00000000
8.09984398 -0.85418659 0.14216730 12 1 9602 8.14600000 2888626684 2888626684 1.00000000
2.59298754 -0.27390674 -0.60196900 4 2 9603 2.67600000 2888626686 2888626686 -13.00000000
8.10770226 -0.85644615 0.42727074 15 3 9603 8.16400000 2888626689 2888626689 3.00000000
3.08862662 -0.32680801 -0.60371965 5 4 9604 3.16400000 2888626691 2888626691 -11.00000000
8.09159851 -0.85760117 0.71188813 76 5 9605 8.16800000 2888626693 2888626693 5.00000000
3.87760329 -0.41165847 -0.61760324 4 6 9606 3.94800000 2888626696 2888626696 -9.00000000
8.11496067 -0.86294186 1.00200975 90 7 9607 8.22200000 2888626698 2888626698 7.00000000
5.15984297 -0.54960650 -0.63713294 6 8 9608 5.22800000 2888626700 2888626700 -7.00000000
8.20065403 -0.87494951 1.30622780 7 9 9609 8.35000000 2888626703 2888626703 9.00000000
6.57740259 -0.70176047 -0.57871413 16 10 9609 6.64000000 2888626705 2888626705 -5.00000000
19.61508560 -2.09624791 3.83449769 38 11 9610 20.09600000 2888626707 2888626707 11.00000000
8.10252666 -0.86734062 -0.42706141 17 12 9611 8.16000000 2888626710 2888626710 -3.00000000
16.88454056 -1.81039834 3.92044687 36 13 9612 17.42800000 2888626712 2888626712 13.00000000
8.08228302 -0.86802733 -0.14188807 16 14 9613 8.13000000 2888626714 2888626714 -1.00000000
8.14421558 -0.87467885 2.19478559 51 15 9613 8.48000000 2888626716 2888626716 15.00000000
2.19707012 -0.23906618 -0.59217799 4 0 9621 2.28800000 2888626737 2888626737 -15.00000000
8.08488560 -0.88115519 0.14195788 12 1 9622 8.13400000 2888626739 2888626739 1.00000000
2.57651782 -0.28126445 -0.59836978 4 2 9623 2.66000000 2888626742 2888626742 -13.00000000
8.10847950 -0.88659078 0.42748010 13 3 9624 8.16800000 2888626744 2888626744 3.00000000
3.10698342 -0.33972126 -0.60753584 5 4 9624 3.18400000 2888626746 2888626746 -11.00000000
8.10043812 -0.88714230 0.71293396 79 5 9625 8.18000000 2888626749 2888626749 5.00000000
3.87221551 -0.42476052 -0.61697751 4 6 9626 3.94400000 2888626751 2888626751 -9.00000000
8.11189938 -0.89126313 1.00200975 90 7 9627 8.22200000 2888626753 2888626753 7.00000000
5.15394640 -0.56718010 -0.63664544 6 8 9628 5.22400000 2888626756 2888626756 -7.00000000
8.19378090 -0.90170693 1.30560207 7 9 9628 8.34600000 2888626758 2888626758 9.00000000
6.57887363 -0.72515219 -0.57906276 16 10 9629 6.64400000 2888626760 2888626760 -5.00000000
19.60374641 -2.16427374 3.83373427 38 11 9630 20.09200000 2888626763 2888626763 11.00000000
8.10143471 -0.89583796 -0.42716607 17 12 9631 8.16200000 2888626765 2888626765 -3.00000000
16.88973999 -1.87061238 3.92314649 33 13 9632 17.44000000 2888626767 2888626767 13.00000000
8.09907913 -0.89843923 -0.14223711 16 14 9633 8.15000000 2888626769 2888626769 -1.00000000
8.14479542 -0.90494967 2.19582081 47 15 9634 8.48400000 2888626772 2888626772 15.00000000
2.20006156 -0.24716528 -0.59321326 4 0 9641 2.29200000 2888626792 2888626792 -15.00000000
8.08176041 -0.90937132 0.14195788 12 1 9642 8.13400000 2888626795 2888626795 1.00000000
2.56390142 -0.28894705 -0.59567040 4 2 9643 2.64800000 2888626797 2888626797 -13.00000000
8.09954071 -0.91280359 0.42716607 10 3 9643 8.16200000 2888626799 2888626799 3.00000000
3.10382771 -0.35034439 -0.60715425 5 4 9644 3.18200000 2888626802 2888626802 -11.00000000
8.10719109 -0.91653180 0.71380556 83 5 9645 8.19000000 2888626804 2888626804 5.00000000
3.87070918 -0.43827450 -0.61697751 4 6 9646 3.94400000 2888626806 2888626806 -9.00000000
8.09690380 -0.91823137 1.00054729 90 7 9647 8.21000000 2888626809 2888626809 7.00000000
5.15193558 -0.58516723 -0.63664544 6 8 9648 5.22400000 2888626811 2888626811 -7.00000000
8.20612240 -0.93351877 1.30810499 7 9 9649 8.36200000 2888626813 2888626813 9.00000000
6.59609842 -0.75036430 -0.58080590 44 10 9649 6.66400000 2888626816 2888626816 -5.00000000
19.60387421 -2.23357940 3.83526087 38 11 9650 20.10000000 2888626818 2888626818 11.00000000
8.08635235 -0.92275316 -0.42653805 17 12 9651 8.15000000 2888626820 2888626820 -3.00000000
16.86761856 -1.92778695 3.91954708 36 13 9652 17.42400000 2888626822 2888626822 13.00000000
8.09390640 -0.92647737 -0.14220221 14 14 9653 8.14800000 2888626825 2888626825 -1.00000000
8.15118313 -0.93447495 2.19840908 47 15 9654 8.49400000 2888626827 2888626827 15.00000000
2.19530296 -0.25478181 -0.59217799 4 0 9662 2.28800000 2888626848 2888626848 -15.00000000
8.09426308 -0.94083339 0.14223711 12 1 9663 8.15000000 2888626850 2888626850 1.00000000
2.57443905 -0.29969427 -0.59836978 5 2 9664 2.66000000 2888626852 2888626852 -13.00000000
8.09415722 -0.94225281 0.42706141 10 3 9664 8.16000000 2888626855 2888626855 3.00000000
3.09472251 -0.36080870 -0.60562778 5 4 9665 3.17400000 2888626857 2888626857 -11.00000000
8.10971451 -0.94693321 0.71432847 79 5 9666 8.19600000 2888626859 2888626859 5.00000000
3.87692499 -0.45337617 -0.61822903 4 6 9667 3.95200000 2888626862 2888626862 -9.00000000
8.09939861 -0.94859457 1.00127852 90 7 9668 8.21600000 2888626864 2888626864 7.00000000
5.14384127 -0.60335231 -0.63591421 6 8 9669 5.21800000 2888626866 2888626866 -7.00000000
8.19104290 -0.96077704 1.30622780 7 9 9669 8.35000000 2888626869 2888626869 9.00000000
6.59528255 -0.77476764 -0.58098018 100 10 9670 6.66600000 2888626871 2888626871 -5.00000000
19.59750557 -2.30564547 3.83564234 38 11 9671 20.10200000 2888626873 2888626873 11.00000000
8.09481716 -0.95378721 -0.42716607 17 12 9672 8.16200000 2888626875 2888626875 -3.00000000
16.86431122 -1.99005365 3.92044687 36 13 9673 17.42800000 2888626878 2888626878 13.00000000
8.08251286 -0.95519805 -0.14206259 14 14 9674 8.14000000 2888626880 2888626880 -1.00000000
8.15537739 -0.96525252 2.20047951 49 15 9675 8.50200000 2888626882 2888626882 15.00000000
2.19823670 -0.26290214 -0.59321326 4 0 9682 2.29200000 2888626903 2888626903 -15.00000000
8.10284328 -0.97050875 0.14244655 12 1 9683 8.16200000 2888626905 2888626905 1.00000000
2.57531214 -0.30891103 -0.59881973 6 2 9684 2.66200000 2888626908 2888626908 -13.00000000
8.09875107 -0.97145241 0.42748010 13 3 9684 8.16800000 2888626910 2888626910 3.00000000
3.07979965 -0.36996999 -0.60295641 5 4 9685 3.16000000 2888626912 2888626912 -11.00000000
