# .PCD v0.7 - Point Cloud Data file format
VERSION 0.7
FIELDS x y z intensity laser_id azimuth distance_m adjustedtime timestamp vertical_angle
SIZE 4 4 4 1 1 2 8 8 4 8
TYPE F F F U U U F U U F
COUNT 1 1 1 1 1 1 1 1 1 1
WIDTH 537
HEIGHT 1
VIEWPOINT 0 0 0 1 0 0 0
POINTS 537
DATA ascii
8.14736176 1.06538820 0.43062025 55 3 8255 8.22800000 2889222892 2889222892 3.00000000
3.16148257 0.41284946 -0.61974764 5 4 8256 3.24800000 2889222894 2889222894 -11.00000000
8.14762402 1.06252992 0.71886057 83 5 8257 8.24800000 2889222896 2889222896 5.00000000
3.97055888 0.51709497 -0.63418531 9 6 8258 4.05400000 2889222898 2889222898 -9.00000000
8.14768028 1.05964494 1.00883448 92 7 8259 8.27800000 2889222901 2889222901 7.00000000
5.29936028 0.68826675 -0.65614456 6 8 8260 5.38400000 2889222903 2889222903 -7.00000000
21.35031319 2.77292156 3.40995836 100 9 8260 21.79800000 2889222905 2889222905 9.00000000
7.89940786 1.02455199 -0.69689733 29 10 8261 7.99600000 2889222908 2889222908 -5.00000000
17.66115379 2.28751493 3.46165681 3 11 8262 18.14200000 2889222910 2889222910 11.00000000
8.13497543 1.05221784 -0.42988753 17 12 8263 8.21400000 2889222912 2889222912 -3.00000000
16.60755539 2.14515591 3.86600876 46 13 8264 17.18600000 2889222915 2889222915 13.00000000
8.14724922 1.05091405 -0.14338897 14 14 8265 8.21600000 2889222917 2889222917 -1.00000000
8.18907452 1.05485594 2.21238518 58 15 8266 8.54800000 2889222919 2889222919 15.00000000
2.23634672 0.28529254 -0.60408366 4 0 8273 2.33400000 2889222940 2889222940 -15.00000000
8.14293957 1.03735697 0.14328426 15 1 8274 8.21000000 2889222942 2889222942 1.00000000
2.60589957 0.33151227 -0.60646802 7 2 8275 2.69600000 2889222945 2889222945 -13.00000000
8.13139820 1.03300238 0.42957354 52 3 8276 8.20800000 2889222947 2889222947 3.00000000
3.14732361 0.39983195 -0.61669469 6 4 8276 3.23200000 2889222949 2889222949 -11.00000000
8.15325928 1.03433371 0.71903485 76 5 8277 8.25000000 2889222951 2889222951 5.00000000
3.96450090 0.50223893 -0.63293386 6 6 8278 4.04600000 2889222954 2889222954 -9.00000000
8.14935970 1.03094864 1.00859070 99 7 8279 8.27600000 2889222956 2889222956 7.00000000
5.28597498 0.66777390 -0.65419465 6 8 8280 5.36800000 2889222958 2889222958 -7.00000000
21.33438492 2.69515967 3.40589118 95 9 8280 21.77200000 2889222961 2889222961 9.00000000
8.11246872 1.02340460 -0.71537435 13 10 8281 8.20800000 2889222963 2889222963 -5.00000000
17.66513634 2.22536111 3.46089363 3 11 8282 18.13800000 2889222965 2889222965 11.00000000
8.13067245 1.02281797 -0.42946887 17 12 8283 8.20600000 2889222968 2889222968 -3.00000000
16.66134644 2.09300113 3.87680650 42 13 8284 17.23400000 2889222970 2889222970 13.00000000
8.13499546 1.02047729 -0.14310974 14 14 8285 8.20000000 2889222972 2889222972 -1.00000000
8.18869305 1.02721334 2.21134996 56 15 8285 8.54400000 2889222975 2889222975 15.00000000
2.22007465 0.27534452 -0.59942490 4 0 8293 2.31600000 2889222995 2889222995 -15.00000000
8.14452648 1.00868070 0.14324935 12 1 8294 8.20800000 2889222998 2889222998 1.00000000
2.61284280 0.32313153 -0.60781777 9 2 8295 2.70200000 2889223000 2889223000 -13.00000000
8.14486599 1.00583613 0.43009689 49 3 8296 8.21800000 2889223002 2889223002 3.00000000
3.13311243 0.38691834 -0.61364174 6 4 8296 3.21600000 2889223004 2889223004 -11.00000000
8.14495564 1.00440407 0.71798903 90 5 8297 8.23800000 2889223007 2889223007 5.00000000
3.98779607 0.49105284 -0.63637543 6 6 8298 4.06800000 2889223009 2889223009 -9.00000000
8.15487957 1.00273800 1.00883448 97 7 8299 8.27800000 2889223011 2889223011 7.00000000
5.29221439 0.64980221 -0.65468210 9 8 8300 5.37200000 2889223014 2889223014 -7.00000000
21.32647324 2.61478353 3.40307546 100 9 8301 21.75400000 2889223016 2889223016 9.00000000
8.11599159 0.99508065 -0.71537435 17 10 8301 8.20800000 2889223018 2889223018 -5.00000000
17.68059158 2.16463923 3.46241999 10 11 8302 18.14600000 2889223021 2889223021 11.00000000
8.13617611 0.99467272 -0.42957354 17 12 8303 8.20800000 2889223023 2889223023 -3.00000000
16.67242050 2.03530169 3.87770629 38 13 8304 17.23800000 2889223025 2889223025 13.00000000
8.12461281 0.99038082 -0.14286540 14 14 8305 8.18600000 2889223028 2889223028 -1.00000000
8.18856812 0.99672651 2.21031475 60 15 8306 8.54000000 2889223030 2889223030 15.00000000
2.21709275 0.26790509 -0.59838963 4 0 8311 2.31200000 2889223051 2889223051 -15.00000000
8.14169884 0.98237038 0.14314464 12 1 8312 8.20200000 2889223053 2889223053 1.00000000
2.61577988 0.31515455 -0.60826766 7 2 8313 2.70400000 2889223055 2889223055 -13.00000000
8.14401913 0.97976625 0.42988753 42 3 8314 8.21400000 2889223057 2889223057 3.00000000
3.13821101 0.37754247 -0.61440498 6 4 8314 3.22000000 2889223060 2889223060 -11.00000000
8.12828922 0.97643471 0.71624589 83 5 8315 8.21800000 2889223062 2889223062 5.00000000
3.99128032 0.47875768 -0.63668829 6 6 8316 4.07000000 2889223064 2889223064 -9.00000000
8.16390228 0.97782207 1.00956559 99 7 8317 8.28400000 2889223067 2889223067 7.00000000
5.30211401 0.63411599 -0.65565705 6 8 8318 5.38000000 2889223069 2889223069 -7.00000000
21.32629204 2.55055690 3.40182376 100 9 8318 21.74600000 2889223071 2889223071 9.00000000
8.09533787 0.96674359 -0.71328259 17 10 8319 8.18400000 2889223074 2889223074 -5.00000000
17.67950630 2.10815358 3.46089363 18 11 8320 18.13800000 2889223076 2889223076 11.00000000
8.13727760 0.96887118 -0.42946887 21 12 8321 8.20600000 2889223078 2889223078 -3.00000000
16.69421196 1.98475432 3.88130546 41 13 8322 17.25400000 2889223081 2889223081 13.00000000
8.12569809 0.96461600 -0.14283049 14 14 8323 8.18400000 2889223083 2889223083 -1.00000000
8.17614269 0.97060430 2.20617366 49 15 8323 8.52400000 2889223085 2889223085 15.00000000
2.22760797 0.26128966 -0.60097784 4 0 8331 2.32200000 2889223106 2889223106 -15.00000000
8.11925888 0.95092058 0.14269088 12 1 8332 8.17600000 2889223108 2889223108 1.00000000
2.61299276 0.30556917 -0.60736787 7 2 8333 2.70000000 2889223110 2889223110 -13.00000000
8.14143848 0.95063746 0.42957354 28 3 8334 8.20800000 2889223113 2889223113 3.00000000
3.14730978 0.36749655 -0.61593145 8 4 8334 3.22800000 2889223115 2889223115 -11.00000000
8.13164806 0.94805574 0.71624589 76 5 8335 8.21800000 2889223117 2889223117 5.00000000
3.98311663 0.46368051 -0.63512391 6 6 8336 4.06000000 2889223120 2889223120 -9.00000000
8.14557552 0.94679761 1.00688446 97 7 8337 8.26200000 2889223122 2889223122 7.00000000
5.29640770 0.61468887 -0.65468210 9 8 8338 5.37200000 2889223124 2889223124 -7.00000000
21.32961082 2.47169280 3.40088534 100 9 8339 21.74000000 2889223127 2889223127 9.00000000
8.10657978 0.93939710 -0.71397984 17 10 8339 8.19200000 2889223129 2889223129 -5.00000000
17.62825012 2.03965807 3.44944501 14 11 8340 18.07800000 2889223131 2889223131 11.00000000
8.13862514 0.94023168 -0.42936417 17 12 8341 8.20400000 2889223133 2889223133 -3.00000000
16.70491028 1.92691517 3.88220525 39 13 8342 17.25800000 2889223136 2889223136 13.00000000
8.13696194 0.93716139 -0.14297011 14 14 8343 8.19200000 2889223138 2889223138 -1.00000000
8.18348312 0.94107217 2.20720887 56 15 8344 8.52800000 2889223140 2889223140 15.00000000
2.23042607 0.25373062 -0.60149544 4 0 8351 2.32400000 2889223161 2889223161 -15.00000000
8.12848949 0.92325032 0.14279559 15 1 8352 8.18200000 2889223163 2889223163 1.00000000
2.60436201 0.29534832 -0.60511833 6 2 8353 2.69000000 2889223166 2889223166 -13.00000000
8.14073753 0.92176330 0.42936417 26 3 8354 8.20400000 2889223168 2889223168 3.00000000
3.14272094 0.35584548 -0.61478657 6 4 8354 3.22200000 2889223170 2889223170 -11.00000000
8.14084721 0.92033666 0.71676880 76 5 8355 8.22400000 2889223173 2889223173 5.00000000
3.97882223 0.44910932 -0.63418531 9 6 8356 4.05400000 2889223175 2889223175 -9.00000000
8.14291286 0.91769159 1.00615335 100 7 8357 8.25600000 2889223177 2889223177 7.00000000
5.28273964 0.59442151 -0.65273219 6 8 8358 5.35600000 2889223180 2889223180 -7.00000000
21.33769035 2.40094781 3.40088534 95 9 8358 21.74000000 2889223182 2889223182 9.00000000
8.09594917 0.90953708 -0.71275967 17 10 8359 8.17800000 2889223184 2889223184 -5.00000000
17.66843033 1.98183191 3.45593262 25 11 8360 18.11200000 2889223186 2889223186 11.00000000
8.13193417 0.91070539 -0.42884082 17 12 8361 8.19400000 2889223189 2889223189 -3.00000000
16.71153450 1.86859238 3.88220525 39 13 8362 17.25800000 2889223191 2889223191 13.00000000
8.13819695 0.90853047 -0.14293520 16 14 8363 8.19000000 2889223193 2889223193 -1.00000000
8.18271923 0.91350091 2.20617366 51 15 8363 8.52400000 2889223196 2889223196 15.00000000
2.23129797 0.24594343 -0.60149544 4 0 8371 2.32400000 2889223216 2889223216 -15.00000000
8.13563824 0.89530843 0.14286540 18 1 8372 8.18600000 2889223219 2889223219 1.00000000
2.61312532 0.28710690 -0.60691792 6 2 8373 2.69800000 2889223221 2889223221 -13.00000000
8.12405205 0.89116341 0.42831746 23 3 8374 8.18400000 2889223223 2889223223 3.00000000
3.14394403 0.34487319 -0.61478657 5 4 8374 3.22200000 2889223226 2889223226 -11.00000000
8.14995193 0.89256495 0.71729177 76 5 8375 8.23000000 2889223228 2889223228 5.00000000
3.98429298 0.43564734 -0.63481104 9 6 8376 4.05800000 2889223230 2889223230 -9.00000000
8.14014626 0.88861561 1.00542212 95 7 8377 8.25000000 2889223233 2889223233 7.00000000
5.28478241 0.57597768 -0.65273219 6 8 8378 5.35600000 2889223235 2889223235 -7.00000000
21.31885338 2.31973338 3.39650512 100 9 8379 21.71200000 2889223237 2889223237 9.00000000
8.08520985 0.87976271 -0.71153951 17 10 8379 8.16400000 2889223239 2889223239 -5.00000000
17.67133713 1.91972148 3.45516920 14 11 8380 18.10800000 2889223242 2889223242 11.00000000
8.14300537 0.88317555 -0.42925951 17 12 8381 8.20200000 2889223244 2889223244 -3.00000000
16.71408081 1.80982733 3.88130546 37 13 8382 17.25400000 2889223246 2889223246 13.00000000
8.13734245 0.87968749 -0.14286540 14 14 8383 8.18600000 2889223249 2889223249 -1.00000000
8.19369507 0.88433278 2.20824409 51 15 8384 8.53200000 2889223251 2889223251 15.00000000
2.23026347 0.23755904 -0.60097784 4 0 8392 2.32200000 2889223272 2889223272 -15.00000000
8.13886452 0.86548382 0.14286540 15 1 8393 8.18600000 2889223274 2889223274 1.00000000
2.61803579 0.27793884 -0.60781777 6 2 8394 2.70200000 2889223276 2889223276 -13.00000000
8.13520908 0.86222327 0.42873615 23 3 8395 8.19200000 2889223279 2889223279 3.00000000
3.13347292 0.33210620 -0.61249685 5 4 8395 3.21000000 2889223281 2889223281 -11.00000000
8.12939262 0.86017215 0.71520001 83 5 8396 8.20600000 2889223283 2889223283 5.00000000
3.98782730 0.42124876 -0.63512391 6 6 8397 4.06000000 2889223286 2889223286 -9.00000000
8.15124512 0.85960728 1.00639701 95 7 8398 8.25800000 2889223288 2889223288 7.00000000
5.28685808 0.55660415 -0.65273219 6 8 8399 5.35600000 2889223290 2889223290 -7.00000000
21.31503487 2.24406171 3.39462781 75 9 8399 21.70000000 2889223292 2889223292 9.00000000
8.06856537 0.84804040 -0.70979637 17 10 8400 8.14400000 2889223295 2889223295 -5.00000000
17.68411255 1.85555458 3.45631409 10 11 8401 18.11400000 2889223297 2889223297 11.00000000
8.14221478 0.85290784 -0.42905018 17 12 8402 8.19800000 2889223299 2889223299 -3.00000000
16.72447777 1.74896038 3.88220525 40 13 8403 17.25800000 2889223302 2889223302 13.00000000
8.12658978 0.84840328 -0.14262107 14 14 8404 8.17200000 2889223304 2889223304 -1.00000000
8.18520355 0.85452253 2.20513821 56 15 8404 8.52000000 2889223306 2889223306 15.00000000
2.22147083 0.22878298 -0.59838963 4 0 8412 2.31200000 2889223327 2889223327 -15.00000000
8.13785839 0.83665961 0.14279559 15 1 8413 8.18200000 2889223329 2889223329 1.00000000
2.62868285 0.26979330 -0.61006725 6 2 8414 2.71200000 2889223332 2889223332 -13.00000000
8.13816929 0.83382088 0.42873615 21 3 8415 8.19200000 2889223334 2889223334 3.00000000
3.14828444 0.32256705 -0.61516821 5 4 8415 3.22400000 2889223336 2889223336 -11.00000000
8.12441730 0.83097911 0.71450275 76 5 8416 8.19800000 2889223339 2889223339 5.00000000
3.97944760 0.40632281 -0.63355958 9 6 8417 4.05000000 2889223341 2889223341 -9.00000000
8.15617180 0.83135021 1.00664079 99 7 8418 8.26000000 2889223343 2889223343 7.00000000
5.28876877 0.53814614 -0.65273219 6 8 8419 5.35600000 2889223345 2889223345 -7.00000000
8.09328079 0.82208550 -0.71171379 17 10 8420 8.16600000 2889223350 2889223350 -5.00000000
19.51871300 1.97919679 3.81350851 15 11 8421 19.98600000 2889223352 2889223352 11.00000000
8.14116859 0.82407874 -0.42884082 17 12 8422 8.19400000 2889223355 2889223355 -3.00000000
16.74599266 1.69213772 3.88580441 38 13 8423 17.27400000 2889223357 2889223357 13.00000000
8.12751198 0.81983030 -0.14258616 12 14 8424 8.17000000 2889223359 2889223359 -1.00000000
8.17290306 0.82296813 2.20099711 56 15 8425 8.50400000 2889223362 2889223362 15.00000000
2.22221708 0.22141506 -0.59838963 4 0 8431 2.31200000 2889223382 2889223382 -15.00000000
8.12267876 0.80788761 0.14248145 12 1 8432 8.16400000 2889223385 2889223385 1.00000000
2.62180614 0.26030466 -0.60826766 5 2 8433 2.70400000 2889223387 2889223387 -13.00000000
8.15082645 0.80781400 0.42925951 23 3 8434 8.20200000 2889223389 2889223389 3.00000000
3.14933681 0.31212521 -0.61516821 5 4 8434 3.22400000 2889223392 2889223392 -11.00000000
8.12514591 0.80383682 0.71432847 76 5 8435 8.19600000 2889223394 2889223394 5.00000000
3.97290993 0.39234769 -0.63230813 9 6 8436 4.04200000 2889223396 2889223396 -9.00000000
8.14505482 0.80293554 1.00493455 97 7 8437 8.24600000 2889223398 2889223398 7.00000000
5.29842663 0.52138263 -0.65370715 6 8 8438 5.36400000 2889223401 2889223401 -7.00000000
21.90778351 2.15579820 3.48661137 42 9 8438 22.28800000 2889223403 2889223403 9.00000000
6.63658762 0.65189254 -0.58342052 4 10 8439 6.69400000 2889223405 2889223405 -5.00000000
19.49976730 1.91196895 3.80854750 22 11 8440 19.96000000 2889223408 2889223408 11.00000000
8.13590527 0.79629892 -0.42842212 17 12 8441 8.18600000 2889223410 2889223410 -3.00000000
16.75926971 1.63735461 3.88760424 39 13 8442 17.28200000 2889223412 2889223412 13.00000000
8.14411736 0.79423267 -0.14283049 12 14 8443 8.18400000 2889223415 2889223415 -1.00000000
8.17544842 0.79728818 2.20099711 56 15 8443 8.50400000 2889223417 2889223417 15.00000000
2.23451447 0.21476567 -0.60149544 4 0 8451 2.32400000 2889223438 2889223438 -15.00000000
8.12943077 0.77991122 0.14255126 12 1 8452 8.16800000 2889223440 2889223440 1.00000000
2.61105967 0.25003669 -0.60556823 6 2 8453 2.69200000 2889223442 2889223442 -13.00000000
8.13967991 0.77802712 0.42852682 15 3 8454 8.18800000 2889223445 2889223445 3.00000000
3.15236139 0.30131686 -0.61554980 5 4 8454 3.22600000 2889223447 2889223447 -11.00000000
8.13385296 0.77603757 0.71485138 83 5 8455 8.20200000 2889223449 2889223449 5.00000000
3.97425532 0.37847728 -0.63230813 9 6 8456 4.04200000 2889223451 2889223451 -9.00000000
8.13199806 0.77299637 1.00298464 90 7 8457 8.23000000 2889223454 2889223454 7.00000000
5.28835678 0.50175947 -0.65224475 6 8 8458 5.35200000 2889223456 2889223456 -7.00000000
21.91517639 2.07931256 3.48661137 47 9 8458 22.28800000 2889223458 2889223458 9.00000000
6.61303663 0.62628055 -0.58115447 16 10 8459 6.66800000 2889223461 2889223461 -5.00000000
19.50241470 1.84352088 3.80778432 33 11 8460 19.95600000 2889223463 2889223463 11.00000000
8.13465881 0.76751924 -0.42821279 17 12 8461 8.18200000 2889223465 2889223465 -3.00000000
16.75712204 1.57811308 3.88580441 39 13 8462 17.27400000 2889223468 2889223468 13.00000000
8.13688564 0.76486385 -0.14265597 12 14 8463 8.17400000 2889223470 2889223470 -1.00000000
8.18202877 0.76910722 2.20203233 54 15 8463 8.50800000 2889223472 2889223472 15.00000000
2.23528671 0.20657432 -0.60149544 4 0 8472 2.32400000 2889223493 2889223493 -15.00000000
8.12825203 0.74974281 0.14248145 12 1 8473 8.16400000 2889223495 2889223495 1.00000000
2.62360191 0.24153692 -0.60826766 5 2 8474 2.70400000 2889223498 2889223498 -13.00000000
8.12855434 0.74690920 0.42779410 13 3 8475 8.17400000 2889223500 2889223500 3.00000000
3.14953470 0.28940156 -0.61478657 4 4 8475 3.22200000 2889223502 2889223502 -11.00000000
8.14259434 0.74676621 0.71537435 79 5 8476 8.20800000 2889223504 2889223504 5.00000000
3.98348451 0.36462861 -0.63355958 9 6 8477 4.05000000 2889223507 2889223507 -9.00000000
8.14070797 0.74372768 1.00371587 99 7 8478 8.23600000 2889223509 2889223509 7.00000000
5.28225279 0.48165223 -0.65126979 6 8 8479 5.34400000 2889223511 2889223511 -7.00000000
21.90332603 1.99335885 3.48348260 46 9 8480 22.26800000 2889223514 2889223514 9.00000000
6.62322474 0.60276067 -0.58185172 16 10 8480 6.67600000 2889223516 2889223516 -5.00000000
19.52663612 1.77362692 3.81121898 38 11 8481 19.97400000 2889223518 2889223518 11.00000000
8.12946033 0.73697776 -0.42779410 17 12 8482 8.17400000 2889223521 2889223521 -3.00000000
16.75503159 1.51598215 3.88400483 39 13 8483 17.26600000 2889223523 2889223523 13.00000000
8.12569332 0.73377657 -0.14241163 14 14 8484 8.16000000 2889223525 2889223525 -1.00000000
8.19248867 0.73980844 2.20410299 56 15 8484 8.51600000 2889223527 2889223527 15.00000000
2.22444844 0.19774410 -0.59838963 4 0 8492 2.31200000 2889223548 2889223548 -15.00000000
8.13878727 0.72207218 0.14262107 21 1 8493 8.17200000 2889223551 2889223551 1.00000000
2.61666441 0.23168986 -0.60646802 5 2 8494 2.69600000 2889223553 2889223553 -13.00000000
8.13111210 0.71853071 0.42779410 15 3 8495 8.17400000 2889223555 2889223555 3.00000000
3.14661431 0.27806026 -0.61402333 4 4 8495 3.21800000 2889223557 2889223557 -11.00000000
8.12530422 0.71658832 0.71363121 79 5 8496 8.18800000 2889223560 2889223560 5.00000000
3.97686195 0.35002863 -0.63230813 9 6 8497 4.04200000 2889223562 2889223562 -9.00000000
8.14918613 0.71582788 1.00444710 97 7 8498 8.24200000 2889223564 2889223564 7.00000000
5.28390169 0.46321079 -0.65126979 6 8 8499 5.34400000 2889223567 2889223567 -7.00000000
21.88260078 1.91447949 3.47910261 46 9 8500 22.24000000 2889223569 2889223569 9.00000000
6.60544014 0.57790112 -0.58010864 12 10 8500 6.65600000 2889223571 2889223571 -5.00000000
19.55226707 1.70716310 3.81503510 42 11 8501 19.99400000 2889223574 2889223574 11.00000000
8.13994217 0.70928967 -0.42821279 17 12 8502 8.18200000 2889223576 2889223576 -3.00000000
16.75245476 1.45681155 3.88220525 12 13 8503 17.25800000 2889223578 2889223578 13.00000000
8.12222862 0.70488948 -0.14230692 14 14 8504 8.15400000 2889223580 2889223580 -1.00000000
8.18359756 0.70877635 2.20099711 54 15 8505 8.50400000 2889223583 2889223583 15.00000000
2.22124243 0.19003712 -0.59735435 4 0 8511 2.30800000 2889223604 2889223604 -15.00000000
8.12718964 0.69388825 0.14237674 18 1 8512 8.15800000 2889223606 2889223606 1.00000000
2.62130165 0.22334228 -0.60736787 7 2 8513 2.70000000 2889223608 2889223608 -13.00000000
8.13942051 0.69207066 0.42810813 18 3 8514 8.18000000 2889223610 2889223610 3.00000000
3.14947534 0.26779050 -0.61440498 5 4 8514 3.22000000 2889223613 2889223613 -11.00000000
8.12366581 0.68930304 0.71328259 79 5 8515 8.18400000 2889223615 2889223615 5.00000000
3.97603250 0.33667231 -0.63199526 9 6 8516 4.04000000 2889223617 2889223617 -9.00000000
8.14755917 0.68846601 1.00395966 97 7 8517 8.23800000 2889223620 2889223620 7.00000000
5.27749681 0.44501901 -0.65029484 9 8 8518 5.33600000 2889223622 2889223622 -7.00000000
21.87504959 1.84074414 3.47691250 30 9 8519 22.22600000 2889223624 2889223624 9.00000000
6.61327648 0.55649471 -0.58063155 16 10 8519 6.66200000 2889223627 2889223627 -5.00000000
19.54803848 1.64149463 3.81312704 42 11 8520 19.98400000 2889223629 2889223629 11.00000000
8.14025974 0.68212599 -0.42810813 17 12 8521 8.18000000 2889223631 2889223631 -3.00000000
15.48326683 1.29472363 3.58706951 10 13 8522 15.94600000 2889223633 2889223633 13.00000000
8.13249207 0.67861646 -0.14244655 12 14 8523 8.16200000 2889223636 2889223636 -1.00000000
8.17423248 0.68209946 2.19789124 56 15 8523 8.49200000 2889223638 2889223638 15.00000000
2.22574306 0.18259829 -0.59838963 4 0 8531 2.31200000 2889223659 2889223659 -15.00000000
8.12159061 0.66486222 0.14223711 15 1 8532 8.15000000 2889223661 2889223661 1.00000000
2.61818075 0.21387357 -0.60646802 7 2 8533 2.69600000 2889223663 2889223663 -13.00000000
8.14775848 0.66414136 0.42842212 21 3 8534 8.18600000 2889223666 2889223666 3.00000000
3.15234756 0.25695464 -0.61478657 4 4 8534 3.22200000 2889223668 2889223668 -11.00000000
8.12006474 0.66045737 0.71275967 76 5 8535 8.17800000 2889223670 2889223670 5.00000000
3.97521448 0.32263151 -0.63168240 9 6 8536 4.03800000 2889223673 2889223673 -9.00000000
8.13804150 0.65906006 1.00249720 95 7 8537 8.22600000 2889223675 2889223675 7.00000000
5.29682589 0.42803344 -0.65248847 9 8 8538 5.35400000 2889223677 2889223677 -7.00000000
21.87543488 1.76389849 3.47597384 30 9 8539 22.22000000 2889223680 2889223680 9.00000000
6.61915064 0.53372693 -0.58098018 36 10 8539 6.66600000 2889223682 2889223682 -5.00000000
19.55169296 1.57309186 3.81274533 38 11 8540 19.98200000 2889223684 2889223684 11.00000000
8.13064575 0.65274799 -0.42748010 17 12 8541 8.16800000 2889223686 2889223686 -3.00000000
16.78723526 1.34477127 3.88805413 38 13 8542 17.28400000 2889223689 2889223689 13.00000000
8.12883186 0.64974666 -0.14234182 12 14 8543 8.15600000 2889223691 2889223691 -1.00000000
8.17271233 0.65325409 2.19685602 51 15 8543 8.48800000 2889223693 2889223693 15.00000000
2.23211384 0.17567118 -0.59994256 4 0 8550 2.31800000 2889223714 2889223714 -15.00000000
8.13371849 0.63870913 0.14241163 12 1 8551 8.16000000 2889223716 2889223716 1.00000000
2.60916162 0.20442909 -0.60421854 6 2 8552 2.68600000 2889223719 2889223719 -13.00000000
8.14383125 0.63807315 0.42810813 21 3 8552 8.18000000 2889223721 2889223721 3.00000000
3.15318251 0.24649967 -0.61478657 4 4 8553 3.22200000 2889223723 2889223723 -11.00000000
8.12419701 0.63368160 0.71293396 79 5 8554 8.18000000 2889223726 2889223726 5.00000000
3.97429299 0.30929419 -0.63136947 9 6 8555 4.03600000 2889223728 2889223728 -9.00000000
8.14018154 0.63206977 1.00249720 97 7 8556 8.22600000 2889223730 2889223730 7.00000000
5.29029942 0.40985286 -0.65151352 9 8 8557 5.34600000 2889223732 2889223732 -7.00000000
21.89268494 1.69608164 3.47785091 25 9 8557 22.23200000 2889223735 2889223735 9.00000000
6.62088394 0.51177412 -0.58098018 56 10 8558 6.66600000 2889223737 2889223737 -5.00000000
19.56267357 1.50870025 3.81389022 42 11 8559 19.98800000 2889223739 2889223739 11.00000000
8.12679195 0.62532252 -0.42716607 17 12 8560 8.16200000 2889223742 2889223742 -3.00000000
16.78383064 1.28849876 3.88625431 40 13 8561 17.27600000 2889223744 2889223744 13.00000000
8.13293552 0.62293959 -0.14237674 12 14 8562 8.15800000 2889223746 2889223746 -1.00000000
8.18639088 0.62703401 2.19996190 51 15 8562 8.50000000 2889223749 2889223749 15.00000000
2.23271346 0.16787857 -0.59994256 4 0 8570 2.31800000 2889223769 2889223769 -15.00000000
8.12991619 0.60986447 0.14230692 12 1 8571 8.15400000 2889223772 2889223772 1.00000000
2.61374593 0.19561104 -0.60511833 6 2 8572 2.69000000 2889223774 2889223774 -13.00000000
8.13018131 0.60703057 0.42727074 21 3 8573 8.16400000 2889223776 2889223776 3.00000000
3.15793920 0.23578387 -0.61554980 4 4 8573 3.22600000 2889223779 2889223779 -11.00000000
8.12834644 0.60546696 0.71310830 76 5 8574 8.18200000 2889223781 2889223781 5.00000000
3.97534847 0.29541942 -0.63136947 6 6 8575 4.03600000 2889223783 2889223783 -9.00000000
8.13837910 0.60335779 1.00200975 95 7 8576 8.22200000 2889223785 2889223785 7.00000000
5.27586031 0.39021239 -0.64956361 8 8 8577 5.33000000 2889223788 2889223788 -7.00000000
21.90860558 1.61655641 3.47941542 20 9 8578 22.24200000 2889223790 2889223790 9.00000000
6.62660408 0.48895305 -0.58132881 68 10 8578 6.67000000 2889223792 2889223792 -5.00000000
19.57369423 1.44083703 3.81503510 27 11 8579 19.99400000 2889223795 2889223795 11.00000000
8.12494087 0.59665841 -0.42695674 17 12 8580 8.15800000 2889223797 2889223797 -3.00000000
16.78239632 1.22947729 3.88490462 39 13 8581 17.27000000 2889223799 2889223799 13.00000000
8.12109947 0.59352624 -0.14213240 14 14 8582 8.14400000 2889223802 2889223802 -1.00000000
8.18478107 0.59674424 2.19892669 54 15 8583 8.49600000 2889223804 2889223804 15.00000000
2.23328590 0.16008392 -0.59994256 4 0 8590 2.31800000 2889223825 2889223825 -15.00000000
8.12601089 0.58105421 0.14220221 15 1 8591 8.14800000 2889223827 2889223827 1.00000000
2.62413192 0.18717943 -0.60736787 5 2 8592 2.70000000 2889223829 2889223829 -13.00000000
8.13015747 0.57992446 0.42716607 21 3 8592 8.16200000 2889223832 2889223832 3.00000000
3.14699316 0.22392312 -0.61326009 4 4 8593 3.21400000 2889223834 2889223834 -11.00000000
8.12842274 0.57694900 0.71293396 79 5 8594 8.18000000 2889223836 2889223836 5.00000000
3.98029637 0.28182009 -0.63199526 9 6 8595 4.04000000 2889223838 2889223838 -9.00000000
8.14439583 0.57522559 1.00249720 97 7 8596 8.22600000 2889223841 2889223841 7.00000000
5.27520990 0.37165433 -0.64931989 8 8 8597 5.32800000 2889223843 2889223843 -7.00000000
21.90426254 1.53937876 3.47785091 15 9 8598 22.23200000 2889223845 2889223845 9.00000000
6.60442066 0.46414280 -0.57923704 32 10 8598 6.64600000 2889223848 2889223848 -5.00000000
8.13295174 0.56871140 -0.42727074 17 12 8600 8.16400000 2889223852 2889223852 -3.00000000
8.11314774 0.56448072 -0.14195788 16 14 8602 8.13400000 2889223857 2889223857 -1.00000000
8.17515182 0.56879473 2.19582081 54 15 8602 8.48400000 2889223859 2889223859 15.00000000
2.22804904 0.15189314 -0.59838963 4 0 8610 2.31200000 2889223880 2889223880 -15.00000000
8.12399960 0.55241424 0.14213240 21 1 8611 8.14400000 2889223882 2889223882 1.00000000
2.62865782 0.17828210 -0.60826766 5 2 8612 2.70400000 2889223884 2889223884 -13.00000000
8.14408875 0.55235225 0.42779410 21 3 8612 8.17400000 2889223887 2889223887 3.00000000
3.14775562 0.21293670 -0.61326009 4 4 8613 3.21400000 2889223889 2889223889 -11.00000000
8.11448383 0.54749900 0.71153951 76 5 8614 8.16400000 2889223891 2889223891 5.00000000
3.96943045 0.26712874 -0.63011801 6 6 8615 4.02800000 2889223894 2889223894 -9.00000000
8.15031624 0.54705876 1.00298464 97 7 8616 8.23000000 2889223896 2889223896 7.00000000
5.28835917 0.35403371 -0.65078229 9 8 8617 5.34000000 2889223898 2889223898 -7.00000000
8.22099113 0.54891998 1.30497634 7 9 8618 8.34200000 2889223901 2889223901 9.00000000
6.60202456 0.44082075 -0.57888842 20 10 8618 6.64200000 2889223903 2889223903 -5.00000000
19.60874176 1.30584872 3.81999612 11 11 8619 20.02000000 2889223905 2889223905 11.00000000
8.14285851 0.54084808 -0.42768943 17 12 8620 8.17200000 2889223908 2889223908 -3.00000000
16.81195831 1.11370194 3.88985372 14 13 8621 17.29200000 2889223910 2889223910 13.00000000
8.11307335 0.53602529 -0.14192297 16 14 8622 8.13200000 2889223912 2889223912 -1.00000000
8.17323208 0.53999996 2.19478559 49 15 8622 8.48000000 2889223914 2889223914 15.00000000
2.22663784 0.14399020 -0.59787202 4 0 8630 2.31000000 2889223935 2889223935 -15.00000000
8.12587833 0.52405286 0.14213240 18 1 8631 8.14400000 2889223937 2889223937 1.00000000
2.61370635 0.16810466 -0.60466844 5 2 8632 2.68800000 2889223940 2889223940 -13.00000000
8.14805126 0.52262682 0.42789876 23 3 8633 8.17600000 2889223942 2889223942 3.00000000
3.16023517 0.20270169 -0.61554980 4 4 8633 3.22600000 2889223944 2889223944 -11.00000000
8.11833382 0.51929802 0.71171379 83 5 8634 8.16600000 2889223947 2889223947 5.00000000
3.97428131 0.25352272 -0.63074374 6 6 8635 4.03200000 2889223949 2889223949 -9.00000000
8.14028931 0.51784933 1.00152230 92 7 8636 8.21800000 2889223951 2889223951 7.00000000
5.29352474 0.33582312 -0.65126979 9 8 8637 5.34400000 2889223954 2889223954 -7.00000000
21.90831757 1.38987148 3.47691250 15 9 8637 22.22600000 2889223956 2889223956 9.00000000
6.61147690 0.41827589 -0.57958567 16 10 8638 6.65000000 2889223958 2889223958 -5.00000000
19.57595444 1.23504484 3.81274533 34 11 8639 19.98200000 2889223961 2889223961 11.00000000
8.13473034 0.51179385 -0.42716607 17 12 8640 8.16200000 2889223963 2889223963 -3.00000000
16.81768990 1.05513251 3.89030361 37 13 8641 17.29400000 2889223965 2889223965 13.00000000
8.11489487 0.50770211 -0.14192297 16 14 8642 8.13200000 2889223967 2889223967 -1.00000000
8.17322826 0.50991964 2.19426775 49 15 8643 8.47800000 2889223970 2889223970 15.00000000
2.23869634 0.13692454 -0.60097784 4 0 8650 2.32200000 2889223990 2889223990 -15.00000000
8.11967468 0.49519813 0.14199278 18 1 8651 8.13600000 2889223993 2889223993 1.00000000
2.61233211 0.15886180 -0.60421854 6 2 8652 2.68600000 2889223995 2889223995 -13.00000000
8.13179779 0.49451295 0.42695674 21 3 8652 8.15800000 2889223997 2889223997 3.00000000
3.16484284 0.19190682 -0.61631304 4 4 8653 3.23000000 2889224000 2889224000 -11.00000000
8.12606335 0.49131730 0.71223670 90 5 8654 8.17200000 2889224002 2889224002 5.00000000
3.97317028 0.23952948 -0.63043088 9 6 8655 4.03000000 2889224004 2889224004 -9.00000000
8.13412094 0.48895481 1.00054729 95 7 8656 8.21000000 2889224007 2889224007 7.00000000
5.28673887 0.31686816 -0.65029484 9 8 8657 5.33600000 2889224009 2889224009 -7.00000000
21.90932083 1.30932856 3.47628665 15 9 8658 22.22200000 2889224011 2889224011 9.00000000
6.62880754 0.39614582 -0.58098018 36 10 8658 6.66600000 2889224014 2889224014 -5.00000000
19.58994484 1.16728830 3.81465340 38 11 8659 19.99200000 2889224016 2889224016 11.00000000
8.12051773 0.48244762 -0.42632869 17 12 8660 8.14600000 2889224018 2889224018 -3.00000000
16.81154251 0.99584520 3.88805413 29 13 8661 17.28400000 2889224020 2889224020 13.00000000
8.12460232 0.47984436 -0.14206259 14 14 8662 8.14000000 2889224023 2889224023 -1.00000000
8.18074322 0.48172730 2.19582081 56 15 8663 8.48400000 2889224025 2889224025 15.00000000
2.23144603 0.12866437 -0.59890729 4 0 8670 2.31400000 2889224046 2889224046 -15.00000000
8.12135315 0.46685216 0.14199278 18 1 8671 8.13600000 2889224048 2889224048 1.00000000
2.61092520 0.14963061 -0.60376865 5 2 8672 2.68400000 2889224050 2889224050 -13.00000000
8.11951637 0.46532473 0.42622402 18 3 8672 8.14400000 2889224053 2889224053 3.00000000
3.14981294 0.17996240 -0.61326009 4 4 8673 3.21400000 2889224055 2889224055 -11.00000000
8.13369656 0.46328896 0.71275967 83 5 8674 8.17800000 2889224057 2889224057 5.00000000
3.97989893 0.22599503 -0.63136947 9 6 8675 4.03600000 2889224060 2889224060 -9.00000000
8.13181496 0.46033406 1.00005984 95 7 8676 8.20600000 2889224062 2889224062 7.00000000
5.26601124 0.29718173 -0.64761370 8 8 8677 5.31400000 2889224064 2889224064 -7.00000000
8.23212433 0.46457112 1.30591488 5 9 8677 8.34800000 2889224067 2889224067 9.00000000
6.62816048 0.37289265 -0.58080590 48 10 8678 6.66400000 2889224069 2889224069 -5.00000000
8.12614059 0.45432177 -0.42653805 17 12 8680 8.15000000 2889224073 2889224073 -3.00000000
8.22066975 0.45816752 1.90083647 4 13 8681 8.45000000 2889224076 2889224076 13.00000000
8.11824131 0.45103756 -0.14192297 14 14 8682 8.13200000 2889224078 2889224078 -1.00000000
8.18623352 0.45338190 2.19685602 56 15 8683 8.48800000 2889224080 2889224080 15.00000000
2.23959780 0.12129228 -0.60097784 4 0 8690 2.32200000 2889224101 2889224101 -15.00000000
8.13291740 0.43903947 0.14216730 15 1 8691 8.14600000 2889224103 2889224103 1.00000000
2.61921525 0.14093469 -0.60556823 6 2 8692 2.69200000 2889224106 2889224106 -13.00000000
8.12508011 0.43719414 0.42643338 15 3 8692 8.14800000 2889224108 2889224108 3.00000000
3.15042186 0.16896640 -0.61326009 4 4 8693 3.21400000 2889224110 2889224110 -11.00000000
8.11934757 0.43404338 0.71136516 76 5 8694 8.16200000 2889224113 2889224113 5.00000000
3.98263597 0.21220632 -0.63168240 9 6 8695 4.03800000 2889224115 2889224115 -9.00000000
8.13733673 0.43215647 1.00054729 92 7 8696 8.21000000 2889224117 2889224117 7.00000000
5.28089285 0.27953261 -0.64931989 6 8 8697 5.32800000 2889224120 2889224120 -7.00000000
8.21199703 0.43468422 1.30247331 7 9 8697 8.32600000 2889224122 2889224122 9.00000000
6.62345266 0.34943888 -0.58028293 60 10 8698 6.65800000 2889224124 2889224124 -5.00000000
19.61330032 1.03132212 3.81770635 27 11 8699 20.00800000 2889224126 2889224126 11.00000000
8.13366032 0.42626709 -0.42685205 17 12 8700 8.15600000 2889224129 2889224129 -3.00000000
8.10978127 0.42217708 -0.14174844 16 14 8702 8.12200000 2889224133 2889224133 -1.00000000
8.18004894 0.42440349 2.19478559 58 15 8703 8.48000000 2889224136 2889224136 15.00000000
2.22843122 0.11288746 -0.59787202 4 0 8710 2.31000000 2889224156 2889224156 -15.00000000
8.12241745 0.41004267 0.14195788 18 1 8711 8.13400000 2889224159 2889224159 1.00000000
2.63136888 0.13237853 -0.60826766 6 2 8712 2.70400000 2889224161 2889224161 -13.00000000
8.13652992 0.40933141 0.42695674 23 3 8712 8.15800000 2889224163 2889224163 3.00000000
3.16079640 0.15845986 -0.61516821 5 4 8713 3.22400000 2889224166 2889224166 -11.00000000
8.11484337 0.40540069 0.71084225 79 5 8714 8.15600000 2889224168 2889224168 5.00000000
3.97151494 0.19771372 -0.62980515 9 6 8715 4.02600000 2889224170 2889224170 -9.00000000
8.13879585 0.40374926 1.00054729 95 7 8716 8.21000000 2889224172 2889224172 7.00000000
5.27985382 0.26099914 -0.64907610 4 8 8717 5.32600000 2889224175 2889224175 -7.00000000
8.20162582 0.40543118 1.30059612 10 9 8717 8.31400000 2889224177 2889224177 9.00000000
6.60672235 0.32543439 -0.57871413 72 10 8718 6.64000000 2889224179 2889224179 -5.00000000
19.60501480 0.96227515 3.81541657 38 11 8719 19.99600000 2889224182 2889224182 11.00000000
8.13908863 0.39806783 -0.42706141 21 12 8720 8.16000000 2889224184 2889224184 -3.00000000
16.83856773 0.82059747 3.89210320 40 13 8721 17.30200000 2889224186 2889224186 13.00000000
8.11320305 0.39396307 -0.14178336 18 14 8722 8.12400000 2889224189 2889224189 -1.00000000
8.17755222 0.39708772 2.19375014 51 15 8722 8.47600000 2889224191 2889224191 15.00000000
2.23267102 0.10529009 -0.59890729 4 0 8730 2.31400000 2889224212 2889224212 -15.00000000
8.11980438 0.38149995 0.14188807 15 1 8731 8.13000000 2889224214 2889224214 1.00000000
2.62013531 0.12264583 -0.60556823 5 2 8732 2.69200000 2889224216 2889224216 -13.00000000
8.13591385 0.38083375 0.42685205 18 3 8732 8.15600000 2889224219 2889224219 3.00000000
3.14956355 0.14687692 -0.61287850 5 4 8733 3.21200000 2889224221 2889224221 -11.00000000
8.12018967 0.37725705 0.71119088 76 5 8734 8.16000000 2889224223 2889224223 5.00000000
3.96823430 0.18366669 -0.62917942 9 6 8735 4.02200000 2889224225 2889224225 -9.00000000
8.13222313 0.37497136 0.99957234 92 7 8736 8.20200000 2889224228 2889224228 7.00000000
5.28668165 0.24284068 -0.64980733 6 8 8737 5.33200000 2889224230 2889224230 -7.00000000
8.22667122 0.37788740 1.30435061 10 9 8737 8.33800000 2889224232 2889224232 9.00000000
6.60184717 0.30209741 -0.57819122 76 10 8738 6.63400000 2889224235 2889224235 -5.00000000
19.60237122 0.89356685 3.81427193 15 11 8739 19.99000000 2889224237 2889224237 11.00000000
8.13244724 0.36929229 -0.42664272 17 12 8740 8.15200000 2889224239 2889224239 -3.00000000
16.83743668 0.76163876 3.89120340 38 13 8741 17.29800000 2889224242 2889224242 13.00000000
8.12052155 0.36591035 -0.14188807 16 14 8742 8.13000000 2889224244 2889224244 -1.00000000
8.17509270 0.36693960 2.19271493 58 15 8743 8.47200000 2889224246 2889224246 15.00000000
2.23690200 0.09727409 -0.59994256 4 0 8751 2.31800000 2889224267 2889224267 -15.00000000
8.11515522 0.35147724 0.14178336 25 1 8752 8.12400000 2889224269 2889224269 1.00000000
2.60888577 0.11253782 -0.60286885 6 2 8753 2.68000000 2889224272 2889224272 -13.00000000
8.12534428 0.34907699 0.42622402 13 3 8754 8.14400000 2889224274 2889224274 3.00000000
3.16381097 0.13592207 -0.61554980 5 4 8754 3.22600000 2889224276 2889224276 -11.00000000
8.12151814 0.34749255 0.71119088 76 5 8755 8.16000000 2889224278 2889224278 5.00000000
3.96296000 0.16886885 -0.62824082 9 6 8756 4.01600000 2889224281 2889224281 -9.00000000
8.12957668 0.34499443 0.99908489 92 7 8757 8.19800000 2889224283 2889224283 7.00000000
5.28356934 0.22329475 -0.64931989 6 8 8758 5.32800000 2889224285 2889224285 -7.00000000
8.22602749 0.34764919 1.30403769 10 9 8758 8.33600000 2889224288 2889224288 9.00000000
6.61286354 0.27831730 -0.57906276 60 10 8759 6.64400000 2889224290 2889224290 -5.00000000
19.58786201 0.82097465 3.81083727 31 11 8760 19.97200000 2889224292 2889224292 11.00000000
8.11379147 0.33865002 -0.42559600 25 12 8761 8.13200000 2889224295 2889224295 -3.00000000
16.83232689 0.69959766 3.88940382 41 13 8762 17.29000000 2889224297 2889224297 13.00000000
8.12780285 0.33639276 -0.14199278 18 14 8763 8.13600000 2889224299 2889224299 -1.00000000
8.17439365 0.33832106 2.19219732 49 15 8763 8.47000000 2889224302 2889224302 15.00000000
2.23722792 0.08946526 -0.59994256 4 0 8771 2.31800000 2889224322 2889224322 -15.00000000
8.12632275 0.32354569 0.14195788 21 1 8772 8.13400000 2889224325 2889224325 1.00000000
2.61315703 0.10358480 -0.60376865 6 2 8773 2.68400000 2889224327 2889224327 -13.00000000
8.11453915 0.32023954 0.42559600 15 3 8774 8.13200000 2889224329 2889224329 3.00000000
3.15445757 0.12449038 -0.61364174 5 4 8774 3.21600000 2889224331 2889224331 -11.00000000
8.12666321 0.31929746 0.71153951 79 5 8775 8.16400000 2889224334 2889224334 5.00000000
3.96549940 0.15511172 -0.62855369 9 6 8776 4.01800000 2889224336 2889224336 -9.00000000
8.13469791 0.31676927 0.99957234 95 7 8777 8.20200000 2889224338 2889224338 7.00000000
5.27836609 0.20461962 -0.64858866 4 8 8778 5.32200000 2889224341 2889224341 -7.00000000
8.21342850 0.31696373 1.30184758 10 9 8779 8.32200000 2889224343 2889224343 9.00000000
6.62374926 0.25561655 -0.57993430 48 10 8779 6.65400000 2889224345 2889224345 -5.00000000
19.60433960 0.75312281 3.81350851 38 11 8780 19.98600000 2889224348 2889224348 11.00000000
8.11093235 0.31017289 -0.42538664 25 12 8781 8.12800000 2889224350 2889224350 -3.00000000
16.82687569 0.64054108 3.88760424 41 13 8782 17.28200000 2889224352 2889224352 13.00000000
8.11294079 0.30741364 -0.14171354 18 14 8783 8.12000000 2889224355 2889224355 -1.00000000
8.18716145 0.30879503 2.19530320 63 15 8784 8.48200000 2889224357 2889224357 15.00000000
2.23556733 0.08236524 -0.59942490 4 0 8789 2.31600000 2889224378 2889224378 -15.00000000
8.13129616 0.29816109 0.14202769 15 1 8790 8.13800000 2889224380 2889224380 1.00000000
2.62125921 0.09565911 -0.60556823 6 2 8791 2.69200000 2889224382 2889224382 -13.00000000
8.12149239 0.29496291 0.42591003 10 3 8792 8.13800000 2889224384 2889224384 3.00000000
3.14502311 0.11422348 -0.61173362 5 4 8792 3.20600000 2889224387 2889224387 -11.00000000
8.11567974 0.29333347 0.71049362 79 5 8793 8.15200000 2889224389 2889224389 5.00000000
3.97978568 0.14315003 -0.63074374 6 6 8794 4.03200000 2889224391 2889224391 -9.00000000
8.13565350 0.29121184 0.99957234 97 7 8795 8.20200000 2889224394 2889224394 7.00000000
5.28295040 0.18817748 -0.64907610 4 8 8796 5.32600000 2889224396 2889224396 -7.00000000
8.20643616 0.29231137 1.30059612 7 9 8796 8.31400000 2889224398 2889224398 9.00000000
6.60261679 0.23402986 -0.57801688 48 10 8797 6.63200000 2889224401 2889224401 -5.00000000
19.62230492 0.69208395 3.81656146 42 11 8798 20.00200000 2889224403 2889224403 11.00000000
8.12983131 0.28532061 -0.42632869 21 12 8799 8.14600000 2889224405 2889224405 -3.00000000
16.83270073 0.58781087 3.88850403 42 13 8800 17.28600000 2889224408 2889224408 13.00000000
8.10787106 0.28171629 -0.14160882 18 14 8801 8.11400000 2889224410 2889224410 -1.00000000
8.18225002 0.28430066 2.19375014 58 15 8801 8.47600000 2889224412 2889224412 15.00000000
2.22811818 0.07430360 -0.59735435 4 0 8809 2.30800000 2889224433 2889224433 -15.00000000
8.11629868 0.26924536 0.14174844 15 1 8810 8.12200000 2889224435 2889224435 1.00000000
2.62547255 0.08663716 -0.60646802 5 2 8811 2.69600000 2889224437 2889224437 -13.00000000
8.13045788 0.26687390 0.42632869 13 3 8812 8.14600000 2889224440 2889224440 3.00000000
3.15521383 0.10356665 -0.61364174 5 4 8812 3.21600000 2889224442 2889224442 -11.00000000
8.11068058 0.26480764 0.70997065 76 5 8813 8.14600000 2889224444 2889224444 5.00000000
3.96841526 0.12887242 -0.62886655 6 6 8814 4.02000000 2889224447 2889224447 -9.00000000
8.14058876 0.26293951 1.00005984 90 7 8815 8.20600000 2889224449 2889224449 7.00000000
5.27167082 0.16935296 -0.64761370 4 8 8816 5.31400000 2889224451 2889224451 -7.00000000
8.21732426 0.26254672 1.30216050 10 9 8817 8.32400000 2889224454 2889224454 9.00000000
6.59941101 0.21085376 -0.57766825 44 10 8817 6.62800000 2889224456 2889224456 -5.00000000
19.61478996 0.62327331 3.81465340 42 11 8818 19.99200000 2889224458 2889224458 11.00000000
8.12678528 0.25681430 -0.42611936 17 12 8819 8.14200000 2889224460 2889224460 -3.00000000
16.83854485 0.52917260 3.88940382 41 13 8820 17.29000000 2889224463 2889224463 13.00000000
8.11280251 0.25353774 -0.14167863 20 14 8821 8.11800000 2889224465 2889224465 -1.00000000
8.17551327 0.25406927 2.19167972 54 15 8822 8.46800000 2889224467 2889224467 15.00000000
2.22450209 0.06641027 -0.59631908 4 0 8829 2.30400000 2889224488 2889224488 -15.00000000
8.10719490 0.24061592 0.14157392 18 1 8830 8.11200000 2889224490 2889224490 1.00000000
2.62186337 0.07735708 -0.60556823 6 2 8831 2.69200000 2889224493 2889224493 -13.00000000
8.11936092 0.23814034 0.42570066 13 3 8832 8.13400000 2889224495 2889224495 3.00000000
3.15555596 0.09255226 -0.61364174 5 4 8832 3.21600000 2889224497 2889224497 -11.00000000
8.11354637 0.23655252 0.71014500 79 5 8833 8.14800000 2889224500 2889224500 5.00000000
3.95896816 0.11473317 -0.62730223 6 6 8834 4.01000000 2889224502 2889224502 -9.00000000
8.12955093 0.23417901 0.99859738 92 7 8835 8.19400000 2889224504 2889224504 7.00000000
5.28611994 0.15134805 -0.64931989 6 8 8836 5.32800000 2889224507 2889224507 -7.00000000
8.21420097 0.23518258 1.30153477 10 9 8836 8.32000000 2889224509 2889224509 9.00000000
6.59612370 0.18770288 -0.57731962 12 10 8837 6.62400000 2889224511 2889224511 -5.00000000
19.59722137 0.55424613 3.81083727 42 11 8838 19.97200000 2889224513 2889224513 11.00000000
8.12164211 0.22827663 -0.42580533 17 12 8839 8.13600000 2889224516 2889224516 -3.00000000
16.84808159 0.47060955 3.89120340 40 13 8840 17.29800000 2889224518 2889224518 13.00000000
8.10564232 0.22499530 -0.14153902 20 14 8841 8.11000000 2889224520 2889224520 -1.00000000
8.17631054 0.22695689 2.19167972 58 15 8841 8.46800000 2889224523 2889224523 15.00000000
2.22858262 0.05874672 -0.59735435 4 0 8849 2.30800000 2889224543 2889224543 -15.00000000
8.11798000 0.21257679 0.14174844 15 1 8850 8.12200000 2889224546 2889224546 1.00000000
2.61432505 0.06800191 -0.60376865 5 2 8851 2.68400000 2889224548 2889224548 -13.00000000
8.12613297 0.20995180 0.42601469 13 3 8852 8.14000000 2889224550 2889224550 3.00000000
3.16371036 0.08173958 -0.61516821 5 4 8852 3.22400000 2889224553 2889224553 -11.00000000
8.12029839 0.20838286 0.71066791 76 5 8853 8.15400000 2889224555 2889224555 5.00000000
3.96526861 0.10106409 -0.62824082 6 6 8854 4.01600000 2889224557 2889224557 -9.00000000
8.11841202 0.20549875 0.99713498 92 7 8855 8.18200000 2889224560 2889224560 7.00000000
5.25883341 0.13219672 -0.64590752 6 8 8856 5.30000000 2889224562 2889224562 -7.00000000
8.22093201 0.20522235 1.30247331 10 9 8857 8.32600000 2889224564 2889224564 9.00000000
6.60868931 0.16497530 -0.57836550 20 10 8857 6.63600000 2889224566 2889224566 -5.00000000
19.60688782 0.48603025 3.81236362 42 11 8858 19.98000000 2889224569 2889224569 11.00000000
8.11440277 0.19972882 -0.42538664 21 12 8859 8.12800000 2889224571 2889224571 -3.00000000
16.84182930 0.41160545 3.88940382 42 13 8860 17.29000000 2889224573 2889224573 13.00000000
8.11437511 0.19689399 -0.14167863 16 14 8861 8.11800000 2889224576 2889224576 -1.00000000
8.17708778 0.19698769 2.19167972 51 15 8862 8.46800000 2889224578 2889224578 15.00000000
2.22877407 0.05096716 -0.59735435 4 0 8869 2.30800000 2889224599 2889224599 -15.00000000
8.12267113 0.18432920 0.14181826 15 1 8870 8.12600000 2889224601 2889224601 1.00000000
2.61844301 0.05896354 -0.60466844 6 2 8871 2.68800000 2889224603 2889224603 -13.00000000
8.12282276 0.18149579 0.42580533 15 3 8872 8.13600000 2889224606 2889224606 3.00000000
3.15612531 0.07052024 -0.61364174 5 4 8872 3.21600000 2889224608 2889224608 -11.00000000
8.11101627 0.17981566 0.70979637 76 5 8873 8.14400000 2889224610 2889224610 5.00000000
3.97349691 0.08739585 -0.62949228 6 6 8874 4.02400000 2889224613 2889224613 -9.00000000
8.13098812 0.17741878 0.99859738 90 7 8875 8.19400000 2889224615 2889224615 7.00000000
5.25926256 0.11383917 -0.64590752 6 8 8876 5.30000000 2889224617 2889224617 -7.00000000
8.22156715 0.17795962 1.30247331 10 9 8876 8.32600000 2889224619 2889224619 9.00000000
6.62117624 0.14216228 -0.57941139 52 10 8877 6.64800000 2889224622 2889224622 -5.00000000
19.60650253 0.41754469 3.81198215 38 11 8878 19.97800000 2889224624 2889224624 11.00000000
8.11105728 0.17131871 -0.42517731 25 12 8879 8.12400000 2889224626 2889224626 -3.00000000
16.83926773 0.35273236 3.88850403 39 13 8880 17.28600000 2889224629 2889224629 13.00000000
8.11301327 0.16852681 -0.14164373 16 14 8881 8.11600000 2889224631 2889224631 -1.00000000
8.18542194 0.17003089 2.19375014 56 15 8881 8.47600000 2889224633 2889224633 15.00000000
2.22893834 0.04318697 -0.59735435 4 0 8889 2.30800000 2889224654 2889224654 -15.00000000
8.11526775 0.15582110 0.14167863 15 1 8890 8.11800000 2889224656 2889224656 1.00000000
2.62642646 0.04997140 -0.60646802 6 2 8891 2.69600000 2889224659 2889224659 -13.00000000
8.12540340 0.15317839 0.42591003 10 3 8892 8.13800000 2889224661 2889224661 3.00000000
3.13672304 0.05913284 -0.60982555 5 4 8892 3.19600000 2889224663 2889224663 -11.00000000
8.10960293 0.15146463 0.70962209 76 5 8893 8.14200000 2889224666 2889224666 5.00000000
3.97575283 0.07356177 -0.62980515 9 6 8894 4.02600000 2889224668 2889224668 -9.00000000
8.13552666 0.14910801 0.99908489 92 7 8895 8.19800000 2889224670 2889224670 7.00000000
5.27153683 0.09569640 -0.64736998 6 8 8896 5.31200000 2889224672 2889224672 -7.00000000
8.20833874 0.14757632 1.30028331 10 9 8897 8.31200000 2889224675 2889224675 9.00000000
6.61964035 0.11901338 -0.57923704 100 10 8897 6.64600000 2889224677 2889224677 -5.00000000
19.61176682 0.34917259 3.81274533 38 11 8898 19.98200000 2889224679 2889224679 11.00000000
8.11759663 0.14311039 -0.42549133 17 12 8899 8.13000000 2889224682 2889224682 -3.00000000
16.84429169 0.29401821 3.88940382 41 13 8900 17.29000000 2889224684 2889224684 13.00000000
8.10755444 0.14010243 -0.14153902 18 14 8901 8.11000000 2889224686 2889224686 -1.00000000
8.17053699 0.13976435 2.18960905 51 15 8902 8.46000000 2889224689 2889224689 15.00000000
2.22521234 0.03534490 -0.59631908 4 0 8909 2.30400000 2889224709 2889224709 -15.00000000
8.11776161 0.12752399 0.14171354 15 1 8910 8.12000000 2889224712 2889224712 1.00000000
2.63048172 0.04086369 -0.60736787 6 2 8911 2.70000000 2889224714 2889224714 -13.00000000
8.12389183 0.12478383 0.42580533 13 3 8912 8.13600000 2889224716 2889224716 3.00000000
3.14476252 0.04830388 -0.61135203 5 4 8912 3.20400000 2889224719 2889224719 -11.00000000
8.10012150 0.12300465 0.70875049 79 5 8913 8.13200000 2889224721 2889224721 5.00000000
3.96610951 0.05953511 -0.62824082 9 6 8914 4.01600000 2889224723 2889224723 -9.00000000
8.13996792 0.12076771 0.99957234 92 7 8915 8.20200000 2889224725 2889224725 7.00000000
5.27183867 0.07729473 -0.64736998 6 8 8916 5.31200000 2889224728 2889224728 -7.00000000
8.20680809 0.12032671 1.29997039 10 9 8916 8.31000000 2889224730 2889224730 9.00000000
6.59411716 0.09553060 -0.57697099 84 10 8917 6.62000000 2889224732 2889224732 -5.00000000
19.60501289 0.28060022 3.81121898 38 11 8918 19.97400000 2889224735 2889224735 11.00000000
8.12403774 0.11485853 -0.42580533 17 12 8919 8.13600000 2889224737 2889224737 -3.00000000
16.85690689 0.23538212 3.89210320 42 13 8920 17.30200000 2889224739 2889224739 13.00000000
8.11399269 0.11188364 -0.14164373 20 14 8921 8.11600000 2889224742 2889224742 -1.00000000
8.17868233 0.11277565 2.19167972 49 15 8921 8.46800000 2889224744 2889224744 15.00000000
2.22918558 0.02762512 -0.59735435 4 0 8929 2.30800000 2889224765 2889224765 -15.00000000
