# .PCD v0.7 - Point Cloud Data file format
VERSION 0.7
FIELDS x y z intensity laser_id azimuth distance_m adjustedtime timestamp vertical_angle
SIZE 4 4 4 1 1 2 8 8 4 8
TYPE F F F U U U F U U F
COUNT 1 1 1 1 1 1 1 1 1 1
WIDTH 526
HEIGHT 1
VIEWPOINT 0 0 0 1 0 0 0
POINTS 526
DATA ascii
-9.86600780 4.31035280 2.09279299 25 11 29360 10.96800000 3057280966 3057280966 11.00000000
-4.07923555 1.78302205 -0.23331369 6 12 29361 4.45800000 3057280968 3057280968 -3.00000000
-10.73252296 4.69338608 2.70436168 51 13 29362 12.02200000 3057280971 3057280971 13.00000000
-4.00481081 1.75215650 -0.07630192 14 14 29363 4.37200000 3057280973 3057280973 -1.00000000
-7.98151159 3.49367428 2.33454776 2 15 29364 9.02000000 3057280975 3057280975 15.00000000
-1.85029483 0.81222266 -0.54144943 4 0 29370 2.09200000 3057280996 3057280996 -15.00000000
-4.22023821 1.85343361 0.08045559 26 1 29371 4.61000000 3057280998 3057280998 1.00000000
-2.13380146 0.93756187 -0.53808290 3 2 29372 2.39200000 3057281001 3057281001 -13.00000000
-4.14497089 1.82210422 0.23729123 5 3 29373 4.53400000 3057281003 3057281003 3.00000000
-2.50538754 1.10135329 -0.53197551 3 4 29373 2.78800000 3057281005 3057281005 -11.00000000
-5.46227169 2.40231919 0.52206290 3 5 29374 5.99000000 3057281007 3057281007 5.00000000
-3.04119897 1.33815956 -0.52624553 3 6 29375 3.36400000 3057281010 3057281010 -9.00000000
-20.12330055 8.85865593 2.69964981 57 7 29376 22.15200000 3057281012 3057281012 7.00000000
-3.78599977 1.66745746 -0.50795144 6 8 29377 4.16800000 3057281014 3057281014 -7.00000000
-15.89424038 7.00025654 2.75074363 53 9 29377 17.58400000 3057281017 3057281017 9.00000000
-4.66019249 2.05344701 -0.44554016 3 10 29378 5.11200000 3057281019 3057281019 -5.00000000
-9.87321663 4.35254908 2.09737253 25 11 29379 10.99200000 3057281021 3057281021 11.00000000
-4.08791971 1.80298734 -0.23415107 6 12 29380 4.47400000 3057281024 3057281024 -3.00000000
-10.69372272 4.71872330 2.69851279 50 13 29381 11.99600000 3057281026 3057281026 13.00000000
-4.00446653 1.76785016 -0.07640664 12 14 29382 4.37800000 3057281028 3057281028 -1.00000000
-7.98110008 3.52341294 2.33765364 2 15 29382 9.03200000 3057281031 3057281031 15.00000000
-1.84744835 0.81867641 -0.54144943 4 0 29390 2.09200000 3057281051 3057281051 -15.00000000
-2.14120388 0.94974530 -0.54078233 3 2 29392 2.40400000 3057281056 3057281056 -13.00000000
-4.14953899 1.84142256 0.23791926 5 3 29393 4.54600000 3057281058 3057281058 3.00000000
-2.49076104 1.10531390 -0.52968580 3 4 29393 2.77600000 3057281060 3057281060 -11.00000000
-26.72478867 11.86512470 2.55819535 73 5 29394 29.35200000 3057281063 3057281063 5.00000000
-3.04734111 1.35357845 -0.52812278 3 6 29395 3.37600000 3057281065 3057281065 -9.00000000
-20.12490845 8.94335651 2.70403695 57 7 29396 22.18800000 3057281067 3057281067 7.00000000
-3.79103971 1.68550169 -0.50941384 6 8 29397 4.18000000 3057281070 3057281070 -7.00000000
-15.86125660 7.05525351 2.74949217 53 9 29398 17.57600000 3057281072 3057281072 9.00000000
-4.62204885 2.05593586 -0.44257686 6 10 29398 5.07800000 3057281074 3057281074 -5.00000000
-9.88128090 4.39736319 2.10233355 21 11 29399 11.01800000 3057281077 3057281077 11.00000000
-4.08889914 1.82049525 -0.23456976 4 12 29400 4.48200000 3057281079 3057281079 -3.00000000
-10.68074608 4.75760841 2.69941258 48 13 29401 12.00000000 3057281081 3057281081 13.00000000
-3.99279165 1.77937567 -0.07630192 14 14 29402 4.37200000 3057281084 3057281084 -1.00000000
-7.94343090 3.54162812 2.33040667 2 15 29403 9.00400000 3057281086 3057281086 15.00000000
-1.83047175 0.81880957 -0.53730834 4 0 29410 2.07600000 3057281107 3057281107 -15.00000000
-2.13609695 0.95641738 -0.54033244 4 2 29412 2.40200000 3057281111 3057281111 -13.00000000
-4.15402222 1.86079490 0.23854730 5 3 29413 4.55800000 3057281113 3057281113 3.00000000
-2.50301290 1.12122500 -0.53312033 3 4 29413 2.79400000 3057281116 3057281116 -11.00000000
-26.61412048 11.92737579 2.55157161 54 5 29414 29.27600000 3057281118 3057281118 5.00000000
-3.02817774 1.35774195 -0.52561980 3 6 29415 3.36000000 3057281120 3057281120 -9.00000000
-20.12073517 9.02573776 2.70769310 60 7 29416 22.21800000 3057281123 3057281123 7.00000000
-3.78513312 1.69872463 -0.50941384 6 8 29417 4.18000000 3057281125 3057281125 -7.00000000
-15.83777332 7.10781240 2.74949217 53 9 29417 17.57600000 3057281127 3057281127 9.00000000
-4.59666872 2.06389642 -0.44083375 6 10 29418 5.05800000 3057281130 3057281130 -5.00000000
-9.88198853 4.43906879 2.10576797 18 11 29419 11.03600000 3057281132 3057281132 11.00000000
-4.10255909 1.84376311 -0.23572114 4 12 29420 4.50400000 3057281134 3057281134 -3.00000000
-10.65518665 4.79086637 2.69716311 51 13 29421 11.99000000 3057281137 3057281137 13.00000000
-3.99932170 1.79904473 -0.07654625 12 14 29422 4.38600000 3057281139 3057281139 -1.00000000
-7.94221354 3.57270503 2.33351254 2 15 29422 9.01600000 3057281141 3057281141 15.00000000
-1.83816659 0.82996404 -0.54041415 4 0 29430 2.08800000 3057281162 3057281162 -15.00000000
-4.20242023 1.89834869 0.08049050 82 1 29431 4.61200000 3057281164 3057281164 1.00000000
-2.11676335 0.95664495 -0.53628331 3 2 29432 2.38400000 3057281166 3057281166 -13.00000000
-4.15842104 1.88022089 0.23917532 5 3 29433 4.57000000 3057281169 3057281169 3.00000000
-2.50266147 1.13157296 -0.53388357 3 4 29433 2.79800000 3057281171 3057281171 -11.00000000
-26.53057098 12.00131702 2.54756236 54 5 29434 29.23000000 3057281173 3057281173 5.00000000
-3.02881885 1.37074745 -0.52655840 3 6 29435 3.36600000 3057281176 3057281176 -9.00000000
-20.11442375 9.10738087 2.71110535 63 7 29436 22.24600000 3057281178 3057281178 7.00000000
-3.79002976 1.71684146 -0.51087630 6 8 29437 4.19200000 3057281180 3057281180 -7.00000000
-15.80801773 7.16418219 2.74886632 57 9 29438 17.57200000 3057281183 3057281183 9.00000000
-4.60395384 2.08650875 -0.44222823 6 10 29438 5.07400000 3057281185 3057281185 -5.00000000
-9.87358570 4.47677946 2.10729456 18 11 29439 11.04400000 3057281187 3057281187 11.00000000
-4.09427929 1.85724735 -0.23561648 4 12 29440 4.50200000 3057281189 3057281189 -3.00000000
-10.64904594 4.83286285 2.69986248 55 13 29441 12.00200000 3057281192 3057281192 13.00000000
-4.01122570 1.82126117 -0.07689530 13 14 29442 4.40600000 3057281194 3057281194 -1.00000000
-7.93258333 3.60338879 2.33454776 2 15 29443 9.02000000 3057281196 3057281196 15.00000000
-1.83848143 0.83861941 -0.54144943 4 0 29452 2.09200000 3057281217 3057281217 -15.00000000
-4.22602701 1.92858434 0.08108388 108 1 29453 4.64600000 3057281219 3057281219 1.00000000
-2.12371063 0.96962184 -0.53898275 3 2 29454 2.39600000 3057281222 3057281222 -13.00000000
-4.16933775 1.90447259 0.24022204 5 3 29455 4.59000000 3057281224 3057281224 3.00000000
-2.50544143 1.14443696 -0.53541005 3 4 29455 2.80600000 3057281226 3057281226 -11.00000000
-26.45711136 12.09067631 2.54494762 54 5 29456 29.20000000 3057281229 3057281229 5.00000000
-3.02532983 1.38318849 -0.52687126 3 6 29457 3.36800000 3057281231 3057281231 -9.00000000
-20.10096741 9.19445610 2.71403027 63 7 29458 22.27000000 3057281233 3057281233 7.00000000
-3.79062986 1.73468566 -0.51185125 8 8 29459 4.20000000 3057281236 3057281236 -7.00000000
-15.77806091 7.22042942 2.74824071 57 9 29459 17.56800000 3057281238 3057281238 9.00000000
-4.60677767 2.10914755 -0.44327411 6 10 29460 5.08600000 3057281240 3057281240 -5.00000000
-9.85989285 4.51629305 2.10805774 28 11 29461 11.04800000 3057281242 3057281242 11.00000000
-4.10164309 1.87961102 -0.23645385 4 12 29462 4.51800000 3057281245 3057281245 -3.00000000
-10.61623955 4.86721945 2.69626331 60 13 29463 11.98600000 3057281247 3057281247 13.00000000
-4.01692629 1.84248567 -0.07713964 13 14 29464 4.42000000 3057281249 3057281249 -1.00000000
-7.94215012 3.64290929 2.34127712 2 15 29464 9.04600000 3057281252 3057281252 15.00000000
-1.83554292 0.84503180 -0.54144943 4 0 29472 2.09200000 3057281272 3057281272 -15.00000000
-2.12208295 0.97784460 -0.53943264 4 2 29474 2.39800000 3057281277 3057281277 -13.00000000
-4.15540934 1.91566992 0.23980336 5 3 29475 4.58200000 3057281279 3057281279 3.00000000
-2.49786544 1.15153170 -0.53464681 3 4 29475 2.80200000 3057281282 3057281282 -11.00000000
-28.13170433 12.97484779 2.71036935 38 5 29476 31.09800000 3057281284 3057281284 5.00000000
-3.03124499 1.39870620 -0.52874851 3 6 29477 3.38000000 3057281286 3057281286 -9.00000000
-20.11020470 9.28370190 2.71963620 55 7 29478 22.31600000 3057281289 3057281289 7.00000000
-3.78455162 1.74790680 -0.51185125 6 8 29479 4.20000000 3057281291 3057281291 -7.00000000
-15.74252415 7.27406740 2.74667645 57 9 29480 17.55800000 3057281293 3057281293 9.00000000
-4.62109089 2.13524389 -0.44536585 9 10 29480 5.11000000 3057281295 3057281295 -5.00000000
-9.86545277 4.56056881 2.11263728 15 11 29481 11.07200000 3057281298 3057281298 11.00000000
-4.09143162 1.89224017 -0.23624450 4 12 29482 4.51400000 3057281300 3057281300 -3.00000000
-10.59211063 4.90097380 2.69446373 57 13 29483 11.97800000 3057281302 3057281302 13.00000000
-4.01228476 1.85733616 -0.07717454 9 14 29484 4.42200000 3057281305 3057281305 -1.00000000
-9.04890156 4.19076586 2.67204785 28 15 29485 10.32400000 3057281307 3057281307 15.00000000
-1.83258200 0.85143387 -0.54144943 4 0 29492 2.09200000 3057281328 3057281328 -15.00000000
-4.25779438 1.97911274 0.08195650 55 1 29493 4.69600000 3057281330 3057281330 1.00000000
-2.12395787 0.98771131 -0.54078233 3 2 29494 2.40400000 3057281332 3057281332 -13.00000000
-4.17223835 1.94111586 0.24116409 5 3 29495 4.60800000 3057281335 3057281335 3.00000000
-2.48671055 1.15693128 -0.53312033 3 4 29495 2.79400000 3057281337 3057281337 -11.00000000
-28.13681984 13.09650803 2.71525002 86 5 29496 31.15400000 3057281339 3057281339 5.00000000
-3.01201820 1.40260756 -0.52624553 3 6 29497 3.36400000 3057281342 3057281342 -9.00000000
-20.10646629 9.36725616 2.72353601 55 7 29498 22.34800000 3057281344 3057281344 7.00000000
-3.77842712 1.76110673 -0.51185125 6 8 29499 4.20000000 3057281346 3057281346 -7.00000000
-15.69683075 7.31621742 2.74292183 57 9 29499 17.53400000 3057281348 3057281348 9.00000000
-4.59916401 2.14462519 -0.44397137 6 10 29500 5.09400000 3057281351 3057281351 -5.00000000
-12.07699203 5.63416004 2.59042287 31 11 29501 13.57600000 3057281353 3057281353 11.00000000
-4.12280798 1.92424929 -0.23844261 6 12 29502 4.55600000 3057281355 3057281355 -3.00000000
-10.56434441 4.93297052 2.69176435 60 13 29503 11.96600000 3057281358 3057281358 13.00000000
-4.01302433 1.87471581 -0.07731416 9 14 29504 4.43000000 3057281360 3057281360 -1.00000000
-9.04545593 4.22565603 2.67515373 42 15 29504 10.33600000 3057281362 3057281362 15.00000000
-1.82610047 0.85618544 -0.54041415 4 0 29512 2.08800000 3057281383 3057281383 -15.00000000
-4.26172256 1.99905837 0.08216593 10 1 29513 4.70800000 3057281385 3057281385 1.00000000
-2.12402534 0.99677503 -0.54168212 3 2 29514 2.40800000 3057281388 3057281388 -13.00000000
-4.18351650 1.96415603 0.24221081 5 3 29515 4.62800000 3057281390 3057281390 3.00000000
-2.48443389 1.16643882 -0.53350192 3 4 29515 2.79600000 3057281392 3057281392 -11.00000000
-28.12339401 13.20989132 2.71838760 96 5 29516 31.19000000 3057281395 3057281395 5.00000000
-3.01246715 1.41563332 -0.52718413 1 6 29517 3.37000000 3057281397 3057281397 -9.00000000
-20.10238838 9.45089722 2.72743583 57 7 29518 22.38000000 3057281399 3057281399 7.00000000
-3.77225661 1.77428520 -0.51185125 6 8 29519 4.20000000 3057281401 3057281401 -7.00000000
-15.66812229 7.37285900 2.74260902 57 9 29520 17.53200000 3057281404 3057281404 9.00000000
-4.60607195 2.16745281 -0.44536585 6 10 29520 5.11000000 3057281406 3057281406 -5.00000000
-12.08211899 5.68798923 2.59576559 53 11 29521 13.60400000 3057281408 3057281408 11.00000000
-4.12510061 1.94288397 -0.23896597 6 12 29522 4.56600000 3057281411 3057281411 -3.00000000
-10.55058575 4.97147799 2.69266415 57 13 29523 11.97000000 3057281413 3057281413 13.00000000
-4.01730824 1.89382863 -0.07752359 11 14 29524 4.44200000 3057281415 3057281415 -1.00000000
-9.01068783 4.24971628 2.66945958 47 15 29525 10.31400000 3057281418 3057281418 15.00000000
-1.82340169 0.86191803 -0.54041415 4 0 29530 2.08800000 3057281438 3057281438 -15.00000000
-4.24999809 2.00987244 0.08206122 42 1 29531 4.70200000 3057281441 3057281441 1.00000000
-2.11031437 0.99844241 -0.53898275 3 2 29532 2.39600000 3057281443 3057281443 -13.00000000
-4.21342993 1.99437892 0.24430424 6 3 29533 4.66800000 3057281445 3057281445 3.00000000
-2.48608065 1.17675793 -0.53464681 3 4 29533 2.80200000 3057281448 3057281448 -11.00000000
-28.11416626 13.31352711 2.72152519 86 5 29534 31.22600000 3057281450 3057281450 5.00000000
-3.01336050 1.42762756 -0.52812278 3 6 29535 3.37600000 3057281452 3057281452 -9.00000000
-20.10488701 9.52930737 2.73182321 68 7 29536 22.41600000 3057281454 3057281454 7.00000000
-3.77383852 1.78952944 -0.51282620 6 8 29537 4.20800000 3057281457 3057281457 -7.00000000
-15.63725376 7.41508293 2.74104476 57 9 29537 17.52200000 3057281459 3057281459 9.00000000
-4.61364079 2.18874431 -0.44676033 6 10 29538 5.12600000 3057281461 3057281461 -5.00000000
-12.07660484 5.73181105 2.59843683 59 11 29539 13.61800000 3057281464 3057281464 11.00000000
-4.10815096 1.95069361 -0.23833795 6 12 29540 4.55400000 3057281466 3057281466 -3.00000000
-10.53491592 5.00459909 2.69266415 59 13 29541 11.97000000 3057281468 3057281468 13.00000000
-4.02939987 1.91502368 -0.07787263 9 14 29542 4.46200000 3057281471 3057281471 -1.00000000
-9.00501823 4.27974987 2.67153025 47 15 29542 10.32200000 3057281473 3057281473 15.00000000
-1.82735658 0.87160438 -0.54248470 4 0 29550 2.09600000 3057281494 3057281494 -15.00000000
-2.11033344 1.00748181 -0.53988254 3 2 29552 2.40000000 3057281498 3057281498 -13.00000000
-4.22446489 2.01768231 0.24535096 6 3 29553 4.68800000 3057281501 3057281501 3.00000000
-2.48372960 1.18627501 -0.53502840 3 4 29553 2.80400000 3057281503 3057281503 -11.00000000
-28.11246490 13.43305779 2.72588301 86 5 29554 31.27600000 3057281505 3057281505 5.00000000
-3.00835896 1.43813741 -0.52812278 3 6 29555 3.37600000 3057281507 3057281507 -9.00000000
-20.10015488 9.61313248 2.73572302 70 7 29556 22.44800000 3057281510 3057281510 7.00000000
-3.76756907 1.80269170 -0.51282620 6 8 29557 4.20800000 3057281512 3057281512 -7.00000000
-15.60414696 7.46621132 2.73979330 57 9 29557 17.51400000 3057281514 3057281514 9.00000000
-4.71559572 2.25731134 -0.45739335 3 10 29558 5.24800000 3057281517 3057281517 -5.00000000
-12.08308411 5.78665113 2.60416126 59 11 29559 13.64800000 3057281519 3057281519 11.00000000
-4.09231091 1.96070683 -0.23781459 8 12 29560 4.54400000 3057281521 3057281521 -3.00000000
-10.51386738 5.03965759 2.69176435 57 13 29561 11.96600000 3057281524 3057281524 13.00000000
-4.03350925 1.93426526 -0.07808207 7 14 29562 4.47400000 3057281526 3057281526 -1.00000000
-8.99350834 4.31282759 2.67256546 47 15 29562 10.32600000 3057281528 3057281528 15.00000000
-1.83095825 0.88196796 -0.54455525 4 0 29572 2.10400000 3057281549 3057281549 -15.00000000
-2.10996008 1.01727009 -0.54078233 4 2 29574 2.40400000 3057281554 3057281554 -13.00000000
-4.25446415 2.05210996 0.24754907 4 3 29575 4.73000000 3057281556 3057281556 3.00000000
-2.47915626 1.19580305 -0.53502840 3 4 29575 2.80400000 3057281558 3057281558 -11.00000000
-28.11989403 13.56947708 2.73163533 96 5 29576 31.34200000 3057281560 3057281560 5.00000000
-2.98502541 1.44108999 -0.52499408 3 6 29577 3.35600000 3057281563 3057281563 -9.00000000
-20.09884453 9.70750713 2.74059772 68 7 29578 22.48800000 3057281565 3057281565 7.00000000
-3.75704455 1.81541741 -0.51233870 8 8 29579 4.20400000 3057281567 3057281567 -7.00000000
-15.55804443 7.52105236 2.73697734 57 9 29580 17.49600000 3057281570 3057281570 9.00000000
-5.03515625 2.43408966 -0.48929235 10 10 29580 5.61400000 3057281572 3057281572 -5.00000000
-12.07845020 5.84155178 2.60797739 59 11 29581 13.66800000 3057281574 3057281574 11.00000000
-4.10992241 1.98858428 -0.23927999 11 12 29582 4.57200000 3057281577 3057281577 -3.00000000
-10.48040676 5.07319832 2.68816519 55 13 29583 11.95000000 3057281579 3057281579 13.00000000
-4.02965212 1.95148170 -0.07815187 7 14 29584 4.47800000 3057281581 3057281581 -1.00000000
-8.98035908 4.34901237 2.67360067 47 15 29584 10.33000000 3057281583 3057281583 15.00000000
-1.82439339 0.88666499 -0.54351997 4 0 29592 2.10000000 3057281604 3057281604 -15.00000000
-2.10990119 1.02633393 -0.54168212 3 2 29594 2.40800000 3057281609 3057281609 -13.00000000
-41.80647659 20.34523773 2.43665743 21 3 29595 46.55800000 3057281611 3057281611 3.00000000
-2.46437526 1.19929504 -0.53273869 3 4 29595 2.79200000 3057281613 3057281613 -11.00000000
-28.11176682 13.68673801 2.73547006 96 5 29596 31.38600000 3057281616 3057281616 5.00000000
-3.01194334 1.46707118 -0.53062570 3 6 29597 3.39200000 3057281618 3057281618 -9.00000000
-20.10231209 9.79586792 2.74571633 60 7 29598 22.53000000 3057281620 3057281620 7.00000000
-3.76139092 1.83374035 -0.51380116 6 8 29599 4.21600000 3057281623 3057281623 -7.00000000
-15.54412460 7.58137608 2.73916745 61 9 29600 17.51000000 3057281625 3057281625 9.00000000
-5.02304745 2.44990396 -0.48894373 10 10 29600 5.61000000 3057281627 3057281627 -5.00000000
-12.08268738 5.89573097 2.61332011 62 11 29601 13.69600000 3057281630 3057281630 11.00000000
-4.14064693 2.02131796 -0.24147810 4 12 29602 4.61400000 3057281632 3057281632 -3.00000000
-10.46963882 5.11317158 2.68996477 59 13 29603 11.95800000 3057281634 3057281634 13.00000000
-4.03000212 1.96904743 -0.07829150 7 14 29604 4.48600000 3057281636 3057281636 -1.00000000
-8.96088791 4.38020134 2.67256546 47 15 29605 10.32600000 3057281639 3057281639 15.00000000
-1.81118977 0.88729268 -0.54041415 4 0 29610 2.08800000 3057281660 3057281660 -15.00000000
-4.15867472 2.03821373 0.08083954 4 1 29611 4.63200000 3057281662 3057281662 1.00000000
-2.11191559 1.03553104 -0.54303187 4 2 29612 2.41400000 3057281664 3057281664 -13.00000000
-41.82662964 20.51781845 2.44157696 21 3 29613 46.65200000 3057281666 3057281666 3.00000000
-2.47117090 1.21221900 -0.53502840 3 4 29613 2.80400000 3057281669 3057281669 -11.00000000
-28.09724617 13.78903103 2.73825908 96 5 29614 31.41800000 3057281671 3057281671 5.00000000
-3.00731945 1.47652626 -0.53062570 3 6 29615 3.39200000 3057281673 3057281673 -9.00000000
-20.09460068 9.87034988 2.74888492 55 7 29616 22.55600000 3057281676 3057281676 7.00000000
-3.75739288 1.84642351 -0.51404488 8 8 29617 4.21800000 3057281678 3057281678 -7.00000000
-15.52023029 7.63017178 2.73916745 61 9 29618 17.51000000 3057281680 3057281680 9.00000000
-5.02247810 2.46918821 -0.48964095 10 10 29618 5.61800000 3057281683 3057281683 -5.00000000
-12.08172226 5.94232559 2.61713624 62 11 29619 13.71600000 3057281685 3057281685 11.00000000
-4.20775080 2.07047009 -0.24576965 2 12 29620 4.69600000 3057281687 3057281687 -3.00000000
-10.45701981 5.14775896 2.69086456 57 13 29621 11.96200000 3057281689 3057281689 13.00000000
-4.04891157 1.99406731 -0.07878016 5 14 29622 4.51400000 3057281692 3057281692 -1.00000000
-8.93745327 4.40164804 2.66945958 47 15 29622 10.31400000 3057281694 3057281694 15.00000000
-1.81500900 0.89703333 -0.54248470 4 0 29630 2.09600000 3057281715 3057281715 -15.00000000
-4.14077902 2.04739976 0.08063012 6 1 29631 4.62000000 3057281717 3057281717 1.00000000
-2.10828805 1.04289675 -0.54303187 4 2 29632 2.41400000 3057281719 3057281719 -13.00000000
-41.81740570 20.69470024 2.44524050 21 3 29633 46.72200000 3057281722 3057281722 3.00000000
-2.47044349 1.22257912 -0.53579164 3 4 29633 2.80800000 3057281724 3057281724 -11.00000000
-28.09536743 13.91000938 2.74279118 86 5 29634 31.47000000 3057281726 3057281726 5.00000000
-2.98798609 1.48000050 -0.52812278 3 6 29635 3.37600000 3057281729 3057281729 -9.00000000
-20.08848381 9.95453548 2.75278473 68 7 29636 22.58800000 3057281731 3057281731 7.00000000
-3.75270343 1.86040974 -0.51428860 8 8 29637 4.22000000 3057281733 3057281733 -7.00000000
-15.48996162 7.68254566 2.73854184 61 9 29638 17.50600000 3057281736 3057281736 9.00000000
-5.01739836 2.48847556 -0.48998958 10 10 29638 5.62200000 3057281738 3057281738 -5.00000000
-12.06794071 5.98795271 2.61866260 62 11 29639 13.72400000 3057281740 3057281740 11.00000000
-7.56018066 3.75290632 -0.44234350 8 12 29640 8.45200000 3057281742 3057281742 -3.00000000
-9.09157085 4.51507282 2.34354019 15 13 29641 10.41800000 3057281745 3057281745 13.00000000
-4.07416153 2.02420425 -0.07940845 5 14 29642 4.55000000 3057281747 3057281747 -1.00000000
-8.91857433 4.43109989 2.66842437 47 15 29642 10.31000000 3057281749 3057281749 15.00000000
-1.81532443 0.90508741 -0.54351997 4 0 29650 2.10000000 3057281770 3057281770 -15.00000000
-4.14613342 2.06808949 0.08087445 4 1 29651 4.63400000 3057281772 3057281772 1.00000000
-2.09591651 1.04589903 -0.54078233 3 2 29652 2.40400000 3057281775 3057281775 -13.00000000
-41.79143906 20.85466194 2.44775271 21 3 29652 46.77000000 3057281777 3057281777 3.00000000
-2.46264791 1.22944129 -0.53502840 3 4 29653 2.80400000 3057281779 3057281779 -11.00000000
-28.09654999 14.03292179 2.74767184 86 5 29654 31.52600000 3057281782 3057281782 5.00000000
-2.98280168 1.49042153 -0.52812278 3 6 29655 3.37600000 3057281784 3057281784 -9.00000000
-20.07847023 10.03702259 2.75619698 73 7 29656 22.61600000 3057281786 3057281786 7.00000000
-3.74441099 1.87260985 -0.51404488 6 8 29657 4.21800000 3057281788 3057281788 -7.00000000
-15.47853470 7.74093866 2.74104476 57 9 29657 17.52200000 3057281791 3057281791 9.00000000
-5.01580858 2.50954032 -0.49068683 10 10 29658 5.63000000 3057281793 3057281793 -5.00000000
-12.07329941 6.04322290 2.62438703 50 11 29659 13.75400000 3057281795 3057281795 11.00000000
-7.55239201 3.78195620 -0.44265753 8 12 29660 8.45800000 3057281798 3057281798 -3.00000000
-10.39469242 5.20754385 2.68411589 42 13 29661 11.93200000 3057281800 3057281800 13.00000000
-4.08852339 2.04916549 -0.07982731 3 14 29662 4.57400000 3057281802 3057281802 -1.00000000
-8.90650654 4.46393538 2.66945958 49 15 29662 10.31400000 3057281805 3057281805 15.00000000
-1.81560576 0.91315454 -0.54455525 4 0 29670 2.10400000 3057281825 3057281825 -15.00000000
-19.66731453 9.89593029 0.38430199 4 1 29671 22.02000000 3057281828 3057281828 1.00000000
-2.10095596 1.05758989 -0.54303187 4 2 29672 2.41400000 3057281830 3057281830 -13.00000000
-41.79677963 21.04901886 2.45256758 21 3 29673 46.86200000 3057281832 3057281832 3.00000000
-2.46184826 1.23979616 -0.53579164 3 4 29673 2.80800000 3057281835 3057281835 -11.00000000
-28.10611153 14.16049480 2.75342417 96 5 29674 31.59200000 3057281837 3057281837 5.00000000
-2.98992872 1.50704813 -0.53031284 3 6 29675 3.39000000 3057281839 3057281839 -9.00000000
-20.08585358 10.12849998 2.76204681 70 7 29676 22.66400000 3057281841 3057281841 7.00000000
-3.74316859 1.88835120 -0.51477611 6 8 29677 4.22400000 3057281844 3057281844 -7.00000000
-15.43595028 7.79049778 2.73854184 61 9 29678 17.50600000 3057281846 3057281846 9.00000000
-5.01413250 2.53062415 -0.49138409 14 10 29678 5.63800000 3057281848 3057281848 -5.00000000
-10.17867947 5.13939142 2.21643734 18 11 29679 11.61600000 3057281851 3057281851 11.00000000
-7.55340624 3.81550002 -0.44349489 8 12 29680 8.47400000 3057281853 3057281853 -3.00000000
-17.48536301 8.84015465 -0.34199736 2 14 29682 19.59600000 3057281858 3057281858 -1.00000000
-8.89008522 4.49654961 2.66945958 47 15 29683 10.31400000 3057281860 3057281860 15.00000000
-1.80535603 0.91630560 -0.54248470 4 0 29691 2.09600000 3057281881 3057281881 -15.00000000
-19.60594940 9.95527267 0.38381332 4 1 29692 21.99200000 3057281883 3057281883 1.00000000
-2.09880304 1.06616569 -0.54348177 4 2 29693 2.41600000 3057281885 3057281885 -13.00000000
-41.77112961 21.21921158 2.45539379 32 3 29693 46.91600000 3057281888 3057281888 3.00000000
-2.45728755 1.24881101 -0.53579164 3 4 29694 2.80800000 3057281890 3057281890 -11.00000000
-28.08954239 14.28147411 2.75691056 96 5 29695 31.63200000 3057281892 3057281892 5.00000000
-2.98614573 1.51889229 -0.53062570 3 6 29696 3.39200000 3057281894 3057281894 -9.00000000
-20.08751678 10.22185612 2.76740909 68 7 29697 22.70800000 3057281897 3057281897 7.00000000
-3.73976040 1.90385902 -0.51526356 6 8 29698 4.22800000 3057281899 3057281899 -7.00000000
-15.38617039 7.83626318 2.73478723 57 9 29699 17.48200000 3057281901 3057281901 9.00000000
-5.00837469 2.55079341 -0.49173269 10 10 29699 5.64200000 3057281904 3057281904 -5.00000000
-10.16852093 5.18111992 2.21834540 28 11 29700 11.62600000 3057281906 3057281906 11.00000000
-7.56428289 3.85585785 -0.44496030 8 12 29701 8.50200000 3057281908 3057281908 -3.00000000
-8.78258228 4.47881126 2.27605486 15 13 29702 10.11800000 3057281911 3057281911 13.00000000
-17.37090683 8.86237907 -0.34039173 2 14 29703 19.50400000 3057281913 3057281913 -1.00000000
-8.87089443 4.52579832 2.66842437 49 15 29703 10.31000000 3057281915 3057281915 15.00000000
-1.80214655 0.92260188 -0.54248470 4 0 29711 2.09600000 3057281936 3057281936 -15.00000000
-2.09333444 1.07259679 -0.54303187 4 2 29713 2.41400000 3057281940 3057281940 -13.00000000
-41.77501678 21.40496445 2.45999932 32 3 29713 47.00400000 3057281943 3057281943 3.00000000
-2.45466065 1.25827646 -0.53617328 3 4 29714 2.81000000 3057281945 3057281945 -11.00000000
-28.07674980 14.39853001 2.76057100 86 5 29715 31.67400000 3057281947 3057281947 5.00000000
-2.99840140 1.53832376 -0.53375441 3 6 29716 3.41200000 3057281950 3057281950 -9.00000000
-20.07997131 10.30641651 2.77130890 57 7 29717 22.74000000 3057281952 3057281952 7.00000000
-3.74368739 1.92234230 -0.51672602 6 8 29718 4.24000000 3057281954 3057281954 -7.00000000
-15.35169506 7.88631248 2.73353577 61 9 29719 17.47400000 3057281957 3057281957 9.00000000
-5.00652885 2.57190204 -0.49242994 14 10 29719 5.65000000 3057281959 3057281959 -5.00000000
-12.07637787 6.20641518 2.63927007 28 11 29720 13.83200000 3057281961 3057281961 11.00000000
-7.56498718 3.88954449 -0.44579768 8 12 29721 8.51800000 3057281964 3057281964 -3.00000000
-8.70450878 4.47735167 2.25985837 15 13 29722 10.04600000 3057281966 3057281966 13.00000000
-17.40743256 8.95773029 -0.34171811 2 14 29723 19.58000000 3057281968 3057281968 -1.00000000
-8.84130001 4.54966450 2.66428328 47 15 29723 10.29400000 3057281970 3057281970 15.00000000
-1.79923916 0.92825896 -0.54248470 4 0 29729 2.09600000 3057281991 3057281991 -15.00000000
-2.08995438 1.07916784 -0.54303187 4 2 29731 2.41400000 3057281996 3057281996 -13.00000000
-41.78720474 21.58646011 2.46491885 21 3 29732 47.09800000 3057281998 3057281998 3.00000000
-2.45767260 1.26958597 -0.53769976 3 4 29732 2.81800000 3057282000 3057282000 -11.00000000
-28.08801651 14.51593590 2.76614904 96 5 29733 31.73800000 3057282003 3057282003 5.00000000
-2.96898770 1.53503466 -0.52937424 3 6 29734 3.38400000 3057282005 3057282005 -9.00000000
-20.07394218 10.38312817 2.77496505 63 7 29735 22.77000000 3057282007 3057282007 7.00000000
-3.74115562 1.93591857 -0.51721346 6 8 29736 4.24400000 3057282010 3057282010 -7.00000000
-15.31770134 7.92638016 2.73165870 61 9 29736 17.46200000 3057282012 3057282012 9.00000000
-4.98957777 2.58303785 -0.49155840 14 10 29737 5.64000000 3057282014 3057282014 -5.00000000
-12.06727982 6.24974060 2.64155984 59 11 29738 13.84400000 3057282017 3057282017 11.00000000
-7.56337070 3.91880441 -0.44642571 8 12 29739 8.53000000 3057282019 3057282019 -3.00000000
-8.64887714 4.48315191 2.24906063 14 13 29740 9.99800000 3057282021 3057282021 13.00000000
-8.82616425 4.57895851 2.66428328 47 15 29742 10.29400000 3057282026 3057282026 15.00000000
-1.80284286 0.93810076 -0.54455525 4 0 29749 2.10400000 3057282046 3057282046 -15.00000000
-2.07580423 1.08105576 -0.54033244 4 2 29751 2.40200000 3057282051 3057282051 -13.00000000
-2.45844913 1.28087854 -0.53884459 3 4 29752 2.82400000 3057282056 3057282056 -11.00000000
-28.06014252 14.62586498 2.76841497 28 5 29753 31.76400000 3057282058 3057282058 5.00000000
-2.96886587 1.54812908 -0.53031284 1 6 29754 3.39000000 3057282060 3057282060 -9.00000000
-20.04461479 10.45680904 2.77593994 41 7 29755 22.77800000 3057282063 3057282063 7.00000000
-3.73437524 1.94896579 -0.51721346 6 8 29756 4.24400000 3057282065 3057282065 -7.00000000
-15.28154278 7.97881222 2.73040724 61 9 29757 17.45400000 3057282067 3057282067 9.00000000
-5.00172472 2.61150479 -0.49365014 14 10 29757 5.66400000 3057282070 3057282070 -5.00000000
-12.06627274 6.30273294 2.64613914 62 11 29758 13.86800000 3057282072 3057282072 11.00000000
-5.05728865 2.64276290 -0.29904765 3 12 29759 5.71400000 3057282074 3057282074 -3.00000000
-8.57100391 4.48081255 2.23286414 14 13 29760 9.92600000 3057282076 3057282076 13.00000000
-5.05013037 2.64126658 -0.09947871 6 14 29761 5.70000000 3057282079 3057282079 -1.00000000
-8.81355000 4.61153078 2.66531849 47 15 29762 10.29800000 3057282081 3057282081 15.00000000
-1.80948937 0.95040607 -0.54766113 4 0 29771 2.11600000 3057282102 3057282102 -15.00000000
-5.03088856 2.64351606 0.09919948 7 1 29772 5.68400000 3057282104 3057282104 1.00000000
-2.07853770 1.09264541 -0.54213202 4 2 29773 2.41000000 3057282106 3057282106 -13.00000000
-5.01899433 2.63838434 0.29716355 7 3 29773 5.67800000 3057282109 3057282109 3.00000000
-2.44656253 1.28665364 -0.53731811 3 4 29774 2.81600000 3057282111 3057282111 -11.00000000
-5.12397528 2.69585395 0.50654918 3 5 29775 5.81200000 3057282113 3057282113 5.00000000
-2.96989179 1.56319749 -0.53156430 1 6 29776 3.39800000 3057282116 3057282116 -9.00000000
-3.72335172 1.96143997 -0.51672602 6 8 29778 4.24000000 3057282120 3057282120 -7.00000000
-4.99166012 2.63069057 -0.49365014 17 10 29779 5.66400000 3057282125 3057282125 -5.00000000
-5.01000595 2.64259410 -0.29684955 9 12 29781 5.67200000 3057282129 3057282129 -3.00000000
-10.25655460 5.41224432 2.67736745 3 13 29782 11.90200000 3057282132 3057282132 13.00000000
-4.99397278 2.63636565 -0.09857119 6 14 29783 5.64800000 3057282134 3057282134 -1.00000000
-8.79065323 4.64263153 2.66376567 38 15 29784 10.29200000 3057282136 3057282136 15.00000000
-1.79250360 0.94948238 -0.54351997 4 0 29791 2.10000000 3057282157 3057282157 -15.00000000
-4.98629141 2.64233422 0.09850138 7 1 29792 5.64400000 3057282159 3057282159 1.00000000
-2.07987618 1.10263252 -0.54348177 4 2 29793 2.41600000 3057282162 3057282162 -13.00000000
-4.99210787 2.64653277 0.29611683 6 3 29793 5.65800000 3057282164 3057282164 3.00000000
-2.43858743 1.29334617 -0.53655487 3 4 29794 2.81200000 3057282166 3057282166 -11.00000000
-4.98605442 2.64555359 0.49382445 8 5 29795 5.66600000 3057282169 3057282169 5.00000000
-2.97837543 1.58096421 -0.53406727 3 6 29796 3.41400000 3057282171 3057282171 -9.00000000
-4.99843073 2.65435672 0.69489902 7 7 29797 5.70200000 3057282173 3057282173 7.00000000
-3.72700071 1.98001289 -0.51818848 8 8 29798 4.25200000 3057282176 3057282176 -7.00000000
-4.98920631 2.65057445 0.89480513 9 9 29798 5.72000000 3057282178 3057282178 9.00000000
-4.96309423 2.63781309 -0.49173269 14 10 29799 5.64200000 3057282180 3057282180 -5.00000000
-4.98887110 2.65262985 1.09829652 5 11 29800 5.75600000 3057282182 3057282182 11.00000000
-4.97253799 2.64505887 -0.29517481 9 12 29801 5.64000000 3057282185 3057282185 -3.00000000
-4.97171307 2.64573336 1.30021715 7 13 29802 5.78000000 3057282187 3057282187 13.00000000
-4.95296717 2.63686681 -0.09794290 6 14 29803 5.61200000 3057282189 3057282189 -1.00000000
-1.78577042 0.95391315 -0.54248470 4 0 29811 2.09600000 3057282212 3057282212 -15.00000000
-4.93823719 2.63898873 0.09773348 7 1 29812 5.60000000 3057282215 3057282215 1.00000000
-2.07773328 1.11080468 -0.54393166 4 2 29813 2.41800000 3057282217 3057282217 -13.00000000
-4.94761276 2.64510918 0.29402339 6 3 29813 5.61800000 3057282219 3057282219 3.00000000
-2.44098282 1.30555415 -0.53808135 3 4 29814 2.82000000 3057282222 3057282222 -11.00000000
-4.93287134 2.63944268 0.48946664 8 5 29815 5.61600000 3057282224 3057282224 5.00000000
-2.97458029 1.59228325 -0.53438014 3 6 29816 3.41600000 3057282226 3057282226 -9.00000000
-4.95938540 2.65585685 0.69075543 7 7 29817 5.66800000 3057282228 3057282228 7.00000000
-3.72356606 1.99488544 -0.51867592 6 8 29818 4.25600000 3057282231 3057282231 -7.00000000
-4.93813419 2.64558530 0.88729626 9 9 29818 5.67200000 3057282233 3057282233 9.00000000
-4.92224741 2.63817978 -0.48859510 10 10 29819 5.60600000 3057282235 3057282235 -5.00000000
-4.94497681 2.65147328 1.09066427 8 11 29820 5.71600000 3057282238 3057282238 11.00000000
-4.93863440 2.64918256 -0.29370940 8 12 29821 5.61200000 3057282240 3057282240 -3.00000000
-4.94184208 2.65201402 1.29481828 8 13 29822 5.75600000 3057282242 3057282242 13.00000000
-4.91201925 2.63711405 -0.09731462 6 14 29823 5.57600000 3057282245 3057282245 -1.00000000
-4.93259668 2.64816141 1.50011516 6 15 29823 5.79600000 3057282247 3057282247 15.00000000
-1.79263449 0.96563786 -0.54559052 4 0 29831 2.10800000 3057282268 3057282268 -15.00000000
-4.90082979 2.64103198 0.09717500 7 1 29832 5.56800000 3057282270 3057282270 1.00000000
-2.07727385 1.11990011 -0.54483145 4 2 29833 2.42200000 3057282272 3057282272 -13.00000000
-4.89264011 2.63772082 0.29130194 6 3 29833 5.56600000 3057282275 3057282275 3.00000000
-2.42604303 1.30847514 -0.53579164 3 4 29834 2.80800000 3057282277 3057282277 -11.00000000
-4.89206648 2.63961577 0.48632905 8 5 29835 5.58000000 3057282279 3057282279 5.00000000
-2.95509768 1.59515023 -0.53187716 3 6 29836 3.40000000 3057282281 3057282281 -9.00000000
-4.91340446 2.65334415 0.68563694 7 7 29837 5.62600000 3057282284 3057282284 7.00000000
-3.73404503 2.01730633 -0.52111334 6 8 29838 4.27600000 3057282286 3057282286 -7.00000000
-4.90453768 2.64966154 0.88291609 9 9 29838 5.64400000 3057282288 3057282288 9.00000000
-4.88321114 2.63924122 -0.48563179 10 10 29839 5.57200000 3057282291 3057282291 -5.00000000
-4.88733625 2.64257288 1.07997894 8 11 29840 5.66000000 3057282293 3057282293 11.00000000
-4.88895273 2.64454961 -0.29130194 11 12 29841 5.56600000 3057282295 3057282295 -3.00000000
-4.89484930 2.64884377 1.28492045 7 13 29842 5.71200000 3057282298 3057282298 13.00000000
-4.86937237 2.63615561 -0.09665143 6 14 29843 5.53800000 3057282300 3057282300 -1.00000000
-4.87869120 2.64230204 1.48665655 6 15 29844 5.74400000 3057282302 3057282302 15.00000000
-1.78619623 0.96942180 -0.54455525 4 0 29849 2.10400000 3057282323 3057282323 -15.00000000
-4.85736132 2.63733196 0.09647691 7 1 29850 5.52800000 3057282325 3057282325 1.00000000
-2.06175828 1.11990941 -0.54168212 3 2 29851 2.40800000 3057282328 3057282328 -13.00000000
-4.85578823 2.63867283 0.28962719 6 3 29852 5.53400000 3057282330 3057282330 3.00000000
-2.43917036 1.32546413 -0.53960782 3 4 29852 2.82800000 3057282332 3057282332 -11.00000000
-4.85049105 2.63689113 0.48301712 8 5 29853 5.54200000 3057282334 3057282334 5.00000000
-2.95874858 1.60914493 -0.53344154 1 6 29854 3.41000000 3057282337 3057282337 -9.00000000
-4.86145163 2.64504862 0.67954344 7 7 29855 5.57600000 3057282339 3057282339 7.00000000
-3.71374059 2.02143502 -0.51916343 6 8 29856 4.26000000 3057282341 3057282341 -7.00000000
-4.86495924 2.64805746 0.87728447 9 9 29856 5.60800000 3057282344 3057282344 9.00000000
-4.84514952 2.63837123 -0.48266849 10 10 29857 5.53800000 3057282346 3057282346 -5.00000000
-4.85487366 2.64476514 1.07463622 8 11 29858 5.63200000 3057282348 3057282348 11.00000000
-4.83677721 2.63600159 -0.28868514 11 12 29859 5.51600000 3057282351 3057282351 -3.00000000
-4.85057354 2.64461851 1.27547252 7 13 29860 5.67000000 3057282353 3057282353 13.00000000
-4.82946682 2.63420439 -0.09602314 12 14 29861 5.50200000 3057282355 3057282355 -1.00000000
-4.84199858 2.64103961 1.47785676 6 15 29861 5.71000000 3057282358 3057282358 15.00000000
-1.78958011 0.97936058 -0.54662585 4 0 29869 2.11200000 3057282378 3057282378 -15.00000000
-4.80953693 2.63314462 0.09570900 7 1 29870 5.48400000 3057282381 3057282381 1.00000000
-2.06638241 1.13178015 -0.54393166 3 2 29871 2.41800000 3057282383 3057282383 -13.00000000
-4.80275917 2.63161302 0.28701037 6 3 29872 5.48400000 3057282385 3057282385 3.00000000
-2.43452883 1.33397031 -0.53960782 3 4 29872 2.82800000 3057282387 3057282387 -11.00000000
-4.81330299 2.63848305 0.48022816 8 5 29873 5.51000000 3057282390 3057282390 5.00000000
-2.94445348 1.61471391 -0.53187716 1 6 29874 3.40000000 3057282392 3057282392 -9.00000000
-4.82260275 2.64577055 0.67539990 10 7 29875 5.54200000 3057282394 3057282394 7.00000000
-3.69970107 2.03056574 -0.51818848 6 8 29876 4.25200000 3057282397 3057282397 -7.00000000
-4.82232189 2.64780664 0.87133998 9 9 29877 5.57000000 3057282399 3057282399 9.00000000
-4.79748869 2.63417149 -0.47883365 10 10 29877 5.49400000 3057282401 3057282401 -5.00000000
-4.82496309 2.65035319 1.07005680 8 11 29878 5.60800000 3057282404 3057282404 11.00000000
-4.79603958 2.63555503 -0.28680104 11 12 29879 5.48000000 3057282406 3057282406 -3.00000000
-4.79691219 2.63712502 1.26377499 8 13 29880 5.61800000 3057282408 3057282408 13.00000000
-4.77819014 2.62791824 -0.09518542 10 14 29881 5.45400000 3057282411 3057282411 -1.00000000
-4.81028271 2.64666224 1.47112751 6 15 29882 5.68400000 3057282413 3057282413 15.00000000
-1.78276777 0.98373473 -0.54559052 4 0 29889 2.10800000 3057282434 3057282434 -15.00000000
-4.76880455 2.63252139 0.09508071 7 1 29890 5.44800000 3057282436 3057282436 1.00000000
-2.05900741 1.13710201 -0.54303187 3 2 29891 2.41400000 3057282438 3057282438 -13.00000000
-4.76557255 2.63290834 0.28533563 6 3 29892 5.45200000 3057282440 3057282440 3.00000000
-2.42642069 1.34056151 -0.53884459 3 4 29892 2.82400000 3057282443 3057282443 -11.00000000
-4.76570129 2.63406491 0.47639328 11 5 29893 5.46600000 3057282445 3057282445 5.00000000
-2.94744253 1.62976146 -0.53344154 1 6 29894 3.41000000 3057282447 3057282447 -9.00000000
-4.77859735 2.64337087 0.67052513 10 7 29895 5.50200000 3057282450 3057282450 7.00000000
-3.71343303 2.05500174 -0.52111334 8 8 29896 4.27600000 3057282452 3057282452 -7.00000000
-4.77203369 2.64082813 0.86383110 9 9 29896 5.52200000 3057282454 3057282454 9.00000000
-4.75688887 2.63353133 -0.47569606 10 10 29897 5.45800000 3057282457 3057282457 -5.00000000
-4.77789879 2.64625287 1.06166124 8 11 29898 5.56400000 3057282459 3057282459 11.00000000
-4.74313498 2.62808061 -0.28418425 5 12 29899 5.43000000 3057282461 3057282461 -3.00000000
-4.76211166 2.63968158 1.25702643 9 13 29900 5.58800000 3057282464 3057282464 13.00000000
-4.73226309 2.62421608 -0.09445243 10 14 29901 5.41200000 3057282466 3057282466 -1.00000000
-4.76937962 2.64479852 1.46129239 8 15 29901 5.64600000 3057282468 3057282468 15.00000000
-1.77932298 0.98995179 -0.54559052 4 0 29909 2.10800000 3057282489 3057282489 -15.00000000
-4.72464037 2.62970114 0.09438261 10 1 29910 5.40800000 3057282491 3057282491 1.00000000
-2.07034898 1.15281475 -0.54708099 4 2 29911 2.43200000 3057282493 3057282493 -13.00000000
-4.72320175 2.63106012 0.28334686 6 3 29912 5.41400000 3057282496 3057282496 3.00000000
-2.42172647 1.34902310 -0.53884459 3 4 29912 2.82400000 3057282498 3057282498 -11.00000000
-4.72341013 2.63225675 0.47308138 11 5 29913 5.42800000 3057282500 3057282500 5.00000000
-2.92448211 1.63042104 -0.53031284 3 6 29914 3.39000000 3057282503 3057282503 -9.00000000
-4.74853706 2.64843202 0.66760027 9 7 29915 5.47800000 3057282505 3057282505 7.00000000
-3.70623708 2.06795168 -0.52111334 6 8 29916 4.27600000 3057282507 3057282507 -7.00000000
-4.72955036 2.64000750 0.85788661 9 9 29917 5.48400000 3057282510 3057282510 9.00000000
-4.71287298 2.63069797 -0.47220981 10 10 29917 5.41800000 3057282512 3057282512 -5.00000000
-4.72920847 2.64089918 1.05288398 11 11 29918 5.51800000 3057282514 3057282514 11.00000000
-4.72347069 2.63877678 -0.28355622 5 12 29919 5.41800000 3057282516 3057282516 -3.00000000
-4.71374321 2.63442206 1.24667871 8 13 29920 5.54200000 3057282519 3057282519 13.00000000
-4.70212889 2.62900829 -0.09403357 8 14 29921 5.38800000 3057282521 3057282521 -1.00000000
-4.71581697 2.63774180 1.44783378 8 15 29922 5.59400000 3057282523 3057282523 15.00000000
-1.77585661 0.99615675 -0.54559052 4 0 29929 2.10800000 3057282544 3057282544 -15.00000000
-4.68055487 2.62660480 0.09368452 10 1 29930 5.36800000 3057282546 3057282546 1.00000000
-2.06631231 1.16003454 -0.54708099 4 2 29931 2.43200000 3057282549 3057282549 -13.00000000
-4.68612623 2.63188267 0.28167212 6 3 29932 5.38200000 3057282551 3057282551 3.00000000
-2.42384982 1.36131382 -0.54037106 3 4 29932 2.83200000 3057282553 3057282553 -11.00000000
-4.67597914 2.62725759 0.46924651 7 5 29933 5.38400000 3057282556 3057282556 5.00000000
-2.93943691 1.65223444 -0.53406727 1 6 29934 3.41400000 3057282558 3057282558 -9.00000000
-4.69946671 2.64261270 0.66199428 9 7 29935 5.43200000 3057282560 3057282560 7.00000000
-3.70591640 2.08476925 -0.52208829 8 8 29936 4.28400000 3057282563 3057282563 -7.00000000
-4.69150162 2.63921189 0.85256785 9 9 29936 5.45000000 3057282565 3057282565 9.00000000
-4.68629789 2.63736153 -0.47046670 10 10 29937 5.39800000 3057282567 3057282567 -5.00000000
-4.68061352 2.63523817 1.04410684 8 11 29938 5.47200000 3057282569 3057282569 11.00000000
-4.67420626 2.63270521 -0.28114876 8 12 29939 5.37200000 3057282572 3057282572 -3.00000000
-4.68414545 2.63938046 1.24127996 8 13 29940 5.51800000 3057282574 3057282574 13.00000000
-4.65982580 2.62674832 -0.09337038 6 14 29941 5.35000000 3057282576 3057282576 -1.00000000
-4.67675209 2.63628983 1.43851626 8 15 29941 5.55800000 3057282579 3057282579 15.00000000
-1.77909482 1.00615358 -0.54766113 4 0 29949 2.11600000 3057282599 3057282599 -15.00000000
-4.64177036 2.62618732 0.09309114 9 1 29950 5.33400000 3057282602 3057282602 1.00000000
-2.05037880 1.16052103 -0.54393166 4 2 29951 2.41800000 3057282604 3057282604 -13.00000000
-4.65257883 2.63444686 0.28020671 6 3 29952 5.35400000 3057282606 3057282606 3.00000000
-2.42249990 1.37170100 -0.54113430 3 4 29952 2.83600000 3057282609 3057282609 -11.00000000
-4.64944410 2.63374352 0.46750340 7 5 29953 5.36400000 3057282611 3057282611 5.00000000
-2.92162132 1.65566754 -0.53187716 1 6 29954 3.40000000 3057282613 3057282613 -9.00000000
-4.65049505 2.63648367 0.65638828 9 7 29955 5.38600000 3057282616 3057282616 7.00000000
-3.69861674 2.09769273 -0.52208829 6 8 29956 4.28400000 3057282618 3057282618 -7.00000000
-4.65774393 2.64274192 0.84818769 9 9 29957 5.42200000 3057282620 3057282620 9.00000000
-4.65280294 2.63993859 -0.46802634 13 10 29957 5.37000000 3057282622 3057282622 -5.00000000
-4.64748335 2.63799262 1.03876412 11 11 29958 5.44400000 3057282625 3057282625 11.00000000
-4.62504196 2.62632179 -0.27874130 5 12 29959 5.32600000 3057282627 3057282627 -3.00000000
-4.63762665 2.63453865 1.23138201 8 13 29960 5.47400000 3057282629 3057282629 13.00000000
-4.63150406 2.63212991 -0.09298642 6 14 29961 5.32800000 3057282632 3057282632 -1.00000000
-4.63682890 2.63622689 1.42919874 8 15 29962 5.52200000 3057282634 3057282634 15.00000000
-1.77892828 1.01427138 -0.54869640 4 0 29969 2.12000000 3057282655 3057282655 -15.00000000
-4.60478306 2.62652183 0.09253266 9 1 29970 5.30200000 3057282657 3057282657 1.00000000
-2.04631543 1.16767108 -0.54393166 3 2 29971 2.41800000 3057282659 3057282659 -13.00000000
-4.60346031 2.62789750 0.27779925 8 3 29972 5.30800000 3057282662 3057282662 3.00000000
-2.41428709 1.37820220 -0.54037106 3 4 29972 2.83200000 3057282664 3057282664 -11.00000000
-4.61254025 2.63414836 0.46471441 7 5 29973 5.33200000 3057282666 3057282666 5.00000000
-2.93812180 1.67859471 -0.53594446 1 6 29974 3.42600000 3057282669 3057282669 -9.00000000
-4.61713552 2.63891029 0.65297592 9 7 29975 5.35800000 3057282671 3057282671 7.00000000
-3.69471836 2.11256123 -0.52257574 6 8 29976 4.28800000 3057282673 3057282673 -7.00000000
-4.62151670 2.64248466 0.84318179 9 9 29976 5.39000000 3057282675 3057282675 9.00000000
-4.61588860 2.64033556 -0.46523735 9 10 29977 5.33800000 3057282678 3057282678 -5.00000000
-4.60757494 2.63664746 1.03189504 8 11 29978 5.40800000 3057282680 3057282680 11.00000000
-4.58637953 2.62558150 -0.27696189 8 12 29979 5.29200000 3057282682 3057282682 -3.00000000
-4.59627199 2.63230991 1.22283387 8 13 29980 5.43600000 3057282685 3057282685 13.00000000
-4.56850004 2.61746359 -0.09190437 6 14 29981 5.26600000 3057282687 3057282687 -1.00000000
-4.61129904 2.64198494 1.42402244 8 15 29981 5.50200000 3057282689 3057282689 15.00000000
-1.76867747 1.01662397 -0.54662585 4 0 29989 2.11200000 3057282710 3057282710 -15.00000000
-4.57131720 2.62862396 0.09204399 9 1 29990 5.27400000 3057282712 3057282712 1.00000000
-2.04560542 1.17675042 -0.54483145 3 2 29991 2.42200000 3057282715 3057282715 -13.00000000
-4.56829309 2.62900734 0.27622917 8 3 29992 5.27800000 3057282717 3057282717 3.00000000
-2.40605831 1.38466275 -0.53960782 3 4 29992 2.82800000 3057282719 3057282719 -11.00000000
-4.56878376 2.63035131 0.46122819 7 5 29993 5.29200000 3057282722 3057282722 5.00000000
-2.92026210 1.68193913 -0.53375441 3 6 29994 3.41200000 3057282724 3057282724 -9.00000000
-4.57865572 2.63816333 0.64883238 9 7 29995 5.32400000 3057282726 3057282726 7.00000000
-3.68732166 2.12544513 -0.52257574 6 8 29996 4.28800000 3057282728 3057282728 -7.00000000
-4.56730843 2.63374901 0.83504719 9 9 29997 5.33800000 3057282731 3057282731 9.00000000
-4.56522036 2.63254499 -0.46105388 9 10 29997 5.29000000 3057282733 3057282733 -5.00000000
-4.58643913 2.64584780 1.02922368 11 11 29998 5.39400000 3057282735 3057282735 11.00000000
-4.55469847 2.62859654 -0.27560115 10 12 29999 5.26600000 3057282738 3057282738 -3.00000000
-4.54655170 2.62495303 1.21203625 8 13 30000 5.38800000 3057282740 3057282740 13.00000000
-4.53163004 2.61739230 -0.09134590 6 14 30001 5.23400000 3057282742 3057282742 -1.00000000
-4.56645823 2.63857174 1.41315198 8 15 30002 5.46000000 3057282745 3057282745 15.00000000
-1.75843191 1.01891732 -0.54455525 4 0 30009 2.10400000 3057282765 3057282765 -15.00000000
-4.53270292 2.62751603 0.09145061 7 1 30010 5.24000000 3057282768 3057282768 1.00000000
-2.04485679 1.18583894 -0.54573125 3 2 30011 2.42600000 3057282770 3057282770 -13.00000000
-4.53490210 2.63090611 0.27476376 8 3 30012 5.25000000 3057282772 3057282772 3.00000000
-2.40800285 1.39699376 -0.54113430 3 4 30012 2.83600000 3057282775 3057282775 -11.00000000
-4.53028011 2.62928152 0.45826489 10 5 30013 5.25800000 3057282777 3057282777 5.00000000
-2.91266489 1.69113064 -0.53344154 1 6 30014 3.41000000 3057282779 3057282779 -9.00000000
-4.54367065 2.63917398 0.64517629 9 7 30015 5.29400000 3057282781 3057282781 7.00000000
-3.70047641 2.15027165 -0.52550060 6 8 30016 4.31200000 3057282784 3057282784 -7.00000000
-4.53805399 2.63697076 0.83129275 9 9 30016 5.31400000 3057282786 3057282786 9.00000000
-4.52155304 2.62843823 -0.45756766 9 10 30017 5.25000000 3057282788 3057282788 -5.00000000
-4.52795839 2.63321924 1.01815677 11 11 30018 5.33600000 3057282791 3057282791 11.00000000
-4.52132654 2.63041854 -0.27413574 10 12 30019 5.23800000 3057282793 3057282793 -3.00000000
-4.52051878 2.63100481 1.20753729 8 13 30020 5.36800000 3057282795 3057282795 13.00000000
-4.50000048 2.62011433 -0.09089214 6 14 30021 5.20800000 3057282798 3057282798 -1.00000000
-4.51594639 2.62939882 1.40021098 8 15 30021 5.41000000 3057282800 3057282800 15.00000000
-1.76153708 1.02894676 -0.54662585 4 0 30029 2.11200000 3057282821 3057282821 -15.00000000
-4.48897314 2.62314415 0.09075251 7 1 30030 5.20000000 3057282823 3057282823 1.00000000
-2.04406977 1.19493651 -0.54663104 3 2 30031 2.43000000 3057282825 3057282825 -13.00000000
-4.49982977 2.63159585 0.27319369 8 3 30032 5.22000000 3057282828 3057282828 3.00000000
-2.39633298 1.40142632 -0.53960782 3 4 30032 2.82800000 3057282830 3057282830 -11.00000000
-4.48840046 2.62596297 0.45495299 10 5 30033 5.22000000 3057282832 3057282832 5.00000000
-2.91867805 1.70827222 -0.53563160 3 6 30034 3.42400000 3057282834 3057282834 -9.00000000
-4.49160433 2.62994266 0.63908285 9 7 30035 5.24400000 3057282837 3057282837 7.00000000
-3.69294786 2.16317558 -0.52550060 6 8 30036 4.31200000 3057282839 3057282839 -7.00000000
