# .PCD v0.7 - Point Cloud Data file format
VERSION 0.7
FIELDS x y z intensity laser_id azimuth distance_m adjustedtime timestamp vertical_angle
SIZE 4 4 4 1 1 2 8 8 4 8
TYPE F F F U U U F U U F
COUNT 1 1 1 1 1 1 1 1 1 1
WIDTH 522
HEIGHT 1
VIEWPOINT 0 0 0 1 0 0 0
POINTS 522
DATA ascii
0.86946851 -2.61982393 -0.53655487 3 4 16164 2.81200000 3057044504 3057044504 -11.00000000
4.02817202 -12.14450645 1.11942840 4 5 16165 12.84400000 3057044506 3057044506 5.00000000
1.05541325 -3.18381691 -0.53125143 1 6 16166 3.39600000 3057044508 3057044508 -9.00000000
4.32258892 -13.04738235 1.68764663 76 7 16167 13.84800000 3057044511 3057044511 7.00000000
1.36335659 -4.11758757 -0.53256905 2 8 16168 4.37000000 3057044513 3057044513 -7.00000000
4.31427717 -13.03753471 2.17506480 73 9 16169 13.90400000 3057044515 3057044515 9.00000000
1.92096496 -5.80506277 -0.53496194 3 10 16169 6.13800000 3057044518 3057044518 -5.00000000
4.07348204 -12.31707191 2.52173162 34 11 16170 13.21600000 3057044520 3057044520 11.00000000
3.00484705 -9.09114075 -0.50179714 4 12 16171 9.58800000 3057044522 3057044522 -3.00000000
3.16379809 -9.57765484 2.32869339 50 13 16172 10.35200000 3057044524 3057044524 13.00000000
4.01400948 -12.15859413 -0.22349551 6 14 16173 12.80600000 3057044527 3057044527 -1.00000000
2.72266746 -8.25190544 2.32833624 29 15 16174 8.99600000 3057044529 3057044529 15.00000000
0.63020229 -1.91789937 -0.54093182 4 0 16181 2.09000000 3057044550 3057044550 -15.00000000
0.72862053 -2.22002888 -0.53943264 3 2 16183 2.39800000 3057044554 3057044554 -13.00000000
0.85848266 -2.61724663 -0.53541005 3 4 16184 2.80600000 3057044559 3057044559 -11.00000000
4.27497387 -13.04075146 1.20065749 56 5 16185 13.77600000 3057044561 3057044561 5.00000000
1.04121816 -3.17809582 -0.52968711 1 6 16186 3.38600000 3057044564 3057044564 -9.00000000
4.26775312 -13.03409290 1.68399060 78 7 16187 13.81800000 3057044566 3057044566 7.00000000
1.34218407 -4.10156870 -0.52988791 2 8 16188 4.34800000 3057044568 3057044568 -7.00000000
4.26549006 -13.03487301 2.17224908 73 9 16188 13.88600000 3057044571 3057044571 9.00000000
1.88334894 -5.75870943 -0.53008121 3 10 16189 6.08200000 3057044573 3057044573 -5.00000000
4.04327154 -12.37040424 2.52974558 37 11 16190 13.25800000 3057044575 3057044575 11.00000000
2.96317220 -9.07119751 -0.50012237 4 12 16191 9.55600000 3057044577 3057044577 -3.00000000
3.12913704 -9.58493519 2.32779360 44 13 16192 10.34800000 3057044580 3057044580 13.00000000
4.01744270 -12.31321049 -0.22607847 4 14 16193 12.95400000 3057044582 3057044582 -1.00000000
2.66390133 -8.16952610 2.30245423 6 15 16194 8.89600000 3057044584 3057044584 15.00000000
0.62529373 -1.92559969 -0.54248470 4 0 16201 2.09600000 3057044605 3057044605 -15.00000000
4.01105928 -12.35944843 0.22681147 14 1 16202 12.99600000 3057044607 3057044607 1.00000000
0.72086674 -2.22255874 -0.53943264 3 2 16203 2.39800000 3057044610 3057044610 -13.00000000
4.22091770 -13.01382923 0.71700263 42 3 16203 13.70000000 3057044612 3057044612 3.00000000
0.84934151 -2.62022734 -0.53541005 3 4 16204 2.80600000 3057044614 3057044614 -11.00000000
4.23311138 -13.06696701 1.20170343 74 5 16205 13.78800000 3057044617 3057044617 5.00000000
1.03376889 -3.19298697 -0.53156430 1 6 16206 3.39800000 3057044619 3057044619 -9.00000000
4.21978521 -13.04135609 1.68301558 78 7 16207 13.81000000 3057044621 3057044621 7.00000000
1.32785881 -4.10622883 -0.52988791 2 8 16208 4.34800000 3057044624 3057044624 -7.00000000
4.21388578 -13.03088760 2.16912031 77 9 16208 13.86600000 3057044626 3057044626 9.00000000
1.87671530 -5.80695677 -0.53391606 3 10 16209 6.12600000 3057044628 3057044628 -5.00000000
4.01575470 -12.43301678 2.53966784 40 11 16210 13.31000000 3057044630 3057044630 11.00000000
2.93578434 -9.09479046 -0.50085509 4 12 16211 9.57000000 3057044633 3057044633 -3.00000000
3.08668566 -9.56797981 2.32104492 28 13 16212 10.31800000 3057044635 3057044635 13.00000000
4.19165993 -13.00089931 -0.23843478 22 14 16213 13.66200000 3057044637 3057044637 -1.00000000
2.67565703 -8.30381012 2.33765364 9 15 16214 9.03200000 3057044640 3057044640 15.00000000
0.61738783 -1.92409170 -0.54144943 4 0 16221 2.09200000 3057044660 3057044660 -15.00000000
4.17611790 -13.02270126 0.23871401 14 1 16222 13.67800000 3057044663 3057044663 1.00000000
0.71667266 -2.23619604 -0.54213202 3 2 16223 2.41000000 3057044665 3057044665 -13.00000000
4.16571188 -12.99805260 0.71532786 35 3 16223 13.66800000 3057044667 3057044667 3.00000000
0.83839351 -2.61756706 -0.53426516 3 4 16224 2.80000000 3057044670 3057044670 -11.00000000
4.16803646 -13.02094173 1.19612539 39 5 16225 13.72400000 3057044672 3057044672 5.00000000
1.02020943 -3.18905020 -0.53031284 1 6 16226 3.39000000 3057044674 3057044674 -9.00000000
4.17000532 -13.04277039 1.68130946 76 7 16227 13.79600000 3057044676 3057044676 7.00000000
1.30989206 -4.09949350 -0.52842546 2 8 16228 4.33600000 3057044679 3057044679 -7.00000000
4.15935516 -13.01729298 2.16442728 73 9 16228 13.83600000 3057044681 3057044681 9.00000000
1.84916079 -5.79069710 -0.53182435 3 10 16229 6.10200000 3057044683 3057044683 -5.00000000
3.98546290 -12.48810577 2.54806328 40 11 16230 13.35400000 3057044686 3057044686 11.00000000
2.90341282 -9.10307980 -0.50075042 8 12 16231 9.56800000 3057044688 3057044688 -3.00000000
3.03788066 -9.53042221 2.30934763 15 13 16232 10.26600000 3057044690 3057044690 13.00000000
4.06370401 -12.75632381 -0.23368773 9 14 16233 13.39000000 3057044693 3057044693 -1.00000000
2.60999107 -8.19299126 2.30400705 6 15 16233 8.90200000 3057044695 3057044695 15.00000000
0.60950011 -1.92255199 -0.54041415 4 0 16241 2.08800000 3057044716 3057044716 -15.00000000
4.11795139 -12.99716663 0.23798102 24 1 16242 13.63600000 3057044718 3057044718 1.00000000
0.71003908 -2.24239993 -0.54303187 3 2 16243 2.41400000 3057044720 3057044720 -13.00000000
3.65124798 -11.53113651 0.63389307 10 3 16243 12.11200000 3057044723 3057044723 3.00000000
0.83043599 -2.62422109 -0.53502840 3 4 16244 2.80400000 3057044725 3057044725 -11.00000000
3.63893080 -11.50619221 1.05580461 17 5 16245 12.11400000 3057044727 3057044727 5.00000000
1.00907135 -3.19259191 -0.53031284 1 6 16246 3.39000000 3057044729 3057044729 -9.00000000
4.12325621 -13.05346203 1.68082201 75 7 16247 13.79200000 3057044732 3057044732 7.00000000
1.29796457 -4.11161280 -0.52940041 2 8 16248 4.34400000 3057044734 3057044734 -7.00000000
4.11032295 -13.02042961 2.16254997 73 9 16248 13.82400000 3057044736 3057044736 9.00000000
1.82294166 -5.77811575 -0.53008121 3 10 16249 6.08200000 3057044739 3057044739 -5.00000000
3.95660591 -12.54875088 2.55760384 37 11 16250 13.40400000 3057044741 3057044741 11.00000000
2.86981869 -9.10744476 -0.50043643 8 12 16251 9.56200000 3057044743 3057044743 -3.00000000
2.96713233 -9.42200851 2.28055382 16 13 16252 10.13800000 3057044746 3057044746 13.00000000
3.63134384 -11.53821373 -0.21113922 6 14 16253 12.09800000 3057044748 3057044748 -1.00000000
2.69876933 -8.58028507 2.41012287 29 15 16254 9.31200000 3057044750 3057044750 15.00000000
0.60129541 -1.92108572 -0.53937888 4 0 16262 2.08400000 3057044771 3057044771 -15.00000000
3.60821533 -11.53499126 0.21096469 35 1 16263 12.08800000 3057044773 3057044773 1.00000000
0.69832677 -2.23382735 -0.54033244 3 2 16264 2.40200000 3057044776 3057044776 -13.00000000
3.63076854 -11.62132645 0.63808000 22 3 16265 12.19200000 3057044778 3057044778 3.00000000
0.82198310 -2.63099504 -0.53579164 3 4 16265 2.80800000 3057044780 3057044780 -11.00000000
3.59673405 -11.51945210 1.05580461 17 5 16266 12.11400000 3057044782 3057044782 5.00000000
0.99677473 -3.19438314 -0.52999997 1 6 16267 3.38800000 3057044785 3057044785 -9.00000000
4.06711149 -13.04195499 1.67740965 73 7 16268 13.76400000 3057044787 3057044787 7.00000000
1.28524864 -4.12392330 -0.53037536 2 8 16269 4.35200000 3057044789 3057044789 -7.00000000
4.06022215 -13.02786350 2.16129851 70 9 16269 13.81600000 3057044792 3057044792 9.00000000
1.80767643 -5.80378103 -0.53182435 3 10 16270 6.10200000 3057044794 3057044794 -5.00000000
3.55465364 -11.41969872 2.32481670 9 11 16271 12.18400000 3057044796 3057044796 11.00000000
2.82870650 -9.09310913 -0.49907568 4 12 16272 9.53600000 3057044799 3057044799 -3.00000000
2.89439607 -9.31000233 2.25086021 15 13 16273 10.00600000 3057044801 3057044801 13.00000000
3.59258962 -11.56290340 -0.21134864 6 14 16274 12.11000000 3057044803 3057044803 -1.00000000
2.69746184 -8.68189621 2.43600488 36 15 16274 9.41200000 3057044806 3057044806 15.00000000
0.59686840 -1.93055558 -0.54144943 4 0 16282 2.09200000 3057044826 3057044826 -15.00000000
3.56202555 -11.52840996 0.21061563 35 1 16283 12.06800000 3057044829 3057044829 1.00000000
0.68937510 -2.23252726 -0.53943264 3 2 16284 2.39800000 3057044831 3057044831 -13.00000000
3.56367826 -11.54804897 0.63336974 27 3 16285 12.10200000 3057044833 3057044833 3.00000000
0.81279421 -2.63384819 -0.53579164 3 4 16285 2.80800000 3057044835 3057044835 -11.00000000
3.55180430 -11.51670551 1.05441022 13 5 16286 12.09800000 3057044838 3057044838 5.00000000
0.98619998 -3.19973087 -0.53031284 1 6 16287 3.39000000 3057044840 3057044840 -9.00000000
4.01630259 -13.03899860 1.67521596 71 7 16288 13.74600000 3057044842 3057044842 7.00000000
1.26500535 -4.10941219 -0.52793801 2 8 16289 4.33200000 3057044845 3057044845 -7.00000000
4.01012230 -13.03510571 2.16004705 70 9 16290 13.80800000 3057044847 3057044847 9.00000000
1.78740644 -5.81005573 -0.53182435 3 10 16290 6.10200000 3057044849 3057044849 -5.00000000
3.51938558 -11.44705009 2.32786965 43 11 16291 12.20000000 3057044852 3057044852 11.00000000
2.79225564 -9.08765507 -0.49823830 4 12 16292 9.52000000 3057044854 3057044854 -3.00000000
2.84643555 -9.26975060 2.23871279 18 13 16293 9.95200000 3057044856 3057044856 13.00000000
3.54575253 -11.55434418 -0.21096469 22 14 16294 12.08800000 3057044859 3057044859 -1.00000000
2.69734311 -8.79515362 2.46499252 40 15 16295 9.52400000 3057044861 3057044861 15.00000000
0.59159213 -1.93621922 -0.54248470 4 0 16301 2.09600000 3057044882 3057044882 -15.00000000
0.68310553 -2.23852897 -0.54033244 3 2 16303 2.40200000 3057044886 3057044886 -13.00000000
3.53468561 -11.59037018 0.63504452 32 3 16304 12.13400000 3057044888 3057044888 3.00000000
0.80291021 -2.63277340 -0.53502840 3 4 16304 2.80400000 3057044891 3057044891 -11.00000000
3.52985787 -11.58178425 1.05929089 4 5 16305 12.15400000 3057044893 3057044893 5.00000000
0.97270608 -3.19353533 -0.52874851 1 6 16306 3.38000000 3057044895 3057044895 -9.00000000
3.97130728 -13.04654789 1.67448473 73 7 16307 13.74000000 3057044898 3057044898 7.00000000
1.25194883 -4.11548328 -0.52818173 2 8 16308 4.33400000 3057044900 3057044900 -7.00000000
3.96340227 -13.02874088 2.15691829 70 9 16308 13.78800000 3057044902 3057044902 9.00000000
1.76812983 -5.81595087 -0.53182435 3 10 16309 6.10200000 3057044905 3057044905 -5.00000000
3.48140645 -11.45865726 2.32786965 37 11 16310 12.20000000 3057044907 3057044907 11.00000000
2.75978327 -9.08922005 -0.49781960 8 12 16311 9.51200000 3057044909 3057044909 -3.00000000
2.80889010 -9.25676155 2.23331404 21 13 16312 9.92800000 3057044912 3057044912 13.00000000
3.59562516 -11.85691261 -0.21627022 4 14 16313 12.39200000 3057044914 3057044914 -1.00000000
2.69829106 -8.89786911 2.49139214 24 15 16313 9.62600000 3057044916 3057044916 15.00000000
0.58371377 -1.93457353 -0.54144943 4 0 16321 2.09200000 3057044937 3057044937 -15.00000000
0.67416292 -2.23716807 -0.53943264 3 2 16323 2.39800000 3057044941 3057044941 -13.00000000
3.50226927 -11.62941170 0.63650990 15 3 16324 12.16200000 3057044944 3057044944 3.00000000
0.79201680 -2.62992048 -0.53388357 3 4 16324 2.79800000 3057044946 3057044946 -11.00000000
3.46586633 -11.51581287 1.05214417 13 5 16325 12.07200000 3057044948 3057044948 5.00000000
0.96724224 -3.21582794 -0.53187716 3 6 16326 3.40000000 3057044951 3057044951 -9.00000000
3.92231369 -13.04892445 1.67302239 75 7 16327 13.72800000 3057044953 3057044953 7.00000000
1.23357773 -4.10652018 -0.52647555 2 8 16328 4.32000000 3057044955 3057044955 -7.00000000
3.90994334 -13.02426052 2.15378976 70 9 16329 13.76800000 3057044958 3057044958 9.00000000
1.74781752 -5.82208729 -0.53182435 3 10 16329 6.10200000 3057044960 3057044960 -5.00000000
3.44702864 -11.48954487 2.33168602 34 11 16330 12.22000000 3057044962 3057044962 11.00000000
2.72976017 -9.10453701 -0.49813363 4 12 16331 9.51800000 3057044964 3057044964 -3.00000000
2.77320480 -9.25530910 2.23061466 26 13 16332 9.91600000 3057044967 3057044967 13.00000000
3.59207463 -11.99582481 -0.21857394 2 14 16333 12.52400000 3057044969 3057044969 -1.00000000
2.69833755 -9.01689339 2.52193284 36 15 16334 9.74400000 3057044971 3057044971 15.00000000
0.57254463 -1.92178786 -0.53730834 4 0 16341 2.07600000 3057044992 3057044992 -15.00000000
3.57550955 -12.00911808 0.21871355 10 1 16342 12.53200000 3057044994 3057044994 1.00000000
0.66634959 -2.23950768 -0.53943264 3 2 16343 2.39800000 3057044997 3057044997 -13.00000000
3.44969916 -11.60136318 0.63431180 30 3 16344 12.12000000 3057044999 3057044999 3.00000000
0.78171271 -2.62890553 -0.53312033 3 4 16344 2.79400000 3057045001 3057045001 -11.00000000
3.41372919 -11.48773384 1.04848361 17 5 16345 12.03000000 3057045004 3057045004 5.00000000
0.95432395 -3.21350360 -0.53093857 1 6 16346 3.39400000 3057045006 3057045006 -9.00000000
3.87448120 -13.05492401 1.67204738 75 7 16347 13.72000000 3057045008 3057045008 7.00000000
1.22149372 -4.11841393 -0.52745050 2 8 16348 4.32800000 3057045011 3057045011 -7.00000000
3.86560845 -13.03336716 2.15316391 70 9 16348 13.76400000 3057045013 3057045013 9.00000000
1.72748399 -5.82815266 -0.53182435 3 10 16349 6.10200000 3057045015 3057045015 -5.00000000
3.40578628 -11.49774170 2.33092260 34 11 16350 12.21600000 3057045017 3057045017 11.00000000
2.69342732 -9.09868908 -0.49729624 8 12 16351 9.50200000 3057045020 3057045020 -3.00000000
2.73811674 -9.25558949 2.22836518 27 13 16352 9.90600000 3057045022 3057045022 13.00000000
3.41751528 -11.55956078 -0.21040621 9 14 16353 12.05600000 3057045024 3057045024 -1.00000000
2.69580674 -9.11842060 2.54781461 33 15 16353 9.84400000 3057045027 3057045027 15.00000000
0.56801331 -1.93118811 -0.53937888 4 0 16361 2.08400000 3057045047 3057045047 -15.00000000
3.50311613 -11.91792488 0.21682870 7 1 16362 12.42400000 3057045050 3057045050 1.00000000
0.65742975 -2.23808050 -0.53853285 3 2 16363 2.39400000 3057045052 3057045052 -13.00000000
3.56726456 -12.15184021 0.66372460 12 3 16364 12.68200000 3057045054 3057045054 3.00000000
0.77806133 -2.65045571 -0.53693652 3 4 16364 2.81400000 3057045057 3057045057 -11.00000000
3.36856103 -11.48237419 1.04691482 17 5 16365 12.01200000 3057045059 3057045059 5.00000000
0.93643194 -3.19406819 -0.52718413 1 6 16366 3.37000000 3057045061 3057045061 -9.00000000
3.82218981 -13.04550934 1.66912258 76 7 16367 13.69600000 3057045064 3057045064 7.00000000
1.20878375 -4.12836790 -0.52818173 2 8 16368 4.33400000 3057045066 3057045066 -7.00000000
3.81337476 -13.03228092 2.15066099 70 9 16369 13.74800000 3057045068 3057045068 9.00000000
1.70712948 -5.83414745 -0.53182435 3 10 16369 6.10200000 3057045070 3057045070 -5.00000000
3.36673307 -11.51332951 2.33168602 34 11 16370 12.22000000 3057045073 3057045073 11.00000000
2.65436769 -9.08311367 -0.49593553 4 12 16371 9.47600000 3057045075 3057045075 -3.00000000
2.70469928 -9.26134968 2.22746539 27 13 16372 9.90200000 3057045077 3057045077 13.00000000
3.55025911 -12.16458035 -0.22119179 11 14 16373 12.67400000 3057045080 3057045080 -1.00000000
2.69265914 -9.23209667 2.57680249 38 15 16374 9.95600000 3057045082 3057045082 15.00000000
0.56200796 -1.93696761 -0.54041415 4 0 16382 2.08800000 3057045103 3057045103 -15.00000000
3.78686357 -13.05998993 0.23735273 14 1 16383 13.60000000 3057045105 3057045105 1.00000000
0.64922237 -2.24047518 -0.53853285 3 2 16384 2.39400000 3057045107 3057045107 -13.00000000
3.55214572 -12.26651096 0.66927218 10 3 16385 12.78800000 3057045110 3057045110 3.00000000
0.76451910 -2.64008927 -0.53426516 5 4 16385 2.80000000 3057045112 3057045112 -11.00000000
3.32146859 -11.47741890 1.04534602 17 5 16386 11.99400000 3057045114 3057045114 5.00000000
0.93130440 -3.22025037 -0.53093857 1 6 16387 3.39400000 3057045117 3057045117 -9.00000000
3.76608253 -13.03082466 1.66546643 78 7 16388 13.66600000 3057045119 3057045119 7.00000000
1.18758523 -4.11179209 -0.52550060 2 8 16389 4.31200000 3057045121 3057045121 -7.00000000
3.76347518 -13.03032970 2.14815807 70 9 16389 13.73200000 3057045123 3057045123 9.00000000
1.67468441 -5.80208015 -0.52833813 3 10 16390 6.06200000 3057045126 3057045126 -5.00000000
3.32886481 -11.54068279 2.33473897 34 11 16391 12.23600000 3057045128 3057045128 11.00000000
2.61165404 -9.06015682 -0.49415609 4 12 16392 9.44200000 3057045130 3057045130 -3.00000000
2.66588163 -9.25434780 2.22341633 22 13 16393 9.88400000 3057045133 3057045133 13.00000000
3.53828907 -12.29088783 -0.22325118 13 14 16394 12.79200000 3057045135 3057045135 -1.00000000
2.69194841 -9.35097027 2.60734296 40 15 16394 10.07400000 3057045137 3057045137 15.00000000
0.55630696 -1.94263196 -0.54144943 4 0 16402 2.09200000 3057045158 3057045158 -15.00000000
0.63925433 -2.23523307 -0.53673321 3 2 16404 2.38600000 3057045163 3057045163 -13.00000000
3.28263354 -11.48572254 0.62604272 7 3 16405 11.96200000 3057045165 3057045165 3.00000000
0.75475931 -2.64085412 -0.53388357 3 4 16405 2.79800000 3057045167 3057045167 -11.00000000
3.28138471 -11.48894215 1.04534602 17 5 16406 11.99400000 3057045170 3057045170 5.00000000
0.91626275 -3.21018505 -0.52874851 3 6 16407 3.38000000 3057045172 3057045172 -9.00000000
3.71948433 -13.04007339 1.66497898 80 7 16408 13.66200000 3057045174 3057045174 7.00000000
1.16941607 -4.10254908 -0.52379441 2 8 16409 4.29800000 3057045176 3057045176 -7.00000000
3.71244431 -13.03263760 2.14628077 73 9 16410 13.72000000 3057045179 3057045179 9.00000000
1.65878785 -5.82321978 -0.52973258 3 10 16410 6.07800000 3057045181 3057045181 -5.00000000
3.29178524 -11.56356144 2.33702850 34 11 16411 12.24800000 3057045183 3057045183 11.00000000
2.57946587 -9.06729698 -0.49405143 4 12 16412 9.44000000 3057045186 3057045186 -3.00000000
2.63143015 -9.25609875 2.22161651 20 13 16413 9.87600000 3057045188 3057045188 13.00000000
3.27020931 -11.51065254 -0.20887040 6 14 16414 11.96800000 3057045190 3057045190 -1.00000000
2.68403864 -9.45369434 2.63322496 45 15 16415 10.17400000 3057045193 3057045193 15.00000000
0.54952252 -1.94456208 -0.54144943 4 0 16422 2.09200000 3057045213 3057045213 -15.00000000
0.63674098 -2.25620580 -0.54123223 3 2 16424 2.40600000 3057045218 3057045218 -13.00000000
3.66538763 -12.99648380 0.70768678 10 3 16425 13.52200000 3057045220 3057045220 3.00000000
0.74553639 -2.64347267 -0.53388357 3 4 16425 2.79800000 3057045223 3057045223 -11.00000000
3.23693705 -11.48498535 1.04395151 21 5 16426 11.97800000 3057045225 3057045225 5.00000000
0.90558708 -3.21526527 -0.52906138 3 6 16427 3.38200000 3057045227 3057045227 -9.00000000
3.66964078 -13.03769112 1.66302907 78 7 16428 13.64600000 3057045229 3057045229 7.00000000
1.15670085 -4.11233902 -0.52452564 2 8 16429 4.30400000 3057045232 3057045232 -7.00000000
3.66118312 -13.01635265 2.14158773 73 9 16429 13.69000000 3057045234 3057045234 9.00000000
1.63198125 -5.80595779 -0.52764088 3 10 16430 6.05400000 3057045236 3057045236 -5.00000000
3.25458646 -11.58632183 2.33931828 37 11 16431 12.26000000 3057045239 3057045239 11.00000000
2.54725957 -9.07432270 -0.49394676 4 12 16432 9.43800000 3057045241 3057045241 -3.00000000
2.59594631 -9.25397015 2.21891713 18 13 16433 9.86400000 3057045243 3057045243 13.00000000
3.49126053 -12.45392418 -0.22576433 18 14 16434 12.93600000 3057045246 3057045246 -1.00000000
2.66153908 -9.49416542 2.64202476 38 15 16434 10.20800000 3057045248 3057045248 15.00000000
0.53961819 -1.93530321 -0.53834361 4 0 16442 2.08000000 3057045269 3057045269 -15.00000000
3.51248670 -12.60579300 0.22841710 17 1 16443 13.08800000 3057045271 3057045271 1.00000000
0.62729323 -2.25278282 -0.53988254 3 2 16444 2.40000000 3057045273 3057045273 -13.00000000
3.51130795 -12.61859608 0.68643838 27 3 16445 13.11600000 3057045276 3057045276 3.00000000
0.73419917 -2.63849330 -0.53235710 3 4 16445 2.79000000 3057045278 3057045278 -11.00000000
3.18668532 -11.45974255 1.04063952 17 5 16446 11.94000000 3057045280 3057045280 5.00000000
0.89594483 -3.22411633 -0.52999997 3 6 16447 3.38800000 3057045282 3057045282 -9.00000000
3.62145257 -13.04085732 1.66181040 76 7 16448 13.63600000 3057045285 3057045285 7.00000000
1.14977062 -4.14313078 -0.52793801 2 8 16449 4.33200000 3057045287 3057045287 -7.00000000
3.61361241 -13.02143955 2.14033628 73 9 16449 13.68200000 3057045289 3057045289 9.00000000
1.60638022 -5.79241991 -0.52589774 3 10 16450 6.03400000 3057045292 3057045292 -5.00000000
3.21464705 -11.59950352 2.33969998 37 11 16451 12.26200000 3057045294 3057045294 11.00000000
2.52036643 -9.10048199 -0.49488881 4 12 16452 9.45600000 3057045296 3057045296 -3.00000000
2.56414795 -9.26485348 2.21936703 15 13 16453 9.86600000 3057045299 3057045299 13.00000000
3.45736194 -12.50072670 -0.22639261 18 14 16454 12.97200000 3057045301 3057045301 -1.00000000
2.62323236 -9.48477840 2.63684845 42 15 16454 10.18800000 3057045303 3057045303 15.00000000
0.53593367 -1.94835103 -0.54144943 4 0 16462 2.09200000 3057045324 3057045324 -15.00000000
3.46210265 -12.59483814 0.22799824 31 1 16463 13.06400000 3057045326 3057045326 1.00000000
0.61942571 -2.25495863 -0.53988254 3 2 16464 2.40000000 3057045329 3057045329 -13.00000000
3.14895988 -11.47131824 0.62342590 7 3 16465 11.91200000 3057045331 3057045331 3.00000000
0.72810286 -2.65239954 -0.53464681 3 4 16465 2.80200000 3057045333 3057045333 -11.00000000
3.14192033 -11.45350361 1.03907073 17 5 16466 11.92200000 3057045335 3057045335 5.00000000
0.87998492 -3.21007848 -0.52718413 3 6 16467 3.37000000 3057045338 3057045338 -9.00000000
3.57066464 -13.03427410 1.65937293 76 7 16468 13.61600000 3057045340 3057045340 7.00000000
1.13530135 -4.14711905 -0.52793801 2 8 16469 4.33200000 3057045342 3057045342 -7.00000000
3.56377721 -13.02697563 2.13908482 77 9 16470 13.67400000 3057045345 3057045345 9.00000000
1.60402620 -5.86333227 -0.53182435 3 10 16470 6.10200000 3057045347 3057045347 -5.00000000
3.17361999 -11.60876083 2.33931828 37 11 16471 12.26000000 3057045349 3057045349 11.00000000
2.48016286 -9.07839775 -0.49321404 4 12 16472 9.42400000 3057045352 3057045352 -3.00000000
2.55899334 -9.37338448 2.24321198 25 13 16473 9.97200000 3057045354 3057045354 13.00000000
3.13422966 -11.48832035 -0.20785816 6 14 16474 11.91000000 3057045356 3057045356 -1.00000000
2.59163380 -9.49946880 2.63840127 42 15 16474 10.19400000 3057045358 3057045358 15.00000000
0.52811766 -1.94648099 -0.54041415 4 0 16482 2.08800000 3057045379 3057045379 -15.00000000
0.60951215 -2.24958348 -0.53808290 3 2 16484 2.39200000 3057045384 3057045384 -13.00000000
3.50664520 -12.95125771 0.70318592 15 3 16485 13.43600000 3057045386 3057045386 3.00000000
0.71576130 -2.64355469 -0.53235710 5 4 16485 2.79000000 3057045388 3057045388 -11.00000000
3.10088015 -11.46055508 1.03872216 21 5 16486 11.91800000 3057045391 3057045391 5.00000000
0.87289906 -3.22838569 -0.52968711 1 6 16487 3.38600000 3057045393 3057045393 -9.00000000
3.51996684 -13.02749443 1.65693557 76 7 16488 13.59600000 3057045395 3057045395 7.00000000
1.11874855 -4.14339066 -0.52696306 2 8 16489 4.32400000 3057045398 3057045398 -7.00000000
3.51468062 -13.02598572 2.13689470 73 9 16490 13.66000000 3057045400 3057045400 9.00000000
3.13665628 -11.63303661 2.34198952 37 11 16491 12.27400000 3057045405 3057045405 11.00000000
2.44014430 -9.05614471 -0.49153930 4 12 16492 9.39200000 3057045407 3057045407 -3.00000000
2.54399204 -9.44812012 2.25895858 7 13 16493 10.04200000 3057045409 3057045409 13.00000000
3.36533070 -12.50718021 -0.22607847 22 14 16494 12.95400000 3057045411 3057045411 -1.00000000
2.55830383 -9.51450062 2.63995433 40 15 16495 10.20000000 3057045414 3057045414 15.00000000
0.52331734 -1.95577741 -0.54248470 4 0 16502 2.09600000 3057045435 3057045435 -15.00000000
3.49341297 -13.06495380 0.23606125 14 1 16503 13.52600000 3057045437 3057045437 1.00000000
0.60064983 -2.24793196 -0.53718311 3 2 16504 2.38800000 3057045439 3057045439 -13.00000000
3.47275090 -13.00587082 0.70548868 10 3 16505 13.48000000 3057045441 3057045441 3.00000000
0.70450330 -2.63844991 -0.53083062 3 4 16505 2.78200000 3057045444 3057045444 -11.00000000
3.05777454 -11.45975876 1.03767622 17 5 16506 11.90600000 3057045446 3057045446 5.00000000
0.86264241 -3.23523045 -0.53031284 1 6 16507 3.39000000 3057045448 3057045448 -9.00000000
3.47242641 -13.03202915 1.65596068 75 7 16508 13.58800000 3057045451 3057045451 7.00000000
1.09917092 -4.12808800 -0.52452564 2 8 16509 4.30400000 3057045453 3057045453 -7.00000000
3.46411061 -13.01908493 2.13376617 73 9 16510 13.64000000 3057045455 3057045455 9.00000000
1.56305373 -5.87438774 -0.53182435 3 10 16510 6.10200000 3057045458 3057045458 -5.00000000
3.10157967 -11.66478539 2.34618735 37 11 16511 12.29600000 3057045460 3057045460 11.00000000
2.41056919 -9.07232761 -0.49195799 8 12 16512 9.40000000 3057045462 3057045462 -3.00000000
2.55550528 -9.62457275 2.29899979 7 13 16513 10.22000000 3057045464 3057045464 13.00000000
3.31549788 -12.49565697 -0.22565961 22 14 16514 12.93000000 3057045467 3057045467 -1.00000000
2.52574778 -9.51919746 2.63891888 40 15 16514 10.19600000 3057045469 3057045469 15.00000000
0.51451588 -1.95012045 -0.54041415 4 0 16522 2.08800000 3057045490 3057045490 -15.00000000
3.44472766 -13.06546688 0.23585182 14 1 16523 13.51400000 3057045492 3057045492 1.00000000
0.59279943 -2.25001502 -0.53718311 3 2 16524 2.38800000 3057045494 3057045494 -13.00000000
3.01594949 -11.45537853 0.62080914 7 3 16525 11.86200000 3057045497 3057045497 3.00000000
0.69378954 -2.63519740 -0.52968580 5 4 16525 2.77600000 3057045499 3057045499 -11.00000000
3.01167083 -11.44724083 1.03558457 21 5 16526 11.88200000 3057045501 3057045501 5.00000000
0.85184640 -3.24013233 -0.53062570 1 6 16527 3.39200000 3057045504 3057045504 -9.00000000
3.42489743 -13.03639126 1.65498567 73 7 16528 13.58000000 3057045506 3057045506 7.00000000
1.08273816 -4.12421989 -0.52355069 2 8 16529 4.29600000 3057045508 3057045508 -7.00000000
3.41463447 -13.01581192 2.13126326 73 9 16530 13.62400000 3057045511 3057045511 9.00000000
1.51725948 -5.78344917 -0.52310878 3 10 16530 6.00200000 3057045513 3057045513 -5.00000000
3.06134081 -11.67744064 2.34656906 40 11 16531 12.29800000 3057045515 3057045515 11.00000000
2.37736773 -9.07489109 -0.49164397 4 12 16532 9.39400000 3057045517 3057045517 -3.00000000
2.99553561 -11.45086575 -0.20660159 6 14 16534 11.83800000 3057045522 3057045522 -1.00000000
2.49005961 -9.51861095 2.63633084 40 15 16534 10.18600000 3057045524 3057045524 15.00000000
0.50478768 -1.94068682 -0.53730834 4 0 16542 2.07600000 3057045545 3057045545 -15.00000000
2.98207235 -11.47297573 0.20691574 3 1 16543 11.85600000 3057045547 3057045547 1.00000000
0.58592159 -2.25584269 -0.53808290 3 2 16544 2.39200000 3057045550 3057045550 -13.00000000
3.28824210 -12.65998268 0.68549633 25 3 16544 13.09800000 3057045552 3057045552 3.00000000
0.68705285 -2.64710450 -0.53159386 3 4 16545 2.78600000 3057045554 3057045554 -11.00000000
2.96519136 -11.43261242 1.03331852 17 5 16546 11.85600000 3057045557 3057045557 5.00000000
0.83656621 -3.22778869 -0.52812278 1 6 16547 3.37600000 3057045559 3057045559 -9.00000000
3.37837577 -13.04442406 1.65449822 76 7 16548 13.57600000 3057045561 3057045561 7.00000000
1.07430375 -4.15103531 -0.52647555 2 8 16549 4.32000000 3057045563 3057045563 -7.00000000
3.36947393 -13.01941395 2.13001156 70 9 16549 13.61600000 3057045566 3057045566 9.00000000
1.49706221 -5.78871012 -0.52310878 3 10 16550 6.00200000 3057045568 3057045568 -5.00000000
3.02252531 -11.69565868 2.34809542 43 11 16551 12.30600000 3057045570 3057045570 11.00000000
2.34617519 -9.08506775 -0.49174863 8 12 16552 9.39600000 3057045573 3057045573 -3.00000000
2.66939211 -10.34411430 2.46636343 44 13 16553 10.96400000 3057045575 3057045575 13.00000000
3.20421362 -12.42555428 -0.22398418 22 14 16554 12.83400000 3057045577 3057045577 -1.00000000
2.45344162 -9.51415062 2.63270736 40 15 16554 10.17200000 3057045580 3057045580 15.00000000
0.49896994 -1.94617963 -0.53834361 4 0 16562 2.08000000 3057045600 3057045600 -15.00000000
3.34449697 -13.05432892 0.23522353 14 1 16563 13.47800000 3057045603 3057045603 1.00000000
0.57804370 -2.25787425 -0.53808290 3 2 16564 2.39200000 3057045605 3057045605 -13.00000000
3.22399855 -12.60229206 0.68172818 22 3 16565 13.02600000 3057045607 3057045607 3.00000000
0.67878175 -2.65329075 -0.53235710 3 4 16565 2.79000000 3057045610 3057045610 -11.00000000
2.92033148 -11.42358971 1.03157532 17 5 16566 11.83600000 3057045612 3057045612 5.00000000
0.82627189 -3.23451686 -0.52874851 1 6 16567 3.38000000 3057045614 3057045614 -9.00000000
3.32889366 -13.04074955 1.65254831 75 7 16568 13.56000000 3057045616 3057045616 7.00000000
1.06569517 -4.17784214 -0.52940041 2 8 16569 4.34400000 3057045619 3057045619 -7.00000000
3.31880522 -13.02019215 2.12813449 73 9 16570 13.60400000 3057045621 3057045621 9.00000000
1.46503592 -5.74756479 -0.51892531 3 10 16570 5.95400000 3057045623 3057045623 -5.00000000
2.98168135 -11.70613766 2.34809542 43 11 16571 12.30600000 3057045626 3057045626 11.00000000
2.31247759 -9.08545971 -0.49132997 8 12 16572 9.38800000 3057045628 3057045628 -3.00000000
2.67073536 -10.50068092 2.50145578 45 13 16573 11.12000000 3057045630 3057045630 13.00000000
3.16279125 -12.44441605 -0.22412381 22 14 16574 12.84200000 3057045633 3057045633 -1.00000000
2.42093158 -9.53244114 2.63529563 40 15 16575 10.18200000 3057045635 3057045635 15.00000000
0.49311996 -1.95165551 -0.53937888 4 0 16582 2.08400000 3057045656 3057045656 -15.00000000
3.29450274 -13.04847336 0.23490939 14 1 16583 13.46000000 3057045658 3057045658 1.00000000
0.56729835 -2.24854112 -0.53538352 3 2 16584 2.38000000 3057045660 3057045660 -13.00000000
0.66951591 -2.65564394 -0.53235710 3 4 16585 2.79000000 3057045665 3057045665 -11.00000000
2.88043785 -11.43371487 1.03157532 25 5 16586 11.83600000 3057045667 3057045667 5.00000000
0.81401181 -3.23355031 -0.52812278 1 6 16587 3.37600000 3057045669 3057045669 -9.00000000
3.27754140 -13.02918911 1.64962339 73 7 16588 13.53600000 3057045672 3057045672 7.00000000
1.04045880 -4.13918209 -0.52403820 2 8 16589 4.30000000 3057045674 3057045674 -7.00000000
3.27189231 -13.02594948 2.12719584 73 9 16590 13.59800000 3057045676 3057045676 9.00000000
1.44496429 -5.75264359 -0.51892531 3 10 16590 5.95400000 3057045679 3057045679 -5.00000000
2.94223499 -11.72218704 2.34924030 34 11 16591 12.31200000 3057045681 3057045681 11.00000000
2.27491879 -9.07022953 -0.49007389 4 12 16592 9.36400000 3057045683 3057045683 -3.00000000
2.66580629 -10.63658810 2.53159928 51 13 16593 11.25400000 3057045686 3057045686 13.00000000
2.39024615 -9.54416466 2.63633084 40 15 16594 10.18600000 3057045690 3057045690 15.00000000
0.48723781 -1.95711422 -0.54041415 4 0 16602 2.08800000 3057045711 3057045711 -15.00000000
2.85259390 -11.46670341 0.20625255 37 1 16603 11.81800000 3057045713 3057045713 1.00000000
0.56038630 -2.25429010 -0.53628331 3 2 16604 2.38400000 3057045715 3057045715 -13.00000000
2.85001063 -11.46485996 0.61913437 15 3 16604 11.83000000 3057045718 3057045718 3.00000000
0.65929526 -2.65415406 -0.53159386 3 4 16605 2.78600000 3057045720 3057045720 -11.00000000
3.23793101 -13.04481220 1.17590523 61 5 16606 13.49200000 3057045722 3057045722 5.00000000
0.80367076 -3.24020648 -0.52874851 1 6 16607 3.38000000 3057045725 3057045725 -9.00000000
3.23204112 -13.04055023 1.64962339 71 7 16608 13.53600000 3057045727 3057045727 7.00000000
1.02504957 -4.13893509 -0.52355069 2 8 16609 4.29600000 3057045729 3057045729 -7.00000000
3.22308159 -13.02386856 2.12500572 70 9 16610 13.58400000 3057045732 3057045732 9.00000000
1.43349028 -5.79246521 -0.52206290 3 10 16610 5.99000000 3057045734 3057045734 -5.00000000
2.90554070 -11.74953842 2.35267496 37 11 16611 12.33000000 3057045736 3057045736 11.00000000
2.24611855 -9.08974934 -0.49070191 4 12 16612 9.37600000 3057045739 3057045739 -3.00000000
2.66556644 -10.79528999 2.56714153 51 13 16613 11.41200000 3057045741 3057045741 13.00000000
2.82722092 -11.45856857 -0.20600821 8 14 16614 11.80400000 3057045743 3057045743 -1.00000000
0.47856259 -1.95129800 -0.53834361 4 0 16622 2.08000000 3057045766 3057045766 -15.00000000
3.20285177 -13.06921291 0.23487449 10 1 16623 13.45800000 3057045768 3057045768 1.00000000
0.55436802 -2.26380372 -0.53808290 3 2 16624 2.39200000 3057045771 3057045771 -13.00000000
3.07238984 -12.55582047 0.67743659 25 3 16625 12.94400000 3057045773 3057045773 3.00000000
0.64536017 -2.63736939 -0.52777767 3 4 16625 2.76600000 3057045775 3057045775 -11.00000000
3.18953705 -13.04442215 1.17485940 65 5 16626 13.48000000 3057045778 3057045778 5.00000000
0.79188657 -3.24107313 -0.52843565 1 6 16627 3.37800000 3057045780 3057045780 -9.00000000
3.18273497 -13.03632545 1.64767349 75 7 16628 13.52000000 3057045782 3057045782 7.00000000
1.01153672 -4.14634514 -0.52403820 2 8 16629 4.30000000 3057045785 3057045785 -7.00000000
3.17519331 -13.01529408 2.12187719 70 9 16629 13.56400000 3057045787 3057045787 9.00000000
1.40099335 -5.74710560 -0.51753080 3 10 16630 5.93800000 3057045789 3057045789 -5.00000000
2.86590338 -11.76533127 2.35381985 37 11 16631 12.33600000 3057045792 3057045792 11.00000000
2.20870757 -9.07424736 -0.48944587 4 12 16632 9.35200000 3057045794 3057045794 -3.00000000
2.66056609 -10.93896961 2.59908438 51 13 16633 11.55400000 3057045796 3057045796 13.00000000
2.98932791 -12.30002880 -0.22094746 20 14 16634 12.66000000 3057045798 3057045798 -1.00000000
2.32006550 -9.55351543 2.63426018 30 15 16635 10.17800000 3057045801 3057045801 15.00000000
0.47084117 -1.94920099 -0.53730834 4 0 16642 2.07600000 3057045821 3057045821 -15.00000000
3.14501309 -13.02977276 0.23396696 14 1 16643 13.40600000 3057045824 3057045824 1.00000000
0.54646248 -2.26572490 -0.53808290 3 2 16644 2.39200000 3057045826 3057045826 -13.00000000
3.02605343 -12.54652405 0.67638987 20 3 16644 12.92400000 3057045828 3057045828 3.00000000
0.63982993 -2.65487480 -0.53083062 3 4 16645 2.78200000 3057045831 3057045831 -11.00000000
3.13838649 -13.03223228 1.17276764 70 5 16646 13.45600000 3057045833 3057045833 5.00000000
0.78287905 -3.25342035 -0.52999997 1 6 16647 3.38800000 3057045835 3057045835 -9.00000000
3.13628197 -13.04349518 1.64718604 75 7 16648 13.51600000 3057045838 3057045838 7.00000000
0.99056464 -4.12282848 -0.52062583 2 8 16649 4.27200000 3057045840 3057045840 -7.00000000
3.12654638 -13.02300262 2.12125134 70 9 16650 13.56000000 3057045842 3057045842 9.00000000
1.37952828 -5.74614906 -0.51700789 3 10 16650 5.93200000 3057045845 3057045845 -5.00000000
2.82802296 -11.78862762 2.35649109 37 11 16651 12.35000000 3057045847 3057045847 11.00000000
2.17562222 -9.07607460 -0.48913184 4 12 16652 9.34600000 3057045849 3057045849 -3.00000000
2.65777254 -11.09601116 2.63417673 53 13 16653 11.71000000 3057045851 3057045851 13.00000000
2.94497824 -12.30455399 -0.22084275 15 14 16654 12.65400000 3057045854 3057045854 -1.00000000
2.28625393 -9.55967712 2.63374257 33 15 16655 10.17600000 3057045856 3057045856 15.00000000
0.46314022 -1.94707382 -0.53627306 4 0 16662 2.07200000 3057045877 3057045877 -15.00000000
3.09350038 -13.01538086 0.23351319 14 1 16663 13.38000000 3057045879 3057045879 1.00000000
0.53764969 -2.26382661 -0.53718311 3 2 16664 2.38800000 3057045881 3057045881 -13.00000000
2.98039341 -12.54923820 0.67597121 22 3 16664 12.91600000 3057045884 3057045884 3.00000000
0.63055879 -2.65709209 -0.53083062 3 4 16665 2.78200000 3057045886 3057045886 -11.00000000
3.09011817 -13.03147602 1.17172182 74 5 16666 13.44400000 3057045888 3057045888 5.00000000
0.76924050 -3.24652267 -0.52843565 1 6 16667 3.37800000 3057045891 3057045891 -9.00000000
3.08661652 -13.03697872 1.64499235 80 7 16668 13.49800000 3057045893 3057045893 7.00000000
0.98165131 -4.14944220 -0.52355069 2 8 16669 4.29600000 3057045895 3057045895 -7.00000000
3.08152413 -13.02560997 2.11999989 73 9 16669 13.55200000 3057045898 3057045898 9.00000000
1.36175382 -5.76062441 -0.51787943 3 10 16670 5.94200000 3057045900 3057045900 -5.00000000
2.78414798 -11.78696346 2.35420132 40 11 16671 12.33800000 3057045902 3057045902 11.00000000
2.14346886 -9.08166981 -0.48902717 4 12 16672 9.34400000 3057045904 3057045904 -3.00000000
2.64541554 -11.21712589 2.66072106 53 13 16673 11.82800000 3057045907 3057045907 13.00000000
2.89650536 -12.29140186 -0.22042389 15 14 16674 12.63000000 3057045909 3057045909 -1.00000000
2.25508451 -9.57700157 2.63633084 40 15 16675 10.18600000 3057045911 3057045911 15.00000000
0.45898375 -1.95996439 -0.53937888 4 0 16682 2.08400000 3057045932 3057045932 -15.00000000
3.05397224 -13.05141163 0.23396696 14 1 16683 13.40600000 3057045934 3057045934 1.00000000
0.52974421 -2.26568961 -0.53718311 3 2 16684 2.38800000 3057045937 3057045937 -13.00000000
2.92974949 -12.53039265 0.67440110 22 3 16684 12.88600000 3057045939 3057045939 3.00000000
0.62217325 -2.66310048 -0.53159386 3 4 16685 2.78600000 3057045941 3057045941 -11.00000000
3.04279923 -13.03442287 1.17102456 56 5 16686 13.43600000 3057045944 3057045944 5.00000000
0.75117242 -3.22033191 -0.52374262 1 6 16687 3.34800000 3057045946 3057045946 -9.00000000
3.03748536 -13.03220654 1.64304245 78 7 16688 13.48200000 3057045948 3057045948 7.00000000
0.96445948 -4.14124346 -0.52208829 2 8 16689 4.28400000 3057045951 3057045951 -7.00000000
3.03514147 -13.03243923 2.11937404 73 9 16689 13.54800000 3057045953 3057045953 9.00000000
1.34254038 -5.76922369 -0.51822805 3 10 16690 5.94600000 3057045955 3057045955 -5.00000000
2.74698853 -11.81381989 2.35763597 43 11 16691 12.35600000 3057045957 3057045957 11.00000000
2.10904288 -9.07742405 -0.48839915 4 12 16692 9.33200000 3057045960 3057045960 -3.00000000
2.60844779 -11.23578358 2.66297054 50 13 16693 11.83800000 3057045962 3057045962 13.00000000
2.84228587 -12.25273895 -0.21955128 18 14 16694 12.58000000 3057045964 3057045964 -1.00000000
2.22513032 -9.59986973 2.64047194 38 15 16695 10.20200000 3057045967 3057045967 15.00000000
0.45282409 -1.96139657 -0.53937888 4 0 16700 2.08400000 3057045987 3057045987 -15.00000000
2.96575809 -12.85634708 0.23030196 14 1 16701 13.19600000 3057045990 3057045990 1.00000000
0.52262372 -2.26734257 -0.53718311 4 2 16702 2.38800000 3057045992 3057045992 -13.00000000
2.88408923 -12.51228809 0.67293572 22 3 16702 12.85800000 3057045994 3057045994 3.00000000
3.01438046 -13.08797741 -2.61064863 4 4 16703 13.68200000 3057045997 3057045997 -11.00000000
3.00362277 -13.05168438 1.17172182 65 5 16704 13.44400000 3057045999 3057045999 5.00000000
0.74724931 -3.24962783 -0.52812278 1 6 16705 3.37600000 3057046001 3057046001 -9.00000000
2.99386144 -13.03007698 1.64158010 78 7 16706 13.47000000 3057046003 3057046003 7.00000000
0.95144469 -4.14425278 -0.52208829 2 8 16707 4.28400000 3057046006 3057046006 -7.00000000
2.98887992 -13.01880646 2.11561966 73 9 16707 13.52400000 3057046008 3057046008 9.00000000
1.32440925 -5.77341270 -0.51822805 3 10 16708 5.94600000 3057046010 3057046010 -5.00000000
2.71468568 -11.84344196 2.36183381 40 11 16709 12.37800000 3057046013 3057046013 11.00000000
2.07694769 -9.06842995 -0.48756176 4 12 16710 9.31600000 3057046015 3057046015 -3.00000000
2.57096314 -11.23442459 2.66072106 47 13 16711 11.82800000 3057046017 3057046017 13.00000000
2.79709244 -12.23236656 -0.21902770 15 14 16712 12.55000000 3057046020 3057046020 -1.00000000
2.19965172 -9.61961269 2.64409542 35 15 16712 10.21600000 3057046022 3057046022 15.00000000
0.44597480 -1.96296537 -0.53937888 4 0 16720 2.08400000 3057046043 3057046043 -15.00000000
2.96203327 -13.04797840 0.23354810 14 1 16721 13.38200000 3057046045 3057046045 1.00000000
0.51427495 -2.26725268 -0.53673321 4 2 16722 2.38600000 3057046047 3057046047 -13.00000000
2.83907032 -12.51643562 0.67262173 27 3 16722 12.85200000 3057046050 3057046050 3.00000000
0.60189360 -2.65568018 -0.52930415 3 4 16723 2.77400000 3057046052 3057046052 -11.00000000
2.95276499 -13.03877068 1.16963005 78 5 16724 13.42000000 3057046054 3057046054 5.00000000
0.73241377 -3.23680305 -0.52561980 1 6 16725 3.36000000 3057046056 3057046056 -9.00000000
2.94704652 -13.03463936 1.64084888 76 7 16726 13.46400000 3057046059 3057046059 7.00000000
0.93741018 -4.14948511 -0.52233201 2 8 16727 4.28600000 3057046061 3057046061 -7.00000000
2.93993521 -13.01374626 2.11311674 73 9 16727 13.50800000 3057046063 3057046063 9.00000000
1.29898381 -5.75467873 -0.51613629 3 10 16728 5.92200000 3057046066 3057046066 -5.00000000
2.67203212 -11.84710026 2.36068892 28 11 16729 12.37200000 3057046068 3057046068 11.00000000
2.04528046 -9.07562447 -0.48756176 4 12 16730 9.31600000 3057046070 3057046070 -3.00000000
2.53258824 -11.24713230 2.66162086 46 13 16731 11.83200000 3057046073 3057046073 13.00000000
2.76315546 -12.28107452 -0.21972580 13 14 16732 12.59000000 3057046075 3057046075 -1.00000000
2.16226053 -9.61818600 2.64150715 38 15 16733 10.20600000 3057046077 3057046077 15.00000000
0.43709278 -1.95704508 -0.53730834 4 0 16741 2.07600000 3057046098 3057046098 -15.00000000
2.91070580 -13.04313374 0.23326886 14 1 16742 13.36600000 3057046100 3057046100 1.00000000
0.50680983 -2.27292633 -0.53763300 4 2 16743 2.39000000 3057046103 3057046103 -13.00000000
2.78794956 -12.51359844 0.67188901 27 3 16744 12.83800000 3057046105 3057046105 3.00000000
0.59514457 -2.67128229 -0.53197551 3 4 16744 2.78800000 3057046107 3057046107 -11.00000000
2.89023590 -12.98338318 1.16370344 39 5 16745 13.35200000 3057046109 3057046109 5.00000000
0.72140312 -3.24332213 -0.52624553 1 6 16746 3.36400000 3057046112 3057046112 -9.00000000
2.89796042 -13.03954029 1.64011765 80 7 16747 13.45800000 3057046114 3057046114 7.00000000
0.92219526 -4.15289307 -0.52233201 2 8 16748 4.28600000 3057046116 3057046116 -7.00000000
2.89093304 -13.01864910 2.11217809 73 9 16748 13.50200000 3057046119 3057046119 9.00000000
1.28133571 -5.77496195 -0.51753080 3 10 16749 5.93800000 3057046121 3057046121 -5.00000000
2.60734606 -11.76097775 2.34160805 12 11 16750 12.27200000 3057046123 3057046123 11.00000000
2.01200294 -9.08306026 -0.48756176 4 12 16751 9.31600000 3057046126 3057046126 -3.00000000
2.49134851 -11.25634003 2.66162086 48 13 16752 11.83200000 3057046128 3057046128 13.00000000
2.73366904 -12.36141014 -0.22098237 15 14 16753 12.66200000 3057046130 3057046130 -1.00000000
2.12909079 -9.62756157 2.64202476 35 15 16753 10.20800000 3057046133 3057046133 15.00000000
0.43025878 -1.95855892 -0.53730834 4 0 16761 2.07600000 3057046153 3057046153 -15.00000000
2.74726009 -12.51608562 0.22367004 42 1 16762 12.81600000 3057046156 3057046156 1.00000000
0.49970767 -2.27848864 -0.53853285 4 2 16763 2.39400000 3057046158 3057046158 -13.00000000
2.73484635 -12.48033237 0.66958624 15 3 16764 12.79400000 3057046160 3057046160 3.00000000
2.86562562 -13.07713699 -2.60225296 4 4 16764 13.63800000 3057046162 3057046162 -11.00000000
2.85555148 -13.04204941 1.16806126 70 5 16765 13.40200000 3057046165 3057046165 5.00000000
0.70923311 -3.24196124 -0.52561980 1 6 16766 3.36000000 3057046167 3057046167 -9.00000000
2.84903502 -13.03406239 1.63816774 80 7 16767 13.44200000 3057046169 3057046169 7.00000000
0.90769333 -4.15608692 -0.52233201 2 8 16768 4.28600000 3057046172 3057046172 -7.00000000
2.84235549 -13.02529716 2.11155248 73 9 16769 13.49800000 3057046174 3057046174 9.00000000
1.25352347 -5.74436092 -0.51439321 3 10 16769 5.90200000 3057046176 3057046176 -5.00000000
2.55874848 -11.73548031 2.33473897 12 11 16770 12.23600000 3057046179 3057046179 11.00000000
2.73192573 -12.54025745 -0.67262173 4 12 16771 12.85200000 3057046181 3057046181 -3.00000000
2.45452809 -11.27639198 2.66432023 48 13 16772 11.84400000 3057046183 3057046183 13.00000000
2.71302652 -12.47444057 -0.22283232 18 14 16773 12.76800000 3057046186 3057046186 -1.00000000
2.09584093 -9.64473915 2.64461303 38 15 16774 10.21800000 3057046188 3057046188 15.00000000
0.42573798 -1.96745360 -0.53937888 4 0 16779 2.08400000 3057046209 3057046209 -15.00000000
2.81653047 -13.02696991 0.23264058 10 1 16780 13.33000000 3057046211 3057046211 1.00000000
0.48925528 -2.26480889 -0.53493363 4 2 16781 2.37800000 3057046213 3057046213 -13.00000000
2.81572080 -13.04526806 0.69941771 10 3 16782 13.36400000 3057046215 3057046215 3.00000000
0.57700074 -2.67325163 -0.53159386 3 4 16782 2.78600000 3057046218 3057046218 -11.00000000
2.81078434 -13.03342819 1.16649246 78 5 16783 13.38400000 3057046220 3057046220 5.00000000
0.70487010 -3.27120805 -0.52999997 1 6 16784 3.38800000 3057046222 3057046222 -9.00000000
2.80305958 -13.01966095 1.63524282 78 7 16785 13.41800000 3057046225 3057046225 7.00000000
0.89129239 -4.14339256 -0.52038211 2 8 16786 4.27000000 3057046227 3057046227 -7.00000000
2.80286551 -13.02981091 2.11092663 73 9 16786 13.49400000 3057046229 3057046229 9.00000000
1.24133217 -5.77554131 -0.51683354 3 10 16787 5.93000000 3057046232 3057046232 -5.00000000
2.56762242 -11.95652485 2.37709856 21 11 16788 12.45800000 3057046234 3057046234 11.00000000
2.79978085 -13.04869843 -0.69941771 4 12 16789 13.36400000 3057046236 3057046236 -3.00000000
2.42031574 -11.28976440 2.66566992 51 13 16790 11.85000000 3057046239 3057046239 13.00000000
2.80072975 -13.07537079 -0.23340848 11 14 16791 13.37400000 3057046241 3057046241 -1.00000000
2.06721520 -9.65091515 2.64461303 38 15 16791 10.21800000 3057046243 3057046243 15.00000000
0.41806370 -1.96514857 -0.53834361 4 0 16799 2.08000000 3057046264 3057046264 -15.00000000
2.77353525 -13.04845810 0.23285000 14 1 16800 13.34200000 3057046266 3057046266 1.00000000
0.48296598 -2.27412772 -0.53673321 4 2 16801 2.38600000 3057046268 3057046268 -13.00000000
2.76809430 -13.04524899 0.69889438 12 3 16802 13.35400000 3057046271 3057046271 3.00000000
0.56359071 -2.65604448 -0.52777767 3 4 16802 2.76600000 3057046273 3057046273 -11.00000000
2.76568532 -13.04510880 1.16666675 87 5 16803 13.38600000 3057046275 3057046275 5.00000000
2.77419806 -13.09652710 -2.12031269 3 6 16804 13.55400000 3057046278 3057046278 -9.00000000
2.75759530 -13.02936554 1.63524282 78 7 16805 13.41800000 3057046280 3057046280 7.00000000
0.87764519 -4.15036249 -0.52086955 2 8 16806 4.27400000 3057046282 3057046282 -7.00000000
2.75182319 -13.02453423 2.10842371 77 9 16807 13.47800000 3057046285 3057046285 9.00000000
1.21951675 -5.77204180 -0.51613629 3 10 16807 5.92200000 3057046287 3057046287 -5.00000000
2.63535643 -12.48406315 2.48013544 40 11 16808 12.99800000 3057046289 3057046289 11.00000000
2.75421524 -13.05839252 -0.69941771 4 12 16809 13.36400000 3057046291 3057046291 -3.00000000
2.37888312 -11.28860950 2.66342044 47 13 16810 11.84000000 3057046294 3057046294 13.00000000
2.75095105 -13.06549931 -0.23305944 11 14 16811 13.35400000 3057046296 3057046296 -1.00000000
2.03302217 -9.66409874 2.64616585 35 15 16812 10.22400000 3057046298 3057046298 15.00000000
0.41164839 -1.97044969 -0.53937888 4 0 16820 2.08400000 3057046319 3057046319 -15.00000000
2.72610021 -13.06049347 0.23288491 10 1 16821 13.34400000 3057046321 3057046321 1.00000000
0.47621900 -2.28351355 -0.53853285 4 2 16822 2.39400000 3057046324 3057046324 -13.00000000
2.71944761 -13.05139637 0.69868499 17 3 16823 13.35000000 3057046326 3057046326 3.00000000
2.72520852 -13.07904434 -2.59691048 4 4 16823 13.61000000 3057046328 3057046328 -11.00000000
2.71460533 -13.03955364 1.16527224 83 5 16824 13.37000000 3057046331 3057046331 5.00000000
0.67983490 -3.26843238 -0.52874851 1 6 16825 3.38000000 3057046333 3057046333 -9.00000000
2.70780230 -13.02966785 1.63402414 73 7 16826 13.40800000 3057046335 3057046335 7.00000000
0.85637391 -4.12439680 -0.51721346 4 8 16827 4.24400000 3057046338 3057046338 -7.00000000
2.70513749 -13.02825832 2.10748506 52 9 16827 13.47200000 3057046340 3057046340 9.00000000
