# .PCD v0.7 - Point Cloud Data file format
VERSION 0.7
FIELDS x y z intensity laser_id azimuth distance_m adjustedtime timestamp vertical_angle
SIZE 4 4 4 1 1 2 8 8 4 8
TYPE F F F U U U F U U F
COUNT 1 1 1 1 1 1 1 1 1 1
WIDTH 538
HEIGHT 1
VIEWPOINT 0 0 0 1 0 0 0
POINTS 538
DATA ascii
3.65270472 2.49825096 -0.07724435 7 14 5563 4.42600000 3057414900 3057414900 -1.00000000
3.68389201 2.51863766 1.19574404 8 15 5564 4.62000000 3057414903 3057414903 15.00000000
1.88156533 1.28351688 -0.61029530 4 0 5570 2.35800000 3057414923 3057414923 -15.00000000
3.66775441 2.50103450 0.07748868 7 1 5571 4.44000000 3057414926 3057414926 1.00000000
2.24144602 1.52786446 -0.62626374 3 2 5572 2.78400000 3057414928 3057414928 -13.00000000
3.67032290 2.50184774 0.23279034 7 3 5572 4.44800000 3057414930 3057414930 3.00000000
2.68997264 1.83291173 -0.63272262 5 4 5573 3.31600000 3057414933 3057414933 -11.00000000
3.66883183 2.49895597 0.38836598 7 5 5574 4.45600000 3057414935 3057414935 5.00000000
3.38974690 2.30799651 -0.64951593 6 6 5575 4.15200000 3057414937 3057414937 -9.00000000
3.69728994 2.51645088 0.54914325 8 7 5576 4.50600000 3057414939 3057414939 7.00000000
3.66982794 2.49682236 -0.54499972 8 8 5577 4.47200000 3057414942 3057414942 -7.00000000
3.68616414 2.50793719 0.70614517 8 9 5577 4.51400000 3057414944 3057414944 9.00000000
3.66069078 2.48967123 -0.38732013 10 10 5578 4.44400000 3057414946 3057414946 -5.00000000
3.70500255 2.51886249 0.87085223 9 11 5579 4.56400000 3057414949 3057414949 11.00000000
3.67546463 2.49784303 -0.23289500 8 12 5580 4.45000000 3057414951 3057414951 -3.00000000
3.70749950 2.51866817 1.03477490 9 13 5581 4.60000000 3057414953 3057414953 13.00000000
3.66427779 2.48837113 -0.07731416 7 14 5582 4.43000000 3057414956 3057414956 -1.00000000
3.69658089 2.51030803 1.19729686 8 15 5582 4.62600000 3057414958 3057414958 15.00000000
1.88923359 1.27910733 -0.61133057 4 0 5590 2.36200000 3057414979 3057414979 -15.00000000
3.67977428 2.49045801 0.07755850 7 1 5591 4.44400000 3057414981 3057414981 1.00000000
2.24676561 1.52003109 -0.62626374 3 2 5592 2.78400000 3057414983 3057414983 -13.00000000
3.70881009 2.50916553 0.23467442 7 3 5592 4.48400000 3057414986 3057414986 3.00000000
2.69798064 1.82461071 -0.63310426 5 4 5593 3.31800000 3057414988 3057414988 -11.00000000
3.69733953 2.49952435 0.39045772 8 5 5594 4.48000000 3057414990 3057414990 5.00000000
3.38468909 2.28730178 -0.64701295 6 6 5595 4.13600000 3057414992 3057414992 -9.00000000
3.71098638 2.50686312 0.54987448 8 7 5596 4.51200000 3057414995 3057414995 7.00000000
3.69990778 2.49843907 -0.54816830 8 8 5597 4.49800000 3057414997 3057414997 -7.00000000
3.71454096 2.50832033 0.70989960 8 9 5597 4.53800000 3057414999 3057414999 9.00000000
3.68917537 2.49025440 -0.38941187 10 10 5598 4.46800000 3057415002 3057415002 -5.00000000
3.72353697 2.51250315 0.87314194 9 11 5599 4.57600000 3057415004 3057415004 11.00000000
3.69575191 2.49281621 -0.23362771 8 12 5600 4.46400000 3057415006 3057415006 -3.00000000
3.73888946 2.52096343 1.04107344 8 13 5601 4.62800000 3057415009 3057415009 13.00000000
3.69615650 2.49121213 -0.07780283 7 14 5602 4.45800000 3057415011 3057415011 -1.00000000
3.73459530 2.51617241 1.20661438 8 15 5603 4.66200000 3057415013 3057415013 15.00000000
1.89689386 1.27465975 -0.61236584 4 0 5610 2.36600000 3057415034 3057415034 -15.00000000
3.71500468 2.49543858 0.07811697 8 1 5611 4.47600000 3057415036 3057415036 1.00000000
2.24882197 1.51000655 -0.62536395 3 2 5612 2.78000000 3057415039 3057415039 -13.00000000
3.72627330 2.50112081 0.23519778 7 3 5613 4.49400000 3057415041 3057415041 3.00000000
2.70596337 1.81627595 -0.63348585 5 4 5613 3.32000000 3057415043 3057415043 -11.00000000
3.73251390 2.50436449 0.39324671 8 5 5614 4.51200000 3057415045 3057415045 5.00000000
3.39429331 2.27657342 -0.64732581 9 6 5615 4.13800000 3057415048 3057415048 -9.00000000
3.73950005 2.50715947 0.55279934 8 7 5616 4.53600000 3057415050 3057415050 7.00000000
3.72674561 2.49766541 -0.55084944 8 8 5617 4.52000000 3057415052 3057415052 -7.00000000
3.74952912 2.51293492 0.71490550 8 9 5617 4.57000000 3057415055 3057415055 9.00000000
3.71936393 2.49177766 -0.39167792 10 10 5618 4.49400000 3057415057 3057415057 -5.00000000
3.75349069 2.51369190 0.87810302 9 11 5619 4.60200000 3057415059 3057415059 11.00000000
3.71272945 2.48545575 -0.23415107 8 12 5620 4.47400000 3057415062 3057415062 -3.00000000
3.76386189 2.51873469 1.04557252 8 13 5621 4.64800000 3057415064 3057415064 13.00000000
3.73973393 2.50164366 -0.07853583 7 14 5622 4.50000000 3057415066 3057415066 -1.00000000
3.76379299 2.51773763 1.21334374 8 15 5622 4.68800000 3057415069 3057415069 15.00000000
1.90776062 1.27231812 -0.61443639 4 0 5630 2.37400000 3057415089 3057415089 -15.00000000
3.74532294 2.49687552 0.07857073 8 1 5631 4.50200000 3057415092 3057415092 1.00000000
2.24434948 1.49566340 -0.62266451 3 2 5632 2.76800000 3057415094 3057415094 -13.00000000
3.74994111 2.49806404 0.23613983 7 3 5633 4.51200000 3057415096 3057415096 3.00000000
2.70738506 1.80355406 -0.63234103 5 4 5633 3.31400000 3057415098 3057415098 -11.00000000
3.75615811 2.50125909 0.39481550 8 5 5634 4.53000000 3057415101 3057415101 5.00000000
3.39893055 2.26252198 -0.64670008 9 6 5635 4.13400000 3057415103 3057415103 -9.00000000
3.76475549 2.50508785 0.55523676 8 7 5636 4.55600000 3057415105 3057415105 7.00000000
3.73709416 2.48574090 -0.55109316 8 8 5637 4.52200000 3057415108 3057415108 -7.00000000
3.77187371 2.50792527 0.71740848 8 9 5638 4.58600000 3057415110 3057415110 9.00000000
3.74960780 2.49312043 -0.39394397 10 10 5638 4.52000000 3057415112 3057415112 -5.00000000
3.79003811 2.51904893 0.88459051 9 11 5639 4.63600000 3057415115 3057415115 11.00000000
3.75299025 2.49348068 -0.23613983 8 12 5640 4.51200000 3057415117 3057415117 -3.00000000
3.78561783 2.51420617 1.04917169 6 13 5641 4.66400000 3057415119 3057415119 13.00000000
3.76010537 2.49631667 -0.07878016 7 14 5642 4.51400000 3057415122 3057415122 -1.00000000
3.79231143 2.51674461 1.21955538 8 15 5643 4.71200000 3057415124 3057415124 15.00000000
1.89952195 1.25678945 -0.61029530 4 0 5651 2.35800000 3057415145 3057415145 -15.00000000
3.78613925 2.50409079 0.07923392 8 1 5652 4.54000000 3057415147 3057415147 1.00000000
2.24981618 1.48742735 -0.62266451 3 2 5653 2.76800000 3057415149 3057415149 -13.00000000
8.24962997 5.45203209 0.51823062 23 3 5654 9.90200000 3057415151 3057415151 3.00000000
2.71070147 1.79145396 -0.63157779 5 4 5654 3.31000000 3057415154 3057415154 -11.00000000
8.26204967 5.45816898 0.86632806 31 5 5655 9.94000000 3057415156 3057415156 5.00000000
3.41379380 2.25440335 -0.64795154 9 6 5656 4.14200000 3057415158 3057415158 -9.00000000
3.80870199 2.51423860 0.56035525 8 7 5657 4.59800000 3057415161 3057415161 7.00000000
3.76606226 2.48514700 -0.55401802 8 8 5658 4.54600000 3057415163 3057415163 -7.00000000
19.05636024 12.57490063 3.61613917 22 9 5658 23.11600000 3057415165 3057415165 9.00000000
3.77867818 2.49252558 -0.39603570 10 10 5659 4.54400000 3057415168 3057415168 -5.00000000
8.65401840 5.70627403 2.01494288 28 11 5660 10.56000000 3057415170 3057415170 11.00000000
3.78211522 2.49289846 -0.23739590 8 12 5661 4.53600000 3057415172 3057415172 -3.00000000
3.77924967 2.48911786 -0.07898960 5 14 5663 4.52600000 3057415177 3057415177 -1.00000000
6.24853849 4.11545944 2.00481224 11 15 5663 7.74600000 3057415179 3057415179 15.00000000
1.91035676 1.25439262 -0.61236584 4 0 5671 2.36600000 3057415200 3057415200 -15.00000000
8.24002266 5.40856647 0.17204583 13 1 5672 9.85800000 3057415202 3057415202 1.00000000
2.26477051 1.48597932 -0.62536395 3 2 5673 2.78000000 3057415204 3057415204 -13.00000000
2.72186327 1.78521109 -0.63272262 8 4 5674 3.31600000 3057415209 3057415209 -11.00000000
8.24772835 5.40744734 0.86284184 69 5 5675 9.90000000 3057415211 3057415211 5.00000000
3.41338158 2.23705935 -0.64638722 6 6 5676 4.13200000 3057415214 3057415214 -9.00000000
8.35888195 5.47615194 1.22698057 2 7 5677 10.06800000 3057415216 3057415216 7.00000000
3.88265777 2.54267621 -0.56986105 2 8 5678 4.67600000 3057415218 3057415218 -7.00000000
19.10893250 12.50929928 3.61739063 44 9 5679 23.12400000 3057415221 3057415221 9.00000000
7.06628561 4.62580919 -0.73890638 8 10 5679 8.47800000 3057415223 3057415223 -5.00000000
8.67552757 5.67710590 2.01532459 34 11 5680 10.56200000 3057415225 3057415225 11.00000000
8.24347305 5.39232302 -0.51624185 12 12 5681 9.86400000 3057415227 3057415227 -3.00000000
8.30672646 5.43162918 2.29135156 67 13 5682 10.18600000 3057415230 3057415230 13.00000000
8.23700047 5.38398409 -0.17176658 14 14 5683 9.84200000 3057415232 3057415232 -1.00000000
6.31209803 4.12423038 2.02034140 2 15 5684 7.80600000 3057415234 3057415234 15.00000000
1.91428816 1.24838495 -0.61236584 4 0 5689 2.36600000 3057415255 3057415255 -15.00000000
8.23687077 5.36954880 0.17162697 13 1 5690 9.83400000 3057415257 3057415257 1.00000000
2.25963163 1.47247338 -0.62266451 3 2 5691 2.76800000 3057415260 3057415260 -13.00000000
8.25548363 5.37757683 0.51634657 70 3 5692 9.86600000 3057415262 3057415262 3.00000000
2.72252321 1.77343655 -0.63157779 9 4 5692 3.31000000 3057415264 3057415264 -11.00000000
8.25632668 5.37607384 0.86197031 73 5 5693 9.89000000 3057415267 3057415267 5.00000000
3.41045928 2.21985912 -0.64450997 6 6 5694 4.12000000 3057415269 3057415269 -9.00000000
8.33611107 5.42388201 1.22113085 2 7 5695 10.02000000 3057415271 3057415271 7.00000000
4.62615156 3.00885177 -0.67759353 6 8 5696 5.56000000 3057415274 3057415274 -7.00000000
7.08412361 4.60575914 -0.73925501 8 10 5697 8.48200000 3057415278 3057415278 -5.00000000
8.68015099 5.64126444 2.01227164 40 11 5698 10.54600000 3057415280 3057415280 11.00000000
8.23190022 5.34790134 -0.51446247 12 12 5699 9.83000000 3057415283 3057415283 -3.00000000
8.31721210 5.40126085 2.28955173 72 13 5700 10.17800000 3057415285 3057415285 13.00000000
8.24213314 5.35045862 -0.17152224 12 14 5701 9.82800000 3057415287 3057415287 -1.00000000
7.38889074 4.79656839 2.36042976 29 15 5701 9.12000000 3057415290 3057415290 15.00000000
1.92187786 1.24379444 -0.61340111 4 0 5709 2.37000000 3057415310 3057415310 -15.00000000
8.23373699 5.32664347 0.17117320 13 1 5710 9.80800000 3057415313 3057415313 1.00000000
2.25821209 1.46034396 -0.62086493 3 2 5711 2.76000000 3057415315 3057415315 -13.00000000
8.25407696 5.33571577 0.51509047 89 3 5712 9.84200000 3057415317 3057415317 3.00000000
2.73034573 1.76498818 -0.63195938 9 4 5712 3.31200000 3057415320 3057415320 -11.00000000
8.24659443 5.32883835 0.85900700 73 5 5713 9.85600000 3057415322 3057415322 5.00000000
3.42980242 2.21544361 -0.64670008 6 6 5714 4.13400000 3057415324 3057415324 -9.00000000
8.33331299 5.38075209 1.21796227 2 7 5715 9.99400000 3057415327 3057415327 7.00000000
4.60660505 2.97330809 -0.67320627 6 8 5716 5.52400000 3057415329 3057415329 -7.00000000
17.78058243 11.47198486 3.35145187 14 9 5717 21.42400000 3057415331 3057415331 9.00000000
7.09011269 4.57452202 -0.73820913 13 10 5717 8.47000000 3057415333 3057415333 -5.00000000
8.68329048 5.60028982 2.00845551 40 11 5718 10.52600000 3057415336 3057415336 11.00000000
8.23876762 5.31155872 -0.51372975 12 12 5719 9.81600000 3057415338 3057415338 -3.00000000
8.30980682 5.35530519 2.28235340 75 13 5720 10.14600000 3057415340 3057415340 13.00000000
8.24562931 5.31190920 -0.17120811 10 14 5721 9.81000000 3057415343 3057415343 -1.00000000
7.41779089 4.77677584 2.36405325 40 15 5722 9.13400000 3057415345 3057415345 15.00000000
1.92620778 1.23707819 -0.61340111 4 0 5729 2.37000000 3057415366 3057415366 -15.00000000
8.23881817 5.28922749 0.17089397 13 1 5730 9.79200000 3057415368 3057415368 1.00000000
2.26985621 1.45666242 -0.62266451 3 2 5731 2.76800000 3057415370 3057415370 -13.00000000
8.24743557 5.29069471 0.51352042 99 3 5732 9.81200000 3057415373 3057415373 3.00000000
2.72657514 1.74908650 -0.62966967 9 4 5732 3.30000000 3057415375 3057415375 -11.00000000
8.25508213 5.29356718 0.85796112 73 5 5733 9.84400000 3057415377 3057415377 5.00000000
3.43585181 2.20239186 -0.64638722 6 6 5734 4.13200000 3057415380 3057415380 -9.00000000
8.34034538 5.34413385 1.21625602 2 7 5735 9.98000000 3057415382 3057415382 7.00000000
4.62197018 2.96042180 -0.67393744 4 8 5736 5.53000000 3057415384 3057415384 -7.00000000
17.86343956 11.44172573 3.35989952 4 9 5736 21.47800000 3057415386 3057415386 9.00000000
7.10939360 4.55189323 -0.73855776 13 10 5737 8.47400000 3057415389 3057415389 -5.00000000
8.71105385 5.57523680 2.01036358 40 11 5738 10.53600000 3057415391 3057415391 11.00000000
8.23538685 5.26877499 -0.51236904 12 12 5739 9.79000000 3057415393 3057415393 -3.00000000
8.29889870 5.30736685 2.27425528 75 13 5740 10.11000000 3057415396 3057415396 13.00000000
8.23379421 5.26370668 -0.17057982 12 14 5741 9.77400000 3057415398 3057415398 -1.00000000
7.43684578 4.75423241 2.36508846 45 15 5741 9.13800000 3057415400 3057415400 15.00000000
1.92399776 1.22619390 -0.61133057 4 0 5749 2.36200000 3057415421 3057415421 -15.00000000
8.24542522 5.25291538 0.17064963 13 1 5750 9.77800000 3057415423 3057415423 1.00000000
2.28150201 1.45291734 -0.62446415 3 2 5751 2.77600000 3057415426 3057415426 -13.00000000
8.25237465 5.25329351 0.51268303 99 3 5752 9.79600000 3057415428 3057415428 3.00000000
2.73100781 1.73850405 -0.62928808 6 4 5752 3.29800000 3057415430 3057415430 -11.00000000
8.24661541 5.24760485 0.85517216 81 5 5753 9.81200000 3057415433 3057415433 5.00000000
3.45185232 2.19568610 -0.64795154 6 6 5754 4.14200000 3057415435 3057415435 -9.00000000
8.34889793 5.30859756 1.21479356 2 7 5755 9.96800000 3057415437 3057415437 7.00000000
4.64065266 2.94959426 -0.67515618 6 8 5756 5.54000000 3057415439 3057415439 -7.00000000
19.28578949 12.25330353 3.61895490 33 9 5757 23.13400000 3057415442 3057415442 9.00000000
7.11851263 4.52277565 -0.73786050 13 10 5757 8.46600000 3057415444 3057415444 -5.00000000
8.72714806 5.54269075 2.00960040 37 11 5758 10.53200000 3057415446 3057415446 11.00000000
8.23855209 5.23036146 -0.51142699 17 12 5759 9.77200000 3057415449 3057415449 -3.00000000
8.30092049 5.26792431 2.26975608 76 13 5760 10.09000000 3057415451 3057415451 13.00000000
8.23185539 5.22207880 -0.17016096 14 14 5761 9.75000000 3057415453 3057415453 -1.00000000
7.45422077 4.72694302 2.36508846 45 15 5762 9.13800000 3057415456 3057415456 15.00000000
1.92173529 1.21534014 -0.60926002 4 0 5769 2.35400000 3057415476 3057415476 -15.00000000
8.24173832 5.21021032 0.17019586 13 1 5770 9.75200000 3057415479 3057415479 1.00000000
2.28985453 1.44702661 -0.62536395 3 2 5771 2.78000000 3057415481 3057415481 -13.00000000
8.25715256 5.21592188 0.51184565 94 3 5772 9.78000000 3057415483 3057415483 3.00000000
2.74037957 1.73105741 -0.63005131 5 4 5772 3.30200000 3057415486 3057415486 -11.00000000
8.24298191 5.20495844 0.85290611 81 5 5773 9.78600000 3057415488 3057415488 5.00000000
3.45281410 2.17940593 -0.64670008 6 6 5774 4.13400000 3057415490 3057415490 -9.00000000
8.37409306 5.28365898 1.21576858 2 7 5775 9.97600000 3057415492 3057415492 7.00000000
4.63748837 2.92490554 -0.67320627 4 8 5776 5.52400000 3057415495 3057415495 -7.00000000
19.32631683 12.18928242 3.61895490 27 9 5776 23.13400000 3057415497 3057415497 9.00000000
7.12414408 4.49152422 -0.73681468 13 10 5777 8.45400000 3057415499 3057415499 -5.00000000
8.72485065 5.49858570 2.00463939 28 11 5778 10.50600000 3057415502 3057415502 11.00000000
8.24324036 5.19305515 -0.51058960 17 12 5779 9.75600000 3057415504 3057415504 -3.00000000
8.29782104 5.22541714 2.26390743 74 13 5780 10.06400000 3057415506 3057415506 13.00000000
8.23311043 5.18265963 -0.16981192 16 14 5781 9.73000000 3057415509 3057415509 -1.00000000
7.46004534 4.69602346 2.36198258 45 15 5781 9.12600000 3057415511 3057415511 15.00000000
1.93087494 1.21170521 -0.61081296 4 0 5789 2.36000000 3057415532 3057415532 -15.00000000
8.22768879 5.16121960 0.16953267 13 1 5790 9.71400000 3057415534 3057415534 1.00000000
2.29158974 1.43695426 -0.62446415 3 2 5791 2.77600000 3057415536 3057415536 -13.00000000
8.25838661 5.17645979 0.51079893 99 3 5792 9.76000000 3057415539 3057415539 3.00000000
2.75305915 1.72565186 -0.63157779 5 4 5792 3.31000000 3057415541 3057415541 -11.00000000
8.23746395 5.16134310 0.85046571 77 5 5793 9.75800000 3057415543 3057415543 5.00000000
3.44198513 2.15580606 -0.64325851 4 6 5794 4.11200000 3057415545 3057415545 -9.00000000
8.36556435 5.23754120 1.21186876 2 7 5795 9.94400000 3057415548 3057415548 7.00000000
4.66113138 2.91712475 -0.67515618 4 8 5796 5.54000000 3057415550 3057415550 -7.00000000
17.86841011 11.18277454 3.33862424 9 9 5796 21.34200000 3057415552 3057415552 9.00000000
7.13640118 4.46451569 -0.73646605 13 10 5797 8.45000000 3057415555 3057415555 -5.00000000
16.27950287 10.18046570 3.73222399 30 11 5798 19.56000000 3057415557 3057415557 11.00000000
8.23083305 5.14519310 -0.50870550 17 12 5799 9.72000000 3057415559 3057415559 -3.00000000
8.30444241 5.18919134 2.26075816 72 13 5800 10.05000000 3057415562 3057415562 13.00000000
8.24097443 5.14753294 -0.16960248 16 14 5801 9.71800000 3057415564 3057415564 -1.00000000
7.47311544 4.66790724 2.36094737 45 15 5801 9.12200000 3057415566 3057415566 15.00000000
1.94350350 1.20972443 -0.61340111 4 0 5810 2.37000000 3057415587 3057415587 -15.00000000
8.22617626 5.11835194 0.16911381 13 1 5811 9.69000000 3057415589 3057415589 1.00000000
2.29022193 1.42442858 -0.62266451 3 2 5812 2.76800000 3057415592 3057415592 -13.00000000
8.25694942 5.13350201 0.50954288 94 3 5813 9.73600000 3057415594 3057415594 3.00000000
2.75769830 1.71451330 -0.63119614 5 4 5813 3.30800000 3057415596 3057415596 -11.00000000
8.24786472 5.12585831 0.84959418 81 5 5814 9.74800000 3057415598 3057415598 5.00000000
3.46664310 2.15360022 -0.64638722 4 6 5815 4.13200000 3057415601 3057415601 -9.00000000
24.10687065 14.97020245 3.48424459 10 7 5816 28.59000000 3057415603 3057415603 7.00000000
4.67010546 2.89897442 -0.67491245 4 8 5817 5.53800000 3057415605 3057415605 -7.00000000
17.88100433 11.09533596 3.33299279 9 9 5818 21.30600000 3057415608 3057415608 9.00000000
7.16625977 4.44673347 -0.73786050 13 10 5818 8.46600000 3057415610 3057415610 -5.00000000
16.31670761 10.12073040 3.73222399 37 11 5819 19.56000000 3057415612 3057415612 11.00000000
8.21908188 5.09604645 -0.50682139 17 12 5820 9.68400000 3057415615 3057415615 -3.00000000
8.30021667 5.14434671 2.25445938 72 13 5821 10.02200000 3057415617 3057415617 13.00000000
8.24108696 5.10570908 -0.16921854 12 14 5822 9.69600000 3057415619 3057415619 -1.00000000
7.49345827 4.64252043 2.36198258 45 15 5822 9.12600000 3057415621 3057415621 15.00000000
1.95428896 1.20699346 -0.61547166 4 0 5830 2.37800000 3057415642 3057415642 -15.00000000
8.23718643 5.08540392 0.16897421 13 1 5831 9.68200000 3057415645 3057415645 1.00000000
2.29186344 1.41437876 -0.62176472 3 2 5832 2.76400000 3057415647 3057415647 -13.00000000
8.24422169 5.08577347 0.50765878 94 3 5833 9.70000000 3057415649 3057415649 3.00000000
2.75698256 1.70075357 -0.62966967 5 4 5833 3.30000000 3057415651 3057415651 -11.00000000
8.24874783 5.08657885 0.84785104 81 5 5834 9.72800000 3057415654 3057415654 5.00000000
3.48086572 2.14563251 -0.64763868 4 6 5835 4.14000000 3057415656 3057415656 -9.00000000
24.15052795 14.88075542 3.48302579 21 7 5836 28.58000000 3057415658 3057415658 7.00000000
4.67343521 2.87849092 -0.67393744 4 8 5837 5.53000000 3057415661 3057415661 -7.00000000
17.89271164 11.01628113 3.32798672 4 9 5838 21.27400000 3057415663 3057415663 9.00000000
7.18173838 4.42169142 -0.73786050 13 10 5838 8.46600000 3057415665 3057415665 -5.00000000
16.35360718 10.06474113 3.73260546 37 11 5839 19.56200000 3057415668 3057415668 11.00000000
8.22150993 5.05790663 -0.50587934 12 12 5840 9.66600000 3057415670 3057415670 -3.00000000
8.30152321 5.10513401 2.24996042 68 13 5841 10.00200000 3057415672 3057415672 13.00000000
8.23500919 5.06225014 -0.16872987 16 14 5842 9.66800000 3057415674 3057415674 -1.00000000
7.51700735 4.61907005 2.36405325 47 15 5843 9.13400000 3057415677 3057415677 15.00000000
1.94489658 1.19276822 -0.61133057 4 0 5848 2.36200000 3057415698 3057415698 -15.00000000
8.24630260 5.05532074 0.16883458 13 1 5849 9.67400000 3057415700 3057415700 1.00000000
2.30958796 1.41531730 -0.62536395 3 2 5850 2.78000000 3057415702 3057415702 -13.00000000
8.23972034 5.04732943 0.50640273 76 3 5851 9.67600000 3057415704 3057415704 3.00000000
2.75059319 1.68490541 -0.62699836 5 4 5851 3.28600000 3057415707 3057415707 -11.00000000
8.24259853 5.04711390 0.84558499 77 5 5852 9.70200000 3057415709 3057415709 5.00000000
3.49095893 2.13674879 -0.64826441 4 6 5853 4.14400000 3057415711 3057415711 -9.00000000
23.85342026 14.59449768 3.43354678 40 7 5854 28.17400000 3057415714 3057415714 7.00000000
4.68584251 2.86586618 -0.67442495 4 8 5855 5.53400000 3057415716 3057415716 -7.00000000
17.98284912 10.99401760 3.33831143 4 9 5856 21.34000000 3057415718 3057415718 9.00000000
7.18199492 4.39079332 -0.73646605 13 10 5856 8.45000000 3057415721 3057415721 -5.00000000
16.39519691 10.01945782 3.73489523 15 11 5857 19.57400000 3057415723 3057415723 11.00000000
8.21861076 5.02059984 -0.50472796 12 12 5858 9.64400000 3057415725 3057415725 -3.00000000
8.29589939 5.06582594 2.24411178 74 13 5859 9.97600000 3057415727 3057415727 13.00000000
8.22185612 5.01864243 -0.16813648 14 14 5860 9.63400000 3057415730 3057415730 -1.00000000
7.52408361 4.59272051 2.36198258 45 15 5860 9.12600000 3057415732 3057415732 15.00000000
1.93914628 1.17994678 -0.60822475 4 0 5868 2.35000000 3057415753 3057415753 -15.00000000
8.22631168 5.00364304 0.16806668 13 1 5869 9.63000000 3057415755 3057415755 1.00000000
2.31118417 1.40522194 -0.62446415 3 2 5870 2.77600000 3057415757 3057415757 -13.00000000
8.24363518 5.01023817 0.50556535 76 3 5871 9.66000000 3057415760 3057415760 3.00000000
2.76316857 1.67937243 -0.62852484 5 4 5871 3.29400000 3057415762 3057415762 -11.00000000
8.23292160 5.00175953 0.84279603 73 5 5872 9.67000000 3057415764 3057415764 5.00000000
3.48826575 2.11839795 -0.64638722 6 6 5873 4.13200000 3057415767 3057415767 -9.00000000
24.25208282 14.72231770 3.48351336 42 7 5874 28.58400000 3057415769 3057415769 7.00000000
4.70599985 2.85567093 -0.67588741 4 8 5875 5.54600000 3057415771 3057415771 -7.00000000
18.07178497 10.96191311 3.34769750 4 9 5876 21.40000000 3057415774 3057415774 9.00000000
6.70326328 4.06603956 -0.68591571 8 10 5876 7.87000000 3057415776 3057415776 -5.00000000
16.40656853 9.94791603 3.72955251 7 11 5877 19.54600000 3057415778 3057415778 11.00000000
8.22242165 4.98359919 -0.50389057 17 12 5878 9.62800000 3057415780 3057415780 -3.00000000
8.30519867 5.03178835 2.24186230 75 13 5879 9.96600000 3057415783 3057415783 13.00000000
8.23248196 4.98576832 -0.16799687 14 14 5880 9.62600000 3057415785 3057415785 -1.00000000
7.53345966 4.56242514 2.35991216 45 15 5880 9.11800000 3057415787 3057415787 15.00000000
1.94821477 1.17616606 -0.60977769 4 0 5888 2.35600000 3057415808 3057415808 -15.00000000
8.22318268 4.96249866 0.16764781 13 1 5889 9.60600000 3057415810 3057415810 1.00000000
2.31273794 1.39513266 -0.62356430 3 2 5890 2.77200000 3057415813 3057415813 -13.00000000
8.24481297 4.97358894 0.50462329 63 3 5890 9.64200000 3057415815 3057415815 3.00000000
2.77405763 1.67275822 -0.62966967 5 4 5891 3.30000000 3057415817 3057415817 -11.00000000
8.23156071 4.96167660 0.84087861 77 5 5892 9.64800000 3057415820 3057415820 5.00000000
3.48887110 2.10213089 -0.64513576 6 6 5893 4.12400000 3057415822 3057415822 -9.00000000
4.70573568 2.83308315 -0.67442495 4 8 5895 5.53400000 3057415826 3057415826 -7.00000000
6.69010210 4.02617836 -0.68312669 8 10 5896 7.83800000 3057415831 3057415831 -5.00000000
8.34256458 5.01866531 1.89244366 3 11 5897 9.91800000 3057415833 3057415833 11.00000000
8.22949791 4.94869184 -0.50326258 17 12 5898 9.61600000 3057415836 3057415836 -3.00000000
8.30266953 4.99071932 2.23646331 75 13 5899 9.94200000 3057415838 3057415838 13.00000000
8.23269463 4.94670200 -0.16764781 14 14 5900 9.60600000 3057415840 3057415840 -1.00000000
7.55265141 4.53809071 2.36094737 45 15 5900 9.12200000 3057415843 3057415843 15.00000000
1.95728040 1.17233634 -0.61133057 4 0 5908 2.36200000 3057415863 3057415863 -15.00000000
8.21815109 4.92041016 0.16719405 13 1 5909 9.58000000 3057415866 3057415866 1.00000000
2.31424928 1.38504970 -0.62266451 3 2 5910 2.76800000 3057415868 3057415868 -13.00000000
8.23384857 4.92590523 0.50284386 52 3 5911 9.60800000 3057415870 3057415870 3.00000000
2.78324938 1.66508067 -0.63043290 5 4 5911 3.30400000 3057415873 3057415873 -11.00000000
8.24199009 4.92882252 0.84018135 77 5 5912 9.64000000 3057415875 3057415875 5.00000000
3.49279666 2.08791256 -0.64450997 4 6 5913 4.12000000 3057415877 3057415877 -9.00000000
8.32598495 4.97510767 1.19090724 2 7 5914 9.77200000 3057415879 3057415879 7.00000000
4.71218777 2.81460404 -0.67393744 4 8 5915 5.53000000 3057415882 3057415882 -7.00000000
8.37346172 4.99951172 1.54463387 2 9 5916 9.87400000 3057415884 3057415884 9.00000000
6.69727278 3.99871564 -0.68242949 8 10 5916 7.83000000 3057415886 3057415886 -5.00000000
8.32968712 4.97140312 1.88557446 3 11 5917 9.88200000 3057415889 3057415889 11.00000000
8.21927834 4.90356255 -0.50158781 12 12 5918 9.58400000 3057415891 3057415891 -3.00000000
8.29325962 4.94573736 2.22926497 75 13 5919 9.91000000 3057415893 3057415893 13.00000000
8.23960590 4.91179085 -0.16743839 14 14 5920 9.59400000 3057415896 3057415896 -1.00000000
6.91038990 4.11778450 2.15544510 9 15 5921 8.32800000 3057415898 3057415898 15.00000000
1.96759546 1.17013133 -0.61340111 4 0 5926 2.37000000 3057415919 3057415919 -15.00000000
8.22325516 4.88843679 0.16698462 13 1 5927 9.56800000 3057415921 3057415921 1.00000000
2.32193971 1.37976348 -0.62356430 3 2 5928 2.77200000 3057415923 3057415923 -13.00000000
8.22267342 4.88614893 0.50127381 31 3 5928 9.57800000 3057415926 3057415926 3.00000000
2.78509068 1.65432334 -0.62966967 5 4 5929 3.30000000 3057415928 3057415928 -11.00000000
8.24886799 4.89781952 0.83930981 81 5 5930 9.63000000 3057415930 3057415930 5.00000000
3.50953102 2.08297873 -0.64638722 4 6 5931 4.13200000 3057415932 3057415932 -9.00000000
24.43572235 14.49733639 3.48863173 38 7 5932 28.62600000 3057415935 3057415935 7.00000000
4.70393276 2.78966045 -0.67150009 4 8 5933 5.51000000 3057415937 3057415937 -7.00000000
18.33985138 10.87209702 3.37679434 19 9 5934 21.58600000 3057415939 3057415939 9.00000000
6.68580770 3.96343184 -0.67998910 25 10 5934 7.80200000 3057415942 3057415942 -5.00000000
8.36215401 4.95521879 1.88939071 3 11 5935 9.90200000 3057415944 3057415944 11.00000000
8.22948742 4.87466335 -0.50127381 12 12 5936 9.57800000 3057415946 3057415946 -3.00000000
8.27857304 4.90178728 2.22116661 76 13 5937 9.87400000 3057415949 3057415949 13.00000000
8.23434544 4.87365913 -0.16701953 14 14 5938 9.57000000 3057415951 3057415951 -1.00000000
7.58092022 4.48691654 2.36042976 29 15 5938 9.12000000 3057415953 3057415953 15.00000000
1.96667635 1.16031110 -0.61184824 4 0 5946 2.36400000 3057415974 3057415974 -15.00000000
8.23337936 4.85563946 0.16684501 13 1 5947 9.56000000 3057415976 3057415976 1.00000000
2.32338452 1.36967063 -0.62266451 3 2 5948 2.76800000 3057415978 3057415978 -13.00000000
8.22591496 4.84930229 0.50043643 26 3 5948 9.56200000 3057415981 3057415981 3.00000000
2.78069997 1.63861120 -0.62737995 5 4 5949 3.28800000 3057415983 3057415983 -11.00000000
8.23844719 4.85281610 0.83652079 81 5 5950 9.59800000 3057415985 3057415985 5.00000000
3.51678061 2.07071543 -0.64638722 4 6 5951 4.13200000 3057415988 3057415988 -9.00000000
8.33484745 4.90568209 1.18749487 13 7 5952 9.74400000 3057415990 3057415990 7.00000000
4.73759460 2.78731632 -0.67491245 4 8 5953 5.53800000 3057415992 3057415992 -7.00000000
8.31448746 4.88979197 1.52773893 2 9 5954 9.76600000 3057415995 3057415995 9.00000000
8.34893513 4.90809011 1.88252151 3 11 5955 9.86600000 3057415999 3057415999 11.00000000
8.23612118 4.83983612 -0.50064576 12 12 5956 9.56600000 3057416002 3057416002 -3.00000000
8.28891182 4.86891174 2.21936703 75 13 5957 9.86600000 3057416004 3057416004 13.00000000
8.22716618 4.83071089 -0.16653086 14 14 5958 9.54200000 3057416006 3057416006 -1.00000000
7.60819769 4.46727371 2.36405325 42 15 5958 9.13400000 3057416008 3057416008 15.00000000
1.96944952 1.15177584 -0.61133057 4 0 5968 2.36200000 3057416029 3057416029 -15.00000000
8.22261429 4.80683327 0.16625163 13 1 5969 9.52600000 3057416031 3057416031 1.00000000
2.33872175 1.36663854 -0.62536395 3 2 5970 2.78000000 3057416034 3057416034 -13.00000000
8.23669147 4.81120586 0.49991307 21 3 5971 9.55200000 3057416036 3057416036 3.00000000
2.79375219 1.63188291 -0.62890643 5 4 5971 3.29600000 3057416038 3057416038 -11.00000000
8.23293209 4.80708265 0.83408046 81 5 5972 9.57000000 3057416041 3057416041 5.00000000
3.52470565 2.05719662 -0.64638722 4 6 5973 4.13200000 3057416043 3057416043 -9.00000000
24.52419090 14.30782223 3.48619437 14 7 5974 28.60600000 3057416045 3057416045 7.00000000
4.75340700 2.77210498 -0.67564362 6 8 5975 5.54400000 3057416048 3057416048 -7.00000000
18.43083191 10.74854374 3.37929726 29 9 5975 21.60200000 3057416050 3057416050 9.00000000
16.69642448 9.72925854 3.75626588 3 11 5977 19.68600000 3057416055 3057416055 11.00000000
8.23393440 4.79611301 -0.49938971 17 12 5978 9.54200000 3057416057 3057416057 -3.00000000
8.29407406 4.82920408 2.21576786 72 13 5979 9.85000000 3057416059 3057416059 13.00000000
8.21454525 4.78097916 -0.16590257 14 14 5980 9.50600000 3057416061 3057416061 -1.00000000
7.61605024 4.43086767 2.36094737 45 15 5981 9.12200000 3057416064 3057416064 15.00000000
1.97512901 1.14586353 -0.61184824 4 0 5988 2.36400000 3057416084 3057416084 -15.00000000
8.21858501 4.76606369 0.16583277 13 1 5989 9.50200000 3057416087 3057416087 1.00000000
2.34010601 1.35651195 -0.62446415 3 2 5990 2.77600000 3057416089 3057416089 -13.00000000
8.23877716 4.77585220 0.49907568 13 3 5990 9.53600000 3057416091 3057416091 3.00000000
2.79943132 1.62212098 -0.62890643 5 4 5991 3.29600000 3057416094 3057416094 -11.00000000
8.23586941 4.77032614 0.83268595 81 5 5992 9.55400000 3057416096 3057416096 5.00000000
3.52160788 2.03894186 -0.64450997 4 6 5993 4.12000000 3057416098 3057416098 -9.00000000
24.53618622 14.20025349 3.48083210 28 7 5994 28.56200000 3057416101 3057416101 7.00000000
4.77680063 2.76344800 -0.67759353 6 8 5995 5.56000000 3057416103 3057416103 -7.00000000
18.48378372 10.68883038 3.38180017 48 9 5996 21.61800000 3057416105 3057416105 9.00000000
16.64529800 9.62179184 3.73718500 11 11 5997 19.58600000 3057416110 3057416110 11.00000000
8.21776867 4.74835634 -0.49740094 17 12 5998 9.50400000 3057416112 3057416112 -3.00000000
8.29400539 4.79047632 2.21126890 70 13 5999 9.83000000 3057416114 3057416114 13.00000000
8.22598839 4.74927664 -0.16579786 16 14 6000 9.50000000 3057416117 3057416117 -1.00000000
7.62979746 4.40329027 2.36042976 45 15 6001 9.12000000 3057416119 3057416119 15.00000000
1.98708928 1.14447367 -0.61443639 4 0 6006 2.37400000 3057416140 3057416140 -15.00000000
8.21792030 4.73124123 0.16551863 13 1 6007 9.48400000 3057416142 3057416142 1.00000000
2.32408786 1.33748949 -0.61906528 3 2 6008 2.75200000 3057416144 3057416144 -13.00000000
8.23123646 4.73699522 0.49771494 10 3 6008 9.51000000 3057416147 3057416147 3.00000000
2.80451369 1.61331832 -0.62890643 5 4 6009 3.29600000 3057416149 3057416149 -11.00000000
8.23526955 4.73549032 0.83111715 77 5 6010 9.53600000 3057416151 3057416151 5.00000000
3.54169703 2.03574371 -0.64701295 4 6 6011 4.13600000 3057416154 3057416154 -9.00000000
24.53420448 14.09639931 3.47425127 14 7 6012 28.50800000 3057416156 3057416156 7.00000000
4.75275230 2.72964334 -0.67296249 4 8 6013 5.52200000 3057416158 3057416158 -7.00000000
18.54282379 10.64968109 3.38680625 50 9 6013 21.65000000 3057416161 3057416161 9.00000000
16.65160561 9.55577087 3.73184228 22 11 6015 19.55800000 3057416165 3057416165 11.00000000
8.21185589 4.71059036 -0.49614486 17 12 6016 9.48000000 3057416167 3057416167 -3.00000000
8.29210854 4.75470304 2.20676994 66 13 6017 9.81000000 3057416170 3057416170 13.00000000
8.22698879 4.71545506 -0.16551863 16 14 6018 9.48400000 3057416172 3057416172 -1.00000000
7.65029812 4.38314009 2.36250019 45 15 6019 9.12800000 3057416174 3057416174 15.00000000
1.98100770 1.13178051 -0.61133057 4 0 6026 2.36200000 3057416195 3057416195 -15.00000000
8.22049332 4.69459295 0.16523938 16 1 6027 9.46800000 3057416197 3057416197 1.00000000
2.34228158 1.33709764 -0.62266451 3 2 6028 2.76800000 3057416200 3057416200 -13.00000000
8.22864151 4.69734192 0.49656355 10 3 6028 9.48800000 3057416202 3057416202 3.00000000
2.80330729 1.59962678 -0.62737995 5 4 6029 3.28800000 3057416204 3057416204 -11.00000000
8.23617363 4.69783068 0.82954836 81 5 6030 9.51800000 3057416207 3057416207 5.00000000
3.54534936 2.02141166 -0.64638722 4 6 6031 4.13200000 3057416209 3057416209 -9.00000000
8.23696136 4.69446993 1.16409600 11 7 6032 9.55200000 3057416211 3057416211 7.00000000
4.75707674 2.71008849 -0.67223132 6 8 6033 5.51600000 3057416214 3057416214 -7.00000000
18.58160210 10.58586788 3.38711905 45 9 6033 21.65200000 3057416216 3057416216 9.00000000
6.69163275 3.81065083 -0.67371386 25 10 6034 7.73000000 3057416218 3057416218 -5.00000000
16.67632866 9.49273205 3.72993422 33 11 6035 19.54800000 3057416220 3057416220 11.00000000
8.21262550 4.67300749 -0.49520281 17 12 6036 9.46200000 3057416223 3057416223 -3.00000000
8.28832817 4.71416759 2.20137095 72 13 6037 9.78600000 3057416225 3057416225 13.00000000
8.22079945 4.67386055 -0.16506486 14 14 6038 9.45800000 3057416227 3057416227 -1.00000000
7.67058992 4.35927248 2.36405325 45 15 6039 9.13400000 3057416230 3057416230 15.00000000
1.98158491 1.12295377 -0.61029530 4 0 6046 2.35800000 3057416250 3057416250 -15.00000000
8.22117138 4.65699911 0.16492525 16 1 6047 9.45000000 3057416253 3057416253 1.00000000
2.35032606 1.33083379 -0.62356430 3 2 6048 2.77200000 3057416255 3057416255 -13.00000000
8.22587109 4.65776491 0.49541217 10 3 6048 9.46600000 3057416257 3057416257 3.00000000
2.80716538 1.58886468 -0.62699836 5 4 6049 3.28600000 3057416260 3057416260 -11.00000000
8.23171329 4.65727901 0.82745659 77 5 6050 9.49400000 3057416262 3057416262 5.00000000
3.54894495 2.00707889 -0.64576149 4 6 6051 4.12800000 3057416264 3057416264 -9.00000000
8.24811363 4.66275835 1.16336477 36 7 6052 9.54600000 3057416266 3057416266 7.00000000
4.76823616 2.69444346 -0.67247504 4 8 6053 5.51800000 3057416269 3057416269 -7.00000000
18.62187958 10.52288532 3.38774467 50 9 6053 21.65600000 3057416271 3057416271 9.00000000
6.67540264 3.77061152 -0.67075062 38 10 6054 7.69600000 3057416273 3057416273 -5.00000000
16.71961975 9.44025421 3.73222399 37 11 6055 19.56000000 3057416276 3057416276 11.00000000
8.22019100 4.63940334 -0.49467945 17 12 6056 9.45200000 3057416278 3057416278 -3.00000000
8.28776073 4.67563200 2.19687200 72 13 6057 9.76600000 3057416280 3057416280 13.00000000
8.21964645 4.63531351 -0.16471581 12 14 6058 9.43800000 3057416283 3057416283 -1.00000000
7.67827272 4.33001614 2.36198258 45 15 6058 9.12600000 3057416285 3057416285 15.00000000
1.98212457 1.11413670 -0.60926002 4 0 6066 2.35400000 3057416306 3057416306 -15.00000000
8.21994400 4.61847830 0.16457619 16 1 6067 9.43000000 3057416308 3057416308 1.00000000
2.35835552 1.32453001 -0.62446415 3 2 6068 2.77600000 3057416310 3057416310 -13.00000000
8.23337173 4.62413263 0.49488881 10 3 6068 9.45600000 3057416313 3057416313 3.00000000
2.81611848 1.58097827 -0.62776160 5 4 6069 3.29000000 3057416315 3057416315 -11.00000000
8.22359467 4.61486626 0.82501626 73 5 6070 9.46600000 3057416317 3057416317 5.00000000
3.55248380 1.99274564 -0.64513576 4 6 6071 4.12400000 3057416319 3057416319 -9.00000000
8.25395107 4.62811327 1.16190231 72 7 6072 9.53400000 3057416322 3057416322 7.00000000
4.79146576 2.68554711 -0.67442495 4 8 6073 5.53400000 3057416324 3057416324 -7.00000000
18.67056084 10.46457958 3.38993478 50 9 6073 21.67000000 3057416326 3057416326 9.00000000
16.75075722 9.38087559 3.73184228 41 11 6075 19.55800000 3057416331 3057416331 11.00000000
8.22413540 4.60385180 -0.49394676 17 12 6076 9.43800000 3057416333 3057416333 -3.00000000
8.28872585 4.63810921 2.19282293 74 13 6077 9.74800000 3057416336 3057416336 13.00000000
8.21832371 4.59683132 -0.16436677 12 14 6078 9.41800000 3057416338 3057416338 -1.00000000
7.69071913 4.29995918 2.36094737 45 15 6079 9.12200000 3057416340 3057416340 15.00000000
1.97944474 1.10310268 -0.60718948 4 0 6087 2.34600000 3057416361 3057416361 -15.00000000
8.21235847 4.57469559 0.16408752 16 1 6088 9.40200000 3057416363 3057416363 1.00000000
2.36659956 1.31777346 -0.62536395 3 2 6089 2.78000000 3057416366 3057416366 -13.00000000
8.24234104 4.58762836 0.49436545 13 3 6090 9.44600000 3057416368 3057416368 3.00000000
2.81503224 1.56682694 -0.62623513 5 4 6090 3.28200000 3057416370 3057416370 -11.00000000
8.22826672 4.57791376 0.82379609 77 5 6091 9.45200000 3057416372 3057416372 5.00000000
3.56321645 1.98163199 -0.64576149 4 6 6092 4.12800000 3057416375 3057416375 -9.00000000
8.24656773 4.58432674 1.15848994 81 7 6093 9.50600000 3057416377 3057416377 7.00000000
4.80474710 2.66989589 -0.67491245 4 8 6094 5.53800000 3057416379 3057416379 -7.00000000
18.72260284 10.40375328 3.39243770 50 9 6094 21.68600000 3057416382 3057416382 9.00000000
16.77816200 9.31560612 3.73031592 41 11 6096 19.55000000 3057416386 3057416386 11.00000000
8.21999836 4.56204748 -0.49269068 17 12 6097 9.41400000 3057416389 3057416389 -3.00000000
8.29033279 4.59919024 2.18877387 75 13 6098 9.73000000 3057416391 3057416391 13.00000000
8.21937752 4.55795097 -0.16405262 14 14 6099 9.40000000 3057416393 3057416393 -1.00000000
7.70568180 4.27308750 2.36094737 45 15 6099 9.12200000 3057416396 3057416396 15.00000000
1.99342787 1.10179353 -0.61029530 4 0 6107 2.35800000 3057416416 3057416416 -15.00000000
8.21077442 4.53633118 0.16373847 13 1 6108 9.38200000 3057416419 3057416419 1.00000000
2.36094952 1.30385184 -0.62266451 3 2 6109 2.76800000 3057416421 3057416421 -13.00000000
8.24081898 4.54917669 0.49331874 15 3 6110 9.42600000 3057416423 3057416423 3.00000000
2.83767200 1.56647909 -0.63005131 4 4 6110 3.30200000 3057416425 3057416425 -11.00000000
8.23547459 4.54435062 0.82292449 81 5 6111 9.44200000 3057416428 3057416428 5.00000000
3.57357121 1.97109008 -0.64638722 4 6 6112 4.13200000 3057416430 3057416430 -9.00000000
8.23296738 4.53921938 1.15434647 92 7 6113 9.47200000 3057416432 3057416432 7.00000000
4.80012894 2.64544296 -0.67296249 4 8 6114 5.52200000 3057416435 3057416435 -7.00000000
18.76060867 10.33506203 3.39243770 50 9 6115 21.68600000 3057416437 3057416437 9.00000000
16.80713844 9.25508785 3.72955251 41 11 6116 19.54600000 3057416442 3057416442 11.00000000
8.21312618 4.52080631 -0.49132997 17 12 6117 9.38800000 3057416444 3057416444 -3.00000000
8.27731133 4.55425358 2.18112540 75 13 6118 9.69600000 3057416446 3057416446 13.00000000
8.22297287 4.52248669 -0.16380829 16 14 6119 9.38600000 3057416449 3057416449 -1.00000000
7.72975636 4.24946928 2.36353540 45 15 6120 9.13200000 3057416451 3057416451 15.00000000
2.00196052 1.09831321 -0.61184824 4 0 6125 2.36400000 3057416472 3057416472 -15.00000000
8.21621799 4.50570631 0.16356395 16 1 6126 9.37200000 3057416474 3057416474 1.00000000
2.36161637 1.29455483 -0.62176472 3 2 6127 2.76400000 3057416476 3057416476 -13.00000000
8.22879696 4.50886869 0.49174863 15 3 6128 9.39600000 3057416478 3057416478 3.00000000
2.83224893 1.55189621 -0.62776160 4 4 6128 3.29000000 3057416481 3057416481 -11.00000000
8.23573017 4.51079893 0.82153004 81 5 6129 9.42600000 3057416483 3057416483 5.00000000
3.57974601 1.95985365 -0.64638722 4 6 6130 4.13200000 3057416485 3057416485 -9.00000000
8.23325634 4.50570869 1.15239656 87 7 6131 9.45600000 3057416488 3057416488 7.00000000
4.81538248 2.63416052 -0.67393744 4 8 6132 5.53000000 3057416490 3057416490 -7.00000000
18.79465675 10.28124905 3.39306355 50 9 6132 21.69000000 3057416492 3057416492 9.00000000
6.69878626 3.66292071 -0.66796160 34 10 6133 7.66400000 3057416495 3057416495 -5.00000000
16.83957672 9.20412445 3.73031592 41 11 6134 19.55000000 3057416497 3057416497 11.00000000
8.22027779 4.49115133 -0.49091128 17 12 6135 9.38000000 3057416499 3057416499 -3.00000000
8.26763344 4.51515055 2.17482686 74 13 6136 9.66800000 3057416502 3057416502 13.00000000
8.22309780 4.48896599 -0.16352905 14 14 6137 9.37000000 3057416504 3057416504 -1.00000000
7.74741745 4.22929335 2.36508846 45 15 6137 9.13800000 3057416506 3057416506 15.00000000
2.00408530 1.09039509 -0.61133057 4 0 6145 2.36200000 3057416527 3057416527 -15.00000000
8.21959877 4.47031116 0.16331962 13 1 6146 9.35800000 3057416529 3057416529 1.00000000
2.36612082 1.28630340 -0.62176472 3 2 6147 2.76400000 3057416531 3057416531 -13.00000000
8.23044682 4.47248840 0.49091128 10 3 6148 9.38000000 3057416534 3057416534 3.00000000
2.83419871 1.54012561 -0.62699836 5 4 6148 3.28600000 3057416536 3057416536 -11.00000000
8.23216724 4.47156286 0.81961262 81 5 6149 9.40400000 3057416538 3057416538 5.00000000
3.58309340 1.94546092 -0.64576149 4 6 6150 4.12800000 3057416541 3057416541 -9.00000000
8.23497677 4.46936655 1.15044665 90 7 6151 9.44000000 3057416543 3057416543 7.00000000
4.82105827 2.61544251 -0.67344999 4 8 6152 5.52600000 3057416545 3057416545 -7.00000000
6.68876266 3.62716842 -0.66569555 21 10 6153 7.63800000 3057416550 3057416550 -5.00000000
16.87850571 9.14902973 3.73184228 41 11 6154 19.55800000 3057416552 3057416552 11.00000000
8.21834373 4.45291519 -0.48986456 17 12 6155 9.36000000 3057416554 3057416554 -3.00000000
8.27477646 4.48162365 2.17257738 78 13 6156 9.65800000 3057416557 3057416557 13.00000000
8.20354652 4.44119406 -0.16283095 18 14 6157 9.33000000 3057416559 3057416559 -1.00000000
7.75607061 4.19719124 2.36301780 45 15 6158 9.13000000 3057416561 3057416561 15.00000000
2.00107861 1.07972348 -0.60926002 4 0 6165 2.35400000 3057416582 3057416582 -15.00000000
8.21403313 4.43020105 0.16290076 13 1 6166 9.33400000 3057416584 3057416584 1.00000000
2.37745786 1.28173542 -0.62356430 3 2 6167 2.77200000 3057416587 3057416587 -13.00000000
8.22666836 4.43330908 0.48975989 10 3 6168 9.35800000 3057416589 3057416589 3.00000000
2.83782911 1.52929163 -0.62661672 5 4 6168 3.28400000 3057416591 3057416591 -11.00000000
8.21966076 4.42768192 0.81682360 81 5 6169 9.37200000 3057416594 3057416594 5.00000000
3.59681964 1.93668783 -0.64701295 6 6 6170 4.13600000 3057416596 3057416596 -9.00000000
8.24703121 4.43871212 1.14995909 87 7 6171 9.43600000 3057416598 3057416598 7.00000000
4.83715105 2.60235977 -0.67442495 4 8 6172 5.53400000 3057416601 3057416601 -7.00000000
17.84482956 9.60041714 3.20940948 18 9 6172 20.51600000 3057416603 3057416603 9.00000000
6.68559027 3.59530520 -0.66412675 12 10 6173 7.62000000 3057416605 3057416605 -5.00000000
16.90342331 9.08633900 3.73031592 41 11 6174 19.55000000 3057416607 3057416607 11.00000000
8.21976280 4.41663790 -0.48902717 17 12 6175 9.34400000 3057416610 3057416610 -3.00000000
8.27835178 4.44625711 2.16942787 73 13 6176 9.64400000 3057416612 3057416612 13.00000000
8.20842838 4.40685606 -0.16262153 16 14 6177 9.31800000 3057416614 3057416614 -1.00000000
7.75973415 4.16596556 2.35991216 45 15 6177 9.11800000 3057416617 3057416617 15.00000000
2.00483537 1.07273173 -0.60926002 4 0 6185 2.35400000 3057416637 3057416637 -15.00000000
8.20828724 4.39018440 0.16248190 12 1 6186 9.31000000 3057416640 3057416640 1.00000000
2.37504315 1.26975358 -0.62176472 3 2 6187 2.76400000 3057416642 3057416642 -13.00000000
8.23857021 4.40268326 0.48955053 10 3 6188 9.35400000 3057416644 3057416644 3.00000000
2.84488177 1.52030170 -0.62699836 4 4 6188 3.28600000 3057416647 3057416647 -11.00000000
8.22100639 4.39145279 0.81542915 81 5 6189 9.35600000 3057416649 3057416649 5.00000000
3.58613253 1.91481650 -0.64388424 6 6 6190 4.11600000 3057416651 3057416651 -9.00000000
8.23795700 4.39681196 1.14654684 87 7 6191 9.40800000 3057416654 3057416654 7.00000000
4.84970856 2.58732796 -0.67491245 4 8 6192 5.53800000 3057416656 3057416656 -7.00000000
17.85200882 9.52007580 3.20440364 36 9 6193 20.48400000 3057416658 3057416658 9.00000000
6.68403530 3.56444621 -0.66273224 100 10 6193 7.60400000 3057416660 3057416660 -5.00000000
16.92117691 9.01989174 3.72726297 41 11 6194 19.53400000 3057416663 3057416663 11.00000000
8.21397781 4.37664843 -0.48777112 17 12 6195 9.32000000 3057416665 3057416665 -3.00000000
8.27834225 4.40908861 2.16537881 68 13 6196 9.62600000 3057416667 3057416667 13.00000000
8.21493530 4.37347746 -0.16244701 16 14 6197 9.30800000 3057416670 3057416670 -1.00000000
7.77495098 4.13749647 2.35991216 45 15 6198 9.11800000 3057416672 3057416672 15.00000000
2.00838161 1.06607759 -0.60926002 4 0 6204 2.35400000 3057416693 3057416693 -15.00000000
8.20690250 4.35450506 0.16216776 12 1 6205 9.29200000 3057416695 3057416695 1.00000000
2.37579775 1.26004446 -0.62086493 3 2 6206 2.76000000 3057416697 3057416697 -13.00000000
8.22489071 4.36037064 0.48787579 10 3 6207 9.32200000 3057416700 3057416700 3.00000000
2.85337663 1.51269853 -0.62776160 5 4 6207 3.29000000 3057416702 3057416702 -11.00000000
8.22496128 4.35856962 0.81438327 81 5 6208 9.34400000 3057416704 3057416704 5.00000000
3.59595394 1.90476322 -0.64450997 6 6 6209 4.12000000 3057416707 3057416707 -9.00000000
8.23143959 4.35832310 1.14362192 87 7 6210 9.38400000 3057416709 3057416709 7.00000000
4.86527967 2.57494593 -0.67588741 4 8 6211 5.54600000 3057416711 3057416711 -7.00000000
17.85214806 9.44823647 3.19908476 31 9 6211 20.45000000 3057416713 3057416713 9.00000000
16.95099449 8.96372890 3.72726297 41 11 6213 19.53400000 3057416718 3057416718 11.00000000
8.21078873 4.34005213 -0.48672441 17 12 6214 9.30000000 3057416720 3057416720 -3.00000000
8.27913380 4.37432957 2.16177964 68 13 6215 9.61000000 3057416723 3057416723 13.00000000
8.21524715 4.33874083 -0.16216776 16 14 6216 9.29200000 3057416725 3057416725 -1.00000000
7.78791094 4.11305046 2.35991216 45 15 6216 9.11800000 3057416727 3057416727 15.00000000
2.02234769 1.06445932 -0.61236584 4 0 6224 2.36600000 3057416748 3057416748 -15.00000000
8.20435524 4.31652021 0.16181871 12 1 6225 9.27200000 3057416750 3057416750 1.00000000
2.38708067 1.25537205 -0.62266451 3 2 6226 2.76800000 3057416753 3057416753 -13.00000000
8.21177483 4.31676483 0.48620105 10 3 6227 9.29000000 3057416755 3057416755 3.00000000
2.85690188 1.50181568 -0.62737995 5 4 6227 3.28800000 3057416757 3057416757 -11.00000000
8.23130703 4.32519865 0.81351173 81 5 6228 9.33400000 3057416760 3057416760 5.00000000
3.60607839 1.89403641 -0.64513576 6 6 6229 4.12400000 3057416762 3057416762 -9.00000000
8.23781490 4.32494974 1.14240324 83 7 6230 9.37400000 3057416764 3057416764 7.00000000
4.85666084 2.54872274 -0.67344999 4 8 6231 5.52600000 3057416766 3057416766 -7.00000000
17.85167122 9.36438942 3.19282746 18 9 6232 20.41000000 3057416769 3057416769 9.00000000
6.70990705 3.51979256 -0.66290659 98 10 6232 7.60600000 3057416771 3057416771 -5.00000000
16.98565865 8.90632820 3.72802615 41 11 6233 19.53800000 3057416773 3057416773 11.00000000
8.20819759 4.30209303 -0.48567766 17 12 6234 9.28000000 3057416776 3057416776 -3.00000000
8.27363777 4.33455086 2.15638089 72 13 6235 9.58600000 3057416778 3057416778 13.00000000
8.20731354 4.29797792 -0.16171400 14 14 6236 9.26600000 3057416780 3057416780 -1.00000000
7.80977964 4.08806229 2.36198258 45 15 6237 9.12600000 3057416783 3057416783 15.00000000
2.01938438 1.05346584 -0.61029530 4 0 6245 2.35800000 3057416803 3057416803 -15.00000000
8.21834850 4.28549623 0.16178381 12 1 6246 9.27000000 3057416806 3057416806 1.00000000
2.39857817 1.25021744 -0.62446415 3 2 6247 2.77600000 3057416808 3057416808 -13.00000000
8.21514320 4.28017807 0.48546833 13 3 6248 9.27600000 3057416810 3057416810 3.00000000
2.85716367 1.48861313 -0.62623513 5 4 6248 3.28200000 3057416813 3057416813 -11.00000000
8.22413158 4.28303671 0.81124568 78 5 6249 9.30800000 3057416815 3057416815 5.00000000
