# .PCD v0.7 - Point Cloud Data file format
VERSION 0.7
FIELDS x y z intensity laser_id azimuth distance_m adjustedtime timestamp vertical_angle
SIZE 4 4 4 1 1 2 8 8 4 8
TYPE F F F U U U F U U F
COUNT 1 1 1 1 1 1 1 1 1 1
WIDTH 529
HEIGHT 1
VIEWPOINT 0 0 0 1 0 0 0
POINTS 529
DATA ascii
2.51001000 -3.71844244 -0.55084944 6 8 14598 4.52000000 3057140120 3057140120 -7.00000000
3.34982538 -4.96258307 0.94830573 67 9 14598 6.06200000 3057140123 3057140123 9.00000000
3.35551333 -4.97288084 -0.52485186 11 10 14599 6.02200000 3057140125 3057140125 -5.00000000
3.34401417 -4.95770502 1.16240835 12 11 14600 6.09200000 3057140127 3057140127 11.00000000
3.36420751 -4.98952103 -0.31537646 9 12 14601 6.02600000 3057140129 3057140129 -3.00000000
3.33064413 -4.94160271 1.37580061 9 13 14602 6.11600000 3057140132 3057140132 13.00000000
3.34980726 -4.97190666 -0.10464463 9 14 14603 5.99600000 3057140134 3057140134 -1.00000000
3.31841493 -4.92716885 1.59173715 9 15 14604 6.15000000 3057140136 3057140136 15.00000000
1.14614177 -1.70628214 -0.55076694 4 0 14611 2.12800000 3057140157 3057140157 -15.00000000
3.33753419 -4.97052193 0.10450501 11 1 14612 5.98800000 3057140159 3057140159 1.00000000
1.41295528 -2.10507941 -0.58532262 11 2 14613 2.60200000 3057140162 3057140162 -13.00000000
3.34039307 -4.97665596 0.31412041 10 3 14613 6.00200000 3057140164 3057140164 3.00000000
1.45592451 -2.16991496 -0.50793356 47 4 14614 2.66200000 3057140166 3057140166 -11.00000000
3.32607627 -4.95906639 0.52241153 9 5 14615 5.99400000 3057140169 3057140169 5.00000000
1.91626811 -2.85816860 -0.54501766 3 6 14616 3.48400000 3057140171 3057140171 -9.00000000
3.32985234 -4.96844435 0.73438466 10 7 14617 6.02600000 3057140173 3057140173 7.00000000
2.50364423 -3.73707652 -0.55231184 6 8 14618 4.53200000 3057140176 3057140176 -7.00000000
3.31928873 -4.95455217 0.94455129 55 9 14618 6.03800000 3057140178 3057140178 9.00000000
3.33813453 -4.98456335 -0.52485186 11 10 14619 6.02200000 3057140180 3057140180 -5.00000000
3.31139827 -4.94650745 1.15706575 12 11 14620 6.06400000 3057140182 3057140182 11.00000000
3.33566260 -4.98463535 -0.31432974 13 12 14621 6.00600000 3057140185 3057140185 -3.00000000
3.31120729 -4.94995928 1.37490082 9 13 14622 6.11200000 3057140187 3057140187 13.00000000
3.32576227 -4.97359562 -0.10443520 9 14 14623 5.98400000 3057140189 3057140189 -1.00000000
3.30012226 -4.93711615 1.59121954 9 15 14624 6.14800000 3057140192 3057140192 15.00000000
1.16972399 -1.75326407 -0.56474316 5 0 14629 2.18200000 3057140212 3057140212 -15.00000000
3.31080723 -4.96434593 0.10415597 11 1 14630 5.96800000 3057140215 3057140215 1.00000000
1.40309203 -2.10464358 -0.58397293 9 2 14631 2.59600000 3057140217 3057140217 -13.00000000
3.30923176 -4.96386003 0.31265500 9 3 14631 5.97400000 3057140219 3057140219 3.00000000
1.44365668 -2.16630960 -0.50602543 32 4 14632 2.65200000 3057140222 3057140222 -11.00000000
3.30164361 -4.95622587 0.52101701 9 5 14633 5.97800000 3057140224 3057140224 5.00000000
1.91056406 -2.86910725 -0.54595625 3 6 14634 3.49000000 3057140226 3057140226 -9.00000000
3.30212736 -4.96070385 0.73170352 10 7 14635 6.00400000 3057140228 3057140228 7.00000000
2.48089457 -3.72839689 -0.54987448 6 8 14636 4.51200000 3057140231 3057140231 -7.00000000
3.30151868 -4.96166658 0.94392556 57 9 14636 6.03400000 3057140233 3057140233 9.00000000
3.31583786 -4.98507261 -0.52380604 15 10 14637 6.01000000 3057140235 3057140235 -5.00000000
3.28605866 -4.94217253 1.15363121 12 11 14638 6.04600000 3057140238 3057140238 11.00000000
3.30782533 -4.97679281 -0.31317836 12 12 14639 5.98400000 3057140240 3057140240 -3.00000000
3.28269935 -4.94085979 1.36950207 9 13 14640 6.08800000 3057140242 3057140242 13.00000000
3.30680180 -4.97902203 -0.10433049 9 14 14641 5.97800000 3057140245 3057140245 -1.00000000
3.27477121 -4.93079376 1.58604312 9 15 14641 6.12800000 3057140247 3057140247 15.00000000
1.17106259 -1.76861179 -0.56836665 6 0 14649 2.19600000 3057140268 3057140268 -15.00000000
3.29235458 -4.97420502 0.10412106 11 1 14650 5.96600000 3057140270 3057140270 1.00000000
1.38068283 -2.08677530 -0.57767433 7 2 14651 2.56800000 3057140272 3057140272 -13.00000000
3.28196573 -4.96039009 0.31171295 9 3 14651 5.95600000 3057140275 3057140275 3.00000000
1.39601433 -2.11074805 -0.49190560 40 4 14652 2.57800000 3057140277 3057140277 -11.00000000
3.27773023 -4.95774841 0.51997113 12 5 14653 5.96600000 3057140279 3057140279 5.00000000
1.91578531 -2.89883089 -0.55033642 3 6 14654 3.51800000 3057140281 3057140281 -9.00000000
3.27932000 -4.96391869 0.73048484 10 7 14655 5.99400000 3057140284 3057140284 7.00000000
2.46895885 -3.73869061 -0.55011821 6 8 14656 4.51400000 3057140286 3057140286 -7.00000000
3.27002788 -4.95173168 0.93985826 52 9 14656 6.00800000 3057140288 3057140288 9.00000000
3.28744006 -4.97998857 -0.52206290 15 10 14657 5.99000000 3057140291 3057140291 -5.00000000
3.26770616 -4.95197439 1.15324962 12 11 14658 6.04400000 3057140293 3057140293 11.00000000
3.29263258 -4.99164343 -0.31338769 12 12 14659 5.98800000 3057140295 3057140295 -3.00000000
3.25577784 -4.93764639 1.36545289 9 13 14660 6.07000000 3057140298 3057140298 13.00000000
3.27729607 -4.97216845 -0.10394653 9 14 14661 5.95600000 3057140300 3057140300 -1.00000000
3.25136232 -4.93469715 1.58345497 9 15 14662 6.11800000 3057140302 3057140302 15.00000000
1.14048088 -1.73555601 -0.55646098 4 0 14669 2.15000000 3057140323 3057140323 -15.00000000
3.26948190 -4.97731066 0.10394653 11 1 14670 5.95600000 3057140325 3057140325 1.00000000
1.33060539 -2.02642393 -0.55967820 4 2 14671 2.48800000 3057140328 3057140328 -13.00000000
3.25828314 -4.96403742 0.31118959 9 3 14672 5.94600000 3057140330 3057140330 3.00000000
1.36278272 -2.07621741 -0.48274675 41 4 14672 2.53000000 3057140332 3057140332 -11.00000000
3.25603271 -4.96249628 0.51927394 12 5 14673 5.95800000 3057140334 3057140334 5.00000000
1.89807117 -2.89393806 -0.54814637 1 6 14674 3.50400000 3057140337 3057140337 -9.00000000
3.25761914 -4.96869469 0.72950989 10 7 14675 5.98600000 3057140339 3057140339 7.00000000
2.45589352 -3.74728608 -0.55011821 6 8 14676 4.51400000 3057140341 3057140341 -7.00000000
3.23864675 -4.94163799 0.93579096 11 9 14676 5.98200000 3057140344 3057140344 9.00000000
3.27003670 -4.99143362 -0.52206290 15 10 14677 5.99000000 3057140346 3057140346 -5.00000000
3.25040054 -4.96335030 1.15324962 12 11 14678 6.04400000 3057140348 3057140348 11.00000000
3.26424909 -4.98639584 -0.31234097 12 12 14679 5.96800000 3057140351 3057140351 -3.00000000
3.22998595 -4.93593597 1.36185372 9 13 14680 6.05400000 3057140353 3057140353 13.00000000
3.24349999 -4.95847607 -0.10342296 9 14 14681 5.92600000 3057140355 3057140355 -1.00000000
3.22757769 -4.93413496 1.57983148 9 15 14681 6.10400000 3057140358 3057140358 15.00000000
1.12491822 -1.72496295 -0.55180222 4 0 14689 2.13200000 3057140378 3057140378 -15.00000000
3.24116755 -4.97194099 0.10359748 11 1 14690 5.93600000 3057140381 3057140381 1.00000000
1.31182063 -2.01309657 -0.55472928 4 2 14691 2.46600000 3057140383 3057140383 -13.00000000
3.23657513 -4.96868658 0.31077090 9 3 14692 5.93800000 3057140385 3057140385 3.00000000
1.38874555 -2.13195777 -0.49457690 47 4 14692 2.59200000 3057140387 3057140387 -11.00000000
3.22346997 -4.95045710 0.51683354 12 5 14693 5.93000000 3057140390 3057140390 5.00000000
1.87825954 -2.88564587 -0.54533052 1 6 14694 3.48600000 3057140392 3057140392 -9.00000000
3.23592496 -4.97338009 0.72853494 10 7 14695 5.97800000 3057140394 3057140394 7.00000000
2.44388032 -3.75750017 -0.55036193 4 8 14696 4.51600000 3057140397 3057140397 -7.00000000
3.22158980 -4.95513105 0.93610382 9 9 14697 5.98400000 3057140399 3057140399 9.00000000
3.23521733 -4.97609186 -0.51927394 15 10 14697 5.95800000 3057140401 3057140401 -5.00000000
3.22449660 -4.96149683 1.15019667 12 11 14698 6.02800000 3057140404 3057140404 11.00000000
3.24029493 -4.98771095 -0.31171295 12 12 14699 5.95600000 3057140406 3057140406 -3.00000000
3.21273661 -4.94718027 1.36185372 9 13 14700 6.05400000 3057140408 3057140408 13.00000000
3.22290564 -4.96473598 -0.10331824 9 14 14701 5.92000000 3057140411 3057140411 -1.00000000
3.19790411 -4.92810583 1.57413745 9 15 14702 6.08200000 3057140413 3057140413 15.00000000
1.12278569 -1.73556244 -0.55387276 4 0 14710 2.14000000 3057140434 3057140434 -15.00000000
3.20446253 -4.95524120 0.10300411 11 1 14711 5.90200000 3057140436 3057140436 1.00000000
1.29808581 -2.00807166 -0.55202991 3 2 14712 2.45400000 3057140438 3057140438 -13.00000000
3.21400642 -4.97380590 0.31035221 9 3 14713 5.93000000 3057140440 3057140440 3.00000000
1.42034662 -2.19804430 -0.50869679 41 4 14713 2.66600000 3057140443 3057140443 -11.00000000
3.19881773 -4.95219660 0.51578766 12 5 14714 5.91800000 3057140445 3057140445 5.00000000
1.87517118 -2.90412712 -0.54752064 1 6 14715 3.50000000 3057140447 3057140447 -9.00000000
3.20583320 -4.96686077 0.72585380 10 7 14716 5.95600000 3057140450 3057140450 7.00000000
2.43224430 -3.76976824 -0.55084944 4 8 14717 4.52000000 3057140452 3057140452 -7.00000000
3.19570589 -4.95306730 0.93360090 9 9 14717 5.96800000 3057140454 3057140454 9.00000000
3.21047807 -4.97786951 -0.51822805 15 10 14718 5.94600000 3057140457 3057140457 -5.00000000
3.19246078 -4.95183134 1.14523554 12 11 14719 6.00200000 3057140459 3057140459 11.00000000
3.20684528 -4.97604990 -0.31024754 12 12 14720 5.92800000 3057140461 3057140461 -3.00000000
3.18402910 -4.94254017 1.35735464 9 13 14721 6.03400000 3057140464 3057140464 13.00000000
3.20035648 -4.96979046 -0.10317863 9 14 14722 5.91200000 3057140466 3057140466 -1.00000000
3.17754459 -4.93436575 1.57258451 9 15 14722 6.07600000 3057140468 3057140468 15.00000000
1.13759398 -1.77198470 -0.56422549 5 0 14730 2.18000000 3057140489 3057140489 -15.00000000
3.18282580 -4.95966482 0.10286448 11 1 14731 5.89400000 3057140491 3057140491 1.00000000
1.28475511 -2.00274920 -0.54933047 3 2 14732 2.44200000 3057140493 3057140493 -13.00000000
3.18799996 -4.97154427 0.30951485 9 3 14733 5.91400000 3057140496 3057140496 3.00000000
1.42220330 -2.21786284 -0.51213133 35 4 14733 2.68400000 3057140498 3057140498 -11.00000000
3.18043661 -4.96165514 0.51561338 12 5 14734 5.91600000 3057140500 3057140500 5.00000000
1.86182523 -2.90566540 -0.54658204 1 6 14735 3.49400000 3057140503 3057140503 -9.00000000
3.17562795 -4.95796156 0.72292894 10 7 14736 5.93200000 3057140505 3057140505 7.00000000
2.40408516 -3.75483036 -0.54743707 4 8 14737 4.49200000 3057140507 3057140507 -7.00000000
3.17433596 -4.95975542 0.93266231 9 9 14738 5.96200000 3057140510 3057140510 9.00000000
3.18878627 -4.98233366 -0.51753080 15 10 14738 5.93800000 3057140512 3057140512 -5.00000000
3.15505362 -4.93152332 1.13798487 21 11 14739 5.96400000 3057140514 3057140514 11.00000000
3.17869544 -4.97038746 -0.30920082 12 12 14740 5.90800000 3057140516 3057140516 -3.00000000
3.15835977 -4.94048929 1.35375547 9 13 14741 6.01800000 3057140519 3057140519 13.00000000
3.17437506 -4.96745110 -0.10289939 9 14 14742 5.89600000 3057140521 3057140521 -1.00000000
3.15319800 -4.93621063 1.56947863 9 15 14743 6.06400000 3057140523 3057140523 15.00000000
1.15455341 -1.81158805 -0.57561356 8 0 14749 2.22400000 3057140544 3057140544 -15.00000000
3.16098928 -4.96175957 0.10268996 11 1 14750 5.88400000 3057140546 3057140546 1.00000000
1.28962123 -2.02507973 -0.55427939 4 2 14751 2.46400000 3057140549 3057140549 -13.00000000
3.15326309 -4.95344639 0.30773541 9 3 14752 5.88000000 3057140551 3057140551 3.00000000
1.41484070 -2.22256684 -0.51213133 36 4 14752 2.68400000 3057140553 3057140553 -11.00000000
3.15861750 -4.96376991 0.51474184 12 5 14753 5.90600000 3057140556 3057140556 5.00000000
1.85960090 -2.92349076 -0.54877210 3 6 14754 3.50800000 3057140558 3057140558 -9.00000000
3.15277863 -4.95841455 0.72146654 10 7 14755 5.92000000 3057140560 3057140560 7.00000000
2.38523149 -3.75272989 -0.54597467 4 8 14756 4.48000000 3057140563 3057140563 -7.00000000
3.14390397 -4.94636393 0.92828214 14 9 14756 5.93400000 3057140565 3057140565 9.00000000
3.16797280 -4.98615408 -0.51683354 15 10 14757 5.93000000 3057140567 3057140567 -5.00000000
3.13552523 -4.93698692 1.13683999 45 11 14758 5.95800000 3057140569 3057140569 11.00000000
3.15363193 -4.96741199 -0.30836347 12 12 14759 5.89200000 3057140572 3057140572 -3.00000000
3.13047314 -4.93283653 1.34880650 8 13 14760 5.99600000 3057140574 3057140574 13.00000000
3.15145779 -4.96781874 -0.10268996 9 14 14761 5.88400000 3057140576 3057140576 -1.00000000
3.13146567 -4.93630457 1.56637287 9 15 14761 6.05200000 3057140579 3057140579 15.00000000
1.10278952 -1.74376667 -0.55283749 4 0 14769 2.13600000 3057140599 3057140599 -15.00000000
3.14365029 -4.97276306 0.10268996 11 1 14770 5.88400000 3057140602 3057140602 1.00000000
1.28879058 -2.03945327 -0.55697882 4 2 14771 2.47600000 3057140604 3057140604 -13.00000000
3.13488650 -4.96273470 0.30763075 9 3 14772 5.87800000 3057140606 3057140606 3.00000000
1.40392840 -2.22251248 -0.51098651 27 4 14772 2.67800000 3057140609 3057140609 -11.00000000
3.13488889 -4.96465731 0.51369596 12 5 14773 5.89400000 3057140611 3057140611 5.00000000
1.84516716 -2.92328238 -0.54752064 1 6 14774 3.50000000 3057140613 3057140613 -9.00000000
3.12485862 -4.95260096 0.71902913 10 7 14775 5.90000000 3057140616 3057140616 7.00000000
2.38800216 -3.78621864 -0.54963076 4 8 14776 4.51000000 3057140618 3057140618 -7.00000000
3.11732554 -4.94448566 0.92577916 19 9 14777 5.91800000 3057140620 3057140620 9.00000000
3.13567257 -4.97358656 -0.51439321 15 10 14777 5.90200000 3057140622 3057140622 -5.00000000
3.11722612 -4.94624090 1.13645840 57 11 14778 5.95600000 3057140625 3057140625 11.00000000
3.12988567 -4.96825075 -0.30773541 12 12 14779 5.88000000 3057140627 3057140627 -3.00000000
3.10700464 -4.93383980 1.34610713 8 13 14780 5.98400000 3057140629 3057140629 13.00000000
3.11918354 -4.95509672 -0.10220129 9 14 14781 5.85600000 3057140632 3057140632 -1.00000000
3.10615015 -4.93630314 1.56274939 9 15 14782 6.03800000 3057140634 3057140634 15.00000000
1.08848095 -1.73451471 -0.54869640 4 0 14789 2.12000000 3057140655 3057140655 -15.00000000
3.11033344 -4.95829630 0.10216638 11 1 14790 5.85400000 3057140657 3057140657 1.00000000
1.28373432 -2.04724145 -0.55787861 4 2 14791 2.48000000 3057140659 3057140659 -13.00000000
3.11117959 -4.96349335 0.30700272 7 3 14792 5.86600000 3057140662 3057140662 3.00000000
1.41805840 -2.26233268 -0.51900047 11 4 14792 2.72000000 3057140664 3057140664 -11.00000000
3.10484552 -4.95530987 0.51160419 12 5 14793 5.87000000 3057140666 3057140666 5.00000000
1.83914590 -2.93640184 -0.54877210 1 6 14794 3.50800000 3057140669 3057140669 -9.00000000
3.11176538 -4.97020864 0.72000408 10 7 14795 5.90800000 3057140671 3057140671 7.00000000
2.37477136 -3.79453111 -0.54963076 4 8 14796 4.51000000 3057140673 3057140673 -7.00000000
3.09357619 -4.94307470 0.92358911 9 9 14796 5.90400000 3057140675 3057140675 9.00000000
3.10138535 -4.95747614 -0.51160419 15 10 14797 5.87000000 3057140678 3057140678 -5.00000000
3.09473658 -4.94876909 1.13455033 57 11 14798 5.94600000 3057140680 3057140680 11.00000000
3.10828924 -4.97237158 -0.30731672 12 12 14799 5.87200000 3057140682 3057140682 -3.00000000
3.08666539 -4.93969727 1.34475744 9 13 14800 5.97800000 3057140685 3057140685 13.00000000
3.09974909 -4.96256256 -0.10213149 9 14 14801 5.85200000 3057140687 3057140687 -1.00000000
3.08055282 -4.93182993 1.55809069 9 15 14801 6.02000000 3057140689 3057140689 15.00000000
1.08139861 -1.73666382 -0.54817873 4 0 14809 2.11800000 3057140710 3057140710 -15.00000000
3.08666658 -4.95893717 0.10195696 11 1 14810 5.84200000 3057140712 3057140712 1.00000000
1.27143276 -2.04343700 -0.55562907 7 2 14811 2.47000000 3057140715 3057140715 -13.00000000
3.09067035 -4.96923542 0.30668870 9 3 14812 5.86000000 3057140717 3057140717 3.00000000
1.49206603 -2.39897037 -0.54914826 5 4 14812 2.87800000 3057140719 3057140719 -11.00000000
3.08226967 -4.95765734 0.51073265 12 5 14813 5.86000000 3057140722 3057140722 5.00000000
1.82262862 -2.93273711 -0.54689491 1 6 14814 3.49600000 3057140724 3057140724 -9.00000000
3.08182669 -4.96080589 0.71707922 10 7 14815 5.88400000 3057140726 3057140726 7.00000000
2.35836983 -3.79773855 -0.54889953 4 8 14816 4.50400000 3057140728 3057140728 -7.00000000
3.07647991 -4.95605803 0.92390198 9 9 14817 5.90600000 3057140731 3057140731 9.00000000
3.08406162 -4.96827173 -0.51160419 15 10 14817 5.87000000 3057140733 3057140733 -5.00000000
3.08038592 -4.96621847 -0.30627000 12 12 14819 5.85200000 3057140738 3057140738 -3.00000000
3.06632304 -4.94547272 1.34340775 8 13 14820 5.97200000 3057140740 3057140740 13.00000000
3.07398009 -4.95975494 -0.10185225 9 14 14821 5.83600000 3057140742 3057140742 -1.00000000
3.05533409 -4.93159199 1.55446720 9 15 14822 6.00600000 3057140745 3057140745 15.00000000
1.08040702 -1.74864531 -0.55076694 4 0 14829 2.12800000 3057140765 3057140765 -15.00000000
3.06723619 -4.96627855 0.10188715 11 1 14830 5.83800000 3057140768 3057140768 1.00000000
1.27350557 -2.06278634 -0.55967820 6 2 14831 2.48800000 3057140770 3057140770 -13.00000000
3.06071877 -4.95959759 0.30543265 9 3 14832 5.83600000 3057140772 3057140772 3.00000000
1.50430393 -2.43757844 -0.55678064 8 4 14832 2.91800000 3057140775 3057140775 -11.00000000
3.06180716 -4.96329927 0.51020974 12 5 14833 5.85400000 3057140777 3057140777 5.00000000
1.79475427 -2.91049767 -0.54157615 3 6 14834 3.46200000 3057140779 3057140779 -9.00000000
3.05199194 -4.95125532 0.71415436 10 7 14835 5.86000000 3057140781 3057140781 7.00000000
2.33572674 -3.79073739 -0.54670590 4 8 14836 4.48600000 3057140784 3057140784 -7.00000000
3.05588317 -4.95950603 0.92265046 9 9 14836 5.89800000 3057140786 3057140786 9.00000000
3.05416179 -4.95864964 -0.50951248 14 10 14837 5.84600000 3057140788 3057140788 -5.00000000
3.04055595 -4.93848944 1.12729955 12 11 14838 5.90800000 3057140791 3057140791 11.00000000
3.05151677 -4.95823050 -0.30511862 9 12 14839 5.83000000 3057140793 3057140793 -3.00000000
3.03474593 -4.93290901 1.33710909 8 13 14840 5.94400000 3057140795 3057140795 13.00000000
3.05245852 -4.96364117 -0.10171262 9 14 14841 5.82800000 3057140798 3057140798 -1.00000000
3.02985573 -4.92688656 1.54980838 8 15 14841 5.98800000 3057140800 3057140800 15.00000000
1.07833529 -1.75899398 -0.55283749 4 0 14849 2.13600000 3057140821 3057140821 -15.00000000
3.04152322 -4.96331501 0.10160791 11 1 14850 5.82200000 3057140823 3057140823 1.00000000
1.24593890 -2.03398418 -0.55068016 4 2 14851 2.44800000 3057140825 3057140825 -13.00000000
3.03504419 -4.95662451 0.30459526 9 3 14852 5.82000000 3057140828 3057140828 3.00000000
1.48655915 -2.42774582 -0.55334610 11 4 14852 2.90000000 3057140830 3057140830 -11.00000000
3.03822255 -4.96376085 0.50916386 12 5 14853 5.84200000 3057140832 3057140832 5.00000000
1.75262415 -2.86450958 -0.53187716 4 6 14854 3.40000000 3057140834 3057140834 -9.00000000
3.02951145 -4.95341110 0.71293569 10 7 14855 5.85000000 3057140837 3057140837 7.00000000
2.32455134 -3.80225468 -0.54719335 4 8 14856 4.49000000 3057140839 3057140839 -7.00000000
3.02618837 -4.94991827 0.91889602 9 9 14856 5.87400000 3057140841 3057140841 9.00000000
3.04099011 -4.97608089 -0.51020974 15 10 14857 5.85400000 3057140844 3057140844 -5.00000000
3.02329874 -4.94907284 1.12729955 12 11 14858 5.90800000 3057140846 3057140846 11.00000000
3.03939509 -4.97737503 -0.30564198 12 12 14859 5.84000000 3057140848 3057140848 -3.00000000
3.00532460 -4.92351198 1.33171022 8 13 14860 5.92000000 3057140851 3057140851 13.00000000
3.03094721 -4.96743822 -0.10157301 9 14 14861 5.82000000 3057140853 3057140853 -1.00000000
3.01565790 -4.94237995 1.55136132 8 15 14861 5.99400000 3057140855 3057140855 15.00000000
1.06817293 -1.75614536 -0.55076694 4 0 14869 2.12800000 3057140876 3057140876 -15.00000000
3.01586866 -4.96023226 0.10132867 11 1 14870 5.80600000 3057140878 3057140878 1.00000000
1.23984349 -2.03998613 -0.55113006 3 2 14871 2.45000000 3057140881 3057140881 -13.00000000
3.00839067 -4.95182657 0.30365321 9 3 14872 5.80200000 3057140883 3057140883 3.00000000
1.46380460 -2.40942979 -0.54800344 3 4 14872 2.87200000 3057140885 3057140885 -11.00000000
3.00433016 -4.94708872 0.50637484 12 5 14873 5.81000000 3057140887 3057140887 5.00000000
1.72928858 -2.84865832 -0.52780986 13 6 14874 3.37400000 3057140890 3057140890 -9.00000000
3.00705338 -4.95547056 0.71171695 10 7 14875 5.84000000 3057140892 3057140892 7.00000000
2.31332374 -3.81374025 -0.54768085 2 8 14876 4.49400000 3057140894 3057140894 -7.00000000
2.99778366 -4.94408512 0.91576737 9 9 14877 5.85400000 3057140897 3057140897 9.00000000
3.00810671 -4.96111059 -0.50759506 14 10 14877 5.82400000 3057140899 3057140899 -5.00000000
2.99888158 -4.94784355 1.12462819 12 11 14878 5.89400000 3057140901 3057140901 11.00000000
3.01061797 -4.96916389 -0.30449060 12 12 14879 5.81800000 3057140904 3057140904 -3.00000000
2.98610115 -4.93063879 1.33081043 9 13 14880 5.91600000 3057140906 3057140906 13.00000000
3.00737572 -4.96772385 -0.10136358 9 14 14881 5.80800000 3057140908 3057140908 -1.00000000
2.97937846 -4.92147684 1.54152620 8 15 14881 5.95600000 3057140910 3057140910 15.00000000
1.05804372 -1.75324726 -0.54869640 4 0 14889 2.12000000 3057140931 3057140931 -15.00000000
2.98923945 -4.95531893 0.10101453 11 1 14890 5.78800000 3057140934 3057140934 1.00000000
1.23070240 -2.04096413 -0.55023026 3 2 14891 2.44600000 3057140936 3057140936 -13.00000000
2.99005604 -4.96058702 0.30354854 9 3 14892 5.80000000 3057140938 3057140938 3.00000000
1.45335817 -2.41116190 -0.54724020 3 4 14892 2.86800000 3057140940 3057140940 -11.00000000
2.97264791 -4.93365383 0.50393450 12 5 14893 5.78200000 3057140943 3057140943 5.00000000
1.74175608 -2.89190483 -0.53469300 4 6 14894 3.41800000 3057140945 3057140945 -9.00000000
2.98768950 -4.96253586 0.71122950 10 7 14895 5.83600000 3057140947 3057140947 7.00000000
2.29385567 -3.81158710 -0.54621840 2 8 14896 4.48200000 3057140950 3057140950 -7.00000000
2.97745252 -4.94944143 0.91482878 9 9 14897 5.84800000 3057140952 3057140952 9.00000000
2.98563576 -4.96304417 -0.50672346 14 10 14897 5.81400000 3057140954 3057140954 -5.00000000
2.97754526 -4.95155144 1.12310171 12 11 14898 5.88600000 3057140957 3057140957 11.00000000
2.99222517 -4.97793055 -0.30438593 9 12 14899 5.81600000 3057140959 3057140959 -3.00000000
2.96284962 -4.93100977 1.32811105 8 13 14900 5.90400000 3057140961 3057140961 13.00000000
2.98280931 -4.96619177 -0.10111924 9 14 14901 5.79400000 3057140963 3057140963 -1.00000000
2.95038199 -4.91414499 1.53583217 8 15 14902 5.93400000 3057140966 3057140966 15.00000000
1.04962647 -1.75379801 -0.54766113 4 0 14910 2.11600000 3057140987 3057140987 -15.00000000
2.96489763 -4.95594549 0.10080510 10 1 14911 5.77600000 3057140989 3057140989 1.00000000
1.22321367 -2.04546118 -0.55023026 3 2 14912 2.44600000 3057140991 3057140991 -13.00000000
2.96878028 -4.96636963 0.30323452 9 3 14913 5.79400000 3057140993 3057140993 3.00000000
1.44249642 -2.41310239 -0.54647696 3 4 14913 2.86400000 3057140996 3057140996 -11.00000000
2.95454526 -4.94451571 0.50393450 12 5 14914 5.78200000 3057140998 3057140998 5.00000000
1.76457262 -2.95423341 -0.54501766 3 6 14915 3.48400000 3057141000 3057141000 -9.00000000
2.96541023 -4.96663523 0.71025455 10 7 14916 5.82800000 3057141003 3057141003 7.00000000
2.28800893 -3.83360553 -0.54816830 2 8 14917 4.49800000 3057141005 3057141005 -7.00000000
2.95524359 -4.95353508 0.91357726 9 9 14918 5.84000000 3057141007 3057141007 9.00000000
2.96436286 -4.96882057 -0.50620055 14 10 14918 5.80800000 3057141010 3057141010 -5.00000000
2.94529891 -4.93882513 1.11775911 12 11 14919 5.85800000 3057141012 3057141012 11.00000000
2.96680117 -4.97685528 -0.30365321 12 12 14920 5.80200000 3057141014 3057141014 -3.00000000
2.94375920 -4.94016218 1.32766116 8 13 14921 5.90200000 3057141016 3057141016 13.00000000
2.95640063 -4.96334648 -0.10084000 9 14 14922 5.77800000 3057141019 3057141019 -1.00000000
2.92925596 -4.91777515 1.53376162 8 15 14922 5.92600000 3057141021 3057141021 15.00000000
1.04744339 -1.76409566 -0.54973167 4 0 14930 2.12400000 3057141042 3057141042 -15.00000000
2.94043565 -4.95422745 0.10056077 10 1 14931 5.76200000 3057141044 3057141044 1.00000000
1.21208894 -2.04301453 -0.54843068 3 2 14932 2.43800000 3057141046 3057141046 -13.00000000
2.93818212 -4.95437002 0.30187380 9 3 14933 5.76800000 3057141049 3057141049 3.00000000
1.44407880 -2.43500924 -0.55029315 2 4 14933 2.88400000 3057141051 3057141051 -11.00000000
2.92609167 -4.93594646 0.50201708 12 5 14934 5.76000000 3057141053 3057141053 5.00000000
1.75827777 -2.96717262 -0.54626918 3 6 14935 3.49200000 3057141056 3057141056 -9.00000000
2.93591523 -4.95646095 0.70732969 10 7 14936 5.80400000 3057141058 3057141058 7.00000000
2.26854491 -3.83132005 -0.54670590 2 8 14937 4.48600000 3057141060 3057141060 -7.00000000
2.93290401 -4.95532131 0.91201293 9 9 14938 5.83000000 3057141063 3057141063 9.00000000
2.94091153 -4.96885061 -0.50515467 14 10 14938 5.79600000 3057141065 3057141065 -5.00000000
2.92804146 -4.94907570 1.11775911 12 11 14939 5.85800000 3057141067 3057141067 11.00000000
2.93924379 -4.96998978 -0.30260649 9 12 14940 5.78200000 3057141069 3057141069 -3.00000000
2.91558814 -4.93195486 1.32271218 8 13 14941 5.88000000 3057141072 3057141072 13.00000000
2.94007468 -4.97535753 -0.10087491 9 14 14942 5.78000000 3057141074 3057141074 -1.00000000
2.90912342 -4.92298031 1.53220880 8 15 14942 5.92000000 3057141076 3057141076 15.00000000
1.04324007 -1.77107024 -0.55076694 4 0 14950 2.12800000 3057141097 3057141097 -15.00000000
2.92210960 -4.96273804 0.10052586 10 1 14951 5.76000000 3057141099 3057141099 1.00000000
1.20890391 -2.05395079 -0.55023026 3 2 14952 2.44600000 3057141102 3057141102 -13.00000000
2.91059279 -4.94515228 0.30072239 9 3 14952 5.74600000 3057141104 3057141104 3.00000000
1.41765046 -2.40957713 -0.54342401 2 4 14953 2.84800000 3057141106 3057141106 -11.00000000
2.91591430 -4.95815229 0.50323725 12 5 14954 5.77400000 3057141109 3057141109 5.00000000
1.75291514 -2.98180676 -0.54783350 7 6 14955 3.50200000 3057141111 3057141111 -9.00000000
2.91759014 -4.96496725 0.70708591 10 7 14956 5.80200000 3057141113 3057141113 7.00000000
2.26219511 -3.85119677 -0.54841202 2 8 14957 4.50000000 3057141115 3057141115 -7.00000000
2.90645027 -4.94798708 0.90888423 9 9 14957 5.81000000 3057141118 3057141118 9.00000000
2.92354918 -4.97908592 -0.50515467 14 10 14958 5.79600000 3057141120 3057141120 -5.00000000
2.90478539 -4.94910765 1.11546934 12 11 14959 5.84600000 3057141122 3057141122 11.00000000
2.92086673 -4.97849655 -0.30250183 12 12 14960 5.78000000 3057141125 3057141125 -3.00000000
2.89342546 -4.93369722 1.32046270 8 13 14961 5.87000000 3057141127 3057141127 13.00000000
2.91561031 -4.97351456 -0.10063057 9 14 14962 5.76600000 3057141129 3057141129 -1.00000000
2.88899040 -4.92810535 1.53065586 8 15 14962 5.91400000 3057141132 3057141132 15.00000000
1.03510225 -1.77136517 -0.54973167 4 0 14970 2.12400000 3057141152 3057141152 -15.00000000
2.90275145 -4.96945477 0.10045605 10 1 14971 5.75600000 3057141155 3057141155 1.00000000
1.20172691 -2.05815816 -0.55023026 3 2 14972 2.44600000 3057141157 3057141157 -13.00000000
2.89345503 -4.95751190 0.30082709 9 3 14973 5.74800000 3057141159 3057141159 3.00000000
1.40923083 -2.41451097 -0.54342401 3 4 14973 2.84800000 3057141162 3057141162 -11.00000000
2.88754511 -4.94937038 0.50131983 12 5 14974 5.75200000 3057141164 3057141164 5.00000000
1.74747181 -2.99643922 -0.54939783 3 6 14975 3.51200000 3057141166 3057141166 -9.00000000
2.89624262 -4.96826172 0.70611095 10 7 14976 5.79400000 3057141168 3057141168 7.00000000
2.23874378 -3.84191847 -0.54597467 2 8 14977 4.48000000 3057141171 3057141171 -7.00000000
2.87835312 -4.94153738 0.90575558 9 9 14978 5.79000000 3057141173 3057141173 9.00000000
2.89812851 -4.97548771 -0.50376022 14 10 14978 5.78000000 3057141175 3057141175 -5.00000000
2.88551641 -4.95582390 1.11470616 12 11 14979 5.84200000 3057141178 3057141178 11.00000000
2.89744282 -4.97830486 -0.30187380 12 12 14980 5.76800000 3057141180 3057141180 -3.00000000
2.86932635 -4.93197584 1.31731343 8 13 14981 5.85600000 3057141182 3057141182 13.00000000
2.88415790 -4.95946074 -0.10014191 9 14 14982 5.73800000 3057141185 3057141185 -1.00000000
2.86314154 -4.92529964 1.52651477 8 15 14983 5.89800000 3057141187 3057141187 15.00000000
1.02340770 -1.76476085 -0.54662585 4 0 14989 2.11200000 3057141208 3057141208 -15.00000000
2.88023901 -4.96867275 0.10024662 7 1 14990 5.74400000 3057141210 3057141210 1.00000000
1.19489527 -2.06213188 -0.55023026 3 2 14991 2.44600000 3057141212 3057141212 -13.00000000
2.87586355 -4.96312141 0.30061772 4 3 14991 5.74400000 3057141215 3057141215 3.00000000
1.40515232 -2.42596626 -0.54495049 3 4 14992 2.85600000 3057141217 3057141217 -11.00000000
2.85314703 -4.92788219 0.49818224 12 5 14993 5.71600000 3057141219 3057141219 5.00000000
1.72763085 -2.98512077 -0.54626918 1 6 14994 3.49200000 3057141221 3057141221 -9.00000000
2.87179899 -4.96409225 0.70416105 10 7 14995 5.77800000 3057141224 3057141224 7.00000000
2.23592877 -3.86650586 -0.54841202 2 8 14996 4.50000000 3057141226 3057141226 -7.00000000
2.86293912 -4.95276546 0.90606844 9 9 14997 5.79200000 3057141228 3057141228 9.00000000
2.87263942 -4.96954632 -0.50219136 14 10 14997 5.76200000 3057141231 3057141231 -5.00000000
2.86120868 -4.95176601 1.11165321 12 11 14998 5.82600000 3057141233 3057141233 11.00000000
2.87792134 -4.98269749 -0.30155978 9 12 14999 5.76200000 3057141235 3057141235 -3.00000000
2.85003233 -4.93640089 1.31596363 8 13 15000 5.85000000 3057141238 3057141238 13.00000000
2.86069894 -4.95687389 -0.09989757 6 14 15001 5.72400000 3057141240 3057141240 -1.00000000
2.83703208 -4.91586494 1.52082074 8 15 15001 5.87600000 3057141242 3057141242 15.00000000
1.02109444 -1.77502072 -0.54869640 4 0 15009 2.12000000 3057141263 3057141263 -15.00000000
2.83696008 -4.93362474 0.09933910 23 1 15010 5.69200000 3057141265 3057141265 1.00000000
1.18574750 -2.06291127 -0.54933047 3 2 15011 2.44200000 3057141267 3057141267 -13.00000000
2.84359193 -4.94715595 0.29904765 30 3 15011 5.71400000 3057141270 3057141270 3.00000000
1.39471936 -2.42745185 -0.54418725 3 4 15012 2.85200000 3057141272 3057141272 -11.00000000
2.84287405 -4.94990540 0.49940240 24 5 15013 5.73000000 3057141274 3057141274 5.00000000
1.70638168 -2.97228861 -0.54282761 1 6 15014 3.47000000 3057141277 3057141277 -9.00000000
2.84259701 -4.95342588 0.70123619 10 7 15015 5.75400000 3057141279 3057141279 7.00000000
2.21155334 -3.85534620 -0.54573095 4 8 15016 4.47800000 3057141281 3057141281 -7.00000000
2.83678985 -4.94730568 0.90325260 9 9 15017 5.77400000 3057141284 3057141284 9.00000000
2.84734631 -4.96571636 -0.50079691 14 10 15017 5.74600000 3057141286 3057141286 -5.00000000
2.83316731 -4.94298697 1.10745537 12 11 15018 5.80400000 3057141288 3057141288 11.00000000
2.83469582 -4.94765568 -0.29883832 18 12 15019 5.71000000 3057141291 3057141291 -3.00000000
2.83145690 -4.94600391 -0.09947871 24 14 15021 5.70000000 3057141295 3057141295 -1.00000000
2.82945323 -4.94250393 1.52599704 36 15 15021 5.89600000 3057141297 3057141297 15.00000000
1.01680708 -1.78192997 -0.54973167 4 0 15029 2.12400000 3057141318 3057141318 -15.00000000
2.82071209 -4.94523478 0.09937400 13 1 15030 5.69400000 3057141320 3057141320 1.00000000
1.17274809 -2.05688024 -0.54663104 3 2 15031 2.43000000 3057141323 3057141323 -13.00000000
2.83177400 -4.96865749 -1.11165321 3 4 15032 5.82600000 3057141327 3057141327 -11.00000000
2.82894111 -4.96771669 -0.90544266 4 6 15034 5.78800000 3057141332 3057141332 -9.00000000
2.81448674 -4.94434118 0.69855505 10 7 15035 5.73200000 3057141334 3057141334 7.00000000
2.19808221 -3.86304235 -0.54573095 4 8 15036 4.47800000 3057141337 3057141337 -7.00000000
2.82329917 -4.96183634 0.90419120 23 9 15036 5.78000000 3057141339 3057141339 9.00000000
2.82901049 -4.97389317 -0.50062257 14 10 15037 5.74400000 3057141341 3057141341 -5.00000000
2.81444764 -4.95231104 -0.29852429 21 12 15039 5.70400000 3057141346 3057141346 -3.00000000
2.82223868 -4.96803856 1.31911302 42 13 15040 5.86400000 3057141348 3057141348 13.00000000
2.82943797 -4.98476219 1.53583217 36 15 15042 5.93400000 3057141353 3057141353 15.00000000
1.01248395 -1.78883088 -0.55076694 4 0 15049 2.12800000 3057141373 3057141373 -15.00000000
1.16556108 -2.06096148 -0.54663104 3 2 15051 2.43000000 3057141378 3057141378 -13.00000000
2.79718685 -4.94602537 0.29779160 7 3 15051 5.69000000 3057141380 3057141380 3.00000000
1.37194180 -2.42687511 -0.54189754 3 4 15052 2.84000000 3057141383 3057141383 -11.00000000
2.79746628 -4.95055103 0.49748498 9 5 15053 5.70800000 3057141385 3057141385 5.00000000
1.69919109 -3.00820827 -0.54720777 1 6 15054 3.49800000 3057141387 3057141387 -9.00000000
2.80989861 -4.97660685 0.70172369 7 7 15055 5.75800000 3057141390 3057141390 7.00000000
2.18555999 -3.87242031 -0.54597467 2 8 15056 4.48000000 3057141392 3057141392 -7.00000000
2.81674147 -4.99279642 0.90794563 42 9 15057 5.80400000 3057141394 3057141394 9.00000000
2.81260991 -4.98547316 -0.50079691 14 10 15057 5.74600000 3057141397 3057141397 -5.00000000
2.82173467 -5.00368786 1.11661422 42 11 15058 5.85200000 3057141399 3057141399 11.00000000
2.79322052 -4.95514536 -0.29810560 3 12 15059 5.69600000 3057141401 3057141401 -3.00000000
2.81827283 -5.00162840 1.32541156 42 13 15060 5.89200000 3057141403 3057141403 13.00000000
2.78311968 -4.94125795 -0.09899005 6 14 15061 5.67200000 3057141406 3057141406 -1.00000000
2.83097601 -5.02827644 1.54618502 38 15 15062 5.97400000 3057141408 3057141408 15.00000000
0.99961370 -1.78056240 -0.54714346 4 0 15069 2.11400000 3057141429 3057141429 -15.00000000
2.78416204 -4.96131849 0.09930419 5 1 15070 5.69000000 3057141431 3057141431 1.00000000
1.15835989 -2.06501746 -0.54663104 3 2 15071 2.43000000 3057141433 3057141433 -13.00000000
2.79553890 -4.98362970 0.29946634 2 3 15071 5.72200000 3057141436 3057141436 3.00000000
1.36730278 -2.43849897 -0.54342401 2 4 15072 2.84800000 3057141438 3057141438 -11.00000000
2.78893566 -4.97592783 0.49905378 3 5 15073 5.72600000 3057141440 3057141440 5.00000000
1.68192160 -3.00205779 -0.54501766 1 6 15074 3.48400000 3057141443 3057141443 -9.00000000
2.81384897 -5.02448893 0.70708591 7 7 15075 5.80200000 3057141445 3057141445 7.00000000
2.17396855 -3.88349009 -0.54646212 2 8 15076 4.48400000 3057141447 3057141447 -7.00000000
2.80788875 -5.01589918 0.91044861 38 9 15076 5.82000000 3057141450 3057141450 9.00000000
2.78254247 -4.97265768 -0.49853083 14 10 15077 5.72000000 3057141452 3057141452 -5.00000000
2.82150245 -5.04434872 1.12348342 42 11 15078 5.88800000 3057141454 3057141454 11.00000000
2.77688146 -4.96660900 -0.29821029 3 12 15079 5.69800000 3057141456 3057141456 -3.00000000
2.81981087 -5.04545736 1.33440971 41 13 15080 5.93200000 3057141459 3057141459 13.00000000
2.79511237 -5.00331497 -0.10003719 2 14 15081 5.73200000 3057141461 3057141461 -1.00000000
2.82847691 -5.06511450 1.55446720 40 15 15082 6.00600000 3057141463 3057141463 15.00000000
0.99057281 -1.77897739 -0.54559052 4 0 15089 2.10800000 3057141484 3057141484 -15.00000000
2.77363443 -4.98323774 0.09954853 10 1 15090 5.70400000 3057141486 3057141486 1.00000000
1.16251385 -2.08948326 -0.55202991 3 2 15091 2.45400000 3057141489 3057141489 -13.00000000
2.78298092 -5.00208426 0.29998970 9 3 15091 5.73200000 3057141491 3057141491 3.00000000
1.35687411 -2.43982530 -0.54266077 3 4 15092 2.84400000 3057141493 3057141493 -11.00000000
2.78413415 -5.00827122 0.50131983 9 5 15093 5.75200000 3057141496 3057141496 5.00000000
1.67239165 -3.00963736 -0.54533052 1 6 15094 3.48600000 3057141498 3057141498 -9.00000000
2.81557107 -5.06898737 0.71196073 7 7 15095 5.84200000 3057141500 3057141500 7.00000000
2.16618109 -3.90146828 -0.54792458 2 8 15096 4.49600000 3057141503 3057141503 -7.00000000
2.80858159 -5.05848360 0.91639310 42 9 15096 5.85800000 3057141505 3057141505 9.00000000
2.78063703 -5.01021338 -0.50131983 10 10 15097 5.75200000 3057141507 3057141507 -5.00000000
2.81340122 -5.07133436 1.12729955 45 11 15098 5.90800000 3057141509 3057141509 11.00000000
2.77211976 -4.99897861 -0.29957101 9 12 15099 5.72400000 3057141512 3057141512 -3.00000000
2.82485628 -5.09617567 1.34520733 41 13 15100 5.98000000 3057141514 3057141514 13.00000000
2.76987720 -4.99904823 -0.09975795 15 14 15101 5.71600000 3057141516 3057141516 -1.00000000
2.82294703 -5.09692669 1.56119645 38 15 15102 6.03200000 3057141519 3057141519 15.00000000
0.98715878 -1.78749764 -0.54714346 4 0 15109 2.11400000 3057141539 3057141539 -15.00000000
2.78328252 -5.04190779 0.10052586 7 1 15110 5.76000000 3057141542 3057141542 1.00000000
1.14579821 -2.07646632 -0.54753089 3 2 15111 2.43400000 3057141544 3057141544 -13.00000000
2.79445148 -5.06422901 0.30312985 7 3 15111 5.79200000 3057141546 3057141546 3.00000000
1.35972774 -2.46517611 -0.54724020 3 4 15112 2.86800000 3057141549 3057141549 -11.00000000
2.79549432 -5.07030201 0.50654918 9 5 15113 5.81200000 3057141551 3057141551 5.00000000
1.65615511 -3.00507641 -0.54345334 1 6 15114 3.47400000 3057141553 3057141553 -9.00000000
2.80935407 -5.09964943 0.71488559 7 7 15115 5.86600000 3057141555 3057141555 7.00000000
2.13435602 -3.87596703 -0.54329354 2 8 15116 4.45800000 3057141558 3057141558 -7.00000000
2.81282282 -5.10805511 0.92358911 42 9 15116 5.90400000 3057141560 3057141560 9.00000000
2.77658176 -5.04432535 -0.50376022 10 10 15117 5.78000000 3057141562 3057141562 -5.00000000
2.81650281 -5.11896610 1.13569510 45 11 15118 5.95200000 3057141565 3057141565 11.00000000
2.78352785 -5.06112576 -0.30271116 9 12 15119 5.78400000 3057141567 3057141567 -3.00000000
2.82394862 -5.13674355 1.35330558 17 13 15120 6.01600000 3057141569 3057141569 13.00000000
2.78804350 -5.07352972 -0.10104943 6 14 15121 5.79000000 3057141572 3057141572 -1.00000000
2.82277632 -5.13673449 1.57051396 38 15 15121 6.06800000 3057141574 3057141574 15.00000000
0.98369730 -1.79601562 -0.54869640 4 0 15129 2.12000000 3057141595 3057141595 -15.00000000
2.78295135 -5.08316469 0.10115415 8 1 15130 5.79600000 3057141597 3057141597 1.00000000
1.13480091 -2.07361531 -0.54573125 3 2 15131 2.42600000 3057141599 3057141599 -13.00000000
2.79209828 -5.10198545 0.30480462 7 3 15131 5.82400000 3057141602 3057141602 3.00000000
1.34357679 -2.45612812 -0.54418725 2 4 15132 2.85200000 3057141604 3057141604 -11.00000000
2.80167556 -5.12373209 0.51090693 9 5 15133 5.86200000 3057141606 3057141606 5.00000000
1.64281309 -3.00563908 -0.54251474 1 6 15134 3.46800000 3057141608 3057141608 -9.00000000
2.79914999 -5.12336111 0.71683550 7 7 15135 5.88200000 3057141611 3057141611 7.00000000
2.06943440 -3.78931427 -0.53013164 8 8 15136 4.35000000 3057141613 3057141613 -7.00000000
2.81391120 -5.15251637 0.92984647 26 9 15136 5.94400000 3057141615 3057141615 9.00000000
2.77518606 -5.08371592 -0.50672346 10 10 15137 5.81400000 3057141618 3057141618 -5.00000000
2.81742501 -5.16323376 1.14332747 42 11 15138 5.99200000 3057141620 3057141620 11.00000000
2.78210282 -5.10061884 -0.30449060 9 12 15139 5.81800000 3057141622 3057141622 -3.00000000
2.82465768 -5.18078899 1.36230361 10 13 15140 6.05600000 3057141625 3057141625 13.00000000
2.78562737 -5.11132479 -0.10160791 6 14 15141 5.82200000 3057141627 3057141627 -1.00000000
2.82241368 -5.18097544 1.58086669 38 15 15142 6.10800000 3057141629 3057141629 15.00000000
0.97742200 -1.79943836 -0.54869640 4 0 15149 2.12000000 3057141650 3057141650 -15.00000000
2.78236604 -5.12448072 0.10178243 8 1 15150 5.83200000 3057141652 3057141652 1.00000000
1.13127387 -2.08441496 -0.54753089 3 2 15151 2.43400000 3057141655 3057141655 -13.00000000
2.79052305 -5.14378500 0.30668870 7 3 15152 5.86000000 3057141657 3057141657 3.00000000
1.33686745 -2.46425462 -0.54495049 2 4 15152 2.85600000 3057141659 3057141659 -11.00000000
2.80276871 -5.16850948 0.51439321 9 5 15153 5.90200000 3057141661 3057141661 5.00000000
1.63984239 -3.02524853 -0.54501766 1 6 15154 3.48400000 3057141664 3057141664 -9.00000000
2.80583692 -5.17848015 0.72317266 7 7 15155 5.93400000 3057141666 3057141666 7.00000000
2.07415676 -3.82967973 -0.53476268 10 8 15156 4.38800000 3057141668 3057141668 -7.00000000
2.81190133 -5.19183588 0.93516523 7 9 15156 5.97800000 3057141671 3057141671 9.00000000
2.77639461 -5.12841463 -0.51020974 11 10 15157 5.85400000 3057141673 3057141673 -5.00000000
2.81994104 -5.21102333 1.15172315 43 11 15158 6.03600000 3057141675 3057141675 11.00000000
2.78043556 -5.14016342 -0.30627000 9 12 15159 5.85200000 3057141678 3057141678 -3.00000000
2.79058766 -5.16323805 -0.10244562 9 14 15161 5.87000000 3057141682 3057141682 -1.00000000
2.82358837 -5.22429657 1.59121954 36 15 15161 6.14800000 3057141685 3057141685 15.00000000
0.96930254 -1.79943764 -0.54766113 4 0 15169 2.11600000 3057141705 3057141705 -15.00000000
2.79290223 -5.18698263 0.10282958 11 1 15170 5.89200000 3057141708 3057141708 1.00000000
1.12768531 -2.09521508 -0.54933047 3 2 15171 2.44200000 3057141710 3057141710 -13.00000000
2.79336858 -5.19218969 0.30899149 7 3 15172 5.90400000 3057141712 3057141712 3.00000000
1.32081628 -2.45507455 -0.54189754 2 4 15172 2.84000000 3057141714 3057141714 -11.00000000
2.79603386 -5.19931841 0.51648492 9 5 15173 5.92600000 3057141717 3057141717 5.00000000
1.62927222 -3.03095436 -0.54501766 1 6 15174 3.48400000 3057141719 3057141719 -9.00000000
2.81781006 -5.24419975 0.73097235 7 7 15175 5.99800000 3057141721 3057141721 7.00000000
2.08237934 -3.87711930 -0.54036868 8 8 15176 4.43400000 3057141724 3057141724 -7.00000000
2.80780339 -5.22995377 0.94017112 10 9 15177 6.01000000 3057141726 3057141726 9.00000000
2.77167010 -5.16265011 -0.51265007 11 10 15177 5.88200000 3057141728 3057141728 -5.00000000
2.81751561 -5.25024319 1.15821064 34 11 15178 6.07000000 3057141731 3057141731 11.00000000
2.78796721 -5.19735861 -0.30909616 18 12 15179 5.90600000 3057141733 3057141733 -3.00000000
2.81788874 -5.25534010 1.37670040 45 13 15180 6.12000000 3057141735 3057141735 13.00000000
2.78293896 -5.19233465 -0.10282958 11 14 15181 5.89200000 3057141738 3057141738 -1.00000000
2.82175517 -5.26696491 1.60105467 38 15 15182 6.18600000 3057141740 3057141740 15.00000000
0.95937449 -1.79599428 -0.54559052 4 0 15189 2.10800000 3057141761 3057141761 -15.00000000
2.79173326 -5.22845173 0.10345787 8 1 15190 5.92800000 3057141763 3057141763 1.00000000
1.12403512 -2.10601544 -0.55113006 3 2 15191 2.45000000 3057141765 3057141765 -13.00000000
2.79026937 -5.23010302 0.31066623 7 3 15192 5.93600000 3057141767 3057141767 3.00000000
1.31593490 -2.46659875 -0.54342401 2 4 15192 2.84800000 3057141770 3057141770 -11.00000000
2.78818059 -5.22838497 0.51840234 9 5 15193 5.94800000 3057141772 3057141772 5.00000000
1.61217785 -3.02442074 -0.54282761 1 6 15194 3.47000000 3057141774 3057141774 -9.00000000
2.81068897 -5.27502680 0.73389721 7 7 15195 6.02200000 3057141777 3057141777 7.00000000
2.12948895 -3.99824977 -0.55621171 6 8 15196 4.56400000 3057141779 3057141779 -7.00000000
2.80808830 -5.27236271 0.94611567 22 9 15196 6.04800000 3057141781 3057141781 9.00000000
2.77797580 -5.21801949 -0.51718217 11 10 15197 5.93400000 3057141784 3057141784 -5.00000000
2.81392860 -5.28777599 1.16431653 37 11 15198 6.10200000 3057141786 3057141786 11.00000000
2.77074599 -5.20882177 -0.30920082 25 12 15199 5.90800000 3057141788 3057141788 -3.00000000
2.81873941 -5.30127764 1.38614845 35 13 15200 6.16200000 3057141791 3057141791 13.00000000
2.76667428 -5.20554924 -0.10289939 24 14 15201 5.89600000 3057141793 3057141793 -1.00000000
2.81878018 -5.30358744 1.60933685 36 15 15201 6.21800000 3057141795 3057141795 15.00000000
0.95309949 -1.79933214 -0.54559052 4 0 15209 2.10800000 3057141816 3057141816 -15.00000000
2.78095126 -5.25230265 0.10373710 8 1 15210 5.94400000 3057141818 3057141818 1.00000000
1.10391486 -2.08581257 -0.54483145 3 2 15211 2.42200000 3057141820 3057141820 -13.00000000
2.79254293 -5.27865076 0.31296903 7 3 15212 5.98000000 3057141823 3057141823 3.00000000
1.31282520 -2.48158956 -0.54571372 2 4 15212 2.86000000 3057141825 3057141825 -11.00000000
2.78947210 -5.27507305 0.52206290 9 5 15213 5.99000000 3057141827 3057141827 5.00000000
2.74812412 -5.19907713 -0.93141079 2 6 15214 5.95400000 3057141830 3057141830 -9.00000000
2.80524158 -5.30937815 0.73730952 7 7 15215 6.05000000 3057141832 3057141832 7.00000000
2.08956218 -3.95650959 -0.54938698 2 8 15216 4.50800000 3057141834 3057141834 -7.00000000
2.80257821 -5.30882311 0.95080870 7 9 15217 6.07800000 3057141837 3057141837 9.00000000
2.77741742 -5.26116180 -0.52049410 11 10 15217 5.97200000 3057141839 3057141839 -5.00000000
2.81011343 -5.32534790 1.17042243 40 11 15218 6.13400000 3057141841 3057141841 11.00000000
2.74509239 -5.20432949 -0.30836347 31 12 15219 5.89200000 3057141843 3057141843 -3.00000000
2.82203007 -5.35245609 1.39694607 9 13 15220 6.21000000 3057141846 3057141846 13.00000000
2.73823118 -5.19571543 -0.10251544 24 14 15221 5.87400000 3057141848 3057141848 -1.00000000
2.82093191 -5.35490370 1.62176013 36 15 15222 6.26600000 3057141850 3057141850 15.00000000
0.94681281 -1.80264819 -0.54559052 4 0 15229 2.10800000 3057141871 3057141871 -15.00000000
2.78583884 -5.30624104 0.10460973 8 1 15230 5.99400000 3057141873 3057141873 1.00000000
1.10206068 -2.10000682 -0.54753089 3 2 15231 2.43400000 3057141876 3057141876 -13.00000000
2.79080033 -5.32020283 0.31485310 7 3 15232 6.01600000 3057141878 3057141878 3.00000000
1.30233085 -2.48267984 -0.54495049 3 4 15232 2.85600000 3057141880 3057141880 -11.00000000
2.80064869 -5.34124327 0.52764088 9 5 15233 6.05400000 3057141883 3057141883 5.00000000
2.73179340 -5.21213770 -0.93203652 4 6 15234 5.95800000 3057141885 3057141885 -9.00000000
2.80143070 -5.34727192 0.74120933 7 7 15235 6.08200000 3057141887 3057141887 7.00000000
2.05179477 -3.91805696 -0.54304981 2 8 15236 4.45600000 3057141890 3057141890 -7.00000000
2.81611586 -5.37758589 0.96144623 10 9 15236 6.14600000 3057141892 3057141892 9.00000000
2.77843928 -5.30789328 -0.52415466 11 10 15237 6.01400000 3057141894 3057141894 -5.00000000
2.81608224 -5.38209152 1.18072605 43 11 15238 6.18800000 3057141896 3057141896 11.00000000
2.71857858 -5.19795132 -0.30742142 31 12 15239 5.87400000 3057141899 3057141899 -3.00000000
2.81958055 -5.39336014 1.40504432 32 13 15240 6.24600000 3057141901 3057141901 13.00000000
2.71822572 -5.20169735 -0.10244562 24 14 15241 5.87000000 3057141903 3057141903 -1.00000000
2.82194805 -5.40018415 1.63263059 40 15 15241 6.30800000 3057141906 3057141906 15.00000000
0.94408393 -1.81279588 -0.54766113 4 0 15249 2.11600000 3057141926 3057141926 -15.00000000
2.78299665 -5.34608698 0.10520311 8 1 15250 6.02800000 3057141929 3057141929 1.00000000
1.09292448 -2.10038352 -0.54663104 3 2 15251 2.43000000 3057141931 3057141931 -13.00000000
2.78972292 -5.36357832 0.31684187 7 3 15252 6.05400000 3057141933 3057141933 3.00000000
1.29003298 -2.48024368 -0.54342401 3 4 15252 2.84800000 3057141936 3057141936 -11.00000000
2.79669213 -5.37927055 0.53042984 9 5 15253 6.08600000 3057141938 3057141938 5.00000000
1.57222021 -3.02536201 -0.54001176 1 6 15254 3.45200000 3057141940 3057141940 -9.00000000
2.81020045 -5.40986633 0.74852151 7 7 15255 6.14200000 3057141943 3057141943 7.00000000
2.04176497 -3.93224216 -0.54402477 2 8 15256 4.46400000 3057141945 3057141945 -7.00000000
2.80730700 -5.40891075 0.96520066 22 9 15257 6.17000000 3057141947 3057141947 9.00000000
2.77457952 -5.34585381 -0.52694362 11 10 15257 6.04600000 3057141949 3057141949 -5.00000000
2.81355166 -5.42325735 1.18759513 40 11 15258 6.22400000 3057141952 3057141952 11.00000000
2.69490099 -5.19677114 -0.30679336 31 12 15259 5.86200000 3057141954 3057141954 -3.00000000
2.81239557 -5.42566109 1.41089296 42 13 15260 6.27200000 3057141956 3057141956 13.00000000
2.69269228 -5.19694996 -0.10216638 24 14 15261 5.85400000 3057141959 3057141959 -1.00000000
2.81901693 -5.44308424 1.64246571 38 15 15262 6.34600000 3057141961 3057141961 15.00000000
0.93597770 -1.81264722 -0.54662585 4 0 15269 2.11200000 3057141982 3057141982 -15.00000000
