# .PCD v0.7 - Point Cloud Data file format
VERSION 0.7
FIELDS x y z intensity laser_id azimuth distance_m adjustedtime timestamp vertical_angle
SIZE 4 4 4 1 1 2 8 8 4 8
TYPE F F F U U U F U U F
COUNT 1 1 1 1 1 1 1 1 1 1
WIDTH 538
HEIGHT 1
VIEWPOINT 0 0 0 1 0 0 0
POINTS 538
DATA ascii
8.27638721 4.42103577 2.16627860 68 13 6189 9.63000000 3057516643 3057516643 13.00000000
8.20782280 4.38256884 -0.16241209 16 14 6190 9.30600000 3057516645 3057516645 -1.00000000
7.77598286 4.15198803 2.36198258 45 15 6190 9.12600000 3057516647 3057516647 15.00000000
2.00385332 1.06636512 -0.60822475 4 0 6198 2.35000000 3057516668 3057516668 -15.00000000
8.21646214 4.37060976 0.16244701 12 1 6199 9.30800000 3057516670 3057516670 1.00000000
2.38824201 1.26985073 -0.62446415 3 2 6200 2.77600000 3057516673 3057516673 -13.00000000
8.22837448 4.37510443 0.48839915 13 3 6200 9.33200000 3057516675 3057516675 3.00000000
2.85525823 1.51752853 -0.62852484 5 4 6201 3.29400000 3057516677 3057516677 -11.00000000
8.21159458 4.36250639 0.81351173 81 5 6202 9.33400000 3057516680 3057516680 5.00000000
3.60093570 1.91223371 -0.64576149 6 6 6203 4.12800000 3057516682 3057516682 -9.00000000
8.24440575 4.37624788 1.14605927 90 7 6204 9.40400000 3057516684 3057516684 7.00000000
4.84504509 2.57073522 -0.67344999 4 8 6205 5.52600000 3057516686 3057516686 -7.00000000
17.85271263 9.47248173 3.20096207 40 9 6205 20.46200000 3057516689 3057516689 9.00000000
16.95200539 8.98699284 3.72955251 41 11 6207 19.54600000 3057516693 3057516693 11.00000000
8.20976830 4.35051870 -0.48693374 17 12 6208 9.30400000 3057516696 3057516696 -3.00000000
8.27799225 4.38482141 2.16267943 64 13 6209 9.61400000 3057516698 3057516698 13.00000000
8.20893192 4.34640598 -0.16213286 16 14 6210 9.29000000 3057516700 3057516700 -1.00000000
7.78018475 4.11939573 2.35887671 45 15 6210 9.11400000 3057516703 3057516703 15.00000000
2.00414634 1.05756068 -0.60718948 4 0 6218 2.34600000 3057516723 3057516723 -15.00000000
8.20690536 4.32884121 0.16195834 12 1 6219 9.28000000 3057516726 3057516726 1.00000000
2.38921237 1.25968874 -0.62356430 3 2 6220 2.77200000 3057516728 3057516728 -13.00000000
8.22668648 4.33560467 0.48735243 13 3 6221 9.31200000 3057516730 3057516730 3.00000000
2.85359073 1.50389123 -0.62699836 5 4 6221 3.28600000 3057516733 3057516733 -11.00000000
8.21795940 4.32917309 0.81264013 81 5 6222 9.32400000 3057516735 3057516735 5.00000000
3.59360576 1.89228940 -0.64325851 6 6 6223 4.11200000 3057516737 3057516737 -9.00000000
8.24030781 4.33727217 1.14337814 83 7 6224 9.38200000 3057516739 3057516739 7.00000000
4.86452961 2.55935287 -0.67491245 4 8 6225 5.53800000 3057516742 3057516742 -7.00000000
17.85933876 9.39227295 3.19595623 22 9 6226 20.43000000 3057516744 3057516744 9.00000000
16.97284698 8.92228317 3.72726297 41 11 6227 19.53400000 3057516749 3057516749 11.00000000
8.20722389 4.31254435 -0.48588702 17 12 6228 9.28400000 3057516751 3057516751 -3.00000000
8.28979683 4.35408688 2.16177964 66 13 6229 9.61000000 3057516753 3057516753 13.00000000
8.20457840 4.30749989 -0.16174890 16 14 6230 9.26800000 3057516756 3057516756 -1.00000000
7.79865217 4.09264755 2.35991216 45 15 6231 9.11800000 3057516758 3057516758 15.00000000
2.01791143 1.05628443 -0.61029530 4 0 6237 2.35800000 3057516779 3057516779 -15.00000000
8.20881271 4.29511309 0.16171400 12 1 6238 9.26600000 3057516781 3057516781 1.00000000
2.39164972 1.25085580 -0.62311441 4 2 6239 2.77000000 3057516783 3057516783 -13.00000000
8.22610760 4.30233335 0.48651505 13 3 6239 9.29600000 3057516786 3057516786 3.00000000
2.85508251 1.49260104 -0.62623513 5 4 6240 3.28200000 3057516788 3057516788 -11.00000000
8.22167492 4.29636097 0.81159425 75 5 6241 9.31200000 3057516790 3057516790 5.00000000
3.59986115 1.88036215 -0.64325851 6 6 6242 4.11200000 3057516792 3057516792 -9.00000000
8.23001003 4.29706001 1.13996589 83 7 6243 9.35400000 3057516795 3057516795 7.00000000
4.87123013 2.54228902 -0.67466867 6 8 6244 5.53600000 3057516797 3057516797 -7.00000000
17.85360718 9.31381130 3.18938589 18 9 6245 20.38800000 3057516799 3057516799 9.00000000
17.00234032 8.86595058 3.72726297 41 11 6246 19.53400000 3057516804 3057516804 11.00000000
8.20022678 4.27422667 -0.48463094 17 12 6247 9.26000000 3057516806 3057516806 -3.00000000
8.27999496 4.31396675 2.15548110 72 13 6248 9.58200000 3057516809 3057516809 13.00000000
8.21881771 4.28026867 -0.16174890 16 14 6249 9.26800000 3057516811 3057516811 -1.00000000
7.80804396 4.06634283 2.35887671 45 15 6249 9.11400000 3057516813 3057516813 15.00000000
2.02158642 1.04923415 -0.61029530 4 0 6257 2.35800000 3057516834 3057516834 -15.00000000
8.20600510 4.25722408 0.16136494 12 1 6258 9.24600000 3057516836 3057516836 1.00000000
2.39254141 1.24070549 -0.62221462 3 2 6259 2.76600000 3057516838 3057516838 -13.00000000
8.21625328 4.26072025 0.48504964 13 3 6259 9.26800000 3057516841 3057516841 3.00000000
2.86376119 1.48443282 -0.62699836 5 4 6260 3.28600000 3057516843 3057516843 -11.00000000
8.22777653 4.26305294 0.81072271 78 5 6261 9.30200000 3057516845 3057516845 5.00000000
3.60991120 1.86960185 -0.64388424 6 6 6262 4.11600000 3057516848 3057516848 -9.00000000
8.24143410 4.26648045 1.13947833 83 7 6263 9.35000000 3057516850 3057516850 7.00000000
4.88712692 2.52891898 -0.67564362 6 8 6264 5.54400000 3057516852 3057516852 -7.00000000
8.32188988 4.30444860 1.48393738 2 9 6265 9.48600000 3057516855 3057516855 9.00000000
17.03318596 8.80654716 3.72726297 41 11 6266 19.53400000 3057516859 3057516859 11.00000000
8.20622540 4.24099159 -0.48410758 17 12 6267 9.25000000 3057516862 3057516862 -3.00000000
8.27249527 4.27341080 2.14963222 74 13 6268 9.55600000 3057516864 3057516864 13.00000000
8.21060944 4.23962688 -0.16129515 14 14 6269 9.24200000 3057516866 3057516866 -1.00000000
7.82562399 4.04083538 2.35991216 45 15 6269 9.11800000 3057516868 3057516868 15.00000000
2.01836562 1.03863525 -0.60822475 4 0 6277 2.35000000 3057516889 3057516889 -15.00000000
8.21014595 4.22306538 0.16115552 12 1 6278 9.23400000 3057516891 3057516891 1.00000000
2.41072249 1.23947501 -0.62581384 3 2 6279 2.78200000 3057516894 3057516894 -13.00000000
8.22293186 4.22601318 0.48452628 13 3 6280 9.25800000 3057516896 3057516896 3.00000000
2.87067151 1.47532475 -0.62737995 5 4 6280 3.28800000 3057516898 3057516898 -11.00000000
8.21956921 4.22247124 0.80845666 75 5 6281 9.27600000 3057516901 3057516901 5.00000000
3.62695861 1.86240339 -0.64576149 4 6 6282 4.12800000 3057516903 3057516903 -9.00000000
8.24038219 4.22952843 1.13728476 85 7 6283 9.33200000 3057516905 3057516905 7.00000000
4.89945698 2.51365662 -0.67613113 6 8 6284 5.54800000 3057516908 3057516908 -7.00000000
19.84112167 10.17944717 3.53197742 5 9 6284 22.57800000 3057516910 3057516910 9.00000000
6.68190098 3.42666292 -0.65697998 12 10 6285 7.53800000 3057516912 3057516912 -5.00000000
17.07430458 8.75240993 3.72955251 41 11 6286 19.54600000 3057516915 3057516915 11.00000000
8.20320415 4.20321274 -0.48306087 12 12 6287 9.23000000 3057516917 3057516917 -3.00000000
8.26828289 4.23473644 2.14468336 75 13 6288 9.53400000 3057516919 3057516919 13.00000000
8.20577908 4.20091677 -0.16091119 16 14 6289 9.22000000 3057516921 3057516921 -1.00000000
7.83006287 4.00684595 2.35680628 47 15 6290 9.10600000 3057516924 3057516924 15.00000000
2.02542043 1.03333938 -0.60926002 4 0 6297 2.35400000 3057516944 3057516944 -15.00000000
8.20346069 4.18347931 0.16073667 12 1 6298 9.21000000 3057516947 3057516947 1.00000000
8.19653320 4.17814398 -2.12398791 8 2 6299 9.44200000 3057516949 3057516949 -13.00000000
8.22444534 4.19237232 0.48379359 13 3 6299 9.24400000 3057516951 3057516951 3.00000000
2.87405467 1.46440399 -0.62699836 5 4 6300 3.28600000 3057516954 3057516954 -11.00000000
8.21117783 4.18199921 0.80619061 75 5 6301 9.25000000 3057516956 3057516956 5.00000000
3.62991691 1.84793925 -0.64513576 6 6 6302 4.12400000 3057516958 3057516958 -9.00000000
8.24448013 4.19533634 1.13582230 92 7 6303 9.32000000 3057516961 3057516961 7.00000000
4.90466309 2.49473906 -0.67564362 6 8 6304 5.54400000 3057516963 3057516963 -7.00000000
19.98747063 10.16216373 3.55137515 21 9 6305 22.70200000 3057516965 3057516965 9.00000000
6.67961359 3.39609408 -0.65558547 12 10 6305 7.52200000 3057516968 3057516968 -5.00000000
17.09775162 8.68919849 3.72802615 41 11 6306 19.53800000 3057516970 3057516970 11.00000000
8.20892239 4.17003012 -0.48253751 17 12 6307 9.22000000 3057516972 3057516972 -3.00000000
8.27606392 4.20232010 2.14288378 80 13 6308 9.52600000 3057516974 3057516974 13.00000000
8.20256138 4.16319704 -0.16056214 16 14 6309 9.20000000 3057516977 3057516977 -1.00000000
7.83883333 3.97686720 2.35525322 45 15 6310 9.10000000 3057516979 3057516979 15.00000000
2.02901506 1.02626312 -0.60926002 4 0 6317 2.35400000 3057517000 3057517000 -15.00000000
8.19659805 4.14399147 0.16031781 12 1 6318 9.18600000 3057517002 3057517002 1.00000000
2.40714192 1.21646225 -0.62266451 4 2 6319 2.76800000 3057517004 3057517004 -13.00000000
8.22655106 4.15733242 0.48306087 13 3 6319 9.23000000 3057517007 3057517007 3.00000000
2.88265371 1.45613313 -0.62776160 5 4 6320 3.29000000 3057517009 3057517009 -11.00000000
8.21505451 4.14792299 0.80514473 75 5 6321 9.23800000 3057517011 3057517011 5.00000000
3.62576413 1.82991695 -0.64325851 6 6 6322 4.11200000 3057517014 3057517014 -9.00000000
8.23426247 4.15401506 1.13240993 97 7 6323 9.29200000 3057517016 3057517016 7.00000000
4.89916134 2.47045302 -0.67369372 6 8 6324 5.52800000 3057517018 3057517018 -7.00000000
20.12688828 10.14919281 3.57014728 10 9 6324 22.82200000 3057517021 3057517021 9.00000000
6.67363596 3.36378932 -0.65384239 12 10 6325 7.50200000 3057517023 3057517023 -5.00000000
17.11044502 8.62062931 3.72421002 41 11 6326 19.51800000 3057517025 3057517025 11.00000000
8.21094131 4.13506174 -0.48180482 17 12 6327 9.20600000 3057517027 3057517027 -3.00000000
8.27327538 4.16464329 2.13838482 78 13 6328 9.50600000 3057517030 3057517030 13.00000000
8.20632553 4.12914658 -0.16035271 16 14 6329 9.18800000 3057517032 3057517032 -1.00000000
7.85094166 3.94861221 2.35473561 45 15 6330 9.09800000 3057517034 3057517034 15.00000000
2.03603888 1.02090609 -0.61029530 4 0 6337 2.35800000 3057517055 3057517055 -15.00000000
8.20386314 4.11177111 0.16017818 12 1 6338 9.17800000 3057517057 3057517057 1.00000000
2.40091968 1.20281518 -0.61996508 4 2 6339 2.75600000 3057517060 3057517060 -13.00000000
8.22315598 4.11964464 0.48201415 15 3 6339 9.21000000 3057517062 3057517062 3.00000000
2.88947439 1.44694102 -0.62814319 5 4 6340 3.29200000 3057517064 3057517064 -11.00000000
8.22235680 4.11565495 0.80444753 78 5 6341 9.23000000 3057517067 3057517067 5.00000000
3.64272928 1.82255280 -0.64513576 6 6 6342 4.12400000 3057517069 3057517069 -9.00000000
8.22740650 4.11459160 1.12948513 92 7 6343 9.26800000 3057517071 3057517071 7.00000000
4.91130638 2.45511198 -0.67418122 6 8 6344 5.53200000 3057517074 3057517074 -7.00000000
8.32743931 4.16280222 1.47455132 2 9 6344 9.42600000 3057517076 3057517076 9.00000000
6.72276497 3.35917521 -0.65750295 8 10 6345 7.54400000 3057517078 3057517078 -5.00000000
17.14394569 8.56260490 3.72497320 41 11 6346 19.52200000 3057517080 3057517080 11.00000000
8.20209503 4.09477758 -0.48044407 17 12 6347 9.18000000 3057517083 3057517083 -3.00000000
8.26335144 4.12355709 2.13208604 72 13 6348 9.47800000 3057517085 3057517085 13.00000000
8.20995235 4.09512043 -0.16014329 16 14 6349 9.17600000 3057517087 3057517087 -1.00000000
7.87159252 3.92463136 2.35680628 45 15 6350 9.10600000 3057517090 3057517090 15.00000000
2.04996967 1.01895201 -0.61340111 4 0 6357 2.37000000 3057517110 3057517110 -15.00000000
8.21100235 4.07955027 0.16003856 12 1 6358 9.17000000 3057517113 3057517113 1.00000000
8.18747520 4.06607914 -2.11049080 8 2 6359 9.38200000 3057517115 3057517115 -13.00000000
8.20349789 4.07403660 0.48002538 13 3 6359 9.17200000 3057517117 3057517117 3.00000000
2.88747334 1.43335426 -0.62661672 5 4 6360 3.28400000 3057517120 3057517120 -11.00000000
8.22417927 4.08072948 0.80322731 86 5 6361 9.21600000 3057517122 3057517122 5.00000000
3.63845110 1.80456007 -0.64325851 4 6 6362 4.11200000 3057517124 3057517124 -9.00000000
8.22749138 4.07879400 1.12753522 95 7 6363 9.25200000 3057517126 3057517126 7.00000000
4.90561676 2.43090200 -0.67223132 6 8 6364 5.51600000 3057517129 3057517129 -7.00000000
18.77064705 9.30150223 3.31797504 9 9 6364 21.21000000 3057517131 3057517131 9.00000000
6.77015734 3.35337448 -0.66098917 4 10 6365 7.58400000 3057517133 3057517133 -5.00000000
17.16317368 8.49748230 3.72268343 41 11 6366 19.51000000 3057517136 3057517136 11.00000000
8.21275902 4.06435013 -0.48023474 17 12 6367 9.17600000 3057517138 3057517138 -3.00000000
8.26372051 4.08777523 2.12848687 72 13 6368 9.46200000 3057517140 3057517140 13.00000000
8.20268631 4.05580187 -0.15972443 18 14 6369 9.15200000 3057517143 3057517143 -1.00000000
7.88975906 3.90107536 2.35835910 47 15 6369 9.11200000 3057517145 3057517145 15.00000000
2.04311657 1.00666714 -0.61029530 4 0 6377 2.35800000 3057517166 3057517166 -15.00000000
8.20725346 4.04202843 0.15968952 12 1 6378 9.15000000 3057517168 3057517168 1.00000000
8.20161915 4.03747511 -2.11049080 8 2 6379 9.38200000 3057517170 3057517170 -13.00000000
8.21408558 4.04361200 0.47981605 13 3 6379 9.16800000 3057517173 3057517173 3.00000000
2.89245915 1.42326641 -0.62661672 5 4 6380 3.28400000 3057517175 3057517175 -11.00000000
8.22228336 4.04408264 0.80165851 82 5 6381 9.19800000 3057517177 3057517177 5.00000000
3.66954613 1.80404973 -0.64763868 4 6 6382 4.14000000 3057517179 3057517179 -9.00000000
8.23098850 4.04479694 1.12607276 95 7 6383 9.24000000 3057517182 3057517182 7.00000000
4.93189001 2.42251539 -0.67466867 9 8 6384 5.53600000 3057517184 3057517184 -7.00000000
20.55830193 10.09811783 3.62771535 33 9 6384 23.19000000 3057517186 3057517186 9.00000000
7.54906845 3.70642281 -0.73576880 13 10 6385 8.44200000 3057517189 3057517189 -5.00000000
17.18920517 8.43579006 3.72192025 26 11 6386 19.50600000 3057517191 3057517191 11.00000000
8.21255112 4.02862072 -0.47939736 17 12 6387 9.16000000 3057517193 3057517193 -3.00000000
8.26394176 4.05204105 2.12488770 72 13 6388 9.44600000 3057517196 3057517196 13.00000000
8.19524670 4.01658344 -0.15930557 18 14 6389 9.12800000 3057517198 3057517198 -1.00000000
7.89359522 3.86703229 2.35525322 45 15 6390 9.10000000 3057517200 3057517200 15.00000000
2.03967428 0.99613804 -0.60822475 4 0 6397 2.35000000 3057517221 3057517221 -15.00000000
8.19974804 4.00282812 0.15927066 12 1 6398 9.12600000 3057517223 3057517223 1.00000000
8.20165157 4.00198460 -2.10689163 8 2 6399 9.36600000 3057517226 3057517226 -13.00000000
8.22705555 4.01260328 0.47971138 13 3 6400 9.16600000 3057517228 3057517228 3.00000000
2.89035153 1.40971863 -0.62509024 5 4 6400 3.27600000 3057517230 3057517230 -11.00000000
8.21485901 4.00487995 0.79956681 82 5 6401 9.17400000 3057517232 3057517232 5.00000000
3.66161489 1.78430700 -0.64513576 4 6 6402 4.12400000 3057517235 3057517235 -9.00000000
8.23078060 4.00908661 1.12412286 97 7 6403 9.22400000 3057517237 3057517237 7.00000000
4.94388533 2.40702295 -0.67515618 6 8 6404 5.54000000 3057517239 3057517239 -7.00000000
7.54404545 3.67133069 -0.73402566 13 10 6405 8.42200000 3057517244 3057517244 -5.00000000
8.21578598 3.99468899 -0.47876933 17 12 6407 9.14800000 3057517249 3057517249 -3.00000000
8.26751900 4.01805878 2.12218833 70 13 6408 9.43400000 3057517251 3057517251 13.00000000
8.20022392 3.98358345 -0.15913104 14 14 6409 9.11800000 3057517253 3057517253 -1.00000000
7.90811300 3.84167910 2.35577106 45 15 6409 9.10200000 3057517256 3057517256 15.00000000
2.05183339 0.99322075 -0.61081296 4 0 6417 2.36000000 3057517276 3057517276 -15.00000000
8.19927025 3.96721387 0.15899143 15 1 6418 9.11000000 3057517279 3057517279 1.00000000
8.19451904 3.96314979 -2.10149264 8 2 6419 9.34200000 3057517281 3057517281 -13.00000000
8.22303104 3.97516823 0.47866467 10 3 6420 9.14600000 3057517283 3057517283 3.00000000
2.89878988 1.40132976 -0.62585348 5 4 6420 3.28000000 3057517285 3057517285 -11.00000000
8.21443748 3.96924543 0.79817230 82 5 6421 9.15800000 3057517288 3057517288 5.00000000
3.65714836 1.76636004 -0.64325851 4 6 6422 4.11200000 3057517290 3057517290 -9.00000000
8.22327232 3.96997476 1.12119794 92 7 6423 9.20000000 3057517292 3057517292 7.00000000
4.95225763 2.38975096 -0.67515618 6 8 6424 5.54000000 3057517295 3057517295 -7.00000000
20.77949142 10.02283669 3.65399623 28 9 6425 23.35800000 3057517297 3057517297 9.00000000
7.57117128 3.65189934 -0.73542017 13 10 6425 8.43800000 3057517299 3057517299 -5.00000000
17.24944687 8.31643486 3.72230196 30 11 6426 19.50800000 3057517302 3057517302 11.00000000
8.20269203 3.95298004 -0.47719926 17 12 6427 9.11800000 3057517304 3057517304 -3.00000000
8.27096081 3.98410106 2.11948872 64 13 6428 9.42200000 3057517306 3057517306 13.00000000
8.20146656 3.94886255 -0.15888670 18 14 6429 9.10400000 3057517309 3057517309 -1.00000000
7.92910337 3.81601977 2.35784149 45 15 6430 9.11000000 3057517311 3057517311 15.00000000
2.04640770 0.98223144 -0.60822475 4 0 6436 2.35000000 3057517332 3057517332 -15.00000000
8.19976044 3.93394732 0.15874709 18 1 6437 9.09600000 3057517334 3057517334 1.00000000
8.19180202 3.92837024 -2.09744358 8 2 6438 9.32400000 3057517336 3057517336 -13.00000000
8.20374870 3.93233848 0.47678056 10 3 6439 9.11000000 3057517338 3057517338 3.00000000
2.91404319 1.39680088 -0.62814319 5 4 6439 3.29200000 3057517341 3057517341 -11.00000000
8.22036743 3.93853998 0.79747504 82 5 6440 9.15000000 3057517343 3057517343 5.00000000
3.65942264 1.75251627 -0.64263278 6 6 6441 4.10800000 3057517345 3057517345 -9.00000000
8.22385883 3.93668389 1.11949182 87 7 6442 9.18600000 3057517348 3057517348 7.00000000
4.94582939 2.36646128 -0.67320627 6 8 6443 5.52400000 3057517350 3057517350 -7.00000000
20.81800270 9.96091652 3.65524769 50 9 6443 23.36600000 3057517352 3057517352 9.00000000
7.57245541 3.62161469 -0.73437428 13 10 6444 8.42600000 3057517355 3057517355 -5.00000000
17.28578758 8.26342201 3.72421002 45 11 6445 19.51800000 3057517357 3057517357 11.00000000
8.19593239 3.91628504 -0.47604784 17 12 6446 9.09600000 3057517359 3057517359 -3.00000000
8.27005959 3.94993258 2.11588955 68 13 6447 9.40600000 3057517362 3057517362 13.00000000
8.20729828 3.91819763 -0.15874709 16 14 6448 9.09600000 3057517364 3057517364 -1.00000000
7.95499945 3.79774928 2.36198258 45 15 6448 9.12600000 3057517366 3057517366 15.00000000
2.05505729 0.97757173 -0.60977769 4 0 6456 2.35600000 3057517387 3057517387 -15.00000000
8.20621872 3.90186620 0.15860747 18 1 6457 9.08800000 3057517389 3057517389 1.00000000
8.18434334 3.88971353 -2.09204483 8 2 6458 9.30000000 3057517391 3057517391 -13.00000000
8.20660114 3.89853597 0.47615254 10 3 6459 9.09800000 3057517394 3057517394 3.00000000
2.90648770 1.38072360 -0.62547189 5 4 6459 3.27800000 3057517396 3057517396 -11.00000000
8.21966648 3.90298486 0.79608053 78 5 6460 9.13400000 3057517398 3057517398 5.00000000
3.67265606 1.74311984 -0.64388424 6 6 6461 4.11600000 3057517401 3057517401 -9.00000000
8.22320271 3.90114641 1.11754191 90 7 6462 9.17000000 3057517403 3057517403 7.00000000
4.95764732 2.35088372 -0.67369372 6 8 6463 5.52800000 3057517405 3057517405 -7.00000000
7.59945393 3.60198665 -0.73576880 13 10 6464 8.44200000 3057517410 3057517410 -5.00000000
17.31097794 8.20135212 3.72344685 41 11 6465 19.51400000 3057517412 3057517412 11.00000000
8.19330692 3.87995887 -0.47510582 17 12 6466 9.07800000 3057517414 3057517414 -3.00000000
8.26618290 3.91270328 2.11139059 72 13 6467 9.38600000 3057517417 3057517417 13.00000000
8.19923401 3.87926245 -0.15832824 16 14 6468 9.07200000 3057517419 3057517419 -1.00000000
7.98283672 3.77517438 2.36612368 45 15 6469 9.14200000 3057517421 3057517421 15.00000000
2.04955149 0.96663123 -0.60718948 4 0 6475 2.34600000 3057517442 3057517442 -15.00000000
8.21368694 3.87207365 0.15850276 18 1 6476 9.08200000 3057517444 3057517444 1.00000000
8.18661976 3.85756803 -2.08934546 8 2 6477 9.28800000 3057517447 3057517447 -13.00000000
8.21044922 3.86704540 0.47562918 10 3 6478 9.08800000 3057517449 3057517449 3.00000000
2.91282654 1.37191427 -0.62585348 5 4 6478 3.28000000 3057517451 3057517451 -11.00000000
8.21453857 3.86721945 0.79433745 78 5 6479 9.11400000 3057517454 3057517454 5.00000000
3.68199086 1.73261344 -0.64450997 6 6 6480 4.12000000 3057517456 3057517456 -9.00000000
8.22890854 3.87047625 1.11656690 83 7 6481 9.16200000 3057517458 3057517458 7.00000000
4.96182299 2.33274150 -0.67320627 6 8 6482 5.52400000 3057517461 3057517461 -7.00000000
8.34304523 3.92238259 1.46015930 2 9 6482 9.33400000 3057517463 3057517463 9.00000000
7.59693098 3.56998706 -0.73437428 13 10 6483 8.42600000 3057517465 3057517465 -5.00000000
17.34518814 8.14723969 3.72497320 45 11 6484 19.52200000 3057517467 3057517467 11.00000000
8.20251274 3.85106993 -0.47489646 17 12 6485 9.07400000 3057517470 3057517470 -3.00000000
8.25970650 3.87616348 2.10644174 74 13 6486 9.36400000 3057517472 3057517472 13.00000000
8.18670750 3.84016228 -0.15783957 16 14 6487 9.04400000 3057517474 3057517474 -1.00000000
7.98066521 3.74351358 2.36198258 45 15 6487 9.12600000 3057517477 3057517477 15.00000000
2.05816364 0.96192491 -0.60874242 4 0 6495 2.35200000 3057517497 3057517497 -15.00000000
8.19816494 3.82983708 0.15794428 15 1 6496 9.05000000 3057517500 3057517500 1.00000000
8.18944168 3.82402086 -2.08664608 8 2 6497 9.27600000 3057517502 3057517502 -13.00000000
8.21122932 3.83244920 0.47489646 10 3 6498 9.07400000 3057517504 3057517504 3.00000000
2.91403961 1.36007762 -0.62509024 5 4 6498 3.27600000 3057517507 3057517507 -11.00000000
8.20451450 3.82757163 0.79207140 78 5 6499 9.08800000 3057517509 3057517509 5.00000000
3.68801641 1.71975029 -0.64450997 6 6 6500 4.12000000 3057517511 3057517511 -9.00000000
8.22977448 3.83585811 1.11486077 90 7 6501 9.14800000 3057517514 3057517514 7.00000000
4.96813631 2.31456900 -0.67296249 9 8 6502 5.52200000 3057517516 3057517516 -7.00000000
7.59850931 3.53840065 -0.73332840 13 10 6503 8.41400000 3057517520 3057517520 -5.00000000
17.36284256 8.08167362 3.72268343 45 11 6504 19.51000000 3057517523 3057517523 11.00000000
8.21590519 3.82241440 -0.47489646 17 12 6505 9.07400000 3057517525 3057517525 -3.00000000
8.25905037 3.84073424 2.10284257 74 13 6506 9.34800000 3057517527 3057517527 13.00000000
8.19462204 3.80903339 -0.15773486 14 14 6507 9.03800000 3057517530 3057517530 -1.00000000
7.98732424 3.71098208 2.35991216 45 15 6508 9.11800000 3057517532 3057517532 15.00000000
2.06167531 0.95437491 -0.60874242 4 0 6516 2.35200000 3057517553 3057517553 -15.00000000
8.20125771 3.79472518 0.15773486 12 1 6517 9.03800000 3057517555 3057517555 1.00000000
8.18040848 3.78334498 -2.08079720 8 2 6518 9.25000000 3057517557 3057517557 -13.00000000
8.21434307 3.79729915 0.47426844 10 3 6519 9.06200000 3057517560 3057517560 3.00000000
2.92969728 1.35433078 -0.62737995 5 4 6519 3.28800000 3057517562 3057517562 -11.00000000
8.19859314 3.78828192 0.79015398 75 5 6520 9.06600000 3057517564 3057517564 5.00000000
3.67994809 1.69959545 -0.64200705 4 6 6521 4.10400000 3057517567 3057517567 -9.00000000
8.22214985 3.79568458 1.11193585 92 7 6522 9.12400000 3057517569 3057517569 7.00000000
4.98379564 2.29967117 -0.67393744 9 8 6523 5.53000000 3057517571 3057517571 -7.00000000
17.78031349 8.20436382 3.10146976 4 9 6523 19.82600000 3057517573 3057517573 9.00000000
7.61504555 3.51219583 -0.73367703 13 10 6524 8.41800000 3057517576 3057517576 -5.00000000
17.37451744 8.00976181 3.71886730 41 11 6525 19.49000000 3057517578 3057517578 11.00000000
8.19539452 3.77639461 -0.47290769 17 12 6526 9.03600000 3057517580 3057517580 -3.00000000
8.26599216 3.80717659 2.10104275 74 13 6527 9.34000000 3057517583 3057517583 13.00000000
8.19944572 3.77479172 -0.15756032 16 14 6528 9.02800000 3057517585 3057517585 -1.00000000
8.01075840 3.68792558 2.36301780 45 15 6528 9.13000000 3057517587 3057517587 15.00000000
2.06850600 0.94878334 -0.60977769 4 0 6536 2.35600000 3057517608 3057517608 -15.00000000
8.19445801 3.75690722 0.15735090 12 1 6537 9.01600000 3057517610 3057517610 1.00000000
8.17053413 3.74421310 -2.07494855 8 2 6538 9.22400000 3057517613 3057517613 -13.00000000
8.21846867 3.76444411 0.47374508 10 3 6539 9.05200000 3057517615 3057517615 3.00000000
2.92726731 1.34082568 -0.62585348 5 4 6539 3.28000000 3057517617 3057517617 -11.00000000
8.20452118 3.75632286 0.78945673 75 5 6540 9.05800000 3057517620 3057517620 5.00000000
3.70741320 1.69660366 -0.64576149 4 6 6541 4.12800000 3057517622 3057517622 -9.00000000
8.22090816 3.76035500 1.10998595 95 7 6542 9.10800000 3057517624 3057517624 7.00000000
4.98637676 2.27978420 -0.67320627 9 8 6543 5.52400000 3057517626 3057517626 -7.00000000
8.28977776 3.78835821 1.44357729 2 9 6544 9.22800000 3057517629 3057517629 9.00000000
7.62725925 3.48559308 -0.73367703 13 10 6544 8.41800000 3057517631 3057517631 -5.00000000
17.40237045 7.94906473 3.71886730 45 11 6545 19.49000000 3057517633 3057517633 11.00000000
8.19580936 3.74195766 -0.47217500 17 12 6546 9.02200000 3057517636 3057517636 -3.00000000
8.26150322 3.77020907 2.09654379 74 13 6547 9.32000000 3057517638 3057517638 13.00000000
8.21257210 3.74614739 -0.15756032 16 14 6548 9.02800000 3057517640 3057517640 -1.00000000
8.02773666 3.66014290 2.36405325 45 15 6549 9.13400000 3057517643 3057517643 15.00000000
2.07339954 0.94271833 -0.61029530 4 0 6555 2.35800000 3057517663 3057517663 -15.00000000
8.19412804 3.72392106 0.15710656 12 1 6556 9.00200000 3057517666 3057517666 1.00000000
8.16516304 3.70903850 -2.07044959 8 2 6557 9.20400000 3057517668 3057517668 -13.00000000
8.20726585 3.72643566 0.47238433 13 3 6558 9.02600000 3057517670 3057517670 3.00000000
2.93527269 1.33273447 -0.62661672 5 4 6558 3.28400000 3057517673 3057517673 -11.00000000
8.21330357 3.72744823 0.78910810 75 5 6559 9.05400000 3057517675 3057517675 5.00000000
3.69862747 1.67777181 -0.64325851 6 6 6560 4.11200000 3057517677 3057517677 -9.00000000
8.21886921 3.72651482 1.10803604 95 7 6561 9.09200000 3057517679 3057517679 7.00000000
4.97944498 2.25668097 -0.67125636 6 8 6562 5.50800000 3057517682 3057517682 -7.00000000
17.77817154 8.05705452 3.09145784 4 9 6562 19.76200000 3057517684 3057517684 9.00000000
7.64603519 3.46356940 -0.73437428 13 10 6563 8.42600000 3057517686 3057517686 -5.00000000
17.42863464 7.89131260 3.71886730 45 11 6564 19.49000000 3057517689 3057517689 11.00000000
8.19907475 3.71064138 -0.47165164 17 12 6565 9.01200000 3057517691 3057517691 -3.00000000
8.24732685 3.73074460 2.08979535 72 13 6566 9.29000000 3057517693 3057517693 13.00000000
8.19397354 3.70488739 -0.15696694 16 14 6567 8.99400000 3057517696 3057517696 -1.00000000
8.04975796 3.63968039 2.36715889 45 15 6567 9.14600000 3057517698 3057517698 15.00000000
2.06610942 0.93071437 -0.60718948 4 0 6575 2.34600000 3057517719 3057517719 -15.00000000
8.20707703 3.69529557 0.15710656 12 1 6576 9.00200000 3057517721 3057517721 1.00000000
8.17806053 3.68051410 -2.07044959 8 2 6577 9.20400000 3057517723 3057517723 -13.00000000
8.20929432 3.69284821 0.47175631 13 3 6578 9.01400000 3057517726 3057517726 3.00000000
2.93632603 1.32086945 -0.62585348 5 4 6578 3.28000000 3057517728 3057517728 -11.00000000
8.20627594 3.68976831 0.78719068 78 5 6579 9.03200000 3057517730 3057517730 5.00000000
3.72608280 1.67456794 -0.64701295 6 6 6580 4.13600000 3057517732 3057517732 -9.00000000
8.22096252 3.69292235 1.10657358 92 7 6581 9.08000000 3057517735 3057517735 7.00000000
4.99091339 2.24091172 -0.67174381 9 8 6582 5.51200000 3057517737 3057517737 -7.00000000
17.76834488 7.97795677 3.08488774 12 9 6582 19.72000000 3057517739 3057517739 9.00000000
7.66171455 3.43849015 -0.73472291 13 10 6583 8.43000000 3057517742 3057517742 -5.00000000
17.45965767 7.83203459 3.71963048 41 11 6584 19.49400000 3057517744 3057517744 11.00000000
8.21015549 3.68118143 -0.47154698 12 12 6585 9.01000000 3057517746 3057517746 -3.00000000
8.24962902 3.69715142 2.08709598 70 13 6586 9.27800000 3057517749 3057517749 13.00000000
8.20320606 3.67462754 -0.15689713 14 14 6587 8.99000000 3057517751 3057517751 -1.00000000
7.10860538 3.18430066 2.08711672 15 15 6587 8.06400000 3057517753 3057517753 15.00000000
2.07287383 0.92507124 -0.60822475 4 0 6595 2.35000000 3057517774 3057517774 -15.00000000
8.19618511 3.65603495 0.15665279 12 1 6596 8.97600000 3057517776 3057517776 1.00000000
8.18373871 3.64877081 -2.06865001 8 2 6597 9.19600000 3057517779 3057517779 -13.00000000
8.21301365 3.66010475 0.47123295 13 3 6598 9.00400000 3057517781 3057517781 3.00000000
2.93733239 1.30901349 -0.62509024 6 4 6598 3.27600000 3057517783 3057517783 -11.00000000
8.19908524 3.65218306 0.78527325 78 5 6599 9.01000000 3057517785 3057517785 5.00000000
3.71385932 1.65351677 -0.64388424 6 6 6600 4.11600000 3057517788 3057517788 -9.00000000
8.21929359 3.65774655 1.10462368 95 7 6601 9.06400000 3057517790 3057517790 7.00000000
5.00233316 2.22509027 -0.67223132 6 8 6602 5.51600000 3057517792 3057517792 -7.00000000
17.78122139 7.90555620 3.08207178 8 9 6603 19.70200000 3057517795 3057517795 9.00000000
7.65182352 3.40201187 -0.73263115 13 10 6603 8.40600000 3057517797 3057517797 -5.00000000
17.48688889 7.77104139 3.71963048 41 11 6604 19.49400000 3057517799 3057517799 11.00000000
8.21200275 3.64763570 -0.47091892 12 12 6605 8.99800000 3057517802 3057517802 -3.00000000
8.25536060 3.66516924 2.08529639 70 13 6606 9.27000000 3057517804 3057517804 13.00000000
8.19587708 3.63704824 -0.15651318 16 14 6607 8.96800000 3057517806 3057517806 -1.00000000
7.11614561 3.15790033 2.08608150 45 15 6607 8.06000000 3057517808 3057517808 15.00000000
2.06902266 0.91470540 -0.60615420 4 0 6615 2.34200000 3057517829 3057517829 -15.00000000
8.19975090 3.62336135 0.15647827 12 1 6616 8.96600000 3057517832 3057517832 1.00000000
8.18216419 3.61388326 -2.06505060 8 2 6617 9.18000000 3057517834 3057517834 -13.00000000
8.21660423 3.62738061 0.47070959 13 3 6618 8.99400000 3057517836 3057517836 3.00000000
2.95086408 1.30271673 -0.62699836 5 4 6618 3.28600000 3057517838 3057517838 -11.00000000
8.20084763 3.61871457 0.78422737 78 5 6619 8.99800000 3057517841 3057517841 5.00000000
3.69791985 1.63097703 -0.64012980 6 6 6620 4.09200000 3057517843 3057517843 -9.00000000
8.21929646 3.62342834 1.10291755 99 7 6621 9.05000000 3057517845 3057517845 7.00000000
5.01733589 2.21081686 -0.67320627 9 8 6622 5.52400000 3057517848 3057517848 -7.00000000
17.78701401 7.83388567 3.07831740 4 9 6623 19.67800000 3057517850 3057517850 9.00000000
7.67641592 3.38090253 -0.73385137 13 10 6623 8.42000000 3057517852 3057517852 -5.00000000
17.50492477 7.70599794 3.71772242 41 11 6624 19.48400000 3057517855 3057517855 11.00000000
8.19726372 3.60688233 -0.46934885 17 12 6625 8.96800000 3057517857 3057517857 -3.00000000
8.25740051 3.63162327 2.08259678 64 13 6626 9.25800000 3057517859 3057517859 13.00000000
8.19204807 3.60117459 -0.15619904 18 14 6627 8.95000000 3057517861 3057517861 -1.00000000
7.12767220 3.13179731 2.08608150 42 15 6628 8.06000000 3057517864 3057517864 15.00000000
2.07912254 0.91094029 -0.60822475 4 0 6634 2.35000000 3057517885 3057517885 -15.00000000
8.18424511 3.58411765 0.15595470 12 1 6635 8.93600000 3057517887 3057517887 1.00000000
8.17268085 3.57735324 -2.05965185 8 2 6636 9.15600000 3057517889 3057517889 -13.00000000
8.20662975 3.59050679 0.46945351 13 3 6637 8.97000000 3057517891 3057517891 3.00000000
2.94617462 1.28898942 -0.62509024 5 4 6637 3.27600000 3057517894 3057517894 -11.00000000
8.21097660 3.59070134 0.78405309 82 5 6638 8.99600000 3057517896 3057517896 5.00000000
3.71597838 1.62424338 -0.64231992 6 6 6639 4.10600000 3057517898 3057517898 -9.00000000
8.20761967 3.58582067 1.09974897 97 7 6640 9.02400000 3057517901 3057517901 7.00000000
5.01736259 2.19098902 -0.67223132 9 8 6641 5.51600000 3057517903 3057517903 -7.00000000
21.22194862 9.26282120 3.66744971 16 9 6642 23.44400000 3057517905 3057517905 9.00000000
7.68758488 3.35542822 -0.73385137 13 10 6642 8.42000000 3057517908 3057517908 -5.00000000
17.52858353 7.64712238 3.71734095 41 11 6643 19.48200000 3057517910 3057517910 11.00000000
8.19453335 3.57329297 -0.46851149 17 12 6644 8.95200000 3057517912 3057517912 -3.00000000
8.25510693 3.59799170 2.07899761 64 13 6645 9.24200000 3057517914 3057517914 13.00000000
8.19294453 3.56919694 -0.15598960 20 14 6646 8.93800000 3057517917 3057517917 -1.00000000
7.13747597 3.10938954 2.08608150 42 15 6646 8.06000000 3057517919 3057517919 15.00000000
2.08937836 0.90675360 -0.61029530 4 0 6654 2.35800000 3057517940 3057517940 -15.00000000
8.18936825 3.55234432 0.15581508 15 1 6655 8.92800000 3057517942 3057517942 1.00000000
8.17081547 3.54260206 -2.05605268 8 2 6656 9.14000000 3057517944 3057517944 -13.00000000
8.19712257 3.55230832 0.46819746 10 3 6657 8.94600000 3057517947 3057517947 3.00000000
2.95606017 1.28103948 -0.62623513 6 4 6657 3.28200000 3057517949 3057517949 -11.00000000
8.20883465 3.55568242 0.78265858 82 5 6658 8.98000000 3057517951 3057517951 5.00000000
3.72706366 1.61361682 -0.64325851 6 6 6659 4.11200000 3057517954 3057517954 -9.00000000
8.20915508 3.55241871 1.09828651 90 7 6660 9.01200000 3057517956 3057517956 7.00000000
5.02862406 2.17503810 -0.67271876 9 8 6661 5.52000000 3057517958 3057517958 -7.00000000
21.23420715 9.18006325 3.66400814 28 9 6662 23.42200000 3057517961 3057517961 9.00000000
7.70290852 3.33015418 -0.73420000 13 10 6662 8.42400000 3057517963 3057517963 -5.00000000
17.56237793 7.58900452 3.71886730 30 11 6663 19.49000000 3057517965 3057517965 11.00000000
8.19962215 3.54149914 -0.46809280 17 12 6664 8.94400000 3057517967 3057517967 -3.00000000
8.24972439 3.56143045 2.07449865 62 13 6665 9.22200000 3057517970 3057517970 13.00000000
8.18882942 3.53344631 -0.15567547 18 14 6666 8.92000000 3057517972 3057517972 -1.00000000
7.15360737 3.08675241 2.08763433 45 15 6666 8.06600000 3057517974 3057517974 15.00000000
2.08720613 0.89716613 -0.60874242 4 0 6674 2.35200000 3057517995 3057517995 -15.00000000
8.18702030 3.51742148 0.15553585 18 1 6675 8.91200000 3057517997 3057517997 1.00000000
8.18671227 3.51559687 -2.05695248 8 2 6676 9.14400000 3057518000 3057518000 -13.00000000
8.19968128 3.52116585 0.46767411 13 3 6676 8.93600000 3057518002 3057518002 3.00000000
2.95329738 1.26761568 -0.62470865 5 4 6677 3.27400000 3057518004 3057518004 -11.00000000
8.20288658 3.51915145 0.78091544 82 5 6678 8.96000000 3057518007 3057518007 5.00000000
3.72904253 1.59904015 -0.64263278 6 6 6679 4.10800000 3057518009 3057518009 -9.00000000
8.21785641 3.52217770 1.09779906 95 7 6680 9.00800000 3057518011 3057518011 7.00000000
5.03618574 2.15747166 -0.67271876 9 8 6681 5.52000000 3057518013 3057518013 -7.00000000
21.25182343 9.10415268 3.66181803 56 9 6681 23.40800000 3057518016 3057518016 9.00000000
7.71082306 3.30167723 -0.73385137 13 10 6682 8.42000000 3057518018 3057518018 -5.00000000
17.59417725 7.52997160 3.72001219 33 11 6683 19.49600000 3057518020 3057518020 11.00000000
8.19357204 3.50500035 -0.46704608 17 12 6684 8.92400000 3057518023 3057518023 -3.00000000
8.25852203 3.53107953 2.07359886 62 13 6685 9.21800000 3057518025 3057518025 13.00000000
8.18088627 3.49619627 -0.15529151 20 14 6686 8.89800000 3057518027 3057518027 -1.00000000
7.15900946 3.05948520 2.08608150 45 15 6686 8.06000000 3057518030 3057518030 15.00000000
2.07966018 0.88533473 -0.60563654 4 0 6694 2.34000000 3057518050 3057518050 -15.00000000
8.19372845 3.48647308 0.15543114 15 1 6695 8.90600000 3057518053 3057518053 1.00000000
8.17920780 3.47860885 -2.05200362 8 2 6696 9.12200000 3057518055 3057518055 -13.00000000
8.20150280 3.48640060 0.46704608 10 3 6697 8.92400000 3057518057 3057518057 3.00000000
2.95951104 1.25806713 -0.62509024 6 4 6697 3.27600000 3057518060 3057518060 -11.00000000
8.19494915 3.48192620 0.77899802 86 5 6698 8.93800000 3057518062 3057518062 5.00000000
3.74551082 1.59064651 -0.64450997 6 6 6699 4.12000000 3057518064 3057518064 -9.00000000
8.21913719 3.48881674 1.09633660 92 7 6700 8.99600000 3057518066 3057518066 7.00000000
5.04734087 2.14142942 -0.67320627 6 8 6701 5.52400000 3057518069 3057518069 -7.00000000
21.29050446 9.02851295 3.66275668 56 9 6702 23.41400000 3057518071 3057518071 9.00000000
7.71129513 3.27007437 -0.73280549 13 10 6702 8.40800000 3057518073 3057518073 -5.00000000
17.62216187 7.46927691 3.72039390 33 11 6703 19.49800000 3057518076 3057518076 11.00000000
8.20943451 3.47793627 -0.46725541 17 12 6704 8.92800000 3057518078 3057518078 -3.00000000
8.26361942 3.49919081 2.07179928 64 13 6705 9.21000000 3057518080 3057518080 13.00000000
8.19488239 3.46839762 -0.15532641 16 14 6706 8.90000000 3057518083 3057518083 -1.00000000
7.16127872 3.02946234 2.08349323 40 15 6707 8.05000000 3057518085 3057518085 15.00000000
2.08792472 0.88068587 -0.60718948 4 0 6713 2.34600000 3057518106 3057518106 -15.00000000
8.18313313 3.44996047 0.15501228 15 1 6714 8.88200000 3057518108 3057518108 1.00000000
2.47822070 1.04429376 -0.62086493 4 2 6715 2.76000000 3057518110 3057518110 -13.00000000
8.21057510 3.45984221 0.46694142 13 3 6715 8.92200000 3057518113 3057518113 3.00000000
2.96728516 1.24977016 -0.62585348 6 4 6716 3.28000000 3057518115 3057518115 -11.00000000
8.20094204 3.45241237 0.77847511 82 5 6717 8.93200000 3057518117 3057518117 5.00000000
3.72527432 1.56749153 -0.64012980 6 6 6718 4.09200000 3057518119 3057518119 -9.00000000
8.21236324 3.45384622 1.09389925 90 7 6719 8.97600000 3057518122 3057518122 7.00000000
5.06905413 2.13083410 -0.67515618 6 8 6720 5.54000000 3057518124 3057518124 -7.00000000
21.32032585 8.95786190 3.66275668 56 9 6721 23.41400000 3057518126 3057518126 9.00000000
7.73495483 3.24988723 -0.73402566 13 10 6721 8.42200000 3057518129 3057518129 -5.00000000
17.63054276 7.40395689 3.71695924 37 11 6722 19.48000000 3057518131 3057518131 11.00000000
8.19513988 3.43987155 -0.46579000 17 12 6723 8.90000000 3057518133 3057518133 -3.00000000
8.26799011 3.46875286 2.06999969 64 13 6724 9.20200000 3057518136 3057518136 13.00000000
8.19158554 3.43501687 -0.15504718 18 14 6725 8.88400000 3057518138 3057518138 -1.00000000
7.17610550 3.00919080 2.08504629 40 15 6725 8.05600000 3057518140 3057518140 15.00000000
2.09811640 0.87637061 -0.60926002 4 0 6733 2.35400000 3057518161 3057518161 -15.00000000
8.18405342 3.41675258 0.15480284 15 1 6734 8.87000000 3057518163 3057518163 1.00000000
2.47285867 1.03188443 -0.61861539 4 2 6735 2.75000000 3057518165 3057518165 -13.00000000
8.19863987 3.42116189 0.46558067 10 3 6735 8.89600000 3057518168 3057518168 3.00000000
2.97344160 1.24016058 -0.62623513 6 4 6736 3.28200000 3057518170 3057518170 -11.00000000
8.19639206 3.41686511 0.77690631 75 5 6737 8.91400000 3057518172 3057518172 5.00000000
3.73801684 1.55751729 -0.64138132 6 6 6738 4.10000000 3057518175 3057518175 -9.00000000
8.20421124 3.41676378 1.09121811 90 7 6739 8.95400000 3057518177 3057518177 7.00000000
5.05080414 2.10244679 -0.67174381 6 8 6740 5.51200000 3057518179 3057518179 -7.00000000
7.75361013 3.22592878 -0.73472291 13 10 6741 8.43000000 3057518184 3057518184 -5.00000000
17.65809250 7.34312391 3.71734095 11 11 6742 19.48200000 3057518186 3057518186 11.00000000
8.18127728 3.40051222 -0.46432459 17 12 6743 8.87200000 3057518189 3057518189 -3.00000000
8.26924992 3.43538523 2.06730008 66 13 6744 9.19000000 3057518191 3057518191 13.00000000
8.19429207 3.40256763 -0.15487266 18 14 6745 8.87400000 3057518193 3057518193 -1.00000000
7.18656588 2.98412323 2.08504629 45 15 6745 8.05600000 3057518195 3057518195 15.00000000
2.10116291 0.86904150 -0.60926002 4 0 6753 2.35400000 3057518216 3057518216 -15.00000000
8.19223499 3.38663602 0.15473303 12 1 6754 8.86600000 3057518218 3057518218 1.00000000
2.47284341 1.02175796 -0.61771560 4 2 6755 2.74600000 3057518221 3057518221 -13.00000000
8.19081783 3.38270330 0.46442929 10 3 6756 8.87400000 3057518223 3057518223 3.00000000
2.97775245 1.22977376 -0.62623513 5 4 6756 3.28200000 3057518225 3057518225 -11.00000000
8.20274448 3.38595295 0.77638334 75 5 6757 8.90800000 3057518228 3057518228 5.00000000
3.75986528 1.55124032 -0.64419711 6 6 6758 4.11800000 3057518230 3057518230 -9.00000000
8.21241760 3.38659120 1.09073067 87 7 6759 8.95000000 3057518232 3057518232 7.00000000
5.06178284 2.08631635 -0.67223132 6 8 6760 5.51600000 3057518235 3057518235 -7.00000000
21.36071587 8.80425167 3.65931511 84 9 6760 23.39200000 3057518237 3057518237 9.00000000
7.75377035 3.19429040 -0.73367703 13 10 6761 8.41800000 3057518239 3057518239 -5.00000000
16.14780617 6.64905214 3.39449191 10 11 6762 17.79000000 3057518242 3057518242 11.00000000
8.18016911 3.36661267 -0.46359190 12 12 6763 8.85800000 3057518244 3057518244 -3.00000000
8.25596046 3.39612031 2.06100154 66 13 6764 9.16200000 3057518246 3057518246 13.00000000
8.18577480 3.36557913 -0.15448870 16 14 6765 8.85200000 3057518248 3057518248 -1.00000000
7.20460224 2.96070027 2.08711672 40 15 6766 8.06400000 3057518251 3057518251 15.00000000
2.10060811 0.86023754 -0.60822475 4 0 6773 2.35000000 3057518271 3057518271 -15.00000000
8.19290257 3.35347414 0.15452361 12 1 6774 8.85400000 3057518274 3057518274 1.00000000
2.48721671 1.01754725 -0.62041503 4 2 6775 2.75800000 3057518276 3057518276 -13.00000000
8.19644451 3.35325408 0.46411526 10 3 6775 8.86800000 3057518278 3057518278 3.00000000
2.97294116 1.21565664 -0.62432700 6 4 6776 3.27200000 3057518281 3057518281 -11.00000000
8.19607067 3.34976172 0.77464026 75 5 6777 8.88800000 3057518283 3057518283 5.00000000
3.74879909 1.53138328 -0.64138132 6 6 6778 4.10000000 3057518285 3057518285 -9.00000000
8.21500015 3.35415220 1.08951187 90 7 6779 8.94000000 3057518288 3057518288 7.00000000
5.06535864 2.06713462 -0.67174381 6 8 6780 5.51200000 3057518290 3057518290 -7.00000000
21.34345818 8.70575809 3.65086746 73 9 6781 23.33800000 3057518292 3057518292 9.00000000
7.77225256 3.17021513 -0.73437428 13 10 6781 8.42600000 3057518295 3057518295 -5.00000000
17.74164963 7.23300982 3.72421002 26 11 6782 19.51800000 3057518297 3057518297 11.00000000
8.18632221 3.33577704 -0.46327788 17 12 6783 8.85200000 3057518299 3057518299 -3.00000000
8.26054573 3.36434078 2.05920196 64 13 6784 9.15400000 3057518301 3057518301 13.00000000
8.18265629 3.33095336 -0.15420946 16 14 6785 8.83600000 3057518304 3057518304 -1.00000000
7.20773554 2.93262124 2.08504629 42 15 6786 8.05600000 3057518306 3057518306 15.00000000
2.09643674 0.84999633 -0.60615420 4 0 6793 2.34200000 3057518327 3057518327 -15.00000000
8.19714546 3.32185102 0.15438399 12 1 6794 8.84600000 3057518329 3057518329 1.00000000
2.49978447 1.01251698 -0.62266451 4 2 6795 2.76800000 3057518331 3057518331 -13.00000000
8.19699287 3.32012391 0.46348724 13 3 6795 8.85600000 3057518334 3057518334 3.00000000
2.98444557 1.20821857 -0.62585348 6 4 6796 3.28000000 3057518336 3057518336 -11.00000000
8.18739700 3.31291103 0.77272284 75 5 6797 8.86600000 3057518338 3057518338 5.00000000
3.76144695 1.52125072 -0.64263278 6 6 6798 4.10800000 3057518341 3057518341 -9.00000000
8.22665787 3.32545590 1.08951187 90 7 6799 8.94000000 3057518343 3057518343 7.00000000
5.07806492 2.05167150 -0.67247504 6 8 6800 5.51800000 3057518345 3057518345 -7.00000000
21.35572624 8.62827301 3.64805174 73 9 6800 23.32000000 3057518348 3057518348 9.00000000
7.76110172 3.13411307 -0.73228258 13 10 6801 8.40200000 3057518350 3057518350 -5.00000000
17.76679039 7.17103577 3.72421002 37 11 6802 19.51800000 3057518352 3057518352 11.00000000
8.19050694 3.30419230 -0.46285918 17 12 6803 8.84400000 3057518354 3057518354 -3.00000000
8.27223873 3.33548570 2.05920196 66 13 6804 9.15400000 3057518357 3057518357 13.00000000
8.17939568 3.29639030 -0.15393023 20 14 6805 8.82000000 3057518359 3057518359 -1.00000000
7.21434450 2.90599990 2.08401084 42 15 6806 8.05200000 3057518361 3057518361 15.00000000
2.10656238 0.84555167 -0.60822475 4 0 6813 2.35000000 3057518382 3057518382 -15.00000000
8.17528439 3.27981520 0.15375569 12 1 6814 8.81000000 3057518384 3057518384 1.00000000
2.49064231 0.99870795 -0.61951518 4 2 6815 2.75400000 3057518387 3057518387 -13.00000000
8.20482445 3.29000425 0.46327788 10 3 6815 8.85200000 3057518389 3057518389 3.00000000
2.98682261 1.19706321 -0.62547189 5 4 6816 3.27800000 3057518391 3057518391 -11.00000000
8.18966389 3.28060699 0.77185124 75 5 6817 8.85600000 3057518394 3057518394 5.00000000
3.75939870 1.50517464 -0.64138132 6 6 6818 4.10000000 3057518396 3057518396 -9.00000000
8.21057129 3.28565645 1.08585584 90 7 6819 8.91000000 3057518398 3057518398 7.00000000
5.09072542 2.03614473 -0.67320627 6 8 6820 5.52400000 3057518401 3057518401 -7.00000000
21.35269928 8.54047108 3.64242005 73 9 6820 23.28400000 3057518403 3057518403 9.00000000
7.77939463 3.10996103 -0.73297977 13 10 6821 8.41000000 3057518405 3057518405 -5.00000000
17.77712822 7.10314703 3.72115707 41 11 6822 19.50200000 3057518407 3057518407 11.00000000
8.18715286 3.26965594 -0.46202183 17 12 6823 8.82800000 3057518410 3057518410 -3.00000000
8.28383160 3.30658984 2.05920196 64 13 6824 9.15400000 3057518412 3057518412 13.00000000
8.19085217 3.26781893 -0.15393023 16 14 6825 8.82000000 3057518414 3057518414 -1.00000000
7.22803307 2.88223076 2.08504629 40 15 6826 8.05600000 3057518417 3057518417 15.00000000
2.11279845 0.84035754 -0.60926002 4 0 6831 2.35400000 3057518437 3057518437 -15.00000000
8.18368912 3.25337696 0.15372080 12 1 6832 8.80800000 3057518440 3057518440 1.00000000
2.49014544 0.98943925 -0.61861539 4 2 6833 2.75000000 3057518442 3057518442 -13.00000000
8.19655895 3.25683665 0.46223116 10 3 6833 8.83200000 3057518444 3057518444 3.00000000
3.00151610 1.19202173 -0.62776160 5 4 6834 3.29000000 3057518447 3057518447 -11.00000000
8.19067097 3.25118709 0.77097970 78 5 6835 8.84600000 3057518449 3057518449 5.00000000
3.75492811 1.48971438 -0.63981694 6 6 6836 4.09000000 3057518451 3057518451 -9.00000000
8.19317341 3.24887013 1.08219981 97 7 6837 8.88000000 3057518453 3057518453 7.00000000
5.08971500 2.01721621 -0.67223132 6 8 6838 5.51600000 3057518456 3057518456 -7.00000000
21.35371590 8.46315765 3.63803983 73 9 6838 23.25600000 3057518458 3057518458 9.00000000
7.79468346 3.08770728 -0.73350275 13 10 6839 8.41600000 3057518460 3057518460 -5.00000000
17.79935646 7.04726362 3.72115707 41 11 6840 19.50200000 3057518463 3057518463 11.00000000
8.17324162 3.23436522 -0.46066108 12 12 6841 8.80200000 3057518465 3057518465 -3.00000000
8.27605724 3.27338171 2.05470300 62 13 6842 9.13400000 3057518467 3057518467 13.00000000
8.18434143 3.23545384 -0.15361609 18 14 6843 8.80200000 3057518470 3057518470 -1.00000000
7.22757053 2.85722089 2.08245802 40 15 6843 8.04600000 3057518472 3057518472 15.00000000
2.11571908 0.83297735 -0.60926002 4 0 6851 2.35400000 3057518493 3057518493 -15.00000000
8.19127464 3.22332621 0.15365098 15 1 6852 8.80400000 3057518495 3057518495 1.00000000
2.48995709 0.97931451 -0.61771560 4 2 6853 2.74600000 3057518497 3057518497 -13.00000000
8.18557358 3.21943331 0.46097511 13 3 6853 8.80800000 3057518500 3057518500 3.00000000
2.99835014 1.17866421 -0.62623513 5 4 6854 3.28200000 3057518502 3057518502 -11.00000000
8.20197010 3.22257638 0.77097970 78 5 6855 8.84600000 3057518504 3057518504 5.00000000
3.77113748 1.48093057 -0.64169419 6 6 6856 4.10200000 3057518506 3057518506 -9.00000000
8.20076847 3.21880031 1.08171225 95 7 6857 8.87600000 3057518509 3057518509 7.00000000
5.08563757 1.99508774 -0.67076886 6 8 6858 5.50400000 3057518511 3057518511 -7.00000000
21.34634781 8.37413979 3.63178253 66 9 6858 23.21600000 3057518513 3057518513 9.00000000
7.80170441 3.05902553 -0.73315412 13 10 6859 8.41200000 3057518516 3057518516 -5.00000000
17.82933044 6.98723841 3.72230196 41 11 6860 19.50800000 3057518518 3057518518 11.00000000
8.18076229 3.20435882 -0.46045175 17 12 6861 8.79800000 3057518520 3057518520 -3.00000000
8.27291584 3.23878956 2.05110383 62 13 6862 9.11800000 3057518523 3057518523 13.00000000
8.18813610 3.20395088 -0.15347646 14 14 6863 8.79400000 3057518525 3057518525 -1.00000000
7.24519062 2.83352590 2.08452868 40 15 6864 8.05400000 3057518527 3057518527 15.00000000
