# .PCD v0.7 - Point Cloud Data file format
VERSION 0.7
FIELDS x y z intensity laser_id azimuth distance_m adjustedtime timestamp vertical_angle
SIZE 4 4 4 1 1 2 8 8 4 8
TYPE F F F U U U F U U F
COUNT 1 1 1 1 1 1 1 1 1 1
WIDTH 525
HEIGHT 1
VIEWPOINT 0 0 0 1 0 0 0
POINTS 525
DATA ascii
-1.87516367 0.67140579 -0.53368485 4 0 28970 2.06200000 3219879558 3219879558 -15.00000000
-4.03992367 1.44729757 0.07490573 7 1 28971 4.29200000 3219879560 3219879560 1.00000000
-4.00093985 1.43411970 -0.98123652 6 2 28972 4.36200000 3219879563 3219879563 -13.00000000
-4.12285709 1.47863245 0.22954550 7 3 28973 4.38600000 3219879565 3219879565 3.00000000
-2.55578303 0.91661292 -0.52777767 3 4 28973 2.76600000 3219879567 3219879567 -11.00000000
-3.07507896 1.10406613 -0.51748520 3 6 28975 3.30800000 3219879572 3219879572 -9.00000000
-5.69802284 2.04692197 0.74340302 2 7 28976 6.10000000 3219879574 3219879574 7.00000000
-3.87254429 1.39191175 -0.50527030 6 8 28977 4.14600000 3219879577 3219879577 -7.00000000
-16.57434464 5.95733023 2.78953934 45 9 28977 17.83200000 3219879579 3219879579 9.00000000
-5.14642572 1.85079825 -0.47848502 6 10 28978 5.49000000 3219879581 3219879581 -5.00000000
-9.90155125 3.56282568 2.04547238 9 11 28979 10.72000000 3219879583 3219879583 11.00000000
-4.10225582 1.47690296 -0.22849879 6 12 28980 4.36600000 3219879586 3219879586 -3.00000000
-9.81978035 3.53727484 2.40967560 66 13 28981 10.71200000 3219879588 3219879588 13.00000000
-3.95812559 1.42657375 -0.07343972 61 14 28982 4.20800000 3219879590 3219879590 -1.00000000
-8.33829308 3.00525856 2.37492347 45 15 28982 9.17600000 3219879593 3219879593 15.00000000
-1.88370752 0.68189263 -0.53679073 4 0 28990 2.07400000 3219879613 3219879613 -15.00000000
-4.06304932 1.47160554 0.07542930 7 1 28991 4.32200000 3219879616 3219879616 1.00000000
-3.98858094 1.44542110 -0.97943687 6 2 28992 4.35400000 3219879618 3219879618 -13.00000000
-4.11391544 1.49165332 0.22933616 7 3 28993 4.38200000 3219879620 3219879620 3.00000000
-2.56733346 0.93088239 -0.53083062 3 4 28993 2.78200000 3219879623 3219879623 -11.00000000
-3.07306314 1.11546743 -0.51779807 3 6 28995 3.31000000 3219879627 3219879627 -9.00000000
-5.57142830 2.02343035 0.72780371 2 7 28996 5.97200000 3219879630 3219879630 7.00000000
-3.86766219 1.40542090 -0.50527030 6 8 28997 4.14600000 3219879632 3219879632 -7.00000000
-16.55796814 6.02006292 2.79047799 53 9 28998 17.83800000 3219879634 3219879634 9.00000000
-5.15865850 1.87555921 -0.48022816 6 10 28998 5.51000000 3219879636 3219879636 -5.00000000
-9.91119385 3.60542083 2.05005193 12 11 28999 10.74400000 3219879639 3219879639 11.00000000
-4.10833645 1.49531209 -0.22912681 6 12 29000 4.37800000 3219879641 3219879641 -3.00000000
-9.79638672 3.56752968 2.40697622 66 13 29001 10.70000000 3219879643 3219879643 13.00000000
-3.95687938 1.44175076 -0.07350954 61 14 29002 4.21200000 3219879646 3219879646 -1.00000000
-8.33085251 3.03712320 2.37595892 45 15 29003 9.18000000 3219879648 3219879648 15.00000000
-1.88143599 0.68813545 -0.53679073 4 0 29009 2.07400000 3219879669 3219879669 -15.00000000
-4.05063581 1.48232210 0.07528968 7 1 29010 4.31400000 3219879671 3219879671 1.00000000
-2.17213130 0.79531711 -0.53403378 4 2 29011 2.37400000 3219879673 3219879673 -13.00000000
-4.10894632 1.50528741 0.22933616 7 3 29012 4.38200000 3219879676 3219879676 3.00000000
-2.55317163 0.93533885 -0.52854091 3 4 29012 2.77000000 3219879678 3219879678 -11.00000000
-3.08047485 1.12973285 -0.51967531 3 6 29014 3.32200000 3219879683 3219879683 -9.00000000
-5.60009623 2.05488729 0.73243475 2 7 29015 6.01000000 3219879685 3219879685 7.00000000
-3.84434557 1.41139734 -0.50283289 6 8 29016 4.12600000 3219879687 3219879687 -7.00000000
-16.51486778 6.06320095 2.78641081 41 9 29016 17.81200000 3219879689 3219879689 9.00000000
-5.15241051 1.89265561 -0.48022816 3 10 29017 5.51000000 3219879692 3219879692 -5.00000000
-9.90471172 3.64029932 2.05119681 15 11 29018 10.75000000 3219879694 3219879694 11.00000000
-4.10710430 1.51030624 -0.22933616 6 12 29019 4.38200000 3219879696 3219879696 -3.00000000
-9.76987171 3.59461284 2.40337706 62 13 29020 10.68400000 3219879699 3219879699 13.00000000
-3.95958304 1.45762753 -0.07364915 61 14 29021 4.22000000 3219879701 3219879701 -1.00000000
-8.31764412 3.06194544 2.37492347 47 15 29021 9.17600000 3219879703 3219879703 15.00000000
-1.87902248 0.69469869 -0.53679073 4 0 29029 2.07400000 3219879724 3219879724 -15.00000000
-4.06794262 1.50477767 0.07570854 5 1 29030 4.33800000 3219879726 3219879726 1.00000000
-2.18213511 0.80762923 -0.53718311 4 2 29031 2.38800000 3219879729 3219879729 -13.00000000
-4.11677742 1.52447605 0.23006886 7 3 29032 4.39600000 3219879731 3219879731 3.00000000
-2.54805017 0.94356364 -0.52815932 3 4 29032 2.76800000 3219879733 3219879733 -11.00000000
-5.23865080 1.94095469 0.48876941 2 5 29033 5.60800000 3219879736 3219879736 5.00000000
-3.08021688 1.14185214 -0.52030104 3 6 29034 3.32600000 3219879738 3219879738 -9.00000000
-5.60405636 2.07856488 0.73389721 2 7 29035 6.02200000 3219879740 3219879740 7.00000000
-3.86172819 1.43309581 -0.50575775 6 8 29036 4.15000000 3219879742 3219879742 -7.00000000
-16.41846085 6.09618664 2.77389598 37 9 29037 17.73200000 3219879745 3219879745 9.00000000
-5.14950848 1.91201639 -0.48057675 3 10 29037 5.51400000 3219879747 3219879747 -5.00000000
-9.89930534 3.67758584 2.05272317 21 11 29038 10.75800000 3219879749 3219879749 11.00000000
-4.10555124 1.52602530 -0.22954550 6 12 29039 4.38600000 3219879752 3219879752 -3.00000000
-9.74995899 3.62597704 2.40157747 12 13 29040 10.67600000 3219879754 3219879754 13.00000000
-3.94697428 1.46865070 -0.07350954 63 14 29041 4.21200000 3219879756 3219879756 -1.00000000
-8.30455494 3.09173656 2.37440586 47 15 29042 9.17400000 3219879759 3219879759 15.00000000
-1.87296677 0.69990104 -0.53575540 4 0 29049 2.07000000 3219879779 3219879779 -15.00000000
-4.05891895 1.51756763 0.07563873 5 1 29050 4.33400000 3219879782 3219879782 1.00000000
-2.17382693 0.81319308 -0.53583342 4 2 29051 2.38200000 3219879784 3219879784 -13.00000000
-4.11330175 1.53953719 0.23017353 7 3 29052 4.39800000 3219879786 3219879786 3.00000000
-2.54106355 0.95107585 -0.52739608 3 4 29052 2.76400000 3219879789 3219879789 -11.00000000
-3.08731127 1.15675569 -0.52217823 3 6 29054 3.33800000 3219879793 3219879793 -9.00000000
-20.17140961 7.56185102 2.64505219 30 7 29055 21.70400000 3219879795 3219879795 7.00000000
-3.86041975 1.44796133 -0.50624526 6 8 29056 4.15400000 3219879798 3219879798 -7.00000000
-16.23539352 6.08955097 2.74636340 33 9 29056 17.55600000 3219879800 3219879800 9.00000000
-5.14093733 1.92927980 -0.48040244 3 10 29057 5.51200000 3219879802 3219879802 -5.00000000
-9.90111160 3.71763945 2.05577612 21 11 29058 10.77400000 3219879805 3219879805 11.00000000
-4.09085131 1.53683507 -0.22902215 4 12 29059 4.37600000 3219879807 3219879807 -3.00000000
-11.07068634 4.16119719 2.73045588 40 13 29060 12.13800000 3219879809 3219879809 13.00000000
-3.94743872 1.48453104 -0.07361425 59 14 29061 4.21800000 3219879812 3219879812 -1.00000000
-8.28521633 3.11585832 2.37181783 47 15 29061 9.16400000 3219879814 3219879814 15.00000000
-1.86689782 0.70506954 -0.53472012 4 0 29069 2.06600000 3219879835 3219879835 -15.00000000
-4.04611444 1.52889931 0.07549911 5 1 29070 4.32600000 3219879837 3219879837 1.00000000
-2.17644358 0.82284361 -0.53718311 3 2 29071 2.38800000 3219879839 3219879839 -13.00000000
-4.13031960 1.56236553 0.23142959 7 3 29072 4.42200000 3219879842 3219879842 3.00000000
-2.55058217 0.96480227 -0.53006738 3 4 29072 2.77800000 3219879844 3219879844 -11.00000000
-3.05739141 1.15773177 -0.51779807 3 6 29074 3.31000000 3219879848 3219879848 -9.00000000
-20.15231514 7.63502932 2.64602709 60 7 29075 21.71200000 3219879851 3219879851 7.00000000
-3.85162950 1.46002066 -0.50575775 6 8 29076 4.15000000 3219879853 3219879853 -7.00000000
-15.99607754 6.06356430 2.70944500 48 9 29076 17.32000000 3219879855 3219879855 9.00000000
-5.12485695 1.94368064 -0.47953090 3 10 29077 5.50200000 3219879858 3219879858 -5.00000000
-9.88990974 3.75287461 2.05615783 25 11 29078 10.77600000 3219879860 3219879860 11.00000000
-4.11160278 1.56103027 -0.23048756 6 12 29079 4.40400000 3219879862 3219879862 -3.00000000
-11.06155872 4.20189190 2.73180556 48 13 29080 12.14400000 3219879865 3219879865 13.00000000
-3.95157886 1.50185323 -0.07378878 63 14 29081 4.22800000 3219879867 3219879867 -1.00000000
-8.27790070 3.14613295 2.37285304 45 15 29081 9.16800000 3219879869 3219879869 15.00000000
-1.87512946 0.71604234 -0.53782600 4 0 29090 2.07800000 3219879890 3219879890 -15.00000000
-4.07223988 1.55585158 0.07609249 5 1 29091 4.36000000 3219879892 3219879892 1.00000000
-2.15885091 0.82524854 -0.53358388 3 2 29092 2.37200000 3219879895 3219879895 -13.00000000
-4.11896896 1.57535291 0.23111558 7 3 29093 4.41600000 3219879897 3219879897 3.00000000
-2.55253005 0.97624809 -0.53121227 3 4 29093 2.78400000 3219879899 3219879899 -11.00000000
-3.07895470 1.17881823 -0.52217823 3 6 29095 3.33800000 3219879904 3219879904 -9.00000000
-20.14273262 7.71594095 2.64846468 62 7 29096 21.73200000 3219879906 3219879906 7.00000000
-3.82400894 1.46560264 -0.50283289 6 8 29097 4.12600000 3219879908 3219879908 -7.00000000
-15.99849892 6.13484192 2.71382499 66 9 29098 17.34800000 3219879911 3219879911 9.00000000
-5.13072062 1.96744466 -0.48075107 6 10 29098 5.51600000 3219879913 3219879913 -5.00000000
-9.89075279 3.79472375 2.05921078 25 11 29099 10.79200000 3219879915 3219879915 11.00000000
-4.10771799 1.57680523 -0.23059222 6 12 29100 4.40600000 3219879918 3219879918 -3.00000000
-11.04790306 4.24310493 2.73225546 57 13 29101 12.14600000 3219879920 3219879920 13.00000000
-3.96284747 1.52278197 -0.07410292 42 14 29102 4.24600000 3219879922 3219879922 -1.00000000
-8.27172375 3.17853069 2.37440586 47 15 29102 9.17400000 3219879924 3219879924 15.00000000
-1.87622333 0.72397429 -0.53886127 4 0 29110 2.08200000 3219879945 3219879945 -15.00000000
-4.06305313 1.56861639 0.07602268 5 1 29111 4.35600000 3219879948 3219879948 1.00000000
-2.16686416 0.83699238 -0.53628331 3 2 29112 2.38400000 3219879950 3219879950 -13.00000000
-4.11717081 1.59116113 0.23132493 7 3 29113 4.42000000 3219879952 3219879952 3.00000000
-2.53811908 0.98090583 -0.52892256 3 4 29113 2.77200000 3219879954 3219879954 -11.00000000
-5.21068859 2.01481795 0.48876941 2 5 29114 5.60800000 3219879957 3219879957 5.00000000
-3.08219028 1.19240952 -0.52342969 3 6 29115 3.34600000 3219879959 3219879959 -9.00000000
-3.83367872 1.48467708 -0.50478280 6 8 29117 4.14200000 3219879964 3219879964 -7.00000000
-16.36195183 6.33981323 2.77921462 49 9 29118 17.76600000 3219879966 3219879966 9.00000000
-5.13868427 1.99110103 -0.48214558 6 10 29118 5.53200000 3219879968 3219879968 -5.00000000
-9.89209080 3.83490300 2.06226373 25 11 29119 10.80800000 3219879971 3219879971 11.00000000
-4.11336184 1.59546781 -0.23122026 6 12 29120 4.41800000 3219879973 3219879973 -3.00000000
-11.01304054 4.27388811 2.72730660 55 13 29121 12.12400000 3219879975 3219879975 13.00000000
-3.96682835 1.54022455 -0.07427744 26 14 29122 4.25600000 3219879977 3219879977 -1.00000000
-8.25461578 3.20672798 2.37285304 47 15 29123 9.16800000 3219879980 3219879980 15.00000000
-1.86301208 0.72598350 -0.53575540 4 0 29129 2.07000000 3219880001 3219880001 -15.00000000
-4.06900740 1.58643973 0.07623211 3 1 29130 4.36800000 3219880003 3219880003 1.00000000
-2.16044569 0.84275699 -0.53538352 3 2 29131 2.38000000 3219880005 3219880005 -13.00000000
-4.11559296 1.60625780 0.23153427 7 3 29132 4.42400000 3219880007 3219880007 3.00000000
-2.53485227 0.98931712 -0.52892256 3 4 29132 2.77200000 3219880010 3219880010 -11.00000000
-5.24109697 2.04658031 0.49225563 2 5 29133 5.64800000 3219880012 3219880012 5.00000000
-3.07821918 1.20262384 -0.52342969 3 6 29134 3.34600000 3219880014 3219880014 -9.00000000
-20.15630531 7.87888575 2.65723920 77 7 29135 21.80400000 3219880017 3219880017 7.00000000
-3.83612919 1.50027394 -0.50575775 6 8 29136 4.15000000 3219880019 3219880019 -7.00000000
-16.32612228 6.38827801 2.77671170 53 9 29137 17.75000000 3219880021 3219880021 9.00000000
-5.13205338 2.00813055 -0.48214558 6 10 29137 5.53200000 3219880024 3219880024 -5.00000000
-9.89760017 3.87484217 2.06607985 25 11 29138 10.82800000 3219880026 3219880026 11.00000000
-4.10432863 1.60764253 -0.23101091 6 12 29139 4.41400000 3219880028 3219880028 -3.00000000
-11.00606441 4.31322956 2.72910619 60 13 29140 12.13200000 3219880030 3219880030 13.00000000
-3.95983720 1.55264056 -0.07424254 24 14 29141 4.25400000 3219880033 3219880033 -1.00000000
-8.23371029 3.22841358 2.36974716 47 15 29141 9.15600000 3219880035 3219880035 15.00000000
-1.86406171 0.73389763 -0.53679073 4 0 29149 2.07400000 3219880056 3219880056 -15.00000000
-4.06344509 1.60063350 0.07623211 3 1 29150 4.36800000 3219880058 3219880058 1.00000000
-2.16836882 0.85458040 -0.53808290 3 2 29151 2.39200000 3219880060 3219880060 -13.00000000
-4.11367702 1.62207937 0.23174362 7 3 29152 4.42800000 3219880063 3219880063 3.00000000
-2.54234195 1.00248039 -0.53121227 3 4 29152 2.78400000 3219880065 3219880065 -11.00000000
-5.23762798 2.06632519 0.49260426 2 5 29153 5.65200000 3219880067 3219880067 5.00000000
-3.07400250 1.21336150 -0.52342969 3 6 29154 3.34600000 3219880070 3219880070 -9.00000000
-20.17668533 7.96815395 2.66357636 78 7 29155 21.85600000 3219880072 3219880072 7.00000000
-3.83640742 1.51584387 -0.50648898 4 8 29156 4.15600000 3219880074 3219880074 -7.00000000
-16.30004883 6.44377565 2.77608609 49 9 29157 17.74600000 3219880077 3219880077 9.00000000
-5.10463095 2.01797533 -0.48022816 6 10 29157 5.51000000 3219880079 3219880079 -5.00000000
-9.88766575 3.91081190 2.06684303 25 11 29158 10.83200000 3219880081 3219880081 11.00000000
-4.09869194 1.62195957 -0.23101091 6 12 29159 4.41400000 3219880083 3219880083 -3.00000000
-10.96919918 4.34301281 2.72370744 55 13 29160 12.10800000 3219880086 3219880086 13.00000000
-3.96926665 1.57234526 -0.07452177 26 14 29161 4.27000000 3219880088 3219880088 -1.00000000
-8.20802212 3.25144315 2.36560607 47 15 29161 9.14000000 3219880090 3219880090 15.00000000
-1.85443699 0.73722035 -0.53472012 4 0 29168 2.06600000 3219880111 3219880111 -15.00000000
-4.05439854 1.61262155 0.07616230 5 1 29169 4.36400000 3219880113 3219880113 1.00000000
-2.15828037 0.85888410 -0.53628331 3 2 29170 2.38400000 3219880116 3219880116 -13.00000000
-4.13082933 1.64385664 0.23299968 5 3 29170 4.45200000 3219880118 3219880118 3.00000000
-2.53170753 1.00800073 -0.52968580 3 4 29171 2.77600000 3219880120 3219880120 -11.00000000
-5.26036167 2.09547949 0.49539325 2 5 29172 5.68400000 3219880123 3219880123 5.00000000
-3.05895185 1.21916056 -0.52155250 3 6 29173 3.33400000 3219880125 3219880125 -9.00000000
-20.15015030 8.03501892 2.66357636 68 7 29174 21.85600000 3219880127 3219880127 7.00000000
-3.84057856 1.53223550 -0.50770766 6 8 29175 4.16600000 3219880129 3219880129 -7.00000000
-16.26137733 6.48763180 2.77295732 53 9 29175 17.72600000 3219880132 3219880132 9.00000000
-5.11641502 2.04227781 -0.48197126 6 10 29176 5.53000000 3219880134 3219880134 -5.00000000
-9.87646580 3.94430709 2.06722474 28 11 29177 10.83400000 3219880136 3219880136 11.00000000
-4.10812855 1.64147103 -0.23184828 6 12 29178 4.43000000 3219880139 3219880139 -3.00000000
-10.94930840 4.37719393 2.72235775 54 13 29179 12.10200000 3219880141 3219880141 13.00000000
-3.97702742 1.59069753 -0.07476611 22 14 29180 4.28400000 3219880143 3219880143 -1.00000000
-8.20975018 3.28366590 2.36922956 47 15 29180 9.15400000 3219880146 3219880146 15.00000000
-1.87336457 0.75232828 -0.54093182 4 0 29188 2.09000000 3219880166 3219880166 -15.00000000
-4.07472181 1.63720167 0.07665097 3 1 29189 4.39200000 3219880169 3219880169 1.00000000
-2.15526915 0.86641264 -0.53628331 3 2 29190 2.38400000 3219880171 3219880171 -13.00000000
-4.13404131 1.66271222 0.23352304 7 3 29191 4.46200000 3219880173 3219880173 3.00000000
-2.54638815 1.02415776 -0.53350192 3 4 29191 2.79600000 3219880176 3219880176 -11.00000000
-5.26780224 2.11977911 0.49678773 3 5 29192 5.70000000 3219880178 3219880178 5.00000000
-3.05467749 1.22983086 -0.52155250 3 6 29193 3.33400000 3219880180 3219880180 -9.00000000
-20.13302803 8.10975742 2.66503882 68 7 29194 21.86800000 3219880182 3219880182 7.00000000
-3.83152413 1.54414821 -0.50722021 6 8 29195 4.16200000 3219880185 3219880185 -7.00000000
-16.22466660 6.54201841 2.77076721 61 9 29196 17.71200000 3219880187 3219880187 9.00000000
-5.11849451 2.06385040 -0.48284280 3 10 29196 5.54000000 3219880189 3219880189 -5.00000000
-9.87356186 3.98316550 2.06951427 28 11 29197 10.84600000 3219880192 3219880192 11.00000000
-4.09496546 1.65281081 -0.23142959 6 12 29198 4.42200000 3219880194 3219880194 -3.00000000
-10.92131329 4.41027975 2.71920824 57 13 29199 12.08800000 3219880196 3219880196 13.00000000
-3.98257518 1.60906482 -0.07497554 21 14 29200 4.29600000 3219880199 3219880199 -1.00000000
-8.19228745 3.31156206 2.36767673 47 15 29201 9.14800000 3219880201 3219880201 15.00000000
-1.87072706 0.75886291 -0.54093182 4 0 29208 2.09000000 3219880222 3219880222 -15.00000000
-4.08009958 1.65592718 0.07686040 5 1 29209 4.40400000 3219880224 3219880224 1.00000000
-2.15223169 0.87393069 -0.53628331 3 2 29210 2.38400000 3219880226 3219880226 -13.00000000
-4.12295341 1.67415774 0.23320901 5 3 29210 4.45600000 3219880229 3219880229 3.00000000
-2.52460885 1.02565062 -0.52968580 3 4 29211 2.77600000 3219880231 3219880231 -11.00000000
-5.29543972 2.15240860 0.50009966 3 5 29212 5.73800000 3219880233 3219880233 5.00000000
-3.05036616 1.24048615 -0.52155250 3 6 29213 3.33400000 3219880235 3219880235 -9.00000000
-20.14321136 8.19569588 2.67015743 47 7 29214 21.91000000 3219880238 3219880238 7.00000000
-3.82427216 1.55676484 -0.50697649 6 8 29215 4.16000000 3219880240 3219880240 -7.00000000
-16.17794800 6.58892679 2.76670003 57 9 29216 17.68600000 3219880242 3219880242 9.00000000
-5.11494923 2.08320785 -0.48319143 7 10 29216 5.54400000 3219880245 3219880245 -5.00000000
-9.87777901 4.02501488 2.07333064 31 11 29217 10.86600000 3219880247 3219880247 11.00000000
-4.07807398 1.66257083 -0.23080157 4 12 29218 4.41000000 3219880249 3219880249 -3.00000000
-10.89863396 4.44543123 2.71740866 56 13 29219 12.08000000 3219880252 3219880252 13.00000000
-3.97323132 1.62144566 -0.07490573 19 14 29220 4.29200000 3219880254 3219880254 -1.00000000
-8.18483734 3.34017038 2.36871195 45 15 29220 9.15200000 3219880256 3219880256 15.00000000
-1.85734105 0.76099378 -0.53782600 4 0 29228 2.07800000 3219880277 3219880277 -15.00000000
-4.08724642 1.67546868 0.07710473 5 1 29229 4.41800000 3219880279 3219880279 1.00000000
-2.15637994 0.88439590 -0.53808290 3 2 29230 2.39200000 3219880281 3219880281 -13.00000000
-4.12447596 1.69157088 0.23362771 5 3 29230 4.46400000 3219880284 3219880284 3.00000000
-2.52101326 1.03445697 -0.52968580 3 4 29231 2.77600000 3219880286 3219880286 -11.00000000
-3.06246257 1.25788105 -0.52436835 1 6 29233 3.35200000 3219880291 3219880291 -9.00000000
-3.81147099 1.56708515 -0.50600153 4 8 29235 4.15200000 3219880295 3219880295 -7.00000000
-16.13292694 6.63634062 2.76294541 57 9 29236 17.66200000 3219880298 3219880298 9.00000000
-5.10580397 2.10029173 -0.48301712 7 10 29236 5.54200000 3219880300 3219880300 -5.00000000
-9.87093067 4.06245899 2.07485700 28 11 29237 10.87400000 3219880302 3219880302 11.00000000
-4.05377769 1.66919136 -0.22975485 8 12 29238 4.39000000 3219880305 3219880305 -3.00000000
-10.86683369 4.47676706 2.71335959 52 13 29239 12.06200000 3219880307 3219880307 13.00000000
-3.97124481 1.63682902 -0.07497554 19 14 29240 4.29600000 3219880309 3219880309 -1.00000000
-8.16955662 3.36724806 2.36767673 47 15 29240 9.14800000 3219880311 3219880311 15.00000000
-1.85110319 0.76599514 -0.53679073 4 0 29248 2.07400000 3219880332 3219880332 -15.00000000
-4.07952547 1.68896067 0.07706983 7 1 29249 4.41600000 3219880334 3219880334 1.00000000
-2.15327978 0.89191765 -0.53808290 3 2 29250 2.39200000 3219880337 3219880337 -13.00000000
-4.14407969 1.71738148 0.23509312 5 3 29251 4.49200000 3219880339 3219880339 3.00000000
-2.51557326 1.04249895 -0.52930415 3 4 29251 2.77400000 3219880341 3219880341 -11.00000000
-5.41831875 2.24655724 0.51317298 6 5 29252 5.88800000 3219880344 3219880344 5.00000000
-3.06352687 1.27083409 -0.52530694 3 6 29253 3.35800000 3219880346 3219880346 -9.00000000
-17.92019272 7.43744802 2.38230181 6 7 29254 19.54800000 3219880348 3219880348 7.00000000
-3.82614422 1.58875406 -0.50868267 6 8 29255 4.17400000 3219880351 3219880351 -7.00000000
-16.09623718 6.68374252 2.76044250 49 9 29255 17.64600000 3219880353 3219880353 9.00000000
-4.97332621 2.06612349 -0.47116396 6 10 29256 5.40600000 3219880355 3219880355 -5.00000000
-9.86938000 4.10216475 2.07752824 31 11 29257 10.88800000 3219880358 3219880358 11.00000000
-4.05161476 1.68486536 -0.22996420 10 12 29258 4.39400000 3219880360 3219880360 -3.00000000
-10.85473919 4.51616907 2.71425939 54 13 29259 12.06600000 3219880362 3219880362 13.00000000
-3.98027611 1.65682900 -0.07525478 19 14 29260 4.31200000 3219880364 3219880364 -1.00000000
-8.13575935 3.38825583 2.36146498 45 15 29261 9.12400000 3219880367 3219880367 15.00000000
-1.85554802 0.77543163 -0.53886127 4 0 29268 2.08200000 3219880387 3219880387 -15.00000000
-4.07176018 1.70241916 0.07703492 18 1 29269 4.41400000 3219880390 3219880390 1.00000000
-2.14655757 0.89792454 -0.53718311 3 2 29270 2.38800000 3219880392 3219880392 -13.00000000
-4.14941692 1.73573875 0.23572114 5 3 29270 4.50400000 3219880394 3219880394 3.00000000
-2.53002930 1.05885315 -0.53312033 3 4 29271 2.79400000 3219880397 3219880397 -11.00000000
-5.40676832 2.26391792 0.51282442 12 5 29272 5.88400000 3219880399 3219880399 5.00000000
-3.04449654 1.27541399 -0.52280396 3 6 29273 3.34200000 3219880401 3219880401 -9.00000000
-20.15331459 8.44685078 2.68307543 31 7 29274 22.01600000 3219880404 3219880404 7.00000000
-3.81874442 1.60133243 -0.50843889 4 8 29275 4.17200000 3219880406 3219880406 -7.00000000
-16.05706024 6.73657942 2.75793958 49 9 29276 17.63000000 3219880408 3219880408 9.00000000
-4.82828999 2.02566099 -0.45809057 9 10 29276 5.25600000 3219880411 3219880411 -5.00000000
-9.86043167 4.13886976 2.07867312 25 11 29277 10.89400000 3219880413 3219880413 11.00000000
-4.04939175 1.70054448 -0.23017353 8 12 29278 4.39800000 3219880415 3219880415 -3.00000000
-10.83172226 4.55101252 2.71245980 54 13 29279 12.05800000 3219880417 3219880417 13.00000000
-3.97999883 1.67303741 -0.07535949 17 14 29280 4.31800000 3219880420 3219880420 -1.00000000
-8.13278675 3.42037892 2.36405325 45 15 29281 9.13400000 3219880422 3219880422 15.00000000
-1.85625291 0.78373015 -0.53989655 4 0 29289 2.08600000 3219880443 3219880443 -15.00000000
-4.06733513 1.71810961 0.07706983 43 1 29290 4.41600000 3219880445 3219880445 1.00000000
-2.14863729 0.90806186 -0.53853285 4 2 29291 2.39400000 3219880447 3219880447 -13.00000000
-4.14670706 1.75249052 0.23593049 5 3 29291 4.50800000 3219880450 3219880450 3.00000000
-2.53698111 1.07270646 -0.53541005 3 4 29292 2.80600000 3219880452 3219880452 -11.00000000
-5.41494894 2.29070592 0.51439321 9 5 29293 5.90200000 3219880454 3219880454 5.00000000
-3.04343987 1.28810394 -0.52342969 3 6 29294 3.34600000 3219880457 3219880457 -9.00000000
-20.13684273 8.52685165 2.68502545 60 7 29295 22.03200000 3219880459 3219880459 7.00000000
-3.80371046 1.61144626 -0.50722021 6 8 29296 4.16200000 3219880461 3219880461 -7.00000000
-16.02980995 6.79104710 2.75731397 49 9 29296 17.62600000 3219880464 3219880464 9.00000000
-4.76946974 2.02157331 -0.45320988 6 10 29297 5.20000000 3219880466 3219880466 -5.00000000
-9.86688519 4.18418026 2.08325267 28 11 29298 10.91800000 3219880468 3219880468 11.00000000
-4.06335640 1.72395563 -0.23132493 4 12 29299 4.42000000 3219880470 3219880470 -3.00000000
-10.80779457 4.58763647 2.71066022 52 13 29300 12.05000000 3219880473 3219880473 13.00000000
-3.99960852 1.69855690 -0.07584815 17 14 29301 4.34600000 3219880475 3219880475 -1.00000000
-8.12375164 3.45167518 2.36508846 36 15 29302 9.13800000 3219880477 3219880477 15.00000000
-1.85350585 0.79020494 -0.53989655 4 0 29309 2.08600000 3219880498 3219880498 -15.00000000
-4.04475880 1.72523582 0.07675568 22 1 29310 4.39800000 3219880500 3219880500 1.00000000
-2.14007735 0.91326183 -0.53718311 4 2 29311 2.38800000 3219880503 3219880503 -13.00000000
-4.14791203 1.77009022 0.23634918 5 3 29311 4.51600000 3219880505 3219880505 3.00000000
-2.51697087 1.07461774 -0.53197551 3 4 29312 2.78800000 3219880507 3219880507 -11.00000000
-5.41974545 2.31507206 0.51561338 9 5 29313 5.91600000 3219880510 3219880510 5.00000000
-3.04619074 1.30182481 -0.52468121 3 6 29314 3.35400000 3219880512 3219880512 -9.00000000
-20.13433456 8.60879707 2.68868136 70 7 29315 22.06200000 3219880514 3219880514 7.00000000
-3.79806232 1.62471390 -0.50722021 6 8 29316 4.16200000 3219880517 3219880517 -7.00000000
-15.99510956 6.84229851 2.75543666 49 9 29316 17.61400000 3219880519 3219880519 9.00000000
-4.74773073 2.03193808 -0.45181537 6 10 29317 5.18400000 3219880521 3219880521 -5.00000000
-9.85402393 4.21936941 2.08363414 28 11 29318 10.92000000 3219880523 3219880523 11.00000000
-4.08301640 1.74913967 -0.23279034 6 12 29319 4.44800000 3219880526 3219880526 -3.00000000
-10.77917671 4.61996078 2.70751095 50 13 29320 12.03600000 3219880528 3219880528 13.00000000
-3.98446560 1.70856738 -0.07567363 17 14 29321 4.33600000 3219880530 3219880530 -1.00000000
-8.10100174 3.47544122 2.36198258 13 15 29322 9.12600000 3219880533 3219880533 15.00000000
-1.84732616 0.79482001 -0.53886127 4 0 29328 2.08200000 3219880553 3219880553 -15.00000000
-4.12901640 1.77738106 0.07846602 6 1 29329 4.49600000 3219880556 3219880556 1.00000000
-2.14598608 0.92420763 -0.53943264 4 2 29330 2.39800000 3219880558 3219880558 -13.00000000
-4.14935684 1.78699553 0.23676787 5 3 29330 4.52400000 3219880560 3219880560 3.00000000
-2.50618148 1.07985091 -0.53044903 3 4 29331 2.78000000 3219880563 3219880563 -11.00000000
-5.41935682 2.33618689 0.51631063 9 5 29332 5.92400000 3219880565 3219880565 5.00000000
-3.04548478 1.31348372 -0.52530694 3 6 29333 3.35800000 3219880567 3219880567 -9.00000000
-20.13484001 8.68810081 2.69258118 60 7 29334 22.09400000 3219880569 3219880569 7.00000000
-3.79265356 1.63729978 -0.50722021 6 8 29335 4.16200000 3219880572 3219880572 -7.00000000
-15.95238209 6.88669014 2.75199509 41 9 29335 17.59200000 3219880574 3219880574 9.00000000
-4.68975210 2.02555108 -0.44693464 6 10 29336 5.12800000 3219880576 3219880576 -5.00000000
-9.86881351 4.26448345 2.08974004 25 11 29337 10.95200000 3219880579 3219880579 11.00000000
-4.09369326 1.76980293 -0.23373239 6 12 29338 4.46600000 3219880581 3219880581 -3.00000000
-10.76021957 4.65413332 2.70661116 53 13 29339 12.03200000 3219880583 3219880583 13.00000000
-3.98795414 1.72574186 -0.07584815 17 14 29340 4.34600000 3219880586 3219880586 -1.00000000
-1.83745289 0.79818469 -0.53679073 4 0 29348 2.07400000 3219880609 3219880609 -15.00000000
-4.16496849 1.81011558 0.07926883 6 1 29349 4.54200000 3219880611 3219880611 1.00000000
-2.14632130 0.93324703 -0.54033244 4 2 29350 2.40200000 3219880613 3219880613 -13.00000000
-4.14309406 1.80146849 0.23676787 5 3 29350 4.52400000 3219880616 3219880616 3.00000000
-2.51319861 1.09329140 -0.53273869 3 4 29351 2.79200000 3219880618 3219880618 -11.00000000
-5.42030334 2.35906506 0.51718217 9 5 29352 5.93400000 3219880620 3219880620 5.00000000
-3.04088116 1.32410645 -0.52530694 3 6 29353 3.35800000 3219880622 3219880622 -9.00000000
-20.13532829 8.77180958 2.69672489 57 7 29354 22.12800000 3219880625 3219880625 7.00000000
-3.80875230 1.66004634 -0.51014507 6 8 29355 4.18600000 3219880627 3219880627 -7.00000000
-15.91919136 6.93838644 2.75043082 49 9 29355 17.58200000 3219880629 3219880629 9.00000000
-4.65708494 2.03075981 -0.44449428 6 10 29356 5.10000000 3219880632 3219880632 -5.00000000
-9.87186146 4.30675650 2.09355640 25 11 29357 10.97200000 3219880634 3219880634 11.00000000
-4.10396481 1.79127240 -0.23467442 6 12 29358 4.48400000 3219880636 3219880636 -3.00000000
-10.74569416 4.69244480 2.70706105 53 13 29359 12.03400000 3219880639 3219880639 13.00000000
-3.99656534 1.74605656 -0.07612740 14 14 29360 4.36200000 3219880641 3219880641 -1.00000000
-8.00281143 3.49800587 2.34024191 2 15 29361 9.04200000 3219880643 3219880643 15.00000000
-1.84173226 0.80769730 -0.53886127 4 0 29368 2.08200000 3219880664 3219880664 -15.00000000
-4.20257330 1.84392583 0.08010655 20 1 29369 4.59000000 3219880666 3219880666 1.00000000
-2.13769746 0.93838352 -0.53898275 3 2 29370 2.39600000 3219880669 3219880669 -13.00000000
-4.15109301 1.82306659 0.23760524 5 3 29371 4.54000000 3219880671 3219880671 3.00000000
-2.51116443 1.10284698 -0.53312033 3 4 29371 2.79400000 3219880673 3219880673 -11.00000000
-5.42115641 2.38197851 0.51805371 6 5 29372 5.94400000 3219880675 3219880675 5.00000000
-3.03624082 1.33471310 -0.52530694 3 6 29373 3.35800000 3219880678 3219880678 -9.00000000
-20.11912346 8.84843445 2.69867468 55 7 29374 22.14400000 3219880680 3219880680 7.00000000
-3.80475140 1.67413068 -0.51038879 6 8 29375 4.18800000 3219880682 3219880682 -7.00000000
-15.89849091 6.99550343 2.75105643 45 9 29375 17.58600000 3219880685 3219880685 9.00000000
-4.63720322 2.04138446 -0.44327411 3 10 29376 5.08600000 3219880687 3219880687 -5.00000000
-9.86036205 4.34277201 2.09431958 28 11 29377 10.97600000 3219880689 3219880689 11.00000000
-4.08123779 1.79833889 -0.23373239 6 12 29378 4.46600000 3219880692 3219880692 -3.00000000
-10.72033310 4.72599554 2.70481157 55 13 29379 12.02400000 3219880694 3219880694 13.00000000
-3.99593520 1.76241744 -0.07623211 14 14 29380 4.36800000 3219880696 3219880696 -1.00000000
-7.95581627 3.50893307 2.32988906 2 15 29380 9.00200000 3219880699 3219880699 15.00000000
-1.84596753 0.81724942 -0.54093182 4 0 29388 2.09000000 3219880719 3219880719 -15.00000000
-2.13084555 0.94426072 -0.53808290 4 2 29390 2.39200000 3219880724 3219880724 -13.00000000
-4.15565920 1.84240246 0.23823327 5 3 29391 4.55200000 3219880726 3219880726 3.00000000
-2.51268387 1.11399293 -0.53426516 3 4 29391 2.80000000 3219880728 3219880728 -11.00000000
-26.75260544 11.86629677 2.56046152 55 5 29392 29.37800000 3219880731 3219880731 5.00000000
-3.01711869 1.33889329 -0.52280396 3 6 29393 3.34200000 3219880733 3219880733 -9.00000000
-20.10988426 8.92827606 2.70159960 57 7 29394 22.16800000 3219880735 3219880735 7.00000000
-3.79344201 1.68498409 -0.50965762 6 8 29395 4.18200000 3219880738 3219880738 -7.00000000
-15.86913395 7.05212307 2.75043082 57 9 29396 17.58200000 3219880740 3219880740 9.00000000
-4.62640762 2.05594063 -0.44292548 6 10 29396 5.08200000 3219880742 3219880742 -5.00000000
-9.86487579 4.38593817 2.09851742 21 11 29397 10.99800000 3219880745 3219880745 11.00000000
-4.08770990 1.81825614 -0.23446508 4 12 29398 4.48000000 3219880747 3219880747 -3.00000000
-10.69308853 4.75863361 2.70211196 55 13 29399 12.01200000 3219880749 3219880749 13.00000000
-4.00071955 1.78123522 -0.07644154 14 14 29400 4.38000000 3219880752 3219880752 -1.00000000
-7.95348978 3.54278541 2.33299494 2 15 29401 9.01400000 3219880754 3219880754 15.00000000
-1.85015845 0.82684094 -0.54300237 4 0 29408 2.09800000 3219880775 3219880775 -15.00000000
-2.12753630 0.95169300 -0.53808290 3 2 29410 2.39200000 3219880779 3219880779 -13.00000000
-4.14555645 1.85526538 0.23802392 5 3 29411 4.54800000 3219880781 3219880781 3.00000000
-2.51236391 1.12436104 -0.53502840 3 4 29411 2.80400000 3219880784 3219880784 -11.00000000
-26.66010475 11.93681145 2.55558062 63 5 29412 29.32200000 3219880786 3219880786 5.00000000
-3.04127097 1.36233771 -0.52780986 3 6 29413 3.37400000 3219880788 3219880788 -9.00000000
-20.10939217 9.01221943 2.70574307 60 7 29414 22.20200000 3219880791 3219880791 7.00000000
-3.78753710 1.69821537 -0.50965762 6 8 29415 4.18200000 3219880793 3219880793 -7.00000000
-15.84205627 7.10309172 2.74980497 53 9 29415 17.57800000 3219880795 3219880795 9.00000000
-4.64283514 2.08267808 -0.44519153 9 10 29416 5.10800000 3219880798 3219880798 -5.00000000
-9.87099934 4.42999220 2.10309672 21 11 29417 11.02200000 3219880800 3219880800 11.00000000
-4.10684633 1.84396708 -0.23593049 4 12 29418 4.50800000 3219880802 3219880802 -3.00000000
-10.66574669 4.79113913 2.69941258 57 13 29419 12.00000000 3219880805 3219880805 13.00000000
-4.00542164 1.80010772 -0.07665097 12 14 29420 4.39200000 3219880807 3219880807 -1.00000000
-7.96636724 3.58022738 2.34024191 2 15 29420 9.04200000 3219880809 3219880809 15.00000000
-1.84021711 0.83011669 -0.54093182 4 0 29428 2.09000000 3219880830 3219880830 -15.00000000
-4.21766424 1.90346229 0.08076974 100 1 29429 4.62800000 3219880832 3219880832 1.00000000
-2.13130569 0.96232146 -0.53988254 3 2 29430 2.40000000 3219880834 3219880834 -13.00000000
-4.16089725 1.87959146 0.23927999 5 3 29431 4.57200000 3219880837 3219880837 3.00000000
-2.49411058 1.12665820 -0.53197551 3 4 29431 2.78800000 3219880839 3219880839 -11.00000000
-26.54565239 11.99697876 2.54860830 45 5 29432 29.24200000 3219880841 3219880841 5.00000000
-3.03289700 1.37131774 -0.52718413 3 6 29433 3.37000000 3219880844 3219880844 -9.00000000
-20.11398506 9.09872246 2.71061802 63 7 29434 22.24200000 3219880846 3219880846 7.00000000
-3.78158617 1.71142602 -0.50965762 6 8 29435 4.18200000 3219880848 3219880848 -7.00000000
-15.80871773 7.15784883 2.74855351 57 9 29436 17.57000000 3219880851 3219880851 9.00000000
-4.61012697 2.08736682 -0.44275117 6 10 29436 5.08000000 3219880853 3219880853 -5.00000000
-9.88408947 4.47738314 2.10920262 18 11 29437 11.05400000 3219880855 3219880855 11.00000000
-4.09492731 1.85581803 -0.23561648 4 12 29438 4.50200000 3219880857 3219880857 -3.00000000
-10.64185810 4.82512188 2.69761300 56 13 29439 11.99200000 3219880860 3219880860 13.00000000
-4.00275564 1.81573045 -0.07672078 12 14 29440 4.39600000 3219880862 3219880862 -1.00000000
-7.94791412 3.60700631 2.33868885 2 15 29441 9.03600000 3219880864 3219880864 15.00000000
-1.83379185 0.83493418 -0.53989655 4 0 29448 2.08600000 3219880885 3219880885 -15.00000000
-4.23829126 1.93060720 0.08129331 122 1 29449 4.65800000 3219880887 3219880887 1.00000000
-2.12793374 0.96975523 -0.53988254 4 2 29450 2.40000000 3219880890 3219880890 -13.00000000
-4.17248344 1.90238988 0.24032672 5 3 29451 4.59200000 3219880892 3219880892 3.00000000
-2.49730802 1.13861525 -0.53350192 3 4 29451 2.79600000 3219880894 3219880894 -11.00000000
-26.47642326 12.07716465 2.54599357 54 5 29452 29.21200000 3219880897 3219880897 5.00000000
-3.03528023 1.38517666 -0.52843565 3 6 29453 3.37800000 3219880899 3219880899 -9.00000000
-20.11821747 9.18536758 2.71549273 60 7 29454 22.28200000 3219880901 3219880901 7.00000000
-3.78281164 1.72791493 -0.51063257 8 8 29455 4.19000000 3219880904 3219880904 -7.00000000
-15.78669071 7.21105385 2.74886632 57 9 29455 17.57200000 3219880906 3219880906 9.00000000
-4.59193993 2.09847760 -0.44170532 6 10 29456 5.06800000 3219880908 3219880908 -5.00000000
-9.86661434 4.51104116 2.10882092 25 11 29457 11.05200000 3219880910 3219880910 11.00000000
-4.12656593 1.88754725 -0.23781459 4 12 29458 4.54400000 3219880913 3219880913 -3.00000000
-10.63203907 4.86548281 2.69941258 59 13 29459 12.00000000 3219880915 3219880915 13.00000000
-4.00548410 1.83385384 -0.07689530 11 14 29460 4.40600000 3219880917 3219880917 -1.00000000
-7.93590879 3.63334274 2.33868885 2 15 29460 9.03600000 3219880920 3219880920 15.00000000
-1.82384467 0.83810365 -0.53782600 4 0 29468 2.07800000 3219880940 3219880940 -15.00000000
-2.12630606 0.97799152 -0.54033244 4 2 29470 2.40200000 3219880945 3219880945 -13.00000000
-4.17307520 1.92028260 0.24074540 5 3 29471 4.60000000 3219880947 3219880947 3.00000000
-2.49688530 1.14896691 -0.53426516 3 4 29471 2.80000000 3219880950 3219880950 -11.00000000
-28.13170815 12.95103931 2.70949769 28 5 29472 31.08800000 3219880952 3219880952 5.00000000
-3.01966119 1.39080501 -0.52655840 3 6 29473 3.36600000 3219880954 3219880954 -9.00000000
-20.11487770 9.26882935 2.71939254 63 7 29474 22.31400000 3219880957 3219880957 7.00000000
-3.78036261 1.74277103 -0.51112002 6 8 29475 4.19400000 3219880959 3219880959 -7.00000000
-15.75298023 7.26555729 2.74761486 57 9 29476 17.56400000 3219880961 3219880961 9.00000000
-4.60629749 2.12450719 -0.44379705 6 10 29476 5.09200000 3219880963 3219880963 -5.00000000
-9.86685181 4.55285788 2.11225557 18 11 29477 11.07000000 3219880966 3219880966 11.00000000
-4.10544491 1.89524317 -0.23697720 4 12 29478 4.52800000 3219880968 3219880968 -3.00000000
-10.60437489 4.89766359 2.69671321 57 13 29479 11.98800000 3219880970 3219880970 13.00000000
-4.01358080 1.85453463 -0.07717454 11 14 29480 4.42200000 3219880973 3219880973 -1.00000000
-7.95936346 3.67942810 2.34955931 2 15 29481 9.07800000 3219880975 3219880975 15.00000000
-1.82791829 0.84771603 -0.53989655 4 0 29488 2.08600000 3219880996 3219880996 -15.00000000
-4.25010490 1.97193158 0.08178198 55 1 29489 4.68600000 3219880998 3219880998 1.00000000
-2.11580896 0.98212582 -0.53853285 4 2 29490 2.39400000 3219881000 3219881000 -13.00000000
-4.17721558 1.93988502 0.24137343 5 3 29491 4.61200000 3219881003 3219881003 3.00000000
-2.49998188 1.16098332 -0.53579164 3 4 29491 2.80800000 3219881005 3219881005 -11.00000000
-28.13872910 13.07350349 2.71455288 86 5 29492 31.14600000 3219881007 3219881007 5.00000000
-3.00762272 1.39800656 -0.52530694 3 6 29493 3.35800000 3219881010 3219881010 -9.00000000
-20.10220146 9.34819412 2.72207355 57 7 29494 22.33600000 3219881012 3219881012 7.00000000
-3.77785587 1.75763106 -0.51160753 6 8 29495 4.19800000 3219881014 3219881014 -7.00000000
-15.71626282 7.31192350 2.74542475 57 9 29495 17.55000000 3219881016 3219881016 9.00000000
-4.59885359 2.14057326 -0.44379705 6 10 29496 5.09200000 3219881019 3219881019 -5.00000000
-12.07380295 5.62241220 2.58889651 25 11 29497 13.56800000 3219881021 3219881021 11.00000000
-4.10604620 1.91293609 -0.23739590 4 12 29498 4.53600000 3219881023 3219881023 -3.00000000
-10.57661724 4.92971039 2.69401383 56 13 29499 11.97600000 3219881026 3219881026 13.00000000
-4.01976919 1.87444913 -0.07741888 11 14 29500 4.43600000 3219881028 3219881028 -1.00000000
-9.02914524 4.21035957 2.66945958 30 15 29500 10.31400000 3219881030 3219881030 15.00000000
-1.83894575 0.86064249 -0.54403764 4 0 29508 2.10200000 3219881051 3219881051 -15.00000000
-4.26492786 1.99693060 0.08220083 12 1 29509 4.71000000 3219881053 3219881053 1.00000000
-2.11766195 0.99198532 -0.53988254 4 2 29510 2.40000000 3219881056 3219881056 -13.00000000
-4.18307829 1.96038735 0.24210614 5 3 29511 4.62600000 3219881058 3219881058 3.00000000
-2.49591398 1.16970277 -0.53579164 3 4 29511 2.80800000 3219881060 3219881060 -11.00000000
-28.13621712 13.19194508 2.71873617 96 5 29512 31.19400000 3219881063 3219881063 5.00000000
-3.01703167 1.41520774 -0.52780986 3 6 29513 3.37400000 3219881065 3219881065 -9.00000000
-20.09819984 9.43180084 2.72597337 57 7 29514 22.36800000 3219881067 3219881067 7.00000000
-3.75552535 1.76321471 -0.50941384 6 8 29515 4.18000000 3219881069 3219881069 -7.00000000
-15.67862988 7.36443806 2.74354768 53 9 29516 17.53800000 3219881072 3219881072 9.00000000
-4.63463402 2.17694259 -0.44798052 6 10 29516 5.14000000 3219881074 3219881074 -5.00000000
-12.07542610 5.67454338 2.59347582 43 11 29517 13.59200000 3219881076 3219881076 11.00000000
-4.11199617 1.93320549 -0.23812860 6 12 29518 4.55000000 3219881079 3219881079 -3.00000000
-10.54876423 4.96162271 2.69131446 57 13 29519 11.96400000 3219881081 3219881081 13.00000000
-4.01682043 1.89017212 -0.07748868 9 14 29520 4.44000000 3219881083 3219881083 -1.00000000
-9.03462696 4.25329876 2.67567134 42 15 29521 10.33800000 3219881086 3219881086 15.00000000
-1.82544935 0.86210650 -0.54093182 4 0 29528 2.09000000 3219881106 3219881106 -15.00000000
-4.26154757 2.01351428 0.08227064 21 1 29529 4.71400000 3219881109 3219881109 1.00000000
-2.12651920 1.00520098 -0.54303187 4 2 29530 2.41400000 3219881111 3219881111 -13.00000000
-4.19426489 1.98351562 0.24315286 5 3 29531 4.64600000 3219881113 3219881113 3.00000000
-2.47939229 1.17253280 -0.53312033 3 4 29531 2.79400000 3219881116 3219881116 -11.00000000
-28.11521149 13.30200768 2.72117662 96 5 29532 31.22200000 3219881118 3219881118 5.00000000
-3.02100062 1.42995608 -0.52937424 3 6 29533 3.38400000 3219881120 3219881120 -9.00000000
-20.10283089 9.51974010 2.73109198 60 7 29534 22.41000000 3219881122 3219881122 7.00000000
-3.77266908 1.78736210 -0.51258248 6 8 29535 4.20600000 3219881125 3219881125 -7.00000000
-15.63448524 7.40708685 2.74010611 57 9 29535 17.51600000 3219881127 3219881127 9.00000000
-4.62340641 2.19140053 -0.44763190 6 10 29536 5.13600000 3219881129 3219881129 -5.00000000
-12.08570099 5.73095989 2.59996343 59 11 29537 13.62600000 3219881132 3219881132 11.00000000
-4.10522270 1.94754732 -0.23812860 6 12 29538 4.55000000 3219881134 3219881134 -3.00000000
-10.52433872 4.99507236 2.68951488 60 13 29539 11.95600000 3219881136 3219881136 13.00000000
-4.01200438 1.90503967 -0.07752359 9 14 29540 4.44200000 3219881139 3219881139 -1.00000000
-9.00825691 4.27743483 2.67204785 47 15 29540 10.32400000 3219881141 3219881141 15.00000000
-1.81545305 0.86514896 -0.53886127 4 0 29548 2.08200000 3219881162 3219881162 -15.00000000
-2.11772060 1.01010096 -0.54168212 4 2 29550 2.40800000 3219881166 3219881166 -13.00000000
-4.20894623 2.00846624 0.24440892 6 3 29551 4.67000000 3219881169 3219881169 3.00000000
-2.47528410 1.18118036 -0.53312033 3 4 29551 2.79400000 3219881171 3219881171 -11.00000000
-28.10816193 13.41895199 2.72501135 86 5 29552 31.26600000 3219881173 3219881173 5.00000000
-2.99816561 1.43197918 -0.52624553 3 6 29553 3.36400000 3219881175 3219881175 -9.00000000
-20.10709190 9.60782719 2.73621058 68 7 29554 22.45200000 3219881178 3219881178 7.00000000
-3.75924325 1.79709554 -0.51160753 6 8 29555 4.19800000 3219881180 3219881180 -7.00000000
-15.60318851 7.45906019 2.73916745 53 9 29555 17.51000000 3219881182 3219881182 9.00000000
-4.64628458 2.22213960 -0.45059520 6 10 29556 5.17000000 3219881185 3219881185 -5.00000000
-12.08864498 5.78412771 2.60492444 59 11 29557 13.65200000 3219881187 3219881187 11.00000000
-4.12181902 1.97307599 -0.23948933 6 12 29558 4.57600000 3219881189 3219881189 -3.00000000
-10.51386833 5.03514576 2.69131446 56 13 29559 11.96400000 3219881192 3219881192 13.00000000
-4.02877426 1.93026507 -0.07797735 9 14 29560 4.46800000 3219881194 3219881194 -1.00000000
-8.98281765 4.30384493 2.66894197 47 15 29560 10.31200000 3219881196 3219881196 15.00000000
-1.81620884 0.87252116 -0.53989655 4 0 29566 2.08600000 3219881217 3219881217 -15.00000000
-4.24269295 2.03913474 0.08216593 19 1 29567 4.70800000 3219881219 3219881219 1.00000000
-2.10926795 1.01421547 -0.54033244 4 2 29568 2.40200000 3219881222 3219881222 -13.00000000
-4.25301123 2.04592180 0.24733973 4 3 29569 4.72600000 3219881224 3219881224 3.00000000
-2.48217630 1.19405723 -0.53541005 3 4 29569 2.80600000 3219881226 3219881226 -11.00000000
-28.11254501 13.52965450 2.72954345 96 5 29570 31.31800000 3219881228 3219881228 5.00000000
-2.99187231 1.44053411 -0.52593267 3 6 29571 3.36200000 3219881231 3219881231 -9.00000000
-20.09826851 9.68128586 2.73913527 68 7 29572 22.47600000 3219881233 3219881233 7.00000000
-3.76788497 1.81579101 -0.51355743 6 8 29573 4.21400000 3219881235 3219881235 -7.00000000
-15.58192635 7.51247692 2.73979330 57 9 29574 17.51400000 3219881238 3219881238 9.00000000
-5.03590775 2.42795014 -0.48911804 10 10 29574 5.61200000 3219881240 3219881240 -5.00000000
-12.07571888 5.82463551 2.60606933 62 11 29575 13.65800000 3219881242 3219881242 11.00000000
-4.11560011 1.98601532 -0.23948933 13 12 29576 4.57600000 3219881245 3219881245 -3.00000000
-10.50501823 5.07153988 2.69311404 59 13 29577 11.97200000 3219881247 3219881247 13.00000000
-4.03349400 1.94813049 -0.07818678 7 14 29578 4.48000000 3219881249 3219881249 -1.00000000
-8.97273159 4.33372450 2.66997719 47 15 29578 10.31600000 3219881251 3219881251 15.00000000
-1.83053613 0.88728184 -0.54507291 4 0 29586 2.10600000 3219881272 3219881272 -15.00000000
-4.18696785 2.03037381 0.08122350 6 1 29587 4.65400000 3219881275 3219881275 1.00000000
-2.10396171 1.02072144 -0.53988254 3 2 29588 2.40000000 3219881277 3219881277 -13.00000000
-41.82057190 20.29795837 2.43623877 10 3 29589 46.55000000 3219881279 3219881279 3.00000000
-2.49565530 1.21128690 -0.53922623 3 4 29589 2.82600000 3219881281 3219881281 -11.00000000
-28.11353683 13.65120029 2.73425007 96 5 29590 31.37200000 3219881284 3219881284 5.00000000
-2.99393296 1.45442152 -0.52718413 3 6 29591 3.37000000 3219881286 3219881286 -9.00000000
-20.09827614 9.76786900 2.74376631 60 7 29592 22.51400000 3219881288 3219881288 7.00000000
-3.76152372 1.82893240 -0.51355743 6 8 29593 4.21400000 3219881291 3219881291 -7.00000000
-15.57337093 7.57546329 2.74292183 57 9 29594 17.53400000 3219881293 3219881293 9.00000000
-5.02381849 2.44377089 -0.48876941 10 10 29594 5.60800000 3219881295 3219881295 -5.00000000
-12.07296658 5.87534285 2.60988545 62 11 29595 13.67800000 3219881298 3219881298 11.00000000
-4.11582565 2.00386643 -0.23990802 4 12 29596 4.58400000 3219881300 3219881300 -3.00000000
-10.48374748 5.10647154 2.69221425 56 13 29597 11.96800000 3219881302 3219881302 13.00000000
-4.05003834 1.97358596 -0.07864054 7 14 29598 4.50600000 3219881304 3219881304 -1.00000000
-8.95331478 4.36488914 2.66894197 47 15 29599 10.31200000 3219881307 3219881307 15.00000000
-1.82742774 0.89366621 -0.54507291 4 0 29606 2.10600000 3219881328 3219881328 -15.00000000
-4.17985535 2.04497671 0.08122350 4 1 29607 4.65400000 3219881330 3219881330 1.00000000
-2.10388637 1.02977288 -0.54078233 3 2 29608 2.40400000 3219881332 3219881332 -13.00000000
-41.82838821 20.48246384 2.44084430 21 3 29609 46.63800000 3219881334 3219881334 3.00000000
-2.47377992 1.21135688 -0.53541005 3 4 29609 2.80600000 3219881337 3219881337 -11.00000000
-28.11402321 13.77291775 2.73895645 96 5 29610 31.42600000 3219881339 3219881339 5.00000000
-2.99948072 1.47007966 -0.52906138 3 6 29611 3.38200000 3219881341 3219881341 -9.00000000
-20.09435654 9.85282326 2.74791002 55 7 29612 22.54800000 3219881344 3219881344 7.00000000
-3.74798799 1.83855438 -0.51258248 8 8 29613 4.20600000 3219881346 3219881346 -7.00000000
-15.53796673 7.62542677 2.74135756 61 9 29614 17.52400000 3219881348 3219881348 9.00000000
-5.02241182 2.46480346 -0.48946664 10 10 29614 5.61600000 3219881351 3219881351 -5.00000000
-12.08763027 5.93475485 2.61751771 62 11 29615 13.71800000 3219881353 3219881353 11.00000000
-4.17154932 2.04904056 -0.24357153 2 12 29616 4.65400000 3219881355 3219881355 -3.00000000
-10.45536423 5.13787889 2.68951488 60 13 29617 11.95600000 3219881357 3219881357 13.00000000
-4.04491901 1.98859346 -0.07867545 7 14 29618 4.50800000 3219881360 3219881360 -1.00000000
-8.94919300 4.39966917 2.67204785 47 15 29618 10.32400000 3219881362 3219881362 15.00000000
-1.81736720 0.89662069 -0.54300237 4 0 29626 2.09800000 3219881383 3219881383 -15.00000000
-4.17089796 2.05866957 0.08118860 4 1 29627 4.65200000 3219881385 3219881385 1.00000000
-2.11076307 1.04228747 -0.54348177 3 2 29628 2.41600000 3219881387 3219881387 -13.00000000
-41.80856323 20.65400124 2.44387984 21 3 29629 46.69600000 3219881390 3219881390 3.00000000
-2.47305679 1.22172368 -0.53617328 3 4 29629 2.81000000 3219881392 3219881392 -11.00000000
-28.10328484 13.88950825 2.74261689 86 5 29630 31.46800000 3219881394 3219881394 5.00000000
-2.99433088 1.48054075 -0.52906138 3 6 29631 3.38200000 3219881397 3219881397 -9.00000000
-20.09364891 9.93962860 2.75254107 63 7 29632 22.58600000 3219881399 3219881399 7.00000000
-3.74154735 1.85162604 -0.51258248 8 8 29633 4.20600000 3219881401 3219881401 -7.00000000
-15.49355125 7.67085314 2.73822880 57 9 29634 17.50400000 3219881404 3219881404 9.00000000
-5.01734877 2.48408794 -0.48981526 10 10 29634 5.62000000 3219881406 3219881406 -5.00000000
