# .PCD v0.7 - Point Cloud Data file format
VERSION 0.7
FIELDS x y z intensity laser_id azimuth distance_m adjustedtime timestamp vertical_angle
SIZE 4 4 4 1 1 2 8 8 4 8
TYPE F F F U U U F U U F
COUNT 1 1 1 1 1 1 1 1 1 1
WIDTH 535
HEIGHT 1
VIEWPOINT 0 0 0 1 0 0 0
POINTS 535
DATA ascii
3.51153374 5.87665224 -1.33070195 3 4 3086 6.97400000 3219107689 3219107689 -11.00000000
3.90817213 6.53784561 0.66639280 35 5 3087 7.64600000 3219107691 3219107691 5.00000000
3.52108598 5.88796949 -1.08659375 4 6 3088 6.94600000 3219107694 3219107694 -9.00000000
8.53317070 14.26353931 2.04082394 47 7 3089 16.74600000 3219107696 3219107696 7.00000000
2.85541439 4.77104998 -0.68271208 6 8 3090 5.60200000 3219107698 3219107698 -7.00000000
6.48515987 10.83162212 1.99954534 40 9 3091 12.78200000 3219107701 3219107701 9.00000000
3.51051068 5.86331320 -0.59788841 44 10 3091 6.86000000 3219107703 3219107703 -5.00000000
6.07701159 10.14590740 2.29886675 43 11 3092 12.04800000 3219107705 3219107705 11.00000000
3.51703596 5.86956263 -0.35860598 36 12 3093 6.85200000 3219107707 3219107707 -3.00000000
5.21502256 8.69987869 2.34174037 54 13 3094 10.41000000 3219107710 3219107710 13.00000000
3.52440572 5.87720776 -0.11961880 29 14 3095 6.85400000 3219107712 3219107712 -1.00000000
4.52355003 7.54335451 2.35680628 40 15 3095 9.10600000 3219107714 3219107714 15.00000000
1.17907941 1.95999229 -0.61288351 4 0 3103 2.36800000 3219107735 3219107735 -15.00000000
3.52332211 5.85453081 0.11926974 14 1 3104 6.83400000 3219107737 3219107737 1.00000000
1.39612925 2.31896305 -0.62491405 3 2 3105 2.77800000 3219107740 3219107740 -13.00000000
3.44278836 5.71845198 0.34981352 57 3 3105 6.68400000 3219107742 3219107742 3.00000000
3.51379323 5.83408689 -1.32383275 3 4 3106 6.93800000 3219107744 3219107744 -11.00000000
3.92788482 6.51904440 0.66586989 35 5 3107 7.64000000 3219107747 3219107747 5.00000000
3.53345942 5.86210823 -1.08409083 4 6 3108 6.93000000 3219107749 3219107749 -9.00000000
8.53678036 14.15716839 2.02985573 24 7 3109 16.65600000 3219107751 3219107751 7.00000000
2.86794972 4.75425434 -0.68173712 6 8 3110 5.59400000 3219107753 3219107753 -7.00000000
6.51696205 10.80329132 1.99829388 43 9 3110 12.77400000 3219107756 3219107756 9.00000000
3.52786779 5.84590626 -0.59736544 40 10 3111 6.85400000 3219107758 3219107758 -5.00000000
6.11644936 10.13135624 2.30039334 46 11 3112 12.05600000 3219107760 3219107760 11.00000000
3.53543806 5.85383081 -0.35839662 36 12 3113 6.84800000 3219107763 3219107763 -3.00000000
5.24032021 8.67328262 2.33949089 56 13 3114 10.40000000 3219107765 3219107765 13.00000000
3.52524590 5.83235359 -0.11895560 23 14 3115 6.81600000 3219107767 3219107767 -1.00000000
4.55185223 7.53082514 2.35784149 40 15 3115 9.11000000 3219107770 3219107770 15.00000000
1.18591380 1.95586455 -0.61288351 4 0 3123 2.36800000 3219107790 3219107790 -15.00000000
3.54269981 5.84048653 0.11923484 25 1 3124 6.83200000 3219107793 3219107793 1.00000000
1.40623736 2.31740737 -0.62581384 3 2 3125 2.78200000 3219107795 3219107795 -13.00000000
3.45025086 5.68360043 0.34845281 47 3 3126 6.65800000 3219107797 3219107797 3.00000000
3.45874715 5.69759655 -1.29559302 3 4 3126 6.79000000 3219107800 3219107800 -11.00000000
3.45937514 5.69638920 0.58307195 37 5 3127 6.69000000 3219107802 3219107802 5.00000000
3.52107954 5.79571486 -1.07407904 4 6 3128 6.86600000 3219107804 3219107804 -9.00000000
3.49817395 5.75574827 0.82700539 7 7 3129 6.78600000 3219107806 3219107806 7.00000000
2.88659024 4.74760675 -0.68222457 9 8 3130 5.59800000 3219107809 3219107809 -7.00000000
6.55446100 10.77595711 1.99766815 40 9 3131 12.77000000 3219107811 3219107811 9.00000000
3.54204011 5.82334280 -0.59631962 40 10 3131 6.84200000 3219107813 3219107813 -5.00000000
6.15381813 10.11329842 2.30115652 46 11 3132 12.06000000 3219107816 3219107816 11.00000000
3.54234958 5.81927538 -0.35703591 32 12 3133 6.82200000 3219107818 3219107818 -3.00000000
5.26650953 8.64827919 2.33769131 57 13 3134 10.39200000 3219107820 3219107820 13.00000000
3.45923257 5.67826939 -0.11605851 29 14 3135 6.65000000 3219107823 3219107823 -1.00000000
4.57540178 7.50749254 2.35577106 42 15 3136 9.10200000 3219107825 3219107825 15.00000000
1.18198454 1.93564165 -0.60770714 4 0 3141 2.34800000 3219107846 3219107846 -15.00000000
3.39840746 5.56311750 0.11378969 28 1 3142 6.52000000 3219107848 3219107848 1.00000000
1.41757548 2.31962943 -0.62761343 3 2 3143 2.79000000 3219107850 3219107850 -13.00000000
3.45772576 5.65800047 0.34751076 57 3 3143 6.64000000 3219107853 3219107853 3.00000000
3.46126890 5.66157722 -1.28986883 3 4 3144 6.76000000 3219107855 3219107855 -11.00000000
3.46270013 5.66169739 0.58063155 48 5 3145 6.66200000 3219107857 3219107857 5.00000000
3.48978400 5.70374393 -1.05906129 4 6 3146 6.77000000 3219107859 3219107859 -9.00000000
3.51623893 5.74473000 0.82700539 44 7 3147 6.78600000 3219107862 3219107862 7.00000000
2.90460086 4.74359369 -0.68295580 9 8 3148 5.60400000 3219107864 3219107864 -7.00000000
6.59240961 10.76205063 1.99891961 40 9 3149 12.77800000 3219107866 3219107866 9.00000000
3.55615425 5.80539036 -0.59562236 40 10 3149 6.83400000 3219107869 3219107869 -5.00000000
6.17940474 10.08387184 2.29886675 46 11 3150 12.04800000 3219107871 3219107871 11.00000000
3.49485064 5.70084429 -0.35044158 35 12 3151 6.69600000 3219107873 3219107873 -3.00000000
5.29670906 8.63667583 2.33904099 54 13 3152 10.39800000 3219107876 3219107876 13.00000000
3.46764255 5.65203333 -0.11574436 29 14 3153 6.63200000 3219107878 3219107878 -1.00000000
4.59260559 7.48565054 2.35318279 40 15 3153 9.09200000 3219107880 3219107880 15.00000000
1.19278419 1.93808496 -0.60977769 4 0 3161 2.35600000 3219107901 3219107901 -15.00000000
3.41046691 5.53930140 0.11354536 46 1 3162 6.50600000 3219107903 3219107903 1.00000000
1.42361999 2.31134868 -0.62671363 3 2 3163 2.78600000 3219107905 3219107905 -13.00000000
3.46383834 5.62378883 0.34615001 55 3 3163 6.61400000 3219107908 3219107908 3.00000000
3.48101044 5.64946079 -1.28986883 3 4 3164 6.76000000 3219107910 3219107910 -11.00000000
3.46571469 5.62243891 0.57784259 55 5 3165 6.63000000 3219107912 3219107912 5.00000000
3.49930406 5.67471361 -1.05593264 6 6 3166 6.75000000 3219107915 3219107915 -9.00000000
3.52689028 5.71721554 0.82481170 55 7 3167 6.76800000 3219107917 3219107917 7.00000000
2.92843890 4.74525118 -0.68466198 6 8 3168 5.61800000 3219107919 3219107919 -7.00000000
6.63616228 10.74905872 2.00079679 40 9 3169 12.79000000 3219107922 3219107922 9.00000000
3.57639718 5.79294157 -0.59562236 40 10 3169 6.83400000 3219107924 3219107924 -5.00000000
6.20631313 10.04887772 2.29581380 43 11 3170 12.03200000 3219107926 3219107926 11.00000000
3.50843024 5.67841578 -0.34981352 38 12 3171 6.68400000 3219107929 3219107929 -3.00000000
5.32989836 8.62310696 2.34039068 56 13 3172 10.40400000 3219107931 3219107931 13.00000000
3.48840237 5.64159536 -0.11577927 29 14 3173 6.63400000 3219107933 3219107933 -1.00000000
4.62277174 7.47614622 2.35525322 45 15 3173 9.10000000 3219107935 3219107935 15.00000000
1.20599103 1.94354916 -0.61288351 4 0 3182 2.36800000 3219107956 3219107956 -15.00000000
3.46027637 5.57433558 0.11452269 28 1 3183 6.56200000 3219107958 3219107958 1.00000000
1.42591357 2.29618216 -0.62401420 3 2 3184 2.77400000 3219107961 3219107961 -13.00000000
3.44114065 5.53919268 0.34175378 52 3 3185 6.53000000 3219107963 3219107963 3.00000000
3.49547744 5.62665796 -1.28757906 3 4 3185 6.74800000 3219107965 3219107965 -11.00000000
3.45369673 5.55724001 0.57243890 100 5 3186 6.56800000 3219107968 3219107968 5.00000000
3.52216554 5.66520548 -1.05655837 6 6 3187 6.75400000 3219107970 3219107970 -9.00000000
3.53943396 5.69076538 0.82286179 52 7 3188 6.75200000 3219107972 3219107972 7.00000000
2.94161677 4.72774410 -0.68368703 6 8 3189 5.61000000 3219107975 3219107975 -7.00000000
6.67573023 10.72918320 2.00142264 40 9 3189 12.79400000 3219107977 3219107977 9.00000000
3.58918238 5.76626301 -0.59422785 40 10 3190 6.81800000 3219107979 3219107979 -5.00000000
6.24310255 10.02606297 2.29581380 46 11 3191 12.03200000 3219107982 3219107982 11.00000000
3.52288294 5.65534687 -0.34918550 35 12 3192 6.67200000 3219107984 3219107984 -3.00000000
5.35425329 8.59193707 2.33724141 52 13 3193 10.39000000 3219107986 3219107986 13.00000000
3.50376701 5.62028742 -0.11560474 29 14 3194 6.62400000 3219107988 3219107988 -1.00000000
4.65246582 7.45998049 2.35577106 42 15 3195 9.10200000 3219107991 3219107991 15.00000000
1.21481645 1.94260359 -0.61391878 4 0 3202 2.37200000 3219108011 3219108011 -15.00000000
3.50410652 5.60121441 0.11532550 34 1 3203 6.60800000 3219108014 3219108014 1.00000000
1.43805540 2.29779840 -0.62581384 3 2 3204 2.78200000 3219108016 3219108016 -13.00000000
3.45737123 5.52436495 0.34154445 100 3 3204 6.52600000 3219108018 3219108018 3.00000000
3.51405501 5.61275816 -1.28719747 3 4 3205 6.74600000 3219108021 3219108021 -11.00000000
3.46038318 5.52488804 0.57034719 65 5 3206 6.54400000 3219108023 3219108023 5.00000000
3.53352857 5.63948441 -1.05405545 6 6 3207 6.73800000 3219108025 3219108025 -9.00000000
3.55716825 5.67501163 0.82237434 52 7 3208 6.74800000 3219108028 3219108028 7.00000000
2.95599246 4.71408319 -0.68319952 6 8 3209 5.60600000 3219108030 3219108030 -7.00000000
6.70871162 10.69460297 1.99954534 40 9 3210 12.78200000 3219108032 3219108032 9.00000000
3.59023118 5.72331858 -0.59109026 44 10 3210 6.78200000 3219108035 3219108035 -5.00000000
6.28641033 10.01751232 2.29886675 46 11 3211 12.04800000 3219108037 3219108037 11.00000000
3.53623080 5.63286591 -0.34855747 35 12 3212 6.66000000 3219108039 3219108039 -3.00000000
5.38110304 8.56824398 2.33589172 56 13 3213 10.38400000 3219108041 3219108041 13.00000000
3.52123642 5.60463619 -0.11553493 29 14 3214 6.62000000 3219108044 3219108044 -1.00000000
4.67847776 7.44369459 2.35577106 40 15 3215 9.10200000 3219108046 3219108046 15.00000000
1.21747005 1.93181384 -0.61184824 4 0 3222 2.36400000 3219108067 3219108067 -15.00000000
3.52043748 5.58387375 0.11522079 31 1 3223 6.60200000 3219108069 3219108069 1.00000000
1.44814658 2.29606128 -0.62671363 3 2 3224 2.78600000 3219108071 3219108071 -13.00000000
3.47024107 5.50212669 0.34091642 90 3 3224 6.51400000 3219108074 3219108074 3.00000000
3.52629232 5.58883524 -1.28452611 3 4 3225 6.73200000 3219108076 3219108076 -11.00000000
3.47752070 5.50940561 0.56999856 71 5 3226 6.54000000 3219108078 3219108078 5.00000000
3.55108333 5.62377548 -1.05342972 4 6 3227 6.73400000 3219108081 3219108081 -9.00000000
3.58437729 5.67430830 0.82408053 44 7 3228 6.76200000 3219108083 3219108083 7.00000000
2.97349024 4.70541430 -0.68344325 4 8 3229 5.60800000 3219108085 3219108085 -7.00000000
6.74413919 10.67229748 1.99954534 40 9 3229 12.78200000 3219108088 3219108088 9.00000000
3.59634709 5.68885851 -0.58882421 56 10 3230 6.75600000 3219108090 3219108090 -5.00000000
6.32343864 9.99882603 2.29962993 46 11 3231 12.05200000 3219108092 3219108092 11.00000000
3.55587149 5.62048817 -0.34855747 35 12 3232 6.66000000 3219108094 3219108094 -3.00000000
5.41306305 8.55270100 2.33679152 55 13 3233 10.38800000 3219108097 3219108097 13.00000000
3.53863931 5.58893156 -0.11546512 27 14 3234 6.61600000 3219108099 3219108099 -1.00000000
4.70443249 7.42731857 2.35577106 40 15 3235 9.10200000 3219108101 3219108101 15.00000000
1.21592021 1.91450620 -0.60770714 4 0 3242 2.34800000 3219108122 3219108122 -15.00000000
3.53776264 5.56817579 0.11515098 28 1 3243 6.59800000 3219108124 3219108124 1.00000000
1.45824313 2.29428172 -0.62761343 3 2 3244 2.79000000 3219108127 3219108127 -13.00000000
3.49264002 5.49503660 0.34123042 85 3 3244 6.52000000 3219108129 3219108129 3.00000000
3.55209994 5.58643246 -1.28681588 3 4 3245 6.74400000 3219108131 3219108131 -11.00000000
3.49459219 5.49387121 0.56964993 71 5 3246 6.53600000 3219108134 3219108134 5.00000000
3.57705522 5.62134504 -1.05530691 4 6 3247 6.74600000 3219108136 3219108136 -9.00000000
3.61162448 5.67348385 0.82578665 26 7 3248 6.77600000 3219108138 3219108138 7.00000000
2.98243308 4.68328571 -0.68173712 4 8 3249 5.59400000 3219108141 3219108141 -7.00000000
6.77922964 10.64535809 1.99891961 40 9 3249 12.77800000 3219108143 3219108143 9.00000000
3.60868931 5.66450787 -0.58760405 44 10 3250 6.74200000 3219108145 3219108145 -5.00000000
6.35830259 9.97669220 2.29962993 50 11 3251 12.05200000 3219108147 3219108147 11.00000000
3.57869029 5.61309385 -0.34887147 35 12 3252 6.66600000 3219108150 3219108150 -3.00000000
5.44498062 8.53703976 2.33769131 55 13 3253 10.39200000 3219108152 3219108152 13.00000000
3.56565619 5.58834553 -0.11570945 36 14 3254 6.63000000 3219108154 3219108154 -1.00000000
4.72617245 7.40433788 2.35370040 42 15 3255 9.09400000 3219108157 3219108157 15.00000000
1.22676122 1.91675866 -0.60977769 4 0 3262 2.35600000 3219108177 3219108177 -15.00000000
3.56149077 5.56252909 0.11529060 28 1 3263 6.60600000 3219108180 3219108180 1.00000000
1.46203852 2.28261352 -0.62581384 3 2 3264 2.78200000 3219108182 3219108182 -13.00000000
3.51718616 5.49122095 0.34175378 55 3 3264 6.53000000 3219108184 3219108184 3.00000000
3.58217049 5.59052944 -1.29063201 3 4 3265 6.76400000 3219108187 3219108187 -11.00000000
3.51804900 5.48834896 0.57034719 68 5 3266 6.54400000 3219108189 3219108189 5.00000000
3.59665561 5.60882425 -1.05530691 6 6 3267 6.74600000 3219108191 3219108191 -9.00000000
8.51365471 13.27156830 1.93601644 24 7 3268 15.88600000 3219108193 3219108193 7.00000000
3.00948381 4.68955326 -0.68417448 4 8 3269 5.61400000 3219108196 3219108196 -7.00000000
6.81634760 10.62162971 1.99891961 40 9 3269 12.77800000 3219108198 3219108198 9.00000000
3.61660004 5.63343382 -0.58568656 44 10 3270 6.72000000 3219108200 3219108200 -5.00000000
6.38884497 9.94782925 2.29810357 46 11 3271 12.04400000 3219108203 3219108203 11.00000000
3.60365963 5.60896921 -0.34939486 35 12 3272 6.67600000 3219108205 3219108205 -3.00000000
5.47474718 8.51798153 2.33769131 56 13 3273 10.39200000 3219108207 3219108207 13.00000000
3.58946729 5.58259344 -0.11584907 29 14 3274 6.63800000 3219108210 3219108210 -1.00000000
4.41114092 6.86051750 2.18546796 24 15 3274 8.44400000 3219108212 3219108212 15.00000000
1.23972690 1.92220581 -0.61288351 4 0 3282 2.36800000 3219108233 3219108233 -15.00000000
3.58522248 5.55678415 0.11543021 28 1 3283 6.61400000 3219108235 3219108235 1.00000000
1.46999741 2.27749610 -0.62581384 3 2 3284 2.78200000 3219108237 3219108237 -13.00000000
3.53633261 5.47890997 0.34175378 47 3 3284 6.53000000 3219108240 3219108240 3.00000000
3.61231279 5.59448433 -1.29444826 3 4 3285 6.78400000 3219108242 3219108242 -11.00000000
3.54042864 5.48105574 0.57087010 68 5 3286 6.55000000 3219108244 3219108244 5.00000000
3.62693310 5.61282682 -1.05843556 4 6 3287 6.76600000 3219108246 3219108246 -9.00000000
8.52867699 13.19342327 1.92894793 52 7 3288 15.82800000 3219108249 3219108249 7.00000000
3.02799106 4.68235350 -0.68466198 6 8 3289 5.61800000 3219108251 3219108251 -7.00000000
6.85767317 10.60440636 2.00017118 40 9 3289 12.78600000 3219108253 3219108253 9.00000000
3.64165354 5.62913942 -0.58655816 40 10 3290 6.73000000 3219108256 3219108256 -5.00000000
6.42353058 9.92546749 2.29810357 50 11 3291 12.04400000 3219108258 3219108258 11.00000000
3.62755847 5.60306215 -0.34981352 35 12 3292 6.68400000 3219108260 3219108260 -3.00000000
5.50020981 8.49227619 2.33589172 55 13 3293 10.38400000 3219108263 3219108263 13.00000000
3.61763120 5.58345556 -0.11612831 31 14 3294 6.65400000 3219108265 3219108265 -1.00000000
4.78615522 7.38413191 2.35784149 40 15 3295 9.11000000 3219108267 3219108267 15.00000000
1.24609435 1.91808414 -0.61288351 4 0 3301 2.36800000 3219108288 3219108288 -15.00000000
3.61452675 5.56163168 0.11577927 28 1 3302 6.63400000 3219108290 3219108290 1.00000000
1.47116852 2.26280618 -0.62311441 3 2 3303 2.77000000 3219108293 3219108293 -13.00000000
3.61532855 5.55861807 0.34751076 67 3 3304 6.64000000 3219108295 3219108295 3.00000000
3.62870407 5.57918310 -1.29368496 3 4 3304 6.78000000 3219108297 3219108297 -11.00000000
3.56945086 5.48598528 0.57261324 61 5 3305 6.57000000 3219108299 3219108299 5.00000000
3.65630198 5.61732435 -1.06156433 4 6 3306 6.78600000 3219108302 3219108302 -9.00000000
8.53121948 13.10185528 1.91968584 36 7 3307 15.75200000 3219108304 3219108304 7.00000000
3.03916764 4.66563320 -0.68368703 6 8 3308 5.61000000 3219108306 3219108306 -7.00000000
6.89064455 10.57829666 1.99954534 40 9 3308 12.78200000 3219108309 3219108309 9.00000000
3.68314338 5.65208626 -0.59021866 32 10 3309 6.77200000 3219108311 3219108311 -5.00000000
6.45855379 9.90740108 2.29886675 50 11 3310 12.04800000 3219108313 3219108313 11.00000000
3.65702891 5.60773134 -0.35086024 35 12 3311 6.70400000 3219108316 3219108316 -3.00000000
5.52195215 8.46419811 2.33319235 57 13 3312 10.37200000 3219108318 3219108318 13.00000000
3.62629056 5.55635691 -0.11581417 9 14 3313 6.63600000 3219108320 3219108320 -1.00000000
4.80827332 7.36744165 2.35732388 40 15 3313 9.10800000 3219108323 3219108323 15.00000000
1.24854982 1.90725744 -0.61081296 4 0 3321 2.36000000 3219108343 3219108343 -15.00000000
3.64268279 5.56236410 0.11605851 28 1 3322 6.65000000 3219108346 3219108346 1.00000000
1.48546565 2.26743746 -0.62581384 3 2 3323 2.78200000 3219108348 3219108348 -13.00000000
3.62376189 5.52925968 0.34646404 67 3 3324 6.62000000 3219108350 3219108350 3.00000000
1.79179394 2.73398042 -0.63539398 2 4 3324 3.33000000 3219108352 3219108352 -11.00000000
3.61370420 5.51181507 0.57662237 68 5 3325 6.61600000 3219108355 3219108355 5.00000000
2.27183533 3.46380591 -0.65608615 2 6 3326 4.19400000 3219108357 3219108357 -9.00000000
8.55294418 13.03548145 1.91432369 36 7 3327 15.70800000 3219108359 3219108359 7.00000000
3.05543542 4.65499592 -0.68368703 9 8 3328 5.61000000 3219108362 3219108362 -7.00000000
6.91635847 10.53315544 1.99579096 43 9 3329 12.75800000 3219108364 3219108364 9.00000000
3.70941186 5.64918804 -0.59126455 12 10 3329 6.78400000 3219108366 3219108366 -5.00000000
6.49525356 9.88807774 2.29962993 46 11 3330 12.05200000 3219108369 3219108369 11.00000000
5.56002760 8.45789814 2.33679152 55 13 3332 10.38800000 3219108373 3219108373 13.00000000
8.41205597 12.79153061 -0.26723126 9 14 3333 15.31200000 3219108376 3219108376 -1.00000000
4.83205891 7.34492683 2.35577106 42 15 3334 9.10200000 3219108378 3219108378 15.00000000
1.25061381 1.89665544 -0.60874242 4 0 3340 2.35200000 3219108399 3219108399 -15.00000000
3.66881585 5.56193876 0.11630283 25 1 3341 6.66400000 3219108401 3219108401 1.00000000
1.49512327 2.26575208 -0.62671363 3 2 3342 2.78600000 3219108403 3219108403 -13.00000000
3.65858245 5.54221487 0.34803411 52 3 3343 6.65000000 3219108405 3219108405 3.00000000
1.80301344 2.73130059 -0.63615721 2 4 3343 3.33400000 3219108408 3219108408 -11.00000000
3.61768913 5.47818756 0.57435632 13 5 3344 6.59000000 3219108410 3219108410 5.00000000
2.28657556 3.46119785 -0.65702474 2 6 3345 4.20000000 3219108412 3219108412 -9.00000000
8.58736801 12.99379826 1.91237378 36 7 3346 15.69200000 3219108415 3219108415 7.00000000
3.06538105 4.63655853 -0.68246830 6 8 3347 5.60000000 3219108417 3219108417 -7.00000000
6.95377302 10.51796627 1.99704242 43 9 3347 12.76600000 3219108419 3219108419 9.00000000
4.62278700 6.98956871 -0.73315412 4 10 3348 8.41200000 3219108422 3219108422 -5.00000000
6.52800751 9.86648464 2.29962993 43 11 3349 12.05200000 3219108424 3219108424 11.00000000
8.41322041 12.71098900 -0.79885602 4 12 3350 15.26400000 3219108426 3219108426 -3.00000000
5.59019661 8.44266319 2.33769131 56 13 3351 10.39200000 3219108429 3219108429 13.00000000
8.41577816 12.70521545 -0.26600957 9 14 3352 15.24200000 3219108431 3219108431 -1.00000000
4.85084248 7.32326841 2.35370040 42 15 3352 9.09400000 3219108433 3219108433 15.00000000
1.25936496 1.89549661 -0.60977769 4 0 3360 2.35600000 3219108454 3219108454 -15.00000000
8.42133522 12.67033005 0.26555583 10 1 3361 15.21600000 3219108456 3219108456 1.00000000
1.49870718 2.25402832 -0.62491405 3 2 3362 2.77800000 3219108458 3219108458 -13.00000000
8.43429565 12.68022633 0.79812336 45 3 3363 15.25000000 3219108461 3219108461 3.00000000
1.81688571 2.73152876 -0.63768369 2 4 3363 3.34200000 3219108463 3219108463 -11.00000000
9.57595921 14.39117050 1.51232648 45 5 3364 17.35200000 3219108465 3219108465 5.00000000
2.28988671 3.44004011 -0.65452182 2 6 3365 4.18400000 3219108468 3219108468 -9.00000000
8.62607098 12.95382977 1.91091132 36 7 3366 15.68000000 3219108470 3219108470 7.00000000
3.09145212 4.64069891 -0.68466198 6 8 3367 5.61800000 3219108472 3219108472 -7.00000000
6.99665833 10.49898434 1.99829388 40 9 3368 12.77400000 3219108475 3219108475 9.00000000
4.63831758 6.96012592 -0.73175961 4 10 3368 8.39600000 3219108477 3219108477 -5.00000000
6.55587435 9.83383656 2.29734039 46 11 3369 12.04000000 3219108479 3219108479 11.00000000
8.39880562 12.59347820 -0.79330844 9 12 3370 15.15800000 3219108481 3219108481 -3.00000000
5.62395906 8.42958260 2.33949089 55 13 3371 10.40000000 3219108484 3219108484 13.00000000
8.41789246 12.61255646 -0.26468319 9 14 3372 15.16600000 3219108486 3219108486 -1.00000000
4.87765121 7.30543995 2.35370040 45 15 3373 9.09400000 3219108488 3219108488 15.00000000
1.27242184 1.90072107 -0.61288351 4 0 3380 2.36800000 3219108509 3219108509 -15.00000000
8.41877747 12.57107258 0.26408982 21 1 3381 15.13200000 3219108511 3219108511 1.00000000
1.50656605 2.24878311 -0.62491405 3 2 3382 2.77800000 3219108514 3219108514 -13.00000000
8.43514156 12.58600330 0.79404116 52 3 3383 15.17200000 3219108516 3219108516 3.00000000
1.82859552 2.72843170 -0.63844693 2 4 3383 3.34600000 3219108518 3219108518 -11.00000000
9.57287884 14.27822208 1.50395954 30 5 3384 17.25600000 3219108521 3219108521 5.00000000
2.29747963 3.42546368 -0.65327030 2 6 3385 4.17600000 3219108523 3219108523 -9.00000000
8.65796375 12.90385914 1.90798640 36 7 3386 15.65600000 3219108525 3219108525 7.00000000
3.10873866 4.63152790 -0.68490571 6 8 3387 5.62000000 3219108528 3219108528 -7.00000000
7.03363752 10.47900486 1.99891961 40 9 3387 12.77800000 3219108530 3219108530 9.00000000
4.67591286 6.96374178 -0.73385137 4 10 3388 8.42000000 3219108532 3219108532 -5.00000000
6.58797121 9.80763245 2.29657698 43 11 3389 12.03600000 3219108534 3219108534 11.00000000
8.39704132 12.49611664 -0.78901690 9 12 3390 15.07600000 3219108537 3219108537 -3.00000000
5.64900064 8.40343094 2.33769131 56 13 3391 10.39200000 3219108539 3219108539 13.00000000
8.41276741 12.51008320 -0.26314738 9 14 3392 15.07800000 3219108541 3219108541 -1.00000000
4.90400600 7.29243088 2.35473561 42 15 3392 9.09800000 3219108544 3219108544 15.00000000
1.27904880 1.89626789 -0.61288351 4 0 3400 2.36800000 3219108564 3219108564 -15.00000000
8.42346001 12.48359203 0.26286814 35 1 3401 15.06200000 3219108567 3219108567 1.00000000
1.51658714 2.24674082 -0.62581384 3 2 3402 2.78200000 3219108569 3219108569 -13.00000000
8.42760849 12.48034191 0.78922623 47 3 3403 15.08000000 3219108571 3219108571 3.00000000
1.83371353 2.71552396 -0.63692045 2 4 3403 3.33800000 3219108574 3219108574 -11.00000000
9.57358837 14.17207623 1.49628985 35 5 3404 17.16800000 3219108576 3219108576 5.00000000
2.31605887 3.42724323 -0.65514755 2 6 3405 4.18800000 3219108578 3219108578 -9.00000000
8.69850636 12.86698055 1.90701151 35 7 3406 15.64800000 3219108581 3219108581 7.00000000
3.11710238 4.60913754 -0.68319952 6 8 3407 5.60600000 3219108583 3219108583 -7.00000000
7.06535625 10.44333839 1.99704242 43 9 3408 12.76600000 3219108585 3219108585 9.00000000
4.70465803 6.95397854 -0.73454863 4 10 3408 8.42800000 3219108587 3219108587 -5.00000000
6.62436724 9.78782845 2.29734039 50 11 3409 12.04000000 3219108590 3219108590 11.00000000
8.39582062 12.40057468 -0.78482997 9 12 3410 14.99600000 3219108592 3219108592 -3.00000000
5.66955709 8.37075329 2.33409214 57 13 3411 10.37600000 3219108594 3219108594 13.00000000
8.41488171 12.41938877 -0.26185590 9 14 3412 15.00400000 3219108597 3219108597 -1.00000000
4.93503666 7.28080416 2.35680628 45 15 3413 9.10600000 3219108599 3219108599 15.00000000
1.28381813 1.88837194 -0.61184824 4 0 3421 2.36400000 3219108620 3219108620 -15.00000000
8.42417526 12.38649368 0.26147196 38 1 3422 14.98200000 3219108622 3219108622 1.00000000
1.52481174 2.24116707 -0.62581384 3 2 3423 2.78200000 3219108624 3219108624 -13.00000000
8.43059063 12.38662720 0.78524870 52 3 3424 15.00400000 3219108627 3219108627 3.00000000
1.83702624 2.69904685 -0.63463074 4 4 3424 3.32600000 3219108629 3219108629 -11.00000000
9.58397865 14.07595730 1.48984027 15 5 3425 17.09400000 3219108631 3219108631 5.00000000
2.33527708 3.42852736 -0.65702474 2 6 3426 4.20000000 3219108634 3219108634 -9.00000000
8.74113655 12.82845116 1.90603650 35 7 3427 15.64000000 3219108636 3219108636 7.00000000
3.14291930 4.61080408 -0.68514943 6 8 3428 5.62200000 3219108638 3219108638 -7.00000000
7.10288000 10.42024422 1.99735522 47 9 3428 12.76800000 3219108640 3219108640 9.00000000
4.70990944 6.90705824 -0.73141098 4 10 3429 8.39200000 3219108643 3219108643 -5.00000000
6.66904736 9.77645779 2.30039334 46 11 3430 12.05600000 3219108645 3219108645 11.00000000
8.41532135 12.33177567 -0.78242254 9 12 3431 14.95000000 3219108647 3219108647 -3.00000000
5.70459414 8.35635471 2.33589172 56 13 3432 10.38400000 3219108650 3219108650 13.00000000
8.40734100 12.31084919 -0.26021537 9 14 3433 14.91000000 3219108652 3219108652 -1.00000000
4.95824242 7.26034260 2.35577106 42 15 3433 9.10200000 3219108654 3219108654 15.00000000
1.28603506 1.87750387 -0.60977769 4 0 3441 2.35600000 3219108675 3219108675 -15.00000000
8.41762543 12.28443146 0.25993615 45 1 3442 14.89400000 3219108677 3219108677 1.00000000
1.54364371 2.25190449 -0.63031286 3 2 3443 2.80200000 3219108680 3219108680 -13.00000000
8.43311310 12.29782581 0.78148049 52 3 3444 14.93200000 3219108682 3219108682 3.00000000
1.84643650 2.69261813 -0.63463074 4 4 3444 3.32600000 3219108684 3219108684 -11.00000000
9.61389351 14.01448727 1.48687696 4 5 3445 17.06000000 3219108687 3219108687 5.00000000
2.34499526 3.41709733 -0.65639901 2 6 3446 4.19600000 3219108689 3219108689 -9.00000000
8.77687550 12.78476810 1.90408659 35 7 3447 15.62400000 3219108691 3219108691 7.00000000
3.15899491 4.59980488 -0.68514943 6 8 3448 5.62200000 3219108693 3219108693 -7.00000000
7.14773607 10.40390968 1.99923241 54 9 3449 12.78000000 3219108696 3219108696 9.00000000
4.74640131 6.90863943 -0.73332840 4 10 3449 8.41400000 3219108698 3219108698 -5.00000000
6.70202112 9.75150108 2.30001163 50 11 3450 12.05400000 3219108700 3219108700 11.00000000
8.40287018 12.22168159 -0.77729362 9 12 3451 14.85200000 3219108703 3219108703 -3.00000000
5.74035454 8.34602547 2.33859110 57 13 3452 10.39600000 3219108705 3219108705 13.00000000
8.40492249 12.21553040 -0.25881919 9 14 3453 14.83000000 3219108707 3219108707 -1.00000000
4.98153353 7.23734713 2.35421801 45 15 3454 9.09600000 3219108710 3219108710 15.00000000
1.29335105 1.87481916 -0.61029530 4 0 3460 2.35800000 3219108730 3219108730 -15.00000000
8.41401958 12.19226265 0.25857484 56 1 3461 14.81600000 3219108733 3219108733 1.00000000
1.54445994 2.23715115 -0.62761343 3 2 3462 2.79000000 3219108735 3219108735 -13.00000000
8.43071842 12.20734215 0.77750295 47 3 3463 14.85600000 3219108737 3219108737 3.00000000
1.86651206 2.70263457 -0.63844693 4 4 3463 3.34600000 3219108740 3219108740 -11.00000000
2.35519075 3.40767717 -0.65608615 2 6 3465 4.19400000 3219108744 3219108744 -9.00000000
8.79890156 12.72620201 1.89969933 35 7 3466 15.58800000 3219108746 3219108746 7.00000000
3.18326473 4.60236502 -0.68709934 6 8 3467 5.63800000 3219108749 3219108749 -7.00000000
7.19499350 10.40252399 2.00329971 54 9 3467 12.80600000 3219108751 3219108751 9.00000000
4.76361656 6.88466978 -0.73245686 8 10 3468 8.40400000 3219108753 3219108753 -5.00000000
6.72873449 9.72115135 2.29810357 46 11 3469 12.04400000 3219108756 3219108756 11.00000000
8.40469456 12.13792038 -0.77373475 9 12 3470 14.78400000 3219108758 3219108758 -3.00000000
5.76577997 8.32374001 2.33769131 56 13 3471 10.39200000 3219108760 3219108760 13.00000000
8.40779877 12.13335133 -0.25766733 9 14 3472 14.76400000 3219108763 3219108763 -1.00000000
5.00644636 7.22483730 2.35525322 40 15 3472 9.10000000 3219108765 3219108765 15.00000000
1.30319512 1.87505209 -0.61184824 4 0 3480 2.36400000 3219108786 3219108786 -15.00000000
8.41771507 12.10699463 0.25738809 49 1 3481 14.74800000 3219108788 3219108788 1.00000000
1.54447055 2.22054744 -0.62446415 3 2 3482 2.77600000 3219108790 3219108790 -13.00000000
8.42422771 12.10734272 0.77300209 52 3 3483 14.77000000 3219108793 3219108793 3.00000000
1.88266242 2.70577216 -0.64073658 2 4 3483 3.35800000 3219108795 3219108795 -11.00000000
8.53669167 12.26441097 1.30733609 4 5 3484 15.00000000 3219108797 3219108797 5.00000000
2.36142731 3.39132977 -0.65452182 2 6 3485 4.18400000 3219108799 3219108799 -9.00000000
8.83759785 12.68726635 1.89848065 33 7 3486 15.57800000 3219108802 3219108802 7.00000000
3.19477105 4.58471060 -0.68612438 6 8 3487 5.63000000 3219108804 3219108804 -7.00000000
7.24707222 10.40003490 2.00767994 60 9 3487 12.83400000 3219108806 3219108806 9.00000000
4.80584955 6.89415121 -0.73524582 8 10 3488 8.43600000 3219108809 3219108809 -5.00000000
6.76038074 9.69438362 2.29734039 43 11 3489 12.04000000 3219108811 3219108811 11.00000000
8.38759041 12.02332973 -0.76829183 9 12 3490 14.68000000 3219108813 3219108813 -3.00000000
5.79256964 8.30036640 2.33679152 56 13 3491 10.38800000 3219108816 3219108816 13.00000000
8.39859009 12.03014469 -0.25609660 9 14 3492 14.67400000 3219108818 3219108818 -1.00000000
5.03274155 7.20890141 2.35577106 45 15 3492 9.10200000 3219108820 3219108820 15.00000000
1.31670880 1.87975669 -0.61495405 4 0 3501 2.37600000 3219108841 3219108841 -15.00000000
8.41727829 12.01219273 0.25602680 52 1 3502 14.67000000 3219108843 3219108843 1.00000000
1.55931044 2.22444630 -0.62716353 3 2 3503 2.78800000 3219108846 3219108846 -13.00000000
8.42038441 12.00770473 0.76860583 50 3 3504 14.68600000 3219108848 3219108848 3.00000000
1.87678623 2.67634988 -0.63539398 4 4 3504 3.33000000 3219108850 3219108850 -11.00000000
9.79673862 13.96523762 1.49245489 5 5 3505 17.12400000 3219108852 3219108852 5.00000000
2.37497616 3.38426900 -0.65483469 2 6 3506 4.18600000 3219108855 3219108855 -9.00000000
8.87833691 12.64666557 1.89726198 26 7 3507 15.56800000 3219108857 3219108857 7.00000000
3.21383500 4.57621956 -0.68661189 6 8 3508 5.63400000 3219108859 3219108859 -7.00000000
7.29603624 10.38506222 2.01018286 57 9 3509 12.85000000 3219108862 3219108862 9.00000000
4.82879496 6.87322998 -0.73489720 13 10 3509 8.43200000 3219108864 3219108864 -5.00000000
6.79812479 9.67275333 2.29810357 43 11 3510 12.04400000 3219108866 3219108866 11.00000000
8.38795090 11.93041992 -0.76431429 9 12 3511 14.60400000 3219108869 3219108869 -3.00000000
5.82071114 8.27589226 2.33589172 60 13 3512 10.38400000 3219108871 3219108871 13.00000000
8.40580368 11.94694710 -0.25497967 9 14 3513 14.61000000 3219108873 3219108873 -1.00000000
5.06691122 7.20146704 2.35939431 45 15 3513 9.11600000 3219108875 3219108875 15.00000000
1.31657922 1.86567867 -0.61184824 4 0 3521 2.36400000 3219108896 3219108896 -15.00000000
8.41994667 11.92719460 0.25484005 59 1 3522 14.60200000 3219108899 3219108899 1.00000000
1.56256902 2.21262240 -0.62536395 3 2 3523 2.78000000 3219108901 3219108901 -13.00000000
8.42076015 11.91951370 0.76483768 52 3 3524 14.61400000 3219108903 3219108903 3.00000000
1.88385129 2.66657543 -0.63463074 4 4 3524 3.32600000 3219108905 3219108905 -11.00000000
9.87072372 13.96675110 1.49628985 15 5 3525 17.16800000 3219108908 3219108908 5.00000000
2.39589787 3.38886189 -0.65733761 2 6 3526 4.20200000 3219108910 3219108910 -9.00000000
16.49342346 23.32037926 3.50715590 17 7 3527 28.77800000 3219108912 3219108912 7.00000000
3.25042701 4.59414244 -0.69099915 9 8 3528 5.67000000 3219108915 3219108915 -7.00000000
7.34936094 10.38371658 2.01487589 60 9 3529 12.88000000 3219108917 3219108917 9.00000000
4.85736179 6.86283731 -0.73559445 13 10 3529 8.44000000 3219108919 3219108919 -5.00000000
6.83411646 9.65216923 2.29886675 43 11 3530 12.04800000 3219108922 3219108922 11.00000000
8.40183830 11.86195183 -0.76180220 9 12 3531 14.55600000 3219108924 3219108924 -3.00000000
5.85181713 8.25870323 2.33679152 57 13 3532 10.38800000 3219108926 3219108926 13.00000000
8.39657402 11.84574986 -0.25344384 9 14 3533 14.52200000 3219108928 3219108928 -1.00000000
5.08656693 7.17339230 2.35628867 45 15 3534 9.10400000 3219108931 3219108931 15.00000000
1.31860626 1.85477352 -0.60977769 4 0 3541 2.35600000 3219108952 3219108952 -15.00000000
8.41169357 11.82765770 0.25333914 45 1 3542 14.51600000 3219108954 3219108954 1.00000000
1.57819092 2.21826959 -0.62851322 4 2 3543 2.79400000 3219108956 3219108956 -13.00000000
8.42294025 11.83472252 0.76127881 52 3 3544 14.54600000 3219108958 3219108958 3.00000000
1.89770150 2.66638136 -0.63615721 4 4 3544 3.33400000 3219108961 3219108961 -11.00000000
9.95408440 13.98090267 1.50151908 20 5 3545 17.22800000 3219108963 3219108963 5.00000000
2.40427470 3.37565112 -0.65639901 2 6 3546 4.19600000 3219108965 3219108965 -9.00000000
16.56781578 23.25296402 3.50569344 42 7 3547 28.76600000 3219108968 3219108968 7.00000000
3.29755282 4.62641382 -0.69758010 9 8 3548 5.72400000 3219108970 3219108970 -7.00000000
7.40276432 10.38212490 2.01956892 57 9 3549 12.91000000 3219108972 3219108972 9.00000000
4.87203407 6.83286238 -0.73420000 13 10 3549 8.42400000 3219108975 3219108975 -5.00000000
6.86776733 9.62825489 2.29886675 46 11 3550 12.04800000 3219108977 3219108977 11.00000000
8.38518810 11.75126171 -0.75656861 9 12 3551 14.45600000 3219108979 3219108979 -3.00000000
5.88287401 8.24139881 2.33769131 59 13 3552 10.39200000 3219108981 3219108981 13.00000000
8.40068531 11.76429272 -0.25232691 9 14 3553 14.45800000 3219108984 3219108984 -1.00000000
5.10695887 7.15176868 2.35473561 40 15 3553 9.09800000 3219108986 3219108986 15.00000000
1.32732224 1.85330057 -0.61081296 4 0 3561 2.36000000 3219109007 3219109007 -15.00000000
8.41100216 11.73970318 0.25208256 49 1 3562 14.44400000 3219109009 3219109009 1.00000000
1.57797790 2.20165968 -0.62536395 3 2 3563 2.78000000 3219109011 3219109011 -13.00000000
8.41881275 11.74194527 0.75719661 50 3 3564 14.46800000 3219109014 3219109014 3.00000000
1.92072499 2.67888713 -0.64073658 2 4 3564 3.35800000 3219109016 3219109016 -11.00000000
8.52109814 11.88022614 1.27909768 4 5 3565 14.67600000 3219109018 3219109018 5.00000000
2.40567875 3.35279322 -0.65358317 2 6 3566 4.17800000 3219109021 3219109021 -9.00000000
13.66706181 19.04076004 2.87782264 19 7 3567 23.61400000 3219109023 3219109023 7.00000000
3.32641792 4.63261175 -0.70026124 9 8 3568 5.74600000 3219109025 3219109025 -7.00000000
7.46546555 10.39312172 2.02676487 54 9 3569 12.95600000 3219109028 3219109028 9.00000000
3.46847892 4.82867765 -0.52014548 3 10 3569 5.96800000 3219109030 3219109030 -5.00000000
6.90018892 9.60262871 2.29848504 50 11 3570 12.04600000 3219109032 3219109032 11.00000000
8.39584732 11.67975521 -0.75384712 9 12 3571 14.40400000 3219109034 3219109034 -3.00000000
5.91160631 8.22081375 2.33769131 47 13 3572 10.39200000 3219109037 3219109037 13.00000000
8.40666676 11.68619728 -0.25127974 9 14 3573 14.39800000 3219109039 3219109039 -1.00000000
5.13189220 7.13389826 2.35473561 42 15 3573 9.09800000 3219109041 3219109041 15.00000000
1.33652735 1.85382271 -0.61236584 4 0 3579 2.36600000 3219109063 3219109063 -15.00000000
8.40924072 11.65969944 0.25093070 35 1 3580 14.37800000 3219109065 3219109065 1.00000000
1.58260643 2.19353080 -0.62446415 3 2 3581 2.77600000 3219109068 3219109068 -13.00000000
8.40920734 11.65536594 0.75321907 52 3 3581 14.39200000 3219109070 3219109070 3.00000000
1.91993964 2.66010427 -0.63768369 4 4 3582 3.34200000 3219109072 3219109072 -11.00000000
10.08624363 13.96949959 1.50744569 60 5 3583 17.29600000 3219109075 3219109075 5.00000000
2.42082667 3.35162449 -0.65483469 2 6 3584 4.18600000 3219109077 3219109077 -9.00000000
3.32932639 4.60605049 -0.69782388 9 8 3586 5.72600000 3219109081 3219109081 -7.00000000
7.51131296 10.39173794 2.03083229 54 9 3586 12.98200000 3219109084 3219109084 9.00000000
3.48479891 4.81937170 -0.52031976 15 10 3587 5.97000000 3219109086 3219109086 -5.00000000
6.93032217 9.58090401 2.29848504 50 11 3588 12.04600000 3219109088 3219109088 11.00000000
8.38332272 11.58536243 -0.74945092 4 12 3589 14.32000000 3219109091 3219109091 -3.00000000
5.93397522 8.19746590 2.33634162 14 13 3590 10.38600000 3219109093 3219109093 13.00000000
8.39759731 11.59656429 -0.24991846 11 14 3591 14.32000000 3219109095 3219109095 -1.00000000
5.15881062 7.12399960 2.35680628 45 15 3591 9.10600000 3219109098 3219109098 15.00000000
1.34639597 1.85383534 -0.61391878 4 0 3599 2.37200000 3219109118 3219109118 -15.00000000
8.40404892 11.56718063 0.24956942 31 1 3600 14.30000000 3219109121 3219109121 1.00000000
1.59254503 2.19114590 -0.62536395 3 2 3601 2.78000000 3219109123 3219109123 -13.00000000
8.40606403 11.56146526 0.74913687 52 3 3602 14.31400000 3219109125 3219109125 3.00000000
3.47166061 4.77482510 -1.14752531 12 4 3602 6.01400000 3219109128 3219109128 -11.00000000
10.16424370 13.97448826 1.51180351 65 5 3603 17.34600000 3219109130 3219109130 5.00000000
2.44413328 3.35912681 -0.65796334 4 6 3604 4.20600000 3219109132 3219109132 -9.00000000
8.50456142 11.68406963 1.77441764 1 7 3605 14.56000000 3219109134 3219109134 7.00000000
3.33720493 4.58316803 -0.69611770 11 8 3606 5.71200000 3219109137 3219109137 -7.00000000
7.56098080 10.38010502 2.03396082 57 9 3607 13.00200000 3219109139 3219109139 9.00000000
3.48986983 4.79107380 -0.51857668 15 10 3607 5.95000000 3219109141 3219109141 -5.00000000
6.96719217 9.56141376 2.29962993 43 11 3608 12.05200000 3219109144 3219109144 11.00000000
3.49536991 4.79510641 -0.31098026 3 12 3609 5.94200000 3219109146 3219109146 -3.00000000
4.98199892 6.83202600 1.95212519 16 13 3610 8.67800000 3219109148 3219109148 13.00000000
8.38970757 11.50094414 -0.24848737 9 14 3611 14.23800000 3219109151 3219109151 -1.00000000
5.18716431 7.10816479 2.35784149 42 15 3612 9.11000000 3219109153 3219109153 15.00000000
1.34601474 1.83976948 -0.61081296 4 0 3619 2.36000000 3219109174 3219109174 -15.00000000
8.40894413 11.48936462 0.24852227 24 1 3620 14.24000000 3219109176 3219109176 1.00000000
1.60478866 2.19186282 -0.62716353 3 2 3621 2.78800000 3219109178 3219109178 -13.00000000
8.39952183 11.47228909 0.74515933 50 3 3621 14.23800000 3219109181 3219109181 3.00000000
10.22355938 13.95338726 1.51337230 55 5 3623 17.36400000 3219109185 3219109185 5.00000000
2.45117283 3.34420180 -0.65671188 6 6 3624 4.19800000 3219109187 3219109187 -9.00000000
13.65486431 18.62288475 2.83541203 8 7 3625 23.26600000 3219109190 3219109190 7.00000000
3.35905313 4.57949400 -0.69733638 18 8 3626 5.72200000 3219109192 3219109192 -7.00000000
7.61703444 10.38072395 2.03927970 60 9 3627 13.03600000 3219109194 3219109194 9.00000000
3.49360704 4.76119280 -0.51665926 15 10 3627 5.92800000 3219109197 3219109197 -5.00000000
7.00633383 9.54494953 2.30153799 50 11 3628 12.06200000 3219109199 3219109199 11.00000000
3.50381184 4.77160692 -0.31024754 21 12 3629 5.92800000 3219109201 3219109201 -3.00000000
5.02773666 6.84443426 1.96067333 20 13 3630 8.71600000 3219109204 3219109204 13.00000000
8.39072609 11.41841221 -0.24733551 9 14 3631 14.17200000 3219109206 3219109206 -1.00000000
5.20613194 7.08469772 2.35577106 42 15 3631 9.10200000 3219109208 3219109208 15.00000000
1.34555173 1.82572901 -0.60770714 4 0 3639 2.34800000 3219109229 3219109229 -15.00000000
8.40271854 11.39717007 0.24716099 14 1 3640 14.16200000 3219109231 3219109231 1.00000000
1.61590004 2.19095278 -0.62851322 3 2 3641 2.79400000 3219109233 3219109233 -13.00000000
8.40395164 11.39467812 0.74201918 55 3 3641 14.17800000 3219109236 3219109236 3.00000000
3.48159862 4.71887589 -1.13989294 113 4 3642 5.97400000 3219109238 3219109238 -11.00000000
10.29113483 13.94326401 1.51616132 55 5 3643 17.39600000 3219109240 3219109240 5.00000000
2.46283126 3.33562517 -0.65671188 6 6 3644 4.19800000 3219109243 3219109243 -9.00000000
13.70445538 18.55434990 2.83224344 27 7 3645 23.24000000 3219109245 3219109245 7.00000000
3.37383842 4.56614447 -0.69709265 13 8 3646 5.72000000 3219109247 3219109247 -7.00000000
7.67201042 10.37948799 2.04428554 60 9 3647 13.06800000 3219109250 3219109250 9.00000000
3.49007273 4.72173119 -0.51369596 26 10 3647 5.89400000 3219109252 3219109252 -5.00000000
7.03610754 9.51569843 2.30039334 46 11 3648 12.05600000 3219109254 3219109254 11.00000000
3.51094460 4.74650145 -0.30941018 37 12 3649 5.91200000 3219109257 3219109257 -3.00000000
5.06550741 6.84564066 1.96607220 23 13 3650 8.74000000 3219109259 3219109259 13.00000000
8.44599915 11.40994740 -0.24778926 2 14 3651 14.19800000 3219109261 3219109261 -1.00000000
5.23083019 7.06648159 2.35577106 40 15 3651 9.10200000 3219109263 3219109263 15.00000000
1.36080885 1.83366764 -0.61184824 4 0 3658 2.36400000 3219109284 3219109284 -15.00000000
8.39159489 11.30341339 0.24572988 14 1 3659 14.08000000 3219109286 3219109286 1.00000000
1.61734712 2.17775989 -0.62626374 3 2 3660 2.78400000 3219109289 3219109289 -13.00000000
8.40436935 11.31236744 0.73856503 52 3 3661 14.11200000 3219109291 3219109291 3.00000000
3.49137378 4.69942522 -1.13798487 136 4 3661 5.96400000 3219109293 3219109293 -11.00000000
10.36702728 13.94903851 1.52051914 56 5 3662 17.44600000 3219109296 3219109296 5.00000000
2.47152185 3.32426929 -0.65608615 6 6 3663 4.19400000 3219109298 3219109298 -9.00000000
13.77775478 18.52473068 2.83468103 30 7 3664 23.26000000 3219109300 3219109300 7.00000000
3.39370155 4.56130171 -0.69806761 11 8 3665 5.72800000 3219109303 3219109303 -7.00000000
7.72580528 10.38386154 2.04991722 64 9 3665 13.10400000 3219109305 3219109305 9.00000000
3.50095296 4.70373869 -0.51299870 60 10 3666 5.88600000 3219109307 3219109307 -5.00000000
7.06879663 9.49388790 2.30077481 50 11 3667 12.05800000 3219109310 3219109310 11.00000000
3.51592779 4.72041702 -0.30846813 65 12 3668 5.89400000 3219109312 3219109312 -3.00000000
5.09865952 6.84286880 1.97012138 20 13 3669 8.75800000 3219109314 3219109314 13.00000000
3.53979206 4.74899530 -0.10338806 4 14 3670 5.92400000 3219109316 3219109316 -1.00000000
5.25431013 7.04663086 2.35525322 45 15 3671 9.10000000 3219109319 3219109319 15.00000000
1.36373127 1.82426441 -0.61029530 4 0 3678 2.35800000 3219109339 3219109339 -15.00000000
8.39147949 11.22120476 0.24457802 10 1 3679 14.01400000 3219109342 3219109342 1.00000000
1.62960851 2.17834258 -0.62806332 3 2 3680 2.79200000 3219109344 3219109344 -13.00000000
8.39637280 11.22366238 0.73458749 52 3 3680 14.03600000 3219109346 3219109346 3.00000000
3.51481438 4.69664001 -1.14027452 170 4 3681 5.97600000 3219109349 3219109349 -11.00000000
10.44789410 13.95582962 1.52522552 51 5 3682 17.50000000 3219109351 3219109351 5.00000000
2.48074245 3.31245947 -0.65546042 6 6 3683 4.19000000 3219109353 3219109353 -9.00000000
13.87090015 18.51465225 2.84053063 27 7 3684 23.30800000 3219109356 3219109356 7.00000000
3.41436481 4.55578184 -0.69904256 11 8 3685 5.73600000 3219109358 3219109358 -7.00000000
7.79225111 10.39340782 2.05742598 60 9 3686 13.15200000 3219109360 3219109360 9.00000000
3.51974106 4.69467735 -0.51334733 45 10 3686 5.89000000 3219109363 3219109363 -5.00000000
7.09835958 9.46444416 2.29962993 46 11 3687 12.05200000 3219109365 3219109365 11.00000000
3.52639055 4.70012712 -0.30794477 96 12 3688 5.88400000 3219109367 3219109367 -3.00000000
5.13889170 6.84684992 1.97641993 20 13 3689 8.78600000 3219109369 3219109369 13.00000000
3.54914379 4.72701550 -0.10317863 6 14 3690 5.91200000 3219109372 3219109372 -1.00000000
5.28351641 7.03442574 2.35732388 45 15 3691 9.10800000 3219109374 3219109374 15.00000000
1.38054955 1.83338225 -0.61495405 4 0 3698 2.37600000 3219109395 3219109395 -15.00000000
8.39690971 11.14712238 0.24360070 10 1 3699 13.95800000 3219109397 3219109397 1.00000000
3.53945327 4.69701338 -1.35780454 6 2 3700 6.03600000 3219109399 3219109399 -13.00000000
8.39342976 11.13845730 0.73092395 72 3 3700 13.96600000 3219109402 3219109402 3.00000000
3.53591442 4.69061327 -1.14180100 169 4 3701 5.98400000 3219109404 3219109404 -11.00000000
8.39603710 11.13382912 1.22000611 9 5 3702 13.99800000 3219109406 3219109406 5.00000000
2.49229002 3.30378008 -0.65546042 4 6 3703 4.19000000 3219109409 3219109409 -9.00000000
8.41340160 11.14875889 1.71494544 31 7 3704 14.07200000 3219109411 3219109411 7.00000000
3.42426658 4.53591394 -0.69782388 11 8 3705 5.72600000 3219109413 3219109413 -7.00000000
7.84333658 10.38958263 2.06180620 60 9 3705 13.18000000 3219109416 3219109416 9.00000000
3.56492424 4.72052097 -0.51753080 26 10 3706 5.93800000 3219109418 3219109418 -5.00000000
7.14200401 9.45370674 2.30306458 50 11 3707 12.07000000 3219109420 3219109420 11.00000000
3.55120492 4.69894314 -0.30867746 93 12 3708 5.89800000 3219109422 3219109422 -3.00000000
5.17098713 6.83975124 1.97956932 15 13 3709 8.80000000 3219109425 3219109425 13.00000000
3.56079745 4.70821810 -0.10303900 27 14 3710 5.90400000 3219109427 3219109427 -1.00000000
5.30803871 7.01593971 2.35732388 45 15 3711 9.10800000 3219109429 3219109429 15.00000000
1.37526619 1.81316018 -0.60977769 4 0 3718 2.35600000 3219109450 3219109450 -15.00000000
8.38741970 11.05402279 0.24220450 14 1 3719 13.87800000 3219109452 3219109452 1.00000000
1.64713275 2.17001724 -0.62896317 3 2 3720 2.79600000 3219109455 3219109455 -13.00000000
8.38757992 11.05022907 0.72705108 50 3 3720 13.89200000 3219109457 3219109457 3.00000000
3.54632998 4.67042446 -1.13989294 140 4 3721 5.97400000 3219109459 3219109459 -11.00000000
8.40833664 11.06954861 1.21617126 52 5 3722 13.95400000 3219109462 3219109462 5.00000000
2.50858760 3.30135131 -0.65671188 4 6 3723 4.19800000 3219109464 3219109464 -9.00000000
8.42463684 11.08297443 1.70933938 73 7 3724 14.02600000 3219109466 3219109466 7.00000000
3.44368362 4.52867413 -0.69855505 11 8 3725 5.73200000 3219109469 3219109469 -7.00000000
3.56690526 4.68901968 -0.51543903 26 10 3726 5.91400000 3219109473 3219109473 -5.00000000
7.17377138 9.42715645 2.30268288 50 11 3727 12.06800000 3219109475 3219109475 11.00000000
3.57363439 4.69446421 -0.30920082 62 12 3728 5.90800000 3219109478 3219109478 -3.00000000
5.19955349 6.82786131 1.98136890 3 13 3729 8.80800000 3219109480 3219109480 13.00000000
3.57478714 4.69257879 -0.10296920 54 14 3730 5.90000000 3219109482 3219109482 -1.00000000
5.33132553 6.99583197 2.35680628 45 15 3731 9.10600000 3219109485 3219109485 15.00000000
1.38158691 1.80834866 -0.60977769 4 0 3738 2.35600000 3219109505 3219109505 -15.00000000
8.37981129 10.96430302 0.24087812 10 1 3739 13.80200000 3219109508 3219109508 1.00000000
1.65233028 2.16115832 -0.62806332 3 2 3740 2.79200000 3219109510 3219109510 -13.00000000
8.39334869 10.97804356 0.72422498 52 3 3740 13.83800000 3219109512 3219109512 3.00000000
3.57215285 4.67049217 -1.14294589 85 4 3741 5.99000000 3219109515 3219109515 -11.00000000
8.39728737 10.97525406 1.20902443 52 5 3742 13.87200000 3219109517 3219109517 5.00000000
2.51769495 3.28943753 -0.65608615 4 6 3743 4.19400000 3219109519 3219109519 -9.00000000
8.41862106 10.99518204 1.70032108 50 7 3744 13.95200000 3219109521 3219109521 7.00000000
3.47878385 4.54184055 -0.70245492 11 8 3745 5.76400000 3219109524 3219109524 -7.00000000
7.27185345 9.49400711 1.89410853 13 9 3745 12.10800000 3219109526 3219109526 9.00000000
3.58446312 4.67812204 -0.51561338 22 10 3746 5.91600000 3219109528 3219109528 -5.00000000
7.20066261 9.39426708 2.30077481 50 11 3747 12.05800000 3219109531 3219109531 11.00000000
3.60822892 4.70573568 -0.31077090 34 12 3748 5.93800000 3219109533 3219109533 -3.00000000
8.37528133 10.91487885 -0.24014512 9 14 3750 13.76000000 3219109538 3219109538 -1.00000000
5.35096741 6.97351646 2.35525322 45 15 3750 9.10000000 3219109540 3219109540 15.00000000
1.39024723 1.80657697 -0.61081296 4 0 3758 2.36000000 3219109561 3219109561 -15.00000000
