# .PCD v0.7 - Point Cloud Data file format
VERSION 0.7
FIELDS x y z intensity laser_id azimuth distance_m adjustedtime timestamp vertical_angle
SIZE 4 4 4 1 1 2 8 8 4 8
TYPE F F F U U U F U U F
COUNT 1 1 1 1 1 1 1 1 1 1
WIDTH 521
HEIGHT 1
VIEWPOINT 0 0 0 1 0 0 0
POINTS 521
DATA ascii
-3.91882062 11.13429642 -0.61861098 4 12 34061 11.82000000 3219593650 3219593650 -3.00000000
-3.57535028 10.16408062 2.48750877 52 13 34062 11.05800000 3219593652 3219593652 13.00000000
-3.90379190 11.10397148 -0.20544973 6 14 34063 11.77200000 3219593654 3219593654 -1.00000000
-3.08576465 8.77716923 2.49294496 38 15 34063 9.63200000 3219593656 3219593656 15.00000000
-0.72151041 2.06031036 -0.58493102 4 0 34070 2.26000000 3219593677 3219593677 -15.00000000
-3.89158702 11.11884880 0.20562425 10 1 34071 11.78200000 3219593679 3219593679 1.00000000
-0.84806001 2.42439175 -0.59297097 3 2 34072 2.63600000 3219593682 3219593682 -13.00000000
-3.80980492 10.89738274 0.60500365 26 3 34073 11.56000000 3219593684 3219593684 3.00000000
-1.00880134 2.88552713 -0.59417921 2 4 34073 3.11400000 3219593686 3219593686 -11.00000000
-3.82490659 10.94671154 1.01449287 8 5 34074 11.64000000 3219593689 3219593689 5.00000000
-1.25303042 3.58812809 -0.60195982 2 6 34075 3.84800000 3219593691 3219593691 -9.00000000
-3.87969995 11.11598682 1.44561410 40 7 34076 11.86200000 3219593693 3219593693 7.00000000
-1.64564514 4.71769428 -0.61349028 2 8 34077 5.03400000 3219593696 3219593696 -7.00000000
-3.86984134 11.09396362 1.86094439 37 9 34077 11.89600000 3219593698 3219593698 9.00000000
-2.39398813 6.86687851 -0.63623691 4 10 34078 7.30000000 3219593700 3219593700 -5.00000000
-3.71821761 10.67126942 2.19659305 59 11 34079 11.51200000 3219593703 3219593703 11.00000000
-3.91209078 11.23399448 -0.62342590 4 12 34080 11.91200000 3219593705 3219593705 -3.00000000
-3.54418755 10.18324280 2.48930836 52 13 34081 11.06600000 3219593707 3219593707 13.00000000
-3.90242481 11.21884537 -0.20733459 6 14 34082 11.88000000 3219593709 3219593709 -1.00000000
-3.05637646 8.79153728 2.49398041 38 15 34083 9.63600000 3219593712 3219593712 15.00000000
-0.71684271 2.07011819 -0.58700162 4 0 34090 2.26800000 3219593732 3219593732 -15.00000000
-3.88741350 11.23252010 0.20747420 6 1 34091 11.88800000 3219593735 3219593735 1.00000000
-0.83577001 2.41628718 -0.59027159 3 2 34092 2.62400000 3219593737 3219593737 -13.00000000
-3.76972961 10.89863205 0.60437560 26 3 34092 11.54800000 3219593739 3219593739 3.00000000
-1.00513732 2.90758610 -0.59799540 2 4 34093 3.13400000 3219593742 3219593742 -11.00000000
-3.76520133 10.89785194 1.00874054 4 5 34094 11.57400000 3219593744 3219593744 5.00000000
-1.23985314 3.59061289 -0.60164696 2 6 34095 3.84600000 3219593746 3219593746 -9.00000000
-3.87325382 11.22328663 1.45780110 38 7 34096 11.96200000 3219593749 3219593749 7.00000000
-1.62140012 4.70089054 -0.61056542 2 8 34097 5.01000000 3219593751 3219593751 -7.00000000
-3.86906767 11.22385979 1.88034225 32 9 34098 12.02000000 3219593753 3219593753 9.00000000
-2.37000370 6.87519360 -0.63623691 4 10 34098 7.30000000 3219593756 3219593756 -5.00000000
-3.67838717 10.67675781 2.19506669 59 11 34099 11.50400000 3219593758 3219593758 11.00000000
-3.91056705 11.35711193 -0.62949687 8 12 34100 12.02800000 3219593760 3219593760 -3.00000000
-3.50418091 10.18265343 2.48615909 50 13 34101 11.05200000 3219593762 3219593762 13.00000000
-3.90356326 11.34963989 -0.20949869 6 14 34102 12.00400000 3219593765 3219593765 -1.00000000
-3.02064586 8.78753662 2.48983932 36 15 34103 9.62000000 3219593767 3219593767 15.00000000
-0.71148956 2.07809091 -0.58855450 4 0 34110 2.27400000 3219593788 3219593788 -15.00000000
-3.88961506 11.36710930 0.20970811 7 1 34111 12.01600000 3219593790 3219593790 1.00000000
-0.82606930 2.41550207 -0.58937174 3 2 34112 2.62000000 3219593792 3219593792 -13.00000000
-3.72196889 10.88337708 0.60280555 26 3 34112 11.51800000 3219593795 3219593795 3.00000000
-0.98863220 2.89249945 -0.59417921 4 4 34113 3.11400000 3219593797 3219593797 -11.00000000
-3.72520542 10.90527248 1.00821757 4 5 34114 11.56800000 3219593799 3219593799 5.00000000
-1.22092974 3.57622457 -0.59851825 2 6 34115 3.82600000 3219593802 3219593802 -9.00000000
-3.87059307 11.34382629 1.47169423 40 7 34116 12.07600000 3219593804 3219593804 7.00000000
-1.61523247 4.73658323 -0.61446524 2 8 34117 5.04200000 3219593806 3219593806 -7.00000000
-3.85988021 11.31889343 1.89410853 32 9 34117 12.10800000 3219593809 3219593809 9.00000000
-2.34599042 6.88342428 -0.63623691 4 10 34118 7.30000000 3219593811 3219593811 -5.00000000
-3.63666487 10.67652416 2.19239545 59 11 34119 11.49000000 3219593813 3219593813 11.00000000
-3.90243840 11.46333694 -0.63462579 4 12 34120 12.12600000 3219593815 3219593815 -3.00000000
-3.46547699 10.18559933 2.48390961 50 13 34121 11.04200000 3219593818 3219593818 13.00000000
-3.88967276 11.43892574 -0.21089488 4 14 34122 12.08400000 3219593820 3219593820 -1.00000000
-2.99243951 8.80534363 2.49190974 36 15 34123 9.62800000 3219593822 3219593822 15.00000000
-0.70175385 2.07324243 -0.58648396 4 0 34130 2.26600000 3219593843 3219593843 -15.00000000
-3.88067102 11.47154140 0.21138355 10 1 34131 12.11200000 3219593845 3219593845 1.00000000
-0.82137752 2.42944741 -0.59207118 3 2 34132 2.63200000 3219593848 3219593848 -13.00000000
-3.68523550 10.90008736 0.60301489 7 3 34132 11.52200000 3219593850 3219593850 3.00000000
-0.97350168 2.88105321 -0.59112626 2 4 34133 3.09800000 3219593852 3219593852 -11.00000000
-3.68137908 10.90122032 1.00664878 12 5 34134 11.55000000 3219593855 3219593855 5.00000000
-1.20717549 3.57672143 -0.59789252 2 6 34135 3.82200000 3219593857 3219593857 -9.00000000
-3.86777163 11.46636391 1.48583102 34 7 34136 12.19200000 3219593859 3219593859 7.00000000
-1.59615219 4.73466825 -0.61349028 2 8 34137 5.03400000 3219593862 3219593862 -7.00000000
-3.85063648 11.42214775 1.90912616 32 9 34137 12.20400000 3219593864 3219593864 9.00000000
-5.71771860 16.97025871 -1.56671166 5 10 34138 17.97600000 3219593866 3219593866 -5.00000000
-3.59874821 10.68729305 2.19201374 59 11 34139 11.48800000 3219593868 3219593868 11.00000000
-4.17582607 12.40821552 -0.68612438 4 12 34140 13.11000000 3219593871 3219593871 -3.00000000
-3.42865920 10.19393921 2.48300982 50 13 34141 11.03800000 3219593873 3219593873 13.00000000
-5.69875765 16.95308876 -0.31218866 30 14 34142 17.88800000 3219593875 3219593875 -1.00000000
-2.95799375 8.80474758 2.48880386 36 15 34143 9.61600000 3219593878 3219593878 15.00000000
-0.69303495 2.07006240 -0.58493102 4 0 34149 2.26000000 3219593898 3219593898 -15.00000000
-0.81578875 2.43955040 -0.59387076 3 2 34151 2.64000000 3219593903 3219593903 -13.00000000
-3.69277453 11.04294491 0.61023724 2 3 34151 11.66000000 3219593905 3219593905 3.00000000
-0.97016543 2.90288591 -0.59494245 2 4 34152 3.11800000 3219593908 3219593908 -11.00000000
-3.67487574 11.00218678 1.01484144 8 5 34153 11.64400000 3219593910 3219593910 5.00000000
-1.20781779 3.61817956 -0.60414988 2 6 34154 3.86200000 3219593912 3219593912 -9.00000000
-6.20320225 18.59332466 2.40667582 36 7 34155 19.74800000 3219593914 3219593914 7.00000000
-1.59300089 4.77759886 -0.61836505 2 8 34156 5.07400000 3219593917 3219593917 -7.00000000
-5.65196323 16.96077347 -1.56409693 5 10 34157 17.94600000 3219593921 3219593921 -5.00000000
-3.55646420 10.67867851 2.18781590 59 11 34158 11.46600000 3219593924 3219593924 11.00000000
-4.13465595 12.42199516 -0.68612438 4 12 34159 13.11000000 3219593926 3219593926 -3.00000000
-3.39483595 10.20525360 2.48300982 50 13 34160 11.03800000 3219593928 3219593928 13.00000000
-5.63872290 16.96050835 -0.31197920 52 14 34161 17.87600000 3219593931 3219593931 -1.00000000
-2.92666125 8.80299759 2.48569822 36 15 34161 9.60400000 3219593933 3219593933 15.00000000
-0.68580484 2.07246900 -0.58493102 4 0 34169 2.26000000 3219593954 3219593954 -15.00000000
-0.80237561 2.42758083 -0.59027159 3 2 34171 2.62400000 3219593958 3219593958 -13.00000000
-3.68178391 11.13920689 0.61484283 2 3 34171 11.74800000 3219593961 3219593961 3.00000000
-0.96495295 2.92116809 -0.59799540 2 4 34172 3.13400000 3219593963 3219593963 -11.00000000
-3.67642331 11.13603306 1.02599740 8 5 34173 11.77200000 3219593965 3219593965 5.00000000
-1.19518065 3.62237358 -0.60414988 2 6 34174 3.86200000 3219593967 3219593967 -9.00000000
-6.14385653 18.63183022 2.40886950 40 7 34175 19.76600000 3219593970 3219593970 7.00000000
-1.58128488 4.79821301 -0.62031496 2 8 34176 5.09000000 3219593972 3219593972 -7.00000000
-4.11100388 12.47433186 2.08026552 13 9 34176 13.29800000 3219593974 3219593974 9.00000000
-5.57963562 16.94065857 -1.56043637 5 10 34177 17.90400000 3219593977 3219593977 -5.00000000
-3.51302838 10.67237949 2.18399978 53 11 34178 11.44600000 3219593979 3219593979 11.00000000
-5.58796930 16.98591232 -0.93712765 5 12 34179 17.90600000 3219593981 3219593981 -3.00000000
-3.36101818 10.22259521 2.48435950 53 13 34180 11.04400000 3219593984 3219593984 13.00000000
-5.57137012 16.95539093 -0.31152546 52 14 34181 17.85000000 3219593986 3219593986 -1.00000000
-2.89437699 8.81366539 2.48569822 36 15 34182 9.60400000 3219593988 3219593988 15.00000000
-0.68180537 2.08598614 -0.58803689 4 0 34190 2.27200000 3219594009 3219594009 -15.00000000
-0.79589182 2.43791556 -0.59207118 3 2 34192 2.63200000 3219594014 3219594014 -13.00000000
-3.68792653 11.30326366 0.62311190 2 3 34193 11.90600000 3219594016 3219594016 3.00000000
-0.95545775 2.92841816 -0.59875864 2 4 34193 3.13800000 3219594018 3219594018 -11.00000000
-8.20631218 25.16672897 2.31590247 33 5 34194 26.57200000 3219594020 3219594020 5.00000000
-1.17577529 3.60794806 -0.60102123 2 6 34195 3.84200000 3219594023 3219594023 -9.00000000
-6.07183790 18.64289856 2.40740705 40 7 34196 19.75400000 3219594025 3219594025 7.00000000
-1.55877256 4.78887558 -0.61836505 2 8 34197 5.07400000 3219594027 3219594027 -7.00000000
-4.06036425 12.47428799 2.07776260 16 9 34197 13.28200000 3219594030 3219594030 9.00000000
-5.51504230 16.95341682 -1.55973911 10 10 34198 17.89600000 3219594032 3219594032 -5.00000000
-3.47024655 10.67398167 2.18171000 56 11 34199 11.43400000 3219594034 3219594034 11.00000000
-5.51086283 16.96069145 -0.93461549 10 12 34200 17.85800000 3219594037 3219594037 -3.00000000
-3.32112050 10.22743130 2.48255992 50 13 34201 11.03600000 3219594039 3219594039 13.00000000
-5.50671864 16.96809006 -0.31138584 57 14 34202 17.84200000 3219594041 3219594041 -1.00000000
-2.86597943 8.83106518 2.48776865 36 15 34202 9.61200000 3219594044 3219594044 15.00000000
-0.67451978 2.08835340 -0.58803689 4 0 34210 2.27200000 3219594064 3219594064 -15.00000000
-0.78737706 2.44067883 -0.59207118 3 2 34212 2.63200000 3219594069 3219594069 -13.00000000
-9.50202274 29.47158051 1.62283337 21 3 34213 31.00800000 3219594071 3219594071 3.00000000
-0.93800056 2.90931296 -0.59417921 2 4 34213 3.11400000 3219594073 3219594073 -11.00000000
-8.11474800 25.18384171 2.31485653 41 5 34214 26.56000000 3219594076 3219594076 5.00000000
-1.17770624 3.65715718 -0.60853004 2 6 34215 3.89000000 3219594078 3219594078 -9.00000000
-6.00733280 18.66587067 2.40765071 42 7 34216 19.75600000 3219594080 3219594080 7.00000000
-1.54204679 4.79428768 -0.61836505 2 8 34217 5.07400000 3219594083 3219594083 -7.00000000
-4.00917578 12.47216129 2.07494664 16 9 34218 13.26400000 3219594085 3219594085 9.00000000
-5.44668436 16.94411278 -1.55712450 10 10 34218 17.86600000 3219594087 3219594087 -5.00000000
-3.43176532 10.68229198 2.18094683 53 11 34219 11.43000000 3219594090 3219594090 11.00000000
-5.44246674 16.95129967 -0.93304545 10 12 34220 17.82800000 3219594092 3219594092 -3.00000000
-3.28123212 10.22597313 2.47941041 47 13 34221 11.02200000 3219594094 3219594094 13.00000000
-5.43463230 16.94721985 -0.31065282 52 14 34222 17.80000000 3219594097 3219594097 -1.00000000
-2.83536148 8.84702969 2.48932147 33 15 34223 9.61800000 3219594099 3219594099 15.00000000
-0.66288948 2.07585621 -0.58389574 4 0 34229 2.25600000 3219594120 3219594120 -15.00000000
-0.78164774 2.45070291 -0.59387076 3 2 34231 2.64000000 3219594124 3219594124 -13.00000000
-9.39392757 29.47057915 1.62105393 21 3 34232 30.97400000 3219594126 3219594126 3.00000000
-0.92834777 2.91240740 -0.59417921 2 4 34232 3.11400000 3219594129 3219594129 -11.00000000
-8.02332878 25.18593407 2.31259036 33 5 34233 26.53400000 3219594131 3219594131 5.00000000
-1.15598392 3.63092613 -0.60352415 2 6 34234 3.85800000 3219594133 3219594133 -9.00000000
-5.94118834 18.67244720 2.40594459 40 7 34235 19.74200000 3219594136 3219594136 7.00000000
-1.52613986 4.79937458 -0.61836505 2 8 34236 5.07400000 3219594138 3219594138 -7.00000000
-3.96159315 12.45833969 2.07056665 16 9 34236 13.23600000 3219594140 3219594140 9.00000000
-5.38865566 16.95638466 -1.55660152 10 10 34237 17.86000000 3219594143 3219594143 -5.00000000
-3.39394569 10.68612862 2.17942023 53 11 34238 11.42200000 3219594145 3219594145 11.00000000
-5.38864136 16.97686958 -0.93346411 10 12 34239 17.83600000 3219594147 3219594147 -3.00000000
-3.24789286 10.23865509 2.47986031 51 13 34240 11.02400000 3219594150 3219594150 13.00000000
-5.37236023 16.94608688 -0.31030378 52 14 34241 17.78000000 3219594152 3219594152 -1.00000000
-2.80463457 8.84668541 2.48673344 38 15 34241 9.60800000 3219594154 3219594154 15.00000000
-0.65680182 2.08184218 -0.58493102 4 0 34249 2.26000000 3219594175 3219594175 -15.00000000
-0.77660251 2.46456814 -0.59657019 3 2 34251 2.65200000 3219594179 3219594179 -13.00000000
-9.28499985 29.48413849 1.62000716 21 3 34252 30.95400000 3219594182 3219594182 3.00000000
-0.92525238 2.93810153 -0.59875864 2 4 34252 3.13800000 3219594184 3219594184 -11.00000000
-7.92459822 25.17957878 2.30945277 41 5 34253 26.49800000 3219594186 3219594186 5.00000000
-1.14567327 3.64247656 -0.60477567 2 6 34254 3.86600000 3219594189 3219594189 -9.00000000
-5.87359238 18.68549728 2.40496969 40 7 34255 19.73400000 3219594191 3219594191 7.00000000
-1.51294732 4.81603575 -0.61982751 2 8 34256 5.08600000 3219594193 3219594193 -7.00000000
-3.91235423 12.46146774 2.06868935 23 9 34257 13.22400000 3219594196 3219594196 9.00000000
-5.31630421 16.93327141 -1.55276668 10 10 34257 17.81600000 3219594198 3219594198 -5.00000000
-3.35192132 10.68292522 2.17636728 53 11 34258 11.40600000 3219594200 3219594200 11.00000000
-5.32396984 16.97842407 -0.93252206 10 12 34259 17.81800000 3219594202 3219594202 -3.00000000
-3.21329880 10.25364971 2.48076034 53 13 34260 11.02800000 3219594205 3219594205 13.00000000
-5.30839348 16.94947052 -0.31002456 50 14 34261 17.76400000 3219594207 3219594207 -1.00000000
-2.76930571 8.84768772 2.48414516 38 15 34262 9.59800000 3219594209 3219594209 15.00000000
-0.65219510 2.09138584 -0.58700162 4 0 34268 2.26800000 3219594230 3219594230 -15.00000000
-0.76610738 2.45968771 -0.59477061 3 2 34270 2.64400000 3219594235 3219594235 -13.00000000
-9.17530346 29.47662735 1.61791372 21 3 34271 30.91400000 3219594237 3219594237 3.00000000
-0.91317022 2.93365526 -0.59723216 4 4 34271 3.13000000 3219594239 3219594239 -11.00000000
-7.83277082 25.17908478 2.30701256 40 5 34272 26.47000000 3219594242 3219594242 5.00000000
-1.12537801 3.61984730 -0.60039550 2 6 34273 3.83800000 3219594244 3219594244 -9.00000000
-5.81041861 18.70108032 2.40448213 40 7 34274 19.73000000 3219594246 3219594246 7.00000000
-1.49579120 4.81723499 -0.61934000 2 8 34275 5.08200000 3219594249 3219594249 -7.00000000
-3.87025714 12.46426487 2.06712508 23 9 34275 13.21400000 3219594251 3219594251 9.00000000
-5.25835085 16.94509888 -1.55224383 10 10 34276 17.81000000 3219594253 3219594253 -5.00000000
-3.31066179 10.67523003 2.17255116 53 11 34277 11.38600000 3219594255 3219594255 11.00000000
-5.26113415 16.97500038 -0.93137068 5 12 34278 17.79600000 3219594258 3219594258 -3.00000000
-3.18100858 10.26983261 2.48211002 51 13 34279 11.03400000 3219594260 3219594260 13.00000000
-5.24979258 16.95933914 -0.30988494 50 14 34280 17.75600000 3219594262 3219594262 -1.00000000
-2.74035382 8.85265255 2.48310995 38 15 34280 9.59400000 3219594265 3219594265 15.00000000
-0.64716554 2.10103464 -0.58907217 4 0 34288 2.27600000 3219594285 3219594285 -15.00000000
-0.75522476 2.45489645 -0.59297097 3 2 34290 2.63600000 3219594290 3219594290 -13.00000000
-9.06120300 29.47220230 1.61592495 20 3 34291 30.87600000 3219594292 3219594292 3.00000000
-0.90638602 2.94808435 -0.59952188 4 4 34291 3.14200000 3219594295 3219594295 -11.00000000
-7.74190569 25.19675064 2.30614090 32 5 34292 26.46000000 3219594297 3219594297 5.00000000
-1.11969376 3.64641380 -0.60414988 2 6 34293 3.86200000 3219594299 3219594299 -9.00000000
-5.73986292 18.70416832 2.40228844 45 7 34294 19.71200000 3219594302 3219594302 7.00000000
-1.47431040 4.80724382 -0.61739010 2 8 34295 5.06600000 3219594304 3219594304 -7.00000000
-3.82338953 12.47458935 2.06649923 20 9 34296 13.21000000 3219594306 3219594306 9.00000000
-5.19800138 16.95954132 -1.55189514 10 10 34296 17.80600000 3219594308 3219594308 -5.00000000
-3.26992822 10.67545795 2.17026162 56 11 34297 11.37400000 3219594311 3219594311 11.00000000
-5.19074059 16.95697594 -0.92938191 5 12 34298 17.75800000 3219594313 3219594313 -3.00000000
-3.14172029 10.26969337 2.47941041 50 13 34299 11.02200000 3219594315 3219594315 13.00000000
-5.18705320 16.96608734 -0.30967551 52 14 34300 17.74400000 3219594318 3219594318 -1.00000000
-2.71296930 8.87926483 2.48776865 40 15 34301 9.61200000 3219594320 3219594320 15.00000000
-0.63946056 2.10339260 -0.58907217 4 0 34309 2.27600000 3219594341 3219594341 -15.00000000
-0.74508971 2.45391870 -0.59207118 3 2 34311 2.63200000 3219594345 3219594345 -13.00000000
-8.92876339 29.42494583 1.61152875 20 3 34312 30.79200000 3219594348 3219594348 3.00000000
-0.89557463 2.95138669 -0.59952188 2 4 34312 3.14200000 3219594350 3219594350 -11.00000000
-7.64140844 25.19826317 2.30370069 40 5 34313 26.43200000 3219594352 3219594352 5.00000000
-1.10861313 3.65805507 -0.60540140 2 6 34314 3.87000000 3219594355 3219594355 -9.00000000
-5.67069483 18.72318077 2.40204477 42 7 34315 19.71000000 3219594357 3219594357 7.00000000
-1.45898139 4.82021523 -0.61836505 2 8 34316 5.07400000 3219594359 3219594359 -7.00000000
-3.77181005 12.46138954 2.06211901 23 9 34316 13.18200000 3219594361 3219594361 9.00000000
-5.12946129 16.95750046 -1.54997778 10 10 34317 17.78400000 3219594364 3219594364 -5.00000000
-3.22850633 10.67985439 2.16873503 56 11 34318 11.36600000 3219594366 3219594366 11.00000000
-5.12855530 16.97588730 -0.92938191 5 12 34319 17.75800000 3219594368 3219594368 -3.00000000
-3.10180593 10.27367687 2.47761083 46 13 34320 11.01400000 3219594371 3219594371 13.00000000
-5.11501503 16.95243835 -0.30908212 52 14 34321 17.71000000 3219594373 3219594373 -1.00000000
-2.68307447 8.89237976 2.48880386 38 15 34321 9.61600000 3219594375 3219594375 15.00000000
-0.63211441 2.10561180 -0.58907217 4 0 34329 2.27600000 3219594396 3219594396 -15.00000000
-5.10044718 17.00067520 0.30981511 3 1 34330 17.75200000 3219594398 3219594398 1.00000000
-0.73987740 2.46770453 -0.59477061 3 2 34331 2.64400000 3219594401 3219594401 -13.00000000
-9.13212109 30.47759247 1.66742361 5 3 34332 31.86000000 3219594403 3219594403 3.00000000
-0.88301289 2.94697237 -0.59799540 2 4 34332 3.13400000 3219594405 3219594405 -11.00000000
-7.54825974 25.20760536 2.30213189 40 5 34333 26.41400000 3219594408 3219594408 5.00000000
-1.10093427 3.67893457 -0.60821718 2 6 34334 3.88800000 3219594410 3219594410 -9.00000000
-5.60814810 18.75237083 2.40326357 42 7 34335 19.72000000 3219594412 3219594412 7.00000000
-1.44555748 4.83669043 -0.61982751 2 8 34336 5.08600000 3219594414 3219594414 -7.00000000
-3.72215414 12.46188164 2.05992913 23 9 34337 13.16800000 3219594417 3219594417 9.00000000
-5.05997372 16.94094086 -1.54684007 10 10 34337 17.74800000 3219594419 3219594419 -5.00000000
-3.19008398 10.68729687 2.16797185 53 11 34338 11.36200000 3219594421 3219594421 11.00000000
-5.06926727 16.99368477 -0.92938191 5 12 34339 17.75800000 3219594424 3219594424 -3.00000000
-3.06648207 10.28630924 2.47806072 51 13 34340 11.01600000 3219594426 3219594426 13.00000000
-5.04667330 16.93952751 -0.30852365 57 14 34341 17.67800000 3219594428 3219594428 -1.00000000
-2.64384913 8.87993622 2.48259234 36 15 34342 9.59200000 3219594431 3219594431 15.00000000
-0.62146664 2.09669232 -0.58596629 4 0 34349 2.26400000 3219594451 3219594451 -15.00000000
-5.03198528 16.98769760 0.30925664 50 1 34350 17.72000000 3219594454 3219594454 1.00000000
-0.73457783 2.48148370 -0.59746999 3 2 34351 2.65600000 3219594456 3219594456 -13.00000000
-9.10330105 30.77166748 1.68176365 5 3 34352 32.13400000 3219594458 3219594458 3.00000000
-0.86937904 2.93874097 -0.59570569 2 4 34352 3.12200000 3219594461 3219594461 -11.00000000
-7.44949007 25.19749832 2.29881978 40 5 34353 26.37600000 3219594463 3219594463 5.00000000
-1.08808565 3.68275523 -0.60821718 2 6 34354 3.88800000 3219594465 3219594465 -9.00000000
-5.54153156 18.76802444 2.40277600 45 7 34355 19.71600000 3219594467 3219594467 7.00000000
-1.43428349 4.86074638 -0.62226486 2 8 34356 5.10600000 3219594470 3219594470 -7.00000000
-3.67633629 12.45899868 2.05742598 23 9 34356 13.15200000 3219594472 3219594472 9.00000000
-4.99517250 16.93939018 -1.54509699 10 10 34357 17.72800000 3219594474 3219594474 -5.00000000
-3.14831924 10.68330097 2.16491890 53 11 34358 11.34600000 3219594477 3219594477 11.00000000
-5.00822449 17.00552940 -0.92906791 5 12 34359 17.75200000 3219594479 3219594479 -3.00000000
-3.03000712 10.29508114 2.47761083 50 13 34360 11.01400000 3219594481 3219594481 13.00000000
-4.98525572 16.94936562 -0.30838403 55 14 34361 17.67000000 3219594484 3219594484 -1.00000000
-2.60948157 8.87197399 2.47793365 38 15 34361 9.57400000 3219594486 3219594486 15.00000000
-0.61522907 2.10255718 -0.58700162 4 0 34369 2.26800000 3219594507 3219594507 -15.00000000
-4.96311522 16.97253036 0.30866325 41 1 34370 17.68600000 3219594509 3219594509 1.00000000
-0.72153842 2.46906853 -0.59387076 3 2 34371 2.64000000 3219594511 3219594511 -13.00000000
-9.10277176 31.16943741 1.70175600 5 3 34372 32.51600000 3219594514 3219594514 3.00000000
-0.86351854 2.95683408 -0.59875864 2 4 34372 3.13800000 3219594516 3219594516 -11.00000000
-7.35199976 25.19083405 2.29585648 40 5 34373 26.34200000 3219594518 3219594518 5.00000000
-1.07356453 3.68084168 -0.60727859 2 6 34374 3.88200000 3219594520 3219594520 -9.00000000
-5.47043037 18.76819611 2.40033865 47 7 34375 19.69600000 3219594523 3219594523 7.00000000
-1.41730762 4.86572313 -0.62226486 2 8 34376 5.10600000 3219594525 3219594525 -7.00000000
-3.62619448 12.44899750 2.05367160 27 9 34376 13.12800000 3219594527 3219594527 9.00000000
-4.93155766 16.94141769 -1.54370248 10 10 34377 17.71200000 3219594530 3219594530 -5.00000000
-3.10442758 10.67160511 2.16033936 53 11 34378 11.32200000 3219594532 3219594532 11.00000000
-3.74229074 12.87266254 -0.70255786 4 12 34379 13.42400000 3219594534 3219594534 -3.00000000
-2.99296474 10.30185223 2.47671103 48 13 34380 11.01000000 3219594537 3219594537 13.00000000
-4.92160034 16.95130157 -0.30810478 57 14 34381 17.65400000 3219594539 3219594539 -1.00000000
-2.57849669 8.88102913 2.47793365 40 15 34381 9.57400000 3219594541 3219594541 15.00000000
-0.60788602 2.10469174 -0.58700162 4 0 34389 2.26800000 3219594562 3219594562 -15.00000000
-4.90772200 17.00320053 0.30890760 33 1 34390 17.70000000 3219594564 3219594564 1.00000000
-0.71507573 2.47906184 -0.59567040 3 2 34391 2.64800000 3219594567 3219594567 -13.00000000
-9.09017181 31.53494835 1.71996891 12 3 34392 32.86400000 3219594569 3219594569 3.00000000
-0.85754222 2.97492194 -0.60181159 2 4 34392 3.15400000 3219594571 3219594571 -11.00000000
-7.25850725 25.19719887 2.29411340 40 5 34393 26.32200000 3219594573 3219594573 5.00000000
-1.06070948 3.68456674 -0.60727859 2 6 34394 3.88200000 3219594576 3219594576 -9.00000000
-5.40323734 18.78145409 2.39960742 51 7 34395 19.69000000 3219594578 3219594578 7.00000000
-1.39812040 4.86300945 -0.62128991 2 8 34396 5.09800000 3219594580 3219594580 -7.00000000
-3.57945132 12.45840740 2.05304599 23 9 34397 13.12400000 3219594583 3219594583 9.00000000
-4.86688948 16.93938065 -1.54195940 10 10 34397 17.69200000 3219594585 3219594585 -5.00000000
-3.06607437 10.67860222 2.15957618 50 11 34398 11.31800000 3219594587 3219594587 11.00000000
-3.70284247 12.90484524 -0.70360458 4 12 34399 13.44400000 3219594590 3219594590 -3.00000000
-2.95483780 10.30474377 2.47491145 48 13 34400 11.00200000 3219594592 3219594592 13.00000000
-4.85799265 16.95299911 -0.30782554 55 14 34401 17.63800000 3219594594 3219594594 -1.00000000
-2.55067348 8.90111828 2.48103929 38 15 34401 9.58600000 3219594596 3219594596 15.00000000
-0.60477215 2.12166381 -0.59114271 4 0 34409 2.28400000 3219594617 3219594617 -15.00000000
-4.88120985 17.13562012 0.31100190 46 1 34410 17.82000000 3219594620 3219594620 1.00000000
-0.70535076 2.47779417 -0.59477061 3 2 34411 2.64400000 3219594622 3219594622 -13.00000000
-9.08933830 31.95069504 1.74090326 12 3 34412 33.26400000 3219594624 3219594624 3.00000000
-0.84178066 2.95901394 -0.59799540 4 4 34412 3.13400000 3219594626 3219594626 -11.00000000
-7.16451550 25.20130157 2.29219604 32 5 34413 26.30000000 3219594629 3219594629 5.00000000
-1.05000091 3.69584751 -0.60853004 2 6 34414 3.89000000 3219594631 3219594631 -9.00000000
-5.33710241 18.79829025 2.39936352 47 7 34415 19.68800000 3219594633 3219594633 7.00000000
-1.38222051 4.87167978 -0.62177742 2 8 34416 5.10200000 3219594636 3219594636 -7.00000000
-3.53163075 12.45562172 2.05054307 23 9 34417 13.10800000 3219594638 3219594638 9.00000000
-4.80664349 16.95243263 -1.54161084 10 10 34417 17.68800000 3219594640 3219594640 -5.00000000
-3.02770996 10.68546200 2.15881300 50 11 34418 11.31400000 3219594643 3219594643 11.00000000
-3.67627478 12.98303032 -0.70716345 4 12 34419 13.51200000 3219594645 3219594645 -3.00000000
-2.91672707 10.30749512 2.47311187 50 13 34420 10.99400000 3219594647 3219594647 13.00000000
-4.79225636 16.94676399 -0.30740669 55 14 34421 17.61400000 3219594649 3219594649 -1.00000000
-2.51698136 8.90668869 2.48000407 38 15 34422 9.58200000 3219594652 3219594652 15.00000000
-0.59563953 2.11621928 -0.58907217 4 0 34428 2.27600000 3219594673 3219594673 -15.00000000
-0.69502085 2.47261548 -0.59297097 3 2 34430 2.63600000 3219594677 3219594677 -13.00000000
-9.61203957 34.21884537 1.86274135 7 3 34431 35.59200000 3219594679 3219594679 3.00000000
-0.83408731 2.96934938 -0.59952188 2 4 34431 3.14200000 3219594682 3219594682 -11.00000000
-7.07067442 25.18847466 2.28888416 32 5 34432 26.26200000 3219594684 3219594684 5.00000000
-1.04520881 3.72593665 -0.61291021 2 6 34433 3.91800000 3219594686 3219594686 -9.00000000
-5.27259254 18.80824089 2.39838862 49 7 34434 19.68000000 3219594689 3219594689 7.00000000
-1.36391592 4.86859035 -0.62080246 2 8 34435 5.09400000 3219594691 3219594691 -7.00000000
-3.48391652 12.44443798 2.04678845 27 9 34436 13.08400000 3219594693 3219594693 9.00000000
-4.74502897 16.94909286 -1.53986764 15 10 34436 17.66800000 3219594696 3219594696 -5.00000000
-2.99172997 10.69355297 2.15843129 46 11 34437 11.31200000 3219594698 3219594698 11.00000000
-3.63481450 13.00092030 -0.70747745 4 12 34438 13.51800000 3219594700 3219594700 -3.00000000
-2.88148141 10.31335735 2.47221208 50 13 34439 10.99000000 3219594702 3219594702 13.00000000
-4.72904158 16.93752289 -0.30695292 52 14 34440 17.58800000 3219594705 3219594705 -1.00000000
-2.48846817 8.91269207 2.47948647 40 15 34440 9.58000000 3219594707 3219594707 15.00000000
-0.58514744 2.10711694 -0.58596629 4 0 34448 2.26400000 3219594728 3219594728 -15.00000000
-0.68846869 2.48253798 -0.59477061 3 2 34450 2.64400000 3219594732 3219594732 -13.00000000
-9.47599983 34.19252396 1.85949647 21 3 34451 35.53000000 3219594735 3219594735 3.00000000
-0.82476592 2.97602677 -0.60028511 4 4 34451 3.14600000 3219594737 3219594737 -11.00000000
-6.98004818 25.20340157 2.28801250 32 5 34452 26.25200000 3219594739 3219594739 5.00000000
-1.03114271 3.72575474 -0.61228448 2 6 34453 3.91400000 3219594742 3219594742 -9.00000000
-4.58832264 16.58992386 2.11345816 33 7 34454 17.34200000 3219594744 3219594744 7.00000000
-1.34585536 4.86949492 -0.62031496 2 8 34455 5.09000000 3219594746 3219594746 -7.00000000
-3.43835235 12.44890690 2.04553699 27 9 34456 13.07600000 3219594749 3219594749 9.00000000
-4.67522812 16.92714310 -1.53638148 15 10 34456 17.62800000 3219594751 3219594751 -5.00000000
-2.95125031 10.69257545 2.15614176 46 11 34457 11.30000000 3219594753 3219594753 11.00000000
-3.59950089 13.05011082 -0.70946622 4 12 34458 13.55600000 3219594755 3219594755 -3.00000000
-2.84649920 10.32710934 2.47311187 50 13 34459 10.99400000 3219594758 3219594758 13.00000000
-4.66776562 16.94621658 -0.30681330 50 14 34460 17.58000000 3219594760 3219594760 -1.00000000
-2.45272493 8.90456104 2.47482777 40 15 34460 9.56200000 3219594762 3219594762 15.00000000
-0.58136153 2.12218904 -0.58958977 4 0 34468 2.27800000 3219594783 3219594783 -15.00000000
-0.68185574 2.49244475 -0.59657019 3 2 34470 2.65200000 3219594788 3219594788 -13.00000000
-9.35781765 34.20642090 1.85855448 21 3 34470 35.51200000 3219594790 3219594790 3.00000000
-0.81644350 2.98646259 -0.60181159 4 4 34471 3.15400000 3219594792 3219594792 -11.00000000
-6.88730383 25.21031570 2.28644371 40 5 34472 26.23400000 3219594795 3219594795 5.00000000
-1.00772607 3.69121861 -0.60602713 2 6 34473 3.87400000 3219594797 3219594797 -9.00000000
-4.52045822 16.56945229 2.10882711 37 7 34474 17.30400000 3219594799 3219594799 7.00000000
-1.33198225 4.88565445 -0.62177742 2 8 34475 5.10200000 3219594801 3219594801 -7.00000000
-3.39601231 12.45642853 2.04491138 40 9 34475 13.07200000 3219594804 3219594804 9.00000000
-4.61506557 16.93951416 -1.53603280 10 10 34476 17.62400000 3219594806 3219594806 -5.00000000
-2.90875101 10.68386936 2.15232539 43 11 34477 11.28000000 3219594808 3219594808 11.00000000
-3.56231475 13.09343147 -0.71114099 4 12 34478 13.58800000 3219594811 3219594811 -3.00000000
-2.80941105 10.33322239 2.47221208 50 13 34479 10.99000000 3219594813 3219594813 13.00000000
-4.60648632 16.95468712 -0.30667368 47 14 34480 17.57200000 3219594815 3219594815 -1.00000000
-2.42112064 8.91120434 2.47431016 40 15 34480 9.56000000 3219594818 3219594818 15.00000000
-0.57344627 2.12234044 -0.58907217 4 0 34488 2.27600000 3219594838 3219594838 -15.00000000
-0.67315131 2.49480963 -0.59657019 3 2 34490 2.65200000 3219594843 3219594843 -13.00000000
-9.14346886 33.91073227 1.84065557 21 3 34491 35.17000000 3219594845 3219594845 3.00000000
-0.80396938 2.98171210 -0.60028511 4 4 34491 3.14600000 3219594848 3219594848 -11.00000000
-6.79770660 25.22843170 2.28592086 32 5 34492 26.22800000 3219594850 3219594850 5.00000000
-0.99688959 3.70234346 -0.60727859 2 6 34493 3.88200000 3219594852 3219594852 -9.00000000
-4.45846605 16.56979370 2.10687733 37 7 34494 17.28800000 3219594854 3219594854 7.00000000
-1.31182730 4.87877226 -0.62031496 2 8 34495 5.09000000 3219594857 3219594857 -7.00000000
-3.34572101 12.45162296 2.04209542 20 9 34496 13.05400000 3219594859 3219594859 9.00000000
-4.54970360 16.93243027 -1.53394103 10 10 34496 17.60000000 3219594861 3219594861 -5.00000000
-2.87093043 10.69206142 2.15194392 40 11 34497 11.27800000 3219594864 3219594864 11.00000000
-3.51969409 13.11736012 -0.71176898 4 12 34498 13.60000000 3219594866 3219594866 -3.00000000
-2.77181005 10.33731937 2.47086239 53 13 34499 10.98400000 3219594868 3219594868 13.00000000
-4.54313517 16.95521164 -0.30639446 47 14 34500 17.55600000 3219594871 3219594871 -1.00000000
-2.38544512 8.90882206 2.47120428 40 15 34501 9.54800000 3219594873 3219594873 15.00000000
-0.56976420 2.13533092 -0.59217799 4 0 34506 2.28800000 3219594894 3219594894 -15.00000000
-0.66129637 2.48184776 -0.59297097 3 2 34508 2.63600000 3219594898 3219594898 -13.00000000
-9.10812187 34.18281555 1.85394895 21 3 34508 35.42400000 3219594901 3219594901 3.00000000
-0.79560840 2.98801732 -0.60104835 2 4 34509 3.15000000 3219594903 3219594903 -11.00000000
-6.72046471 25.25736427 2.28661799 32 5 34510 26.23600000 3219594905 3219594905 5.00000000
-0.99337506 3.73600173 -0.61228448 2 6 34511 3.91400000 3219594907 3219594907 -9.00000000
-4.40740824 16.58755684 2.10736465 39 7 34512 17.29200000 3219594910 3219594910 7.00000000
-1.30464458 4.91356707 -0.62421477 2 8 34513 5.12200000 3219594912 3219594912 -7.00000000
-3.30608010 12.46016312 2.04178262 23 9 34514 13.05200000 3219594914 3219594914 9.00000000
-4.49852991 16.95434380 -1.53463829 15 10 34514 17.60800000 3219594917 3219594917 -5.00000000
-2.84135151 10.71620941 2.15499687 43 11 34515 11.29400000 3219594919 3219594919 11.00000000
-3.48102498 13.13800621 -0.71229237 4 12 34516 13.61000000 3219594921 3219594921 -3.00000000
-2.73732567 10.33844090 2.46906281 56 13 34517 10.97600000 3219594924 3219594924 13.00000000
-4.48626614 16.95586777 -0.30615011 22 14 34518 17.54200000 3219594926 3219594926 -1.00000000
-2.36246061 8.92893314 2.47482777 40 15 34518 9.56200000 3219594928 3219594928 15.00000000
-0.56034094 2.12983370 -0.59010744 4 0 34526 2.28000000 3219594949 3219594949 -15.00000000
-11.39998627 43.36165237 0.78260082 10 1 34527 44.84200000 3219594951 3219594951 1.00000000
-0.65560007 2.49544978 -0.59567040 3 2 34528 2.64800000 3219594953 3219594953 -13.00000000
-8.97605801 34.16610718 1.85133207 21 3 34528 35.37400000 3219594956 3219594956 3.00000000
-0.78317934 2.98318076 -0.59952188 2 4 34529 3.14200000 3219594958 3219594958 -11.00000000
-6.62568665 25.25561523 2.28435206 32 5 34530 26.21000000 3219594960 3219594960 5.00000000
-0.98132980 3.74326825 -0.61291021 2 6 34531 3.91800000 3219594963 3219594963 -9.00000000
-4.34746742 16.59515953 2.10638976 41 7 34532 17.28400000 3219594965 3219594965 7.00000000
-1.29351783 4.94113588 -0.62713963 2 8 34533 5.14600000 3219594967 3219594967 -7.00000000
-3.25506687 12.44296169 2.03708959 23 9 34534 13.02200000 3219594970 3219594970 9.00000000
-4.43125296 16.93910217 -1.53184938 15 10 34534 17.57600000 3219594972 3219594972 -5.00000000
-2.80392766 10.72606277 2.15499687 40 11 34535 11.29400000 3219594974 3219594974 11.00000000
-3.44271564 13.17906284 -0.71386242 4 12 34536 13.64000000 3219594977 3219594977 -3.00000000
-2.70023680 10.34416103 2.46816301 56 13 34537 10.97200000 3219594979 3219594979 13.00000000
-4.41392851 16.92111588 -0.30524260 45 14 34538 17.49000000 3219594981 3219594981 -1.00000000
-2.32640243 8.91843224 2.46965122 42 15 34538 9.54200000 3219594983 3219594983 15.00000000
-0.55096298 2.12429667 -0.58803689 4 0 34546 2.27200000 3219595004 3219595004 -15.00000000
-11.22798729 43.32181549 0.78116971 10 1 34547 44.76000000 3219595006 3219595006 1.00000000
-0.64883971 2.50526905 -0.59746999 3 2 34548 2.65600000 3219595009 3219595009 -13.00000000
-8.84777069 34.18717575 1.85070407 21 3 34549 35.36200000 3219595011 3219595011 3.00000000
-0.77276134 2.98589635 -0.59952188 2 4 34549 3.14200000 3219595013 3219595013 -11.00000000
-6.53150129 25.25544167 2.28226018 40 5 34550 26.18600000 3219595016 3219595016 5.00000000
-0.96628028 3.73902082 -0.61165875 2 6 34551 3.91000000 3219595018 3219595018 -9.00000000
-4.28703117 16.60062408 2.10517097 43 7 34552 17.27400000 3219595020 3219595020 7.00000000
-1.27229404 4.93024397 -0.62518972 2 8 34553 5.13000000 3219595023 3219595023 -7.00000000
-3.21131873 12.44412327 2.03552532 27 9 34553 13.01200000 3219595025 3219595025 9.00000000
-4.36911249 16.94289207 -1.53080344 15 10 34554 17.56400000 3219595027 3219595027 -5.00000000
-2.76548982 10.73198223 2.15423346 40 11 34555 11.29000000 3219595030 3219595030 11.00000000
-3.41262865 13.25289345 -0.71721196 4 12 34556 13.70400000 3219595032 3219595032 -3.00000000
-2.66508365 10.35729885 2.46906281 57 13 34557 10.97600000 3219595034 3219595034 13.00000000
-4.35334206 16.93061066 -0.30513787 50 14 34558 17.48400000 3219595036 3219595036 -1.00000000
-2.28841066 8.90631771 2.46395731 38 15 34559 9.52000000 3219595039 3219595039 15.00000000
-0.54545832 2.13369370 -0.59010744 4 0 34566 2.28000000 3219595059 3219595059 -15.00000000
-11.13806915 43.60099030 0.78549790 21 1 34567 45.00800000 3219595062 3219595062 1.00000000
-0.64105469 2.51129508 -0.59836978 3 2 34568 2.66000000 3219595064 3219595064 -13.00000000
-8.72595501 34.18342972 1.84892464 21 3 34568 35.32800000 3219595066 3219595066 3.00000000
-0.76524544 2.99998975 -0.60181159 2 4 34569 3.15400000 3219595069 3219595069 -11.00000000
-6.43936682 25.26264191 2.28086567 40 5 34570 26.17000000 3219595071 3219595071 5.00000000
-0.94932216 3.72705674 -0.60915583 2 6 34571 3.89400000 3219595073 3219595073 -9.00000000
-4.22465134 16.59817314 2.10297728 39 7 34572 17.25600000 3219595076 3219595076 7.00000000
-1.26192689 4.96158886 -0.62860209 2 8 34573 5.15800000 3219595078 3219595078 -7.00000000
-3.16422725 12.45006657 2.03458667 20 9 34574 13.00600000 3219595080 3219595080 9.00000000
-4.30798101 16.95031548 -1.53010619 15 10 34574 17.55600000 3219595083 3219595083 -5.00000000
-2.72317863 10.72254181 2.15041733 37 11 34575 11.27000000 3219595085 3219595085 11.00000000
-3.36094236 13.24343014 -0.71606058 4 12 34576 13.68200000 3219595087 3219595087 -3.00000000
-2.62891364 10.36653805 2.46906281 55 13 34577 10.97600000 3219595089 3219595089 13.00000000
-2.25873065 8.91986942 2.46551013 42 15 34579 9.52600000 3219595094 3219595094 15.00000000
-0.53800702 2.13558459 -0.59010744 4 0 34586 2.28000000 3219595115 3219595115 -15.00000000
-11.07514095 43.99447632 0.79188550 11 1 34587 45.37400000 3219595117 3219595117 1.00000000
-0.62753075 2.49461865 -0.59387076 3 2 34588 2.64000000 3219595119 3219595119 -13.00000000
-8.59488583 34.16719437 1.84641254 7 3 34588 35.28000000 3219595122 3219595122 3.00000000
-0.75764054 3.01406670 -0.60410130 4 4 34589 3.16600000 3219595124 3219595124 -11.00000000
-6.35211515 25.28883171 2.28121448 40 5 34590 26.17400000 3219595126 3219595126 5.00000000
-0.94496268 3.76483488 -0.61478746 2 6 34591 3.93000000 3219595129 3219595129 -9.00000000
-4.16475582 16.60511589 2.10200238 39 7 34592 17.24800000 3219595131 3219595131 7.00000000
-1.24846065 4.98136806 -0.63055199 2 8 34593 5.17400000 3219595133 3219595133 -7.00000000
-3.12244368 12.45857525 2.03427386 23 9 34593 13.00400000 3219595136 3219595136 9.00000000
-4.24685097 16.95751953 -1.52940893 10 10 34594 17.54800000 3219595138 3219595138 -5.00000000
-2.68763995 10.73960018 2.15194392 43 11 34595 11.27800000 3219595140 3219595140 11.00000000
-3.33213687 13.32483482 -0.71982872 4 12 34596 13.75400000 3219595142 3219595142 -3.00000000
-2.58893228 10.36052704 2.46546364 59 13 34597 10.96000000 3219595145 3219595145 13.00000000
-4.23649216 16.96640968 -0.30524260 2 14 34598 17.49000000 3219595147 3219595147 -1.00000000
-2.22570992 8.92020226 2.46343970 42 15 34599 9.51800000 3219595149 3219595149 15.00000000
-0.53147995 2.14119959 -0.59114271 4 0 34606 2.28400000 3219595170 3219595170 -15.00000000
-17.95956039 72.40861511 1.30219388 17 1 34607 74.61400000 3219595172 3219595172 1.00000000
-0.61975664 2.50057697 -0.59477061 3 2 34608 2.64400000 3219595175 3219595175 -13.00000000
-8.46932125 34.17178345 1.84505177 7 3 34608 35.25400000 3219595177 3219595177 3.00000000
-0.74522698 3.00907040 -0.60257483 4 4 34609 3.15800000 3219595179 3219595179 -11.00000000
-6.26093054 25.29924583 2.28016853 32 5 34610 26.16200000 3219595182 3219595182 5.00000000
-0.92802155 3.75276971 -0.61228448 2 6 34611 3.91400000 3219595184 3219595184 -9.00000000
-4.10676765 16.61955261 2.10200238 39 7 34612 17.24800000 3219595186 3219595186 7.00000000
-1.21869230 4.93558788 -0.62421477 2 8 34613 5.12200000 3219595189 3219595189 -7.00000000
-3.07467437 12.45213890 2.03145790 20 9 34613 12.98600000 3219595191 3219595191 9.00000000
-4.18285990 16.95289612 -1.52766585 10 10 34614 17.52800000 3219595193 3219595193 -5.00000000
-2.64966536 10.74701023 2.15156221 40 11 34615 11.27600000 3219595195 3219595195 11.00000000
-3.29515958 13.37517071 -0.72192216 4 12 34616 13.79400000 3219595198 3219595198 -3.00000000
-2.54902482 10.35436249 2.46186423 57 13 34617 10.94400000 3219595200 3219595200 13.00000000
-4.16864443 16.94614220 -0.30461431 10 14 34618 17.45400000 3219595202 3219595202 -1.00000000
-2.19317555 8.92228889 2.46188664 38 15 34619 9.51200000 3219595205 3219595205 15.00000000
-0.52271146 2.13937974 -0.59010744 4 0 34627 2.28000000 3219595225 3219595225 -15.00000000
-4.60860109 18.87660217 0.33917007 4 1 34628 19.43400000 3219595228 3219595228 1.00000000
-0.61058742 2.50283170 -0.59477061 3 2 34629 2.64400000 3219595230 3219595230 -13.00000000
-8.33928490 34.18319321 1.84400511 7 3 34629 35.23400000 3219595232 3219595232 3.00000000
-0.73419321 3.01178145 -0.60257483 4 4 34630 3.15800000 3219595235 3219595235 -11.00000000
-6.16721869 25.31815147 2.27981997 48 5 34631 26.15800000 3219595237 3219595237 5.00000000
-0.91472787 3.75806522 -0.61259735 2 6 34632 3.91600000 3219595239 3219595239 -9.00000000
-4.04582644 16.63449287 2.10200238 39 7 34633 17.24800000 3219595241 3219595241 7.00000000
-1.20059431 4.94002151 -0.62421477 2 8 34634 5.12200000 3219595244 3219595244 -7.00000000
-3.02621531 12.45180702 2.02958083 20 9 34634 12.97400000 3219595246 3219595246 9.00000000
-4.11458397 16.94294357 -1.52539980 10 10 34635 17.50200000 3219595248 3219595248 -5.00000000
-2.61164665 10.76237297 2.15270710 43 11 34636 11.28200000 3219595251 3219595251 11.00000000
-3.25411630 13.42015553 -0.72370160 4 12 34637 13.82800000 3219595253 3219595253 -3.00000000
-2.51013923 10.35984802 2.46096444 59 13 34638 10.94000000 3219595255 3219595255 13.00000000
-4.11638737 17.00212097 -0.30534729 7 14 34639 17.49600000 3219595258 3219595258 -1.00000000
-2.16201758 8.92988968 2.46188664 40 15 34639 9.51200000 3219595260 3219595260 15.00000000
-0.51343262 2.13367844 -0.58803689 4 0 34647 2.27200000 3219595281 3219595281 -15.00000000
-4.52678633 18.82646942 0.33798331 16 1 34648 19.36600000 3219595283 3219595283 1.00000000
-0.60457873 2.51631689 -0.59746999 3 2 34649 2.65600000 3219595285 3219595285 -13.00000000
-4.52918720 18.85092926 1.01605022 12 3 34649 19.41400000 3219595288 3219595288 3.00000000
-0.72367567 3.01432610 -0.60257483 2 4 34650 3.15800000 3219595290 3219595290 -11.00000000
-4.52505827 18.86272812 1.69709659 17 5 34651 19.47200000 3219595292 3219595292 5.00000000
-0.90344608 3.76891899 -0.61384887 2 6 34652 3.92400000 3219595294 3219595294 -9.00000000
-3.98681164 16.64465332 2.10151505 39 7 34653 17.24400000 3219595297 3219595297 7.00000000
-1.18241906 4.94032097 -0.62372732 2 8 34654 5.11800000 3219595299 3219595299 -7.00000000
-2.98135257 12.45653152 2.02864218 16 9 34654 12.96800000 3219595301 3219595301 9.00000000
-4.05356312 16.94945335 -1.52470255 10 10 34655 17.49400000 3219595304 3219595304 -5.00000000
-2.57086897 10.75805759 2.15003586 40 11 34656 11.26800000 3219595306 3219595306 11.00000000
-3.21281791 13.45474434 -0.72495764 4 12 34657 13.85200000 3219595308 3219595308 -3.00000000
-2.47305679 10.36475563 2.46006465 56 13 34658 10.93600000 3219595311 3219595311 13.00000000
-4.04356480 16.95997620 -0.30433506 7 14 34659 17.43800000 3219595313 3219595313 -1.00000000
-2.12390089 8.91520309 2.45567513 40 15 34660 9.48800000 3219595315 3219595315 15.00000000
-0.50851119 2.14279938 -0.59010744 4 0 34665 2.28000000 3219595336 3219595336 -15.00000000
-4.46300507 18.82114029 0.33763427 16 1 34666 19.34600000 3219595338 3219595338 1.00000000
-0.59801841 2.52389240 -0.59881973 3 2 34667 2.66200000 3219595341 3219595341 -13.00000000
-4.46112871 18.84252167 1.01479423 12 3 34668 19.39000000 3219595343 3219595343 3.00000000
-0.71601158 3.02422643 -0.60410130 2 4 34668 3.16600000 3219595345 3219595345 -11.00000000
-4.46027279 18.85358429 1.69500494 17 5 34669 19.44800000 3219595347 3219595347 5.00000000
-0.88569361 3.74674749 -0.60978156 2 6 34670 3.89800000 3219595350 3219595350 -9.00000000
-3.93085051 16.64164162 2.09956503 39 7 34671 17.22800000 3219595352 3219595352 7.00000000
-1.17236471 4.96719551 -0.62665218 2 8 34672 5.14200000 3219595354 3219595354 -7.00000000
-2.93675947 12.44276524 2.02488780 13 9 34672 12.94400000 3219595357 3219595357 9.00000000
-3.99434948 16.93689346 -1.52243650 5 10 34673 17.46800000 3219595359 3219595359 -5.00000000
-2.53165507 10.74314976 2.14545631 37 11 34674 11.24400000 3219595361 3219595361 11.00000000
-3.16366625 13.43560982 -0.72338760 4 12 34675 13.82200000 3219595364 3219595364 -3.00000000
-2.44048285 10.37247467 2.46006465 59 13 34676 10.93600000 3219595366 3219595366 13.00000000
-3.99529743 16.99400902 -0.30471903 2 14 34677 17.46000000 3219595368 3219595368 -1.00000000
-2.09567118 8.91394329 2.45360446 40 15 34677 9.48000000 3219595371 3219595371 15.00000000
-0.50190729 2.14832377 -0.59114271 4 0 34685 2.28400000 3219595391 3219595391 -15.00000000
-4.39318848 18.81907845 0.33732012 16 1 34686 19.32800000 3219595394 3219595394 1.00000000
-0.58610600 2.51268005 -0.59567040 3 2 34687 2.64800000 3219595396 3219595396 -13.00000000
-4.39260864 18.84630775 1.01416612 12 3 34688 19.37800000 3219595398 3219595398 3.00000000
-0.70545065 3.02670717 -0.60410130 2 4 34688 3.16600000 3219595400 3219595400 -11.00000000
-4.39172316 18.85739517 1.69395900 17 5 34689 19.43600000 3219595403 3219595403 5.00000000
-0.87798226 3.77290392 -0.61353600 2 6 34690 3.92200000 3219595405 3219595405 -9.00000000
-3.86554313 16.62432480 2.09566522 37 7 34691 17.19600000 3219595407 3219595407 7.00000000
-1.14872932 4.94418764 -0.62323982 2 8 34692 5.11400000 3219595410 3219595410 -7.00000000
-2.88979459 12.44767284 2.02394915 13 9 34693 12.93800000 3219595412 3219595412 9.00000000
-3.93475389 16.94879341 -1.52226222 5 10 34693 17.46600000 3219595414 3219595414 -5.00000000
-2.49458265 10.75383472 2.14583802 37 11 34694 11.24600000 3219595417 3219595417 11.00000000
-3.11900282 13.45629978 -0.72391093 4 12 34695 13.83200000 3219595419 3219595419 -3.00000000
-2.39986420 10.36194515 2.45556569 55 13 34696 10.91600000 3219595421 3219595421 13.00000000
-3.94767523 17.05850601 -0.30562654 5 14 34697 17.51200000 3219595424 3219595424 -1.00000000
-2.06298590 8.92156410 2.45360446 38 15 34698 9.48000000 3219595426 3219595426 15.00000000
-0.49527106 2.15382814 -0.59217799 4 0 34705 2.28800000 3219595447 3219595447 -15.00000000
-4.32612753 18.82845116 0.33721539 16 1 34706 19.32200000 3219595449 3219595449 1.00000000
-0.57645941 2.51091194 -0.59477061 3 2 34707 2.64400000 3219595451 3219595451 -13.00000000
-4.31875801 18.82648659 1.01228201 12 3 34708 19.34200000 3219595453 3219595453 3.00000000
-0.69312531 3.02149701 -0.60257483 2 4 34708 3.15800000 3219595456 3219595456 -11.00000000
-4.32142019 18.85318947 1.69221592 17 5 34709 19.41600000 3219595458 3219595458 5.00000000
-0.86657101 3.78364778 -0.61478746 2 6 34710 3.93000000 3219595460 3219595460 -9.00000000
-3.80660415 16.63384628 2.09517765 37 7 34711 17.19200000 3219595463 3219595463 7.00000000
-1.12880886 4.93655634 -0.62177742 6 8 34712 5.10200000 3219595465 3219595465 -7.00000000
-2.84629893 12.44755936 2.02238488 13 9 34712 12.92800000 3219595467 3219595467 9.00000000
-3.87468004 16.95853996 -1.52191353 5 10 34713 17.46200000 3219595470 3219595470 -5.00000000
-2.45659280 10.76056290 2.14545631 40 11 34714 11.24400000 3219595472 3219595472 11.00000000
-3.07689857 13.48852444 -0.72506231 4 12 34715 13.85400000 3219595474 3219595474 -3.00000000
-2.36281371 10.36645889 2.45466590 55 13 34716 10.91200000 3219595477 3219595477 13.00000000
-3.89299035 17.09362793 -0.30601048 2 14 34717 17.53400000 3219595479 3219595479 -1.00000000
-2.03510547 8.93589115 2.45567513 42 15 34717 9.48800000 3219595481 3219595481 15.00000000
-0.48604438 2.14800692 -0.59010744 4 0 34725 2.28000000 3219595502 3219595502 -15.00000000
-4.25596762 18.82393265 0.33686635 16 1 34726 19.30200000 3219595504 3219595504 1.00000000
-0.57198536 2.53191710 -0.59926963 3 2 34727 2.66400000 3219595506 3219595506 -13.00000000
-4.25081587 18.83170509 1.01175869 12 3 34728 19.33200000 3219595509 3219595509 3.00000000
-0.68343866 3.02772832 -0.60333806 2 4 34728 3.16200000 3219595511 3219595511 -11.00000000
