# .PCD v0.7 - Point Cloud Data file format
VERSION 0.7
FIELDS x y z intensity laser_id azimuth distance_m adjustedtime timestamp vertical_angle
SIZE 4 4 4 1 1 2 8 8 4 8
TYPE F F F U U U F U U F
COUNT 1 1 1 1 1 1 1 1 1 1
WIDTH 522
HEIGHT 1
VIEWPOINT 0 0 0 1 0 0 0
POINTS 522
DATA ascii
-3.77091956 10.88976574 0.60395694 26 3 34090 11.54000000 2683595082 2683595082 3.00000000
-0.99638098 2.87737656 -0.59188950 2 4 34090 3.10200000 2683595084 2683595084 -11.00000000
-3.77416492 10.90529346 1.00961208 4 5 34091 11.58400000 2683595086 2683595086 5.00000000
-1.23656714 3.57502842 -0.59914398 2 6 34092 3.83000000 2683595089 2683595089 -9.00000000
-3.87718415 11.21562862 1.45706987 38 7 34093 11.95600000 2683595091 2683595091 7.00000000
-1.62580597 4.70566988 -0.61129665 2 8 34094 5.01600000 2683595093 2683595093 -7.00000000
-3.86333847 11.18822289 1.87471068 32 9 34095 11.98400000 2683595096 2683595096 9.00000000
-2.37620449 6.88148451 -0.63693416 4 10 34095 7.30800000 2683595098 2683595098 -5.00000000
-3.68461752 10.67668629 2.19544840 59 11 34096 11.50600000 2683595100 2683595100 11.00000000
-3.50760674 10.17529011 2.48480940 51 13 34098 11.04600000 2683595105 2683595105 13.00000000
-3.90168905 11.32490635 -0.20907983 6 14 34099 11.98000000 2683595107 2683595107 -1.00000000
-3.02803850 8.78907871 2.49087453 33 15 34099 9.62400000 2683595109 2683595109 15.00000000
-0.71007067 2.07040858 -0.58648396 4 0 34107 2.26600000 2683595130 2683595130 -15.00000000
-0.83238637 2.42981768 -0.59297097 3 2 34109 2.63600000 2683595135 2683595135 -13.00000000
-3.72835565 10.88963509 0.60322422 26 3 34110 11.52600000 2683595137 2683595137 3.00000000
-0.98760283 2.88455176 -0.59265274 2 4 34110 3.10600000 2683595139 2683595139 -11.00000000
-3.72897983 10.89766502 1.00769472 4 5 34111 11.56200000 2683595142 2683595142 5.00000000
-1.23430777 3.60922861 -0.60414988 2 6 34112 3.86200000 2683595144 2683595144 -9.00000000
-1.60808682 4.70755911 -0.61080915 2 8 34114 5.01200000 2683595149 2683595149 -7.00000000
-2.35216904 6.88973713 -0.63693416 4 10 34115 7.30800000 2683595153 2683595153 -5.00000000
-3.64352250 10.67833519 2.19315863 56 11 34116 11.49400000 2683595156 2683595156 11.00000000
-3.47206712 10.18747234 2.48480940 50 13 34118 11.04600000 2683595160 2683595160 13.00000000
-2.99642706 8.80194664 2.49139214 36 15 34120 9.62600000 2683595165 2683595165 15.00000000
-0.69947714 2.06177545 -0.58337814 4 0 34126 2.25400000 2683595186 2683595186 -15.00000000
-0.82432425 2.43256474 -0.59297097 3 2 34128 2.63600000 2683595190 2683595190 -13.00000000
-3.69222379 10.90193939 0.60322422 10 3 34129 11.52600000 2683595192 2683595192 3.00000000
-0.97929144 2.89153004 -0.59341598 2 4 34129 3.11000000 2683595195 2683595195 -11.00000000
-3.68771124 10.89487362 1.00630021 12 5 34130 11.54600000 2683595197 2683595197 5.00000000
-1.21347034 3.58710504 -0.59976971 2 6 34131 3.83400000 2683595199 2683595199 -9.00000000
-1.59373808 4.71662712 -0.61129665 2 8 34133 5.01600000 2683595204 2683595204 -7.00000000
-3.60495281 10.68105793 2.19125056 59 11 34135 11.48400000 2683595211 2683595211 11.00000000
-3.43639755 10.19338989 2.48345971 50 13 34137 11.04000000 2683595215 2683595215 13.00000000
-2.96382570 8.79667091 2.48725104 38 15 34138 9.61000000 2683595220 2683595220 15.00000000
-0.69780433 2.08068871 -0.58803689 4 0 34146 2.27200000 2683595241 2683595241 -15.00000000
-0.81335205 2.42803597 -0.59117138 3 2 34148 2.62800000 2683595245 2683595245 -13.00000000
-3.69599509 11.03976059 0.61013258 2 3 34149 11.65800000 2683595248 2683595248 3.00000000
-0.97667146 2.91727114 -0.59799540 2 4 34149 3.13400000 2683595250 2683595250 -11.00000000
-3.68506145 11.01348782 1.01606166 8 5 34150 11.65800000 2683595252 2683595252 5.00000000
-1.20845914 3.61379981 -0.60352415 2 6 34151 3.85800000 2683595255 2683595255 -9.00000000
-1.59864664 4.78617811 -0.61958373 2 8 34153 5.08400000 2683595259 2683595259 -7.00000000
-3.56143379 10.67495251 2.18743443 53 11 34155 11.46400000 2683595266 2683595266 11.00000000
-3.40079498 10.20532322 2.48345971 48 13 34157 11.04000000 2683595271 2683595271 13.00000000
-2.93188071 8.80329704 2.48621583 38 15 34158 9.60600000 2683595275 2683595275 15.00000000
-0.68774337 2.07589698 -0.58596629 4 0 34167 2.26400000 2683595296 2683595296 -15.00000000
-0.80444735 2.43100071 -0.59117138 3 2 34169 2.62800000 2683595301 2683595301 -13.00000000
-3.68065238 11.12275219 0.61400545 2 3 34169 11.73200000 2683595303 2683595303 3.00000000
-0.96473962 2.91710329 -0.59723216 2 4 34170 3.13000000 2683595305 2683595305 -11.00000000
-3.67843437 11.12907314 1.02547443 8 5 34171 11.76600000 2683595308 2683595308 5.00000000
-1.19024909 3.60319924 -0.60102123 2 6 34172 3.84200000 2683595310 2683595310 -9.00000000
-1.58109367 4.79200506 -0.61958373 2 8 34174 5.08400000 2683595314 2683595314 -7.00000000
-3.51798272 10.67488194 2.18476295 56 11 34176 11.45000000 2683595321 2683595321 11.00000000
-3.36275840 10.21586800 2.48300982 51 13 34178 11.03800000 2683595326 2683595326 13.00000000
-2.90080261 8.81765461 2.48725104 38 15 34179 9.61000000 2683595331 2683595331 15.00000000
-0.68409979 2.08930063 -0.58907217 4 0 34187 2.27600000 2683595351 2683595351 -15.00000000
-0.79595667 2.43379402 -0.59117138 3 2 34189 2.62800000 2683595356 2683595356 -13.00000000
-3.67957282 11.25766754 0.62070441 2 3 34190 11.86000000 2683595358 2683595358 3.00000000
-0.95211142 2.91298866 -0.59570569 2 4 34190 3.12200000 2683595361 2683595361 -11.00000000
-1.18502080 3.62986612 -0.60477567 2 6 34192 3.86600000 2683595365 2683595365 -9.00000000
-1.54712558 4.74465084 -0.61275905 2 8 34194 5.02800000 2683595370 2683595370 -7.00000000
-3.47826695 10.67963028 2.18323660 56 11 34196 11.44200000 2683595377 2683595377 11.00000000
-3.32406378 10.21827793 2.48076034 45 13 34198 11.02800000 2683595381 2683595381 13.00000000
-2.86846495 8.82822704 2.48725104 36 15 34200 9.61000000 2683595386 2683595386 15.00000000
-0.67597753 2.08788204 -0.58803689 4 0 34206 2.27200000 2683595407 2683595407 -15.00000000
-0.79267842 2.45125365 -0.59477061 3 2 34208 2.64400000 2683595411 2683595411 -13.00000000
-0.94244635 2.91612983 -0.59570569 2 4 34209 3.12200000 2683595416 2683595416 -11.00000000
-1.18025911 3.65633416 -0.60853004 2 6 34211 3.89000000 2683595420 2683595420 -9.00000000
-1.54234779 4.78376293 -0.61714637 2 8 34213 5.06400000 2683595425 2683595425 -7.00000000
-3.44283295 10.69110584 2.18323660 53 11 34215 11.44200000 2683595432 2683595432 11.00000000
-3.28896713 10.22553444 2.47986031 47 13 34217 11.02400000 2683595437 2683595437 13.00000000
-2.83953357 8.83351707 2.48621583 36 15 34218 9.60600000 2683595441 2683595441 15.00000000
-0.66515356 2.07918882 -0.58493102 4 0 34226 2.26000000 2683595462 2683595462 -15.00000000
-0.78174460 2.44658065 -0.59297097 3 2 34228 2.63600000 2683595466 2683595466 -13.00000000
-0.92867810 2.90818071 -0.59341598 2 4 34229 3.11000000 2683595471 2683595471 -11.00000000
-1.16508794 3.65290380 -0.60727859 2 6 34231 3.88200000 2683595476 2683595476 -9.00000000
-1.52805007 4.79668331 -0.61812133 2 8 34233 5.07200000 2683595480 2683595480 -7.00000000
-3.39954042 10.68435001 2.17942023 53 11 34235 11.42200000 2683595487 2683595487 11.00000000
-3.25443363 10.24066734 2.48076034 50 13 34237 11.02800000 2683595492 2683595492 13.00000000
-2.80458808 8.83048630 2.48259234 38 15 34238 9.59200000 2683595496 2683595496 15.00000000
-0.65942013 2.08506703 -0.58596629 4 0 34245 2.26400000 2683595517 2683595517 -15.00000000
-0.77245319 2.44544315 -0.59207118 3 2 34247 2.63200000 2683595522 2683595522 -13.00000000
-0.92375726 2.92622161 -0.59646893 4 4 34248 3.12600000 2683595526 2683595526 -11.00000000
-1.15296805 3.65674734 -0.60727859 2 6 34250 3.88200000 2683595531 2683595531 -9.00000000
-1.51571298 4.81308508 -0.61958373 2 8 34252 5.08400000 2683595536 2683595536 -7.00000000
-3.35820055 10.67683697 2.17560410 53 11 34254 11.40200000 2683595543 2683595543 11.00000000
-3.21928835 10.24768543 2.47986031 50 13 34256 11.02400000 2683595547 2683595547 13.00000000
-2.77374697 8.84022236 2.48259234 38 15 34258 9.59200000 2683595552 2683595552 15.00000000
-0.65559441 2.09841990 -0.58907217 4 0 34265 2.27600000 2683595572 2683595572 -15.00000000
-0.76275134 2.44440389 -0.59117138 3 2 34267 2.62800000 2683595577 2683595577 -13.00000000
-0.91470617 2.93317676 -0.59723216 4 4 34268 3.13000000 2683595582 2683595582 -11.00000000
-1.13432229 3.64188957 -0.60414988 2 6 34270 3.86200000 2683595586 2683595586 -9.00000000
-1.49536502 4.80697346 -0.61812133 2 8 34272 5.07200000 2683595591 2683595591 -7.00000000
-3.31508589 10.66974545 2.17178798 56 11 34274 11.38200000 2683595598 2683595598 11.00000000
-3.18234253 10.25513744 2.47896051 48 13 34276 11.02000000 2683595602 2683595602 13.00000000
-2.74916291 8.87014866 2.48828626 40 15 34278 9.61400000 2683595607 2683595607 15.00000000
-0.64883524 2.10254145 -0.58958977 3 0 34285 2.27800000 2683595628 2683595628 -15.00000000
-0.75421411 2.44705153 -0.59117138 3 2 34287 2.62800000 2683595632 2683595632 -13.00000000
-0.90099430 2.92509437 -0.59494245 2 4 34288 3.11800000 2683595637 2683595637 -11.00000000
-1.12276447 3.64960313 -0.60477567 2 6 34290 3.86600000 2683595642 2683595642 -9.00000000
-1.47391212 4.79698372 -0.61617142 2 8 34292 5.05600000 2683595646 2683595646 -7.00000000
-3.27666950 10.67749882 2.17102480 56 11 34294 11.37800000 2683595653 2683595653 11.00000000
-3.14424181 10.25873089 2.47716093 48 13 34296 11.01200000 2683595658 2683595658 13.00000000
-2.71874905 8.88153744 2.48880386 36 15 34298 9.61600000 2683595662 2683595662 15.00000000
-0.63867599 2.09555387 -0.58700162 4 0 34305 2.26800000 2683595683 2683595683 -15.00000000
-0.75134254 2.46831226 -0.59567040 3 2 34307 2.64800000 2683595688 2683595688 -13.00000000
-0.89420658 2.93949127 -0.59723216 2 4 34308 3.13000000 2683595692 2683595692 -11.00000000
-1.11116672 3.65728021 -0.60540140 2 6 34310 3.87000000 2683595697 2683595697 -9.00000000
-1.46522820 4.82869339 -0.61958373 2 8 34312 5.08400000 2683595702 2683595702 -7.00000000
-3.23823929 10.68511295 2.17026162 56 11 34314 11.37400000 2683595708 2683595708 11.00000000
-3.11067128 10.27710438 2.47896051 46 13 34316 11.02000000 2683595713 2683595713 13.00000000
-2.68213987 8.87248230 2.48362756 38 15 34318 9.59600000 2683595718 2683595718 15.00000000
-0.63024378 2.09407067 -0.58596629 4 0 34325 2.26400000 2683595738 2683595738 -15.00000000
-0.73935610 2.45972228 -0.59297097 3 2 34327 2.63600000 2683595743 2683595743 -13.00000000
-0.88281077 2.93883419 -0.59646893 2 4 34328 3.12600000 2683595748 2683595748 -11.00000000
-1.10066414 3.66870475 -0.60665286 2 6 34330 3.87800000 2683595752 2683595752 -9.00000000
-1.44836402 4.83377838 -0.61958373 2 8 34332 5.08400000 2683595757 2683595757 -7.00000000
-3.19641876 10.68130493 2.16720867 53 11 34334 11.35800000 2683595764 2683595764 11.00000000
-3.07366252 10.28416634 2.47806072 47 13 34336 11.01600000 2683595768 2683595768 13.00000000
-2.64883280 8.86837006 2.48000407 38 15 34337 9.58200000 2683595773 2683595773 15.00000000
-0.62182969 2.09255433 -0.58493102 4 0 34345 2.26000000 2683595794 2683595794 -15.00000000
-0.73298335 2.46976089 -0.59477061 3 2 34347 2.64400000 2683595798 2683595798 -13.00000000
-0.87366349 2.94566226 -0.59723216 2 4 34348 3.13000000 2683595803 2683595803 -11.00000000
-1.08224094 3.65358424 -0.60352415 2 6 34350 3.85800000 2683595807 2683595807 -9.00000000
-1.43598723 4.85403299 -0.62153363 2 8 34352 5.10000000 2683595812 2683595812 -7.00000000
-3.15466428 10.67733479 2.16415572 56 11 34354 11.34200000 2683595819 2683595819 11.00000000
-3.03774524 10.29483223 2.47806072 47 13 34356 11.01600000 2683595824 2683595824 13.00000000
-2.61631083 8.87801933 2.48000407 38 15 34358 9.58200000 2683595828 2683595828 15.00000000
-0.61778444 2.10583448 -0.58803689 4 0 34365 2.27200000 2683595849 2683595849 -15.00000000
-0.72107029 2.46108389 -0.59207118 3 2 34367 2.63200000 2683595854 2683595854 -13.00000000
-0.86999601 2.97130370 -0.60181159 2 4 34368 3.15400000 2683595858 2683595858 -11.00000000
-1.07391632 3.67250752 -0.60602713 2 6 34370 3.87400000 2683595863 2683595863 -9.00000000
-1.42126071 4.86663818 -0.62250859 2 8 34372 5.10800000 2683595867 2683595867 -7.00000000
-3.11187720 10.66943455 2.16033936 53 11 34374 11.32200000 2683595874 2683595874 11.00000000
-2.99852109 10.29414749 2.47536135 48 13 34376 11.00400000 2683595879 2683595879 13.00000000
-2.58631587 8.88479137 2.47948647 40 15 34377 9.58000000 2683595884 2683595884 15.00000000
-0.61365408 2.11911178 -0.59114271 4 0 34385 2.28400000 2683595904 2683595904 -15.00000000
-0.71355790 2.46732974 -0.59297097 3 2 34387 2.63600000 2683595909 2683595909 -13.00000000
-0.85525811 2.95923400 -0.59875864 2 4 34388 3.13800000 2683595913 2683595913 -11.00000000
-1.06109035 3.67623377 -0.60602713 2 6 34390 3.87400000 2683595918 2683595918 -9.00000000
-1.40316463 4.86775446 -0.62202114 2 8 34392 5.10400000 2683595923 2683595923 -7.00000000
-3.07461476 10.68023205 2.16033936 53 11 34394 11.32200000 2683595930 2683595930 11.00000000
-2.95933890 10.29331398 2.47266197 50 13 34396 10.99200000 2683595934 2683595934 13.00000000
-2.55639982 8.90349483 2.48207474 40 15 34398 9.59000000 2683595939 2683595939 15.00000000
-0.60519147 2.11752605 -0.59010744 4 0 34405 2.28000000 2683595960 2683595960 -15.00000000
-0.70921981 2.48479676 -0.59657019 3 2 34407 2.65200000 2683595964 2683595964 -13.00000000
-0.84169221 2.95087361 -0.59646893 4 4 34408 3.12600000 2683595969 2683595969 -11.00000000
-1.05691016 3.71031213 -0.61103302 2 6 34410 3.90600000 2683595973 2683595973 -9.00000000
-1.38507807 4.86880445 -0.62153363 2 8 34412 5.10000000 2683595978 2683595978 -7.00000000
-3.03677869 10.68901062 2.15995789 50 11 34414 11.32000000 2683595985 2683595985 11.00000000
-2.92392230 10.30545616 2.47311187 51 13 34416 10.99400000 2683595990 2683595990 13.00000000
-2.52211809 8.89519596 2.47741580 40 15 34417 9.57200000 2683595994 2683595994 15.00000000
-0.59255242 2.10103250 -0.58493102 4 0 34425 2.26000000 2683596015 2683596015 -15.00000000
-0.69737208 2.47600269 -0.59387076 3 2 34427 2.64000000 2683596019 2683596019 -13.00000000
-0.83351427 2.96135306 -0.59799540 2 4 34428 3.13400000 2683596024 2683596024 -11.00000000
-1.04181421 3.70637202 -0.60978156 2 6 34430 3.89800000 2683596029 2683596029 -9.00000000
-1.37665832 4.90418911 -0.62543344 2 8 34432 5.13200000 2683596033 2683596033 -7.00000000
-2.99520898 10.68442345 2.15690494 46 11 34434 11.30400000 2683596040 2683596040 11.00000000
-2.89213467 10.33061314 2.47671103 57 13 34436 11.01000000 2683596045 2683596045 13.00000000
-2.48949862 8.90438080 2.47741580 40 15 34438 9.57200000 2683596049 2683596049 15.00000000
-0.58691806 2.11063504 -0.58700162 4 0 34446 2.26800000 2683596070 2683596070 -15.00000000
-0.68933523 2.48229742 -0.59477061 3 2 34448 2.64400000 2683596075 2683596075 -13.00000000
-0.82160479 2.96060467 -0.59723216 2 4 34449 3.13000000 2683596079 2683596079 -11.00000000
-1.02189195 3.68732214 -0.60602713 2 6 34451 3.87400000 2683596084 2683596084 -9.00000000
-1.35443842 4.89389610 -0.62348354 2 8 34453 5.11600000 2683596089 2683596089 -7.00000000
-2.95184445 10.68019104 2.15385199 43 11 34455 11.28800000 2683596095 2683596095 11.00000000
-2.85321474 10.33738613 2.47581124 59 13 34457 11.00600000 2683596100 2683596100 13.00000000
-2.45429206 8.89811802 2.47327471 42 15 34458 9.55600000 2683596105 2683596105 15.00000000
-0.58159125 2.12012291 -0.58907217 4 0 34466 2.27600000 2683596125 2683596125 -15.00000000
-0.68066621 2.48468852 -0.59477061 3 2 34468 2.64400000 2683596130 2683596130 -13.00000000
-0.81644917 2.98239017 -0.60104835 2 4 34469 3.15000000 2683596135 2683596135 -11.00000000
-1.01318181 3.70611024 -0.60853004 2 6 34471 3.89000000 2683596139 2683596139 -9.00000000
-1.33943856 4.90625429 -0.62445849 2 8 34473 5.12400000 2683596144 2683596144 -7.00000000
-2.91454577 10.69042969 2.15385199 43 11 34475 11.28800000 2683596151 2683596151 11.00000000
-2.81404161 10.33600140 2.47311187 56 13 34477 10.99400000 2683596155 2683596155 13.00000000
-2.42216897 8.90891743 2.47379231 38 15 34479 9.55800000 2683596160 2683596160 15.00000000
-0.57694864 2.12939811 -0.59114271 4 0 34484 2.28400000 2683596181 2683596181 -15.00000000
-0.66980314 2.47552800 -0.59207118 3 2 34486 2.63200000 2683596185 2683596185 -13.00000000
-0.80400109 2.97356939 -0.59875864 4 4 34487 3.13800000 2683596190 2683596190 -11.00000000
-1.00771284 3.73216009 -0.61228448 2 6 34489 3.91400000 2683596195 2683596195 -9.00000000
-1.31885064 4.89127159 -0.62202114 2 8 34491 5.10400000 2683596199 2683596199 -7.00000000
-2.88094640 10.69953346 2.15385199 43 11 34493 11.28800000 2683596206 2683596206 11.00000000
-2.77852011 10.33349991 2.47041249 59 13 34495 10.98200000 2683596211 2683596211 13.00000000
-2.39572525 8.91606522 2.47379231 40 15 34496 9.55800000 2683596215 2683596215 15.00000000
-0.56851476 2.12766647 -0.59010744 4 0 34504 2.28000000 2683596236 2683596236 -15.00000000
-0.66517705 2.49291396 -0.59567040 3 2 34506 2.64800000 2683596241 2683596241 -13.00000000
-0.79361653 2.97635770 -0.59875864 4 4 34507 3.13800000 2683596245 2683596245 -11.00000000
-0.99772871 3.74710798 -0.61416173 2 6 34509 3.92600000 2683596250 2683596250 -9.00000000
-1.30891025 4.92270374 -0.62543344 2 8 34511 5.13200000 2683596254 2683596254 -7.00000000
-2.84559584 10.71711445 2.15537834 43 11 34513 11.29600000 2683596261 2683596261 11.00000000
-2.74243259 10.34313583 2.47041249 57 13 34515 10.98200000 2683596266 2683596266 13.00000000
-2.35956883 8.91171360 2.47016907 42 15 34517 9.54400000 2683596271 2683596271 15.00000000
-0.55813128 2.11842918 -0.58700162 4 0 34524 2.26800000 2683596291 2683596291 -15.00000000
-0.65845442 2.50275922 -0.59746999 3 2 34526 2.65600000 2683596296 2683596296 -13.00000000
-0.78422064 2.98290730 -0.59952188 4 4 34527 3.14200000 2683596301 2683596301 -11.00000000
-0.98163319 3.73910427 -0.61228448 2 6 34529 3.91400000 2683596305 2683596305 -9.00000000
-1.29171884 4.92724276 -0.62543344 2 8 34531 5.13200000 2683596310 2683596310 -7.00000000
-2.80618000 10.71938515 2.15385199 43 11 34533 11.28800000 2683596317 2683596317 11.00000000
-2.70532584 10.34887409 2.46951270 57 13 34535 10.97800000 2683596321 2683596321 13.00000000
-2.32512093 8.90079784 2.46499252 42 15 34536 9.52400000 2683596326 2683596326 15.00000000
-0.55364710 2.13158345 -0.59010744 4 0 34544 2.28000000 2683596347 2683596347 -15.00000000
-0.64677870 2.49372435 -0.59477061 3 2 34546 2.64400000 2683596351 2683596351 -13.00000000
-0.77675891 2.99702930 -0.60181159 2 4 34547 3.15400000 2683596356 2683596356 -11.00000000
-0.96164626 3.71573472 -0.60790431 2 6 34549 3.88600000 2683596360 2683596360 -9.00000000
-1.28345203 4.96631670 -0.62982076 2 8 34551 5.16800000 2683596365 2683596365 -7.00000000
-2.76482081 10.71390724 2.15079904 40 11 34553 11.27200000 2683596372 2683596372 11.00000000
-2.66918516 10.35825443 2.46951270 57 13 34555 10.97800000 2683596377 2683596377 13.00000000
-2.29355550 8.90698910 2.46447492 38 15 34556 9.52200000 2683596381 2683596381 15.00000000
-0.54716134 2.13724613 -0.59114271 4 0 34564 2.28400000 2683596402 2683596402 -15.00000000
-0.63613939 2.48841476 -0.59297097 3 2 34566 2.63600000 2683596407 2683596407 -13.00000000
-0.76920807 3.01113534 -0.60410130 2 4 34567 3.16600000 2683596411 2683596411 -11.00000000
-0.95355260 3.73820972 -0.61103302 2 6 34569 3.90600000 2683596416 2683596416 -9.00000000
-1.25042927 4.90920877 -0.62202114 2 8 34571 5.10400000 2683596420 2683596420 -7.00000000
-2.72934103 10.73110390 2.15232539 40 11 34573 11.28000000 2683596427 2683596427 11.00000000
-2.63013363 10.35617638 2.46681333 56 13 34575 10.96600000 2683596432 2683596432 13.00000000
-2.26340055 8.91868591 2.46551013 38 15 34576 9.52600000 2683596436 2683596436 15.00000000
-0.54064286 2.14288926 -0.59217799 4 0 34584 2.28800000 2683596457 2683596457 -15.00000000
-0.62935358 2.49817896 -0.59477061 3 2 34586 2.64400000 2683596462 2683596462 -13.00000000
-0.75485837 2.99857140 -0.60104835 2 4 34587 3.15000000 2683596466 2683596466 -11.00000000
-0.94723988 3.76833630 -0.61541319 2 6 34589 3.93400000 2683596471 2683596471 -9.00000000
-1.24198401 4.94820070 -0.62640840 2 8 34591 5.14000000 2683596476 2683596476 -7.00000000
-2.69186592 10.74056625 2.15232539 43 11 34593 11.28000000 2683596483 2683596483 11.00000000
-2.59018302 10.35017014 2.46321416 57 13 34595 10.95000000 2683596487 2683596487 13.00000000
-2.23069692 8.92692184 2.46551013 42 15 34597 9.52600000 2683596492 2683596492 15.00000000
-0.53260100 2.14092088 -0.59114271 4 0 34603 2.28400000 2683596513 2683596513 -15.00000000
-0.62200546 2.50403476 -0.59567040 3 2 34605 2.64800000 2683596517 2683596517 -13.00000000
-0.74491060 3.00105810 -0.60104835 2 4 34606 3.15000000 2683596522 2683596522 -11.00000000
-0.92713505 3.74077892 -0.61040729 2 6 34608 3.90200000 2683596526 2683596526 -9.00000000
-1.23224461 4.97926950 -0.62982076 2 8 34610 5.16800000 2683596531 2683596531 -7.00000000
-2.65529203 10.74562168 2.15156221 40 11 34612 11.27600000 2683596538 2683596538 11.00000000
-2.55397916 10.35113525 2.46141434 56 13 34614 10.94200000 2683596542 2683596542 13.00000000
-2.19801664 8.91512871 2.46033382 38 15 34615 9.50600000 2683596547 2683596547 15.00000000
-0.52236563 2.13150907 -0.58803689 4 0 34623 2.27200000 2683596568 2683596568 -15.00000000
-0.61604011 2.51754808 -0.59836978 3 2 34625 2.66000000 2683596572 2683596572 -13.00000000
-0.73349780 2.99982572 -0.60028511 2 4 34626 3.14600000 2683596577 2683596577 -11.00000000
-0.91922534 3.76510167 -0.61384887 2 6 34628 3.92400000 2683596582 2683596582 -9.00000000
-1.21861732 4.99896908 -0.63177067 2 8 34630 5.18400000 2683596586 2683596586 -7.00000000
-2.61637378 10.74910164 2.15041733 40 11 34632 11.27000000 2683596593 2683596593 11.00000000
-2.51783133 10.35998726 2.46141434 57 13 34634 10.94200000 2683596598 2683596598 13.00000000
-2.16551590 8.91711521 2.45878100 38 15 34635 9.50000000 2683596602 2683596602 15.00000000
-0.51673520 2.14083123 -0.59010744 4 0 34643 2.28000000 2683596623 2683596623 -15.00000000
-0.60633528 2.51589417 -0.59746999 3 2 34645 2.65600000 2683596628 2683596628 -13.00000000
-0.72394127 3.00618529 -0.60104835 4 4 34646 3.15000000 2683596632 2683596632 -11.00000000
-0.89961171 3.74139857 -0.60946870 2 6 34648 3.89600000 2683596637 2683596637 -9.00000000
-1.19003844 4.95686674 -0.62592095 2 8 34650 5.13600000 2683596641 2683596641 -7.00000000
-2.57517529 10.74289608 2.14736438 40 11 34652 11.25400000 2683596648 2683596648 11.00000000
-2.48165298 10.36871243 2.46141434 56 13 34654 10.94200000 2683596653 2683596653 13.00000000
-2.13302827 8.91898251 2.45722795 40 15 34655 9.49400000 2683596658 2683596658 15.00000000
-0.51015258 2.14638090 -0.59114271 4 0 34663 2.28400000 2683596678 2683596678 -15.00000000
-0.59574962 2.51041102 -0.59567040 3 2 34665 2.64800000 2683596683 2683596683 -13.00000000
-0.71706718 3.02397633 -0.60410130 2 4 34666 3.16600000 2683596688 2683596688 -11.00000000
-0.89291775 3.77142715 -0.61384887 2 6 34668 3.92400000 2683596692 2683596692 -9.00000000
-1.17455518 4.96871805 -0.62689590 2 8 34670 5.14400000 2683596697 2683596697 -7.00000000
-2.53630710 10.74608707 2.14621949 40 11 34672 11.24800000 2683596704 2683596704 11.00000000
-2.44097447 10.35834408 2.45691538 55 13 34674 10.92200000 2683596708 2683596708 13.00000000
-2.09855437 8.91921902 2.45515752 38 15 34676 9.48600000 2683596713 2683596713 15.00000000
-0.50353748 2.15191054 -0.59217799 4 0 34683 2.28800000 2683596734 2683596734 -15.00000000
-0.58964312 2.52386093 -0.59836978 3 2 34685 2.66000000 2683596738 2683596738 -13.00000000
-0.70829237 3.03410816 -0.60562778 2 4 34686 3.17400000 2683596743 2683596743 -11.00000000
-0.88109279 3.78029251 -0.61478746 2 6 34688 3.93000000 2683596747 2683596747 -9.00000000
-1.15270472 4.95345306 -0.62445849 2 8 34690 5.12400000 2683596752 2683596752 -7.00000000
-2.50144649 10.76634884 2.14850926 40 11 34692 11.26000000 2683596759 2683596759 11.00000000
-2.40171981 10.35351372 2.45376611 53 13 34694 10.90800000 2683596764 2683596764 13.00000000
-2.07071042 8.93365669 2.45722795 38 15 34695 9.49400000 2683596768 2683596768 15.00000000
-0.49472210 2.14800739 -0.59062505 4 0 34703 2.28200000 2683596789 2683596789 -15.00000000
-0.58082956 2.52590394 -0.59836978 3 2 34705 2.66000000 2683596793 2683596793 -13.00000000
-0.69418001 3.02125502 -0.60257483 2 4 34706 3.15800000 2683596798 2683596798 -11.00000000
-0.86700839 3.77949429 -0.61416173 2 6 34708 3.92600000 2683596803 2683596803 -9.00000000
-1.13186157 4.94196701 -0.62250859 6 8 34710 5.10800000 2683596807 2683596807 -7.00000000
-2.46166158 10.76544571 2.14660120 37 11 34712 11.25000000 2683596814 2683596814 11.00000000
-2.36556458 10.36183357 2.45376611 53 13 34714 10.90800000 2683596819 2683596819 13.00000000
-2.03650618 8.92764664 2.45360446 38 15 34715 9.48000000 2683596823 2683596823 15.00000000
-0.48925450 2.15520287 -0.59217799 4 0 34721 2.28800000 2683596844 2683596844 -15.00000000
-0.57375288 2.53151727 -0.59926963 3 2 34723 2.66400000 2683596849 2683596849 -13.00000000
-0.68381780 3.01959133 -0.60181159 2 4 34724 3.15400000 2683596853 2683596853 -11.00000000
-0.85687298 3.78990650 -0.61541319 2 6 34726 3.93400000 2683596858 2683596858 -9.00000000
-1.12070119 4.96486187 -0.62494600 2 8 34728 5.12800000 2683596863 2683596863 -7.00000000
-2.42480755 10.75971985 2.14392996 40 11 34730 11.23600000 2683596870 2683596870 11.00000000
-2.33300042 10.36921406 2.45376611 52 13 34732 10.90800000 2683596874 2683596874 13.00000000
-2.00392604 8.92115593 2.44998097 40 15 34734 9.46600000 2683596879 2683596879 15.00000000
-0.48088628 2.15312672 -0.59114271 4 0 34741 2.28400000 2683596899 2683596899 -15.00000000
-0.56406450 2.52970052 -0.59836978 3 2 34743 2.66000000 2683596904 2683596904 -13.00000000
-0.67839646 3.04495525 -0.60639101 2 4 34744 3.17800000 2683596909 2683596909 -11.00000000
-0.84192294 3.78516150 -0.61416173 2 6 34746 3.92600000 2683596913 2683596913 -9.00000000
-1.11197031 5.00750160 -0.62982076 2 8 34748 5.16800000 2683596918 2683596918 -7.00000000
-2.38680935 10.76620197 2.14354825 40 11 34750 11.23400000 2683596925 2683596925 11.00000000
-2.29552746 10.37158680 2.45241642 53 13 34752 10.90200000 2683596929 2683596929 13.00000000
-1.97235632 8.92621040 2.44946337 38 15 34754 9.46400000 2683596934 2683596934 15.00000000
-0.47299147 2.15487480 -0.59114271 4 0 34762 2.28400000 2683596955 2683596955 -15.00000000
-0.55562317 2.53555799 -0.59926963 3 2 34764 2.66400000 2683596959 2683596959 -13.00000000
-0.66471219 3.03591418 -0.60410130 2 4 34765 3.16600000 2683596964 2683596964 -11.00000000
-0.82973129 3.79594111 -0.61541319 2 6 34767 3.93400000 2683596969 2683596969 -9.00000000
-2.34399009 10.75953102 2.14049530 34 11 34771 11.21800000 2683596980 2683596980 11.00000000
-2.25708413 10.37802601 2.45196652 52 13 34773 10.90000000 2683596985 2683596985 13.00000000
-1.93921697 8.93149185 2.44894576 40 15 34775 9.46200000 2683596989 2683596989 15.00000000
-0.46709701 2.16406608 -0.59321326 4 0 34782 2.29200000 2683597010 2683597010 -15.00000000
-0.54635853 2.53557706 -0.59881973 3 2 34784 2.66200000 2683597015 2683597015 -13.00000000
-0.65245795 3.03053904 -0.60257483 2 4 34785 3.15800000 2683597019 2683597019 -11.00000000
-0.81730610 3.80267668 -0.61603892 2 6 34787 3.93800000 2683597024 2683597024 -9.00000000
-1.07944083 5.03085756 -0.63177067 2 8 34789 5.18400000 2683597029 2683597029 -7.00000000
-2.30641818 10.76764774 2.14049530 34 11 34791 11.21800000 2683597035 2683597035 11.00000000
-2.21676922 10.36678505 2.44746757 53 13 34793 10.88000000 2683597040 2683597040 13.00000000
-1.90762508 8.93631744 2.44842815 36 15 34795 9.46000000 2683597045 2683597045 15.00000000
-0.45873818 2.16190386 -0.59217799 4 0 34802 2.28800000 2683597065 2683597065 -15.00000000
-0.53911972 2.54509449 -0.60061932 3 2 34804 2.67000000 2683597070 2683597070 -13.00000000
-0.64187545 3.03279805 -0.60257483 2 4 34805 3.15800000 2683597075 2683597075 -11.00000000
-0.80484396 3.80937195 -0.61666465 2 6 34807 3.94200000 2683597079 2683597079 -9.00000000
-1.06187332 5.03459501 -0.63177067 2 8 34809 5.18400000 2683597084 2683597084 -7.00000000
-2.26841331 10.77371216 2.14011359 37 11 34811 11.21600000 2683597091 2683597091 11.00000000
-2.18137074 10.37827396 2.44836736 53 13 34813 10.88400000 2683597095 2683597095 13.00000000
-1.87798071 8.94259357 2.44842815 38 15 34814 9.46000000 2683597100 2683597100 15.00000000
-0.44961134 2.15592742 -0.59010744 4 0 34822 2.28000000 2683597121 2683597121 -15.00000000
-0.53182113 2.55459237 -0.60241890 3 2 34824 2.67800000 2683597125 2683597125 -13.00000000
-0.63528311 3.05424118 -0.60639101 2 4 34825 3.17800000 2683597130 2683597130 -11.00000000
-0.79796737 3.84310412 -0.62167054 2 6 34827 3.97400000 2683597134 2683597134 -9.00000000
-1.04187548 5.02660847 -0.63030827 2 8 34829 5.17200000 2683597139 2683597139 -7.00000000
-2.22959900 10.77579689 2.13896894 34 11 34831 11.21000000 2683597146 2683597146 11.00000000
-2.14591885 10.38964272 2.44926715 52 13 34833 10.88800000 2683597151 2683597151 13.00000000
-1.84363151 8.94184875 2.44635773 36 15 34835 9.45200000 2683597155 2683597155 15.00000000
-0.44361299 2.16111398 -0.59114271 4 0 34840 2.28400000 2683597176 2683597176 -15.00000000
-0.52183712 2.54670501 -0.60016942 3 2 34842 2.66800000 2683597181 2683597181 -13.00000000
-0.62647229 3.06006861 -0.60715425 2 4 34843 3.18200000 2683597185 2683597185 -11.00000000
-0.78035277 3.81849694 -0.61729038 2 6 34845 3.94600000 2683597190 2683597190 -9.00000000
-1.03322089 5.06486702 -0.63469553 2 8 34847 5.20800000 2683597194 2683597194 -7.00000000
-2.19220924 10.76543427 2.13553429 40 11 34849 11.19200000 2683597201 2683597201 11.00000000
-2.11365652 10.39824200 2.44971704 53 13 34851 10.89000000 2683597206 2683597206 13.00000000
-1.81632340 8.94349289 2.44532228 38 15 34852 9.44800000 2683597211 2683597211 15.00000000
-0.43759397 2.17022419 -0.59321326 4 0 34860 2.29200000 2683597231 2683597231 -15.00000000
-0.51063716 2.53704858 -0.59746999 3 2 34862 2.65600000 2683597236 2683597236 -13.00000000
-0.61501276 3.05838728 -0.60639101 2 4 34863 3.17800000 2683597240 2683597240 -11.00000000
-0.76546395 3.81345057 -0.61603892 2 6 34865 3.93800000 2683597245 2683597245 -9.00000000
-1.01631486 5.07233572 -0.63518304 2 8 34867 5.21200000 2683597250 2683597250 -7.00000000
-2.15769768 10.78842163 2.13858724 43 11 34869 11.20800000 2683597257 2683597257 11.00000000
-2.07620239 10.39982414 2.44836736 53 13 34871 10.88400000 2683597261 2683597261 13.00000000
-1.78315413 8.94819546 2.44480467 40 15 34873 9.44600000 2683597266 2683597266 15.00000000
-0.43038657 2.17560387 -0.59424853 4 0 34881 2.29600000 2683597287 2683597287 -15.00000000
-0.50133502 2.53890300 -0.59746999 3 2 34883 2.65600000 2683597291 2683597291 -13.00000000
-0.60455906 3.06447315 -0.60715425 2 4 34884 3.18200000 2683597296 2683597296 -11.00000000
-0.75415343 3.82979751 -0.61822903 2 6 34886 3.95200000 2683597300 2683597300 -9.00000000
-0.99924845 5.08381796 -0.63615799 2 8 34888 5.22000000 2683597305 2683597305 -7.00000000
-2.11738563 10.79240513 2.13782406 40 11 34890 11.20400000 2683597312 2683597312 11.00000000
-2.03507519 10.39206409 2.44476795 53 13 34892 10.86800000 2683597317 2683597317 13.00000000
-1.75487566 8.96953297 2.44894576 38 15 34893 9.46200000 2683597321 2683597321 15.00000000
-0.42057997 2.16571450 -0.59114271 4 0 34901 2.28400000 2683597342 2683597342 -15.00000000
-0.49321118 2.54446387 -0.59836978 3 2 34903 2.66000000 2683597346 2683597346 -13.00000000
-0.59161878 3.05500007 -0.60486454 2 4 34904 3.17000000 2683597351 2683597351 -11.00000000
-0.73965567 3.82658839 -0.61729038 2 6 34906 3.94600000 2683597356 2683597356 -9.00000000
-2.08044267 10.80358601 2.13858724 43 11 34910 11.20800000 2683597367 2683597367 11.00000000
-1.99952328 10.40293217 2.44566774 52 13 34912 10.87200000 2683597372 2683597372 13.00000000
-1.71907711 8.96072674 2.44480467 38 15 34914 9.44600000 2683597376 2683597376 15.00000000
-0.41229433 2.16337395 -0.59010744 4 0 34921 2.28000000 2683597397 2683597397 -15.00000000
-0.48505467 2.54999876 -0.59926963 3 2 34923 2.66400000 2683597402 2683597402 -13.00000000
-0.57875210 3.04547429 -0.60257483 2 4 34924 3.15800000 2683597406 2683597406 -11.00000000
-0.72813445 3.83885074 -0.61885476 2 6 34926 3.95600000 2683597411 2683597411 -9.00000000
-0.96004021 5.07116556 -0.63372058 2 8 34928 5.20000000 2683597416 2683597416 -7.00000000
-2.04417658 10.81849861 2.14011359 43 11 34930 11.21600000 2683597422 2683597422 11.00000000
-1.96464264 10.41750813 2.44746757 53 13 34932 10.88000000 2683597427 2683597427 13.00000000
-1.68720663 8.95498753 2.44169879 38 15 34933 9.43400000 2683597432 2683597432 15.00000000
-0.40509528 2.16669893 -0.59062505 4 0 34941 2.28200000 2683597452 2683597452 -15.00000000
-0.47615054 2.55167651 -0.59926963 3 2 34943 2.66400000 2683597457 2683597457 -13.00000000
-0.57099622 3.06291604 -0.60562778 2 4 34944 3.17400000 2683597462 2683597462 -11.00000000
-0.71147788 3.82389069 -0.61603892 2 6 34946 3.93800000 2683597466 2683597466 -9.00000000
-0.93943316 5.05887222 -0.63177067 2 8 34948 5.18400000 2683597471 2683597471 -7.00000000
-2.00282264 10.80626392 2.13629746 43 11 34950 11.19600000 2683597478 2683597478 11.00000000
-1.92826676 10.42430305 2.44746757 53 13 34952 10.88000000 2683597482 2683597482 13.00000000
-1.65437365 8.96111107 2.44169879 36 15 34954 9.43400000 2683597487 2683597487 15.00000000
-0.39965171 2.17753077 -0.59321326 4 0 34960 2.29200000 2683597508 2683597508 -15.00000000
-0.46698403 2.54940772 -0.59836978 3 2 34962 2.66000000 2683597512 2683597512 -13.00000000
-0.56224966 3.07251740 -0.60715425 2 4 34963 3.18200000 2683597517 2683597517 -11.00000000
-0.69772881 3.82039928 -0.61510032 2 6 34965 3.93200000 2683597522 2683597522 -9.00000000
-0.92051643 5.05024195 -0.63030827 2 8 34967 5.17200000 2683597526 2683597526 -7.00000000
-1.36846149 7.51524448 -0.66831023 4 10 34968 7.66800000 2683597531 2683597531 -5.00000000
-1.96627414 10.80898380 2.13553429 43 11 34969 11.19200000 2683597533 2683597533 11.00000000
-1.89299178 10.42680550 2.44656777 52 13 34971 10.87600000 2683597538 2683597538 13.00000000
-1.62621343 8.96626377 2.44169879 38 15 34972 9.43400000 2683597542 2683597542 15.00000000
-0.39273247 2.18271518 -0.59424853 4 0 34980 2.29600000 2683597563 2683597563 -15.00000000
-0.45808211 2.55102229 -0.59836978 3 2 34982 2.66000000 2683597568 2683597568 -13.00000000
-0.55152118 3.07446122 -0.60715425 2 4 34983 3.18200000 2683597572 2683597572 -11.00000000
-0.68543321 3.82864475 -0.61603892 2 6 34985 3.93800000 2683597577 2683597577 -9.00000000
-0.90916675 5.08859921 -0.63469553 2 8 34987 5.20800000 2683597581 2683597581 -7.00000000
-1.32891691 7.44544268 -0.66168642 4 10 34988 7.59200000 2683597586 2683597586 -5.00000000
-1.92922103 10.81964684 2.13629746 43 11 34989 11.19600000 2683597588 2683597588 11.00000000
-1.85521829 10.42567539 2.44476795 54 13 34991 10.86800000 2683597593 2683597593 13.00000000
-1.59367728 8.97406673 2.44221640 40 15 34993 9.43600000 2683597598 2683597598 15.00000000
-0.38482058 2.18020082 -0.59321326 4 0 34999 2.29200000 2683597618 2683597618 -15.00000000
-0.45131040 2.56212330 -0.60061932 3 2 35001 2.67000000 2683597623 2683597623 -13.00000000
-0.54064238 3.07240629 -0.60639101 2 4 35002 3.17800000 2683597628 2683597628 -11.00000000
-0.67819977 3.86202645 -0.62104481 2 6 35004 3.97000000 2683597632 2683597632 -9.00000000
-0.89297265 5.09549665 -0.63518304 2 8 35006 5.21200000 2683597637 2683597637 -7.00000000
-1.32414711 7.56363583 -0.67179644 4 10 35007 7.70800000 2683597641 2683597641 -5.00000000
-1.89468396 10.83372021 2.13782406 43 11 35008 11.20400000 2683597644 2683597644 11.00000000
-1.81996524 10.42792988 2.44386816 53 13 35010 10.86400000 2683597648 2683597648 13.00000000
-1.56481290 8.97522259 2.44118118 40 15 35011 9.43200000 2683597653 2683597653 15.00000000
-0.37589130 2.17391634 -0.59114271 4 0 35019 2.28400000 2683597674 2683597674 -15.00000000
-0.44468367 2.57712555 -0.60376865 3 2 35021 2.68400000 2683597678 2683597678 -13.00000000
-0.53258228 3.08975244 -0.60944390 2 4 35022 3.19400000 2683597683 2683597683 -11.00000000
-0.66270542 3.85268950 -0.61916763 2 6 35024 3.95800000 2683597687 2683597687 -9.00000000
-0.87249398 5.08293104 -0.63323313 2 8 35026 5.19600000 2683597692 2683597692 -7.00000000
-1.85122085 10.80737209 2.13133645 50 11 35028 11.17000000 2683597699 2683597699 11.00000000
-1.78322554 10.43229866 2.44341826 55 13 35030 10.86200000 2683597704 2683597704 13.00000000
-1.53087270 8.96539593 2.43704009 45 15 35031 9.41600000 2683597708 2683597708 15.00000000
-0.36792096 2.17527938 -0.59114271 4 0 35040 2.28400000 2683597729 2683597729 -15.00000000
-0.43426210 2.57297325 -0.60241890 3 2 35042 2.67800000 2683597734 2683597734 -13.00000000
-0.52190697 3.09555554 -0.61020714 2 4 35043 3.19800000 2683597738 2683597738 -11.00000000
-0.64858019 3.85509253 -0.61916763 2 6 35045 3.95800000 2683597743 2683597743 -9.00000000
-0.85385823 5.08609438 -0.63323313 2 8 35047 5.19600000 2683597747 2683597747 -7.00000000
-1.81192183 10.81602097 2.13171816 40 11 35049 11.17200000 2683597754 2683597754 11.00000000
-1.74497724 10.43876457 2.44341826 55 13 35051 10.86200000 2683597759 2683597759 13.00000000
-1.49704802 8.96522999 2.43548727 40 15 35052 9.41000000 2683597763 2683597763 15.00000000
-0.36158767 2.18417406 -0.59321326 4 0 35060 2.29200000 2683597784 2683597784 -15.00000000
-0.42305484 2.56101465 -0.59926963 3 2 35062 2.66400000 2683597789 2683597789 -13.00000000
-0.51109833 3.09735847 -0.61020714 2 4 35063 3.19800000 2683597793 2683597793 -11.00000000
-0.63576132 3.86123133 -0.61979336 2 6 35065 3.96200000 2683597798 2683597798 -9.00000000
-0.84511030 5.14389133 -0.64005780 2 8 35067 5.25200000 2683597803 2683597803 -7.00000000
-1.77383816 10.82034206 2.13133645 40 11 35069 11.17000000 2683597810 2683597810 11.00000000
-1.70758474 10.43902206 2.44206858 53 13 35071 10.85600000 2683597814 2683597814 13.00000000
-1.46449006 8.97256374 2.43600488 40 15 35073 9.41200000 2683597819 2683597819 15.00000000
-0.35496110 2.18917513 -0.59424853 4 0 35079 2.29600000 2683597840 2683597840 -15.00000000
-0.41673848 2.57586956 -0.60241890 3 2 35081 2.67800000 2683597844 2683597844 -13.00000000
-0.49894503 3.08740759 -0.60791749 2 4 35082 3.18600000 2683597849 2683597849 -11.00000000
-0.62263906 3.86136818 -0.61948049 2 6 35084 3.96000000 2683597853 2683597853 -9.00000000
-0.83309317 5.17802382 -0.64395761 2 8 35086 5.28400000 2683597858 2683597858 -7.00000000
-1.73888040 10.83197975 2.13248134 43 11 35088 11.17600000 2683597865 2683597865 11.00000000
-1.67172551 10.43693066 2.44026899 53 13 35090 10.84800000 2683597869 2683597869 13.00000000
-1.43568432 8.97330475 2.43496966 40 15 35091 9.40800000 2683597874 2683597874 15.00000000
-0.34610713 2.18276858 -0.59217799 4 0 35099 2.28800000 2683597895 2683597895 -15.00000000
-0.40835351 2.58115816 -0.60331875 3 2 35101 2.68200000 2683597899 2683597899 -13.00000000
-0.48877779 3.09300900 -0.60868067 2 4 35102 3.19000000 2683597904 2683597904 -11.00000000
-0.60946423 3.86546946 -0.61979336 2 6 35104 3.96200000 2683597909 2683597909 -9.00000000
-0.81131160 5.15736866 -0.64103276 2 8 35106 5.26000000 2683597913 2683597913 -7.00000000
-1.70227683 10.84574223 2.13400769 43 11 35108 11.18400000 2683597920 2683597920 11.00000000
-1.63618803 10.44847870 2.44161868 55 13 35110 10.85400000 2683597925 2683597925 13.00000000
-1.40315866 8.97062683 2.43289900 45 15 35111 9.40000000 2683597929 2683597929 15.00000000
-0.33827448 2.18008637 -0.59114271 4 0 35118 2.28400000 2683597950 2683597950 -15.00000000
-0.39919558 2.57864666 -0.60241890 3 2 35120 2.67800000 2683597955 2683597955 -13.00000000
-0.47671825 3.08297157 -0.60639101 2 4 35121 3.17800000 2683597959 2683597959 -11.00000000
-0.59724486 3.87137365 -0.62041909 2 6 35123 3.96600000 2683597964 2683597964 -9.00000000
-0.79178882 5.14433479 -0.63908285 2 8 35125 5.24400000 2683597968 2683597968 -7.00000000
-1.16678047 7.58950424 -0.67179644 4 10 35126 7.70800000 2683597973 2683597973 -5.00000000
-1.66391778 10.83580303 2.13095474 40 11 35127 11.16800000 2683597975 2683597975 11.00000000
-1.60094047 10.44999409 2.44071889 57 13 35129 10.85000000 2683597980 2683597980 13.00000000
-1.37223446 8.96759224 2.43082857 40 15 35130 9.39200000 2683597985 2683597985 15.00000000
-0.33239979 2.19271398 -0.59424853 4 0 35138 2.29600000 2683598005 2683598005 -15.00000000
-0.38931778 2.57424378 -0.60106921 3 2 35140 2.67200000 2683598010 2683598010 -13.00000000
-0.46771321 3.09626412 -0.60868067 2 4 35141 3.19000000 2683598015 2683598015 -11.00000000
-0.58490509 3.88124824 -0.62167054 2 6 35143 3.97400000 2683598019 2683598019 -9.00000000
-0.77618796 5.16277170 -0.64103276 2 8 35145 5.26000000 2683598024 2683598024 -7.00000000
-1.14028108 7.59353113 -0.67179644 4 10 35146 7.70800000 2683598028 2683598028 -5.00000000
-1.62375402 10.82601357 2.12790203 40 11 35147 11.15200000 2683598031 2683598031 11.00000000
-1.56416500 10.45359135 2.44026899 52 13 35149 10.84800000 2683598035 2683598035 13.00000000
-1.33878696 8.96874046 2.42979312 42 15 35151 9.38800000 2683598040 2683598040 15.00000000
-0.32474375 2.19386101 -0.59424853 4 0 35158 2.29600000 2683598061 2683598061 -15.00000000
-0.37976027 2.57173157 -0.60016942 3 2 35160 2.66800000 2683598065 2683598065 -13.00000000
-0.45690235 3.09787798 -0.60868067 2 4 35161 3.19000000 2683598070 2683598070 -11.00000000
-0.56790286 3.85981417 -0.61791611 2 6 35163 3.95000000 2683598074 2683598074 -9.00000000
-0.76162112 5.18901777 -0.64395761 2 8 35165 5.28400000 2683598079 2683598079 -7.00000000
-1.58595431 10.83161545 2.12790203 40 11 35167 11.15200000 2683598086 2683598086 11.00000000
-1.52569413 10.44548988 2.43711972 51 13 35169 10.83400000 2683598091 2683598091 13.00000000
-1.30903816 8.97313023 2.42979312 42 15 35170 9.38800000 2683598095 2683598095 15.00000000
-0.31708378 2.19498134 -0.59424853 4 0 35178 2.29600000 2683598116 2683598116 -15.00000000
-0.37105888 2.57497025 -0.60061932 3 2 35180 2.67000000 2683598120 2683598120 -13.00000000
-0.44720468 3.10722685 -0.61020714 2 4 35181 3.19800000 2683598125 2683598125 -11.00000000
-0.55723339 3.88132644 -0.62104481 2 6 35183 3.97000000 2683598130 2683598130 -9.00000000
-0.74350339 5.19164515 -0.64395761 2 8 35185 5.28400000 2683598134 2683598134 -7.00000000
-1.08724082 7.60130644 -0.67179644 4 10 35186 7.70800000 2683598139 2683598139 -5.00000000
-1.54758000 10.83319855 2.12713861 37 11 35187 11.14800000 2683598141 2683598141 11.00000000
-1.48894835 10.44882298 2.43666983 53 13 35189 10.83200000 2683598146 2683598146 13.00000000
-1.27825248 8.98147011 2.43082857 42 15 35190 9.39200000 2683598150 2683598150 15.00000000
-0.30888087 2.19224882 -0.59321326 4 0 35198 2.29200000 2683598171 2683598171 -15.00000000
-0.36396679 2.58975816 -0.60376865 3 2 35200 2.68400000 2683598176 2683598176 -13.00000000
-0.43362677 3.08932710 -0.60639101 2 4 35201 3.17800000 2683598180 2683598180 -11.00000000
-0.54477721 3.89107299 -0.62229627 2 6 35203 3.97800000 2683598185 2683598185 -9.00000000
-0.72098374 5.16275263 -0.64005780 2 8 35205 5.25200000 2683598190 2683598190 -7.00000000
-1.06070077 7.60505533 -0.67179644 4 10 35206 7.70800000 2683598194 2683598194 -5.00000000
-1.50975561 10.83853436 2.12713861 43 11 35207 11.14800000 2683598197 2683598197 11.00000000
-1.45192969 10.45009613 2.43577003 54 13 35209 10.82800000 2683598201 2683598201 13.00000000
-1.24426448 8.97844028 2.42875791 42 15 35211 9.38400000 2683598206 2683598206 15.00000000
-0.30017519 2.18565798 -0.59114271 4 0 35218 2.28400000 2683598226 2683598226 -15.00000000
-0.35545358 2.59487438 -0.60466844 3 2 35220 2.68800000 2683598231 2683598231 -13.00000000
-0.42496923 3.10638309 -0.60944390 2 4 35221 3.19400000 2683598236 2683598236 -11.00000000
-0.52798671 3.86946416 -0.61854190 2 6 35223 3.95400000 2683598240 2683598240 -9.00000000
-0.70724106 5.19670916 -0.64395761 2 8 35225 5.28400000 2683598245 2683598245 -7.00000000
-1.03414762 7.60871172 -0.67179644 4 10 35226 7.70800000 2683598250 2683598250 -5.00000000
-1.47032845 10.83206558 2.12484908 43 11 35227 11.13600000 2683598252 2683598252 11.00000000
-1.41544318 10.45510101 2.43577003 53 13 35229 10.82800000 2683598256 2683598256 13.00000000
-1.21084821 8.96741390 2.42461681 40 15 35231 9.36800000 2683598261 2683598261 15.00000000
-0.29408100 2.19818139 -0.59424853 4 0 35238 2.29600000 2683598282 2683598282 -15.00000000
-0.34484720 2.58450961 -0.60196900 3 2 35240 2.67600000 2683598286 2683598286 -13.00000000
-0.41412333 3.10784745 -0.60944390 2 4 35241 3.19400000 2683598291 2683598291 -11.00000000
-0.51707888 3.89086509 -0.62167054 2 6 35243 3.97400000 2683598296 2683598296 -9.00000000
-0.68909687 5.19914627 -0.64395761 2 8 35245 5.28400000 2683598300 2683598300 -7.00000000
-1.00758195 7.61227512 -0.67179644 4 10 35246 7.70800000 2683598305 2683598305 -5.00000000
-1.43019307 10.81961536 2.12141442 40 11 35247 11.11800000 2683598307 2683598307 11.00000000
-1.37970364 10.46577358 2.43711972 55 13 35249 10.83400000 2683598312 2683598312 13.00000000
-1.17953873 8.97158527 2.42461681 42 15 35251 9.36800000 2683598316 2683598316 15.00000000
-0.28615665 2.19727874 -0.59373087 3 0 35258 2.29400000 2683598337 2683598337 -15.00000000
-0.33481953 2.57796764 -0.60016942 3 2 35260 2.66800000 2683598342 2683598342 -13.00000000
-0.40377742 3.11316800 -0.61020714 2 4 35261 3.19800000 2683598346 2683598346 -11.00000000
-0.50298727 3.88872814 -0.62104481 2 6 35263 3.97000000 2683598351 2683598351 -9.00000000
-0.66840470 5.18183184 -0.64152020 2 8 35265 5.26400000 2683598356 2683598356 -7.00000000
-0.98100406 7.61574602 -0.67179644 4 10 35266 7.70800000 2683598360 2683598360 -5.00000000
-1.39291787 10.82843590 2.12217760 40 11 35267 11.12200000 2683598362 2683598362 11.00000000
-1.34167504 10.45892906 2.43442035 55 13 35269 10.82200000 2683598367 2683598367 13.00000000
-1.14674401 8.96415043 2.42151093 42 15 35271 9.35600000 2683598372 2683598372 15.00000000
-0.27969894 2.20784688 -0.59631908 4 0 35278 2.30400000 2683598392 2683598392 -15.00000000
-0.32679567 2.58685398 -0.60196900 3 2 35280 2.67600000 2683598397 2683598397 -13.00000000
-0.39290798 3.11455846 -0.61020714 2 4 35281 3.19800000 2683598402 2683598402 -11.00000000
-0.49138245 3.90613961 -0.62354779 2 6 35283 3.98600000 2683598406 2683598406 -9.00000000
-0.65031266 5.18413353 -0.64152020 2 8 35285 5.26400000 2683598411 2683598411 -7.00000000
-1.35291791 10.81569958 2.11874318 43 11 35287 11.10400000 2683598418 2683598418 11.00000000
-1.30491722 10.46161461 2.43397045 52 13 35289 10.82000000 2683598422 2683598422 13.00000000
-1.11844420 8.97940636 2.42461681 42 15 35290 9.36800000 2683598427 2683598427 15.00000000
-0.27104601 2.20114040 -0.59424853 4 0 35298 2.29600000 2683598448 2683598448 -15.00000000
-0.31752637 2.58604479 -0.60151911 3 2 35300 2.67400000 2683598452 2683598452 -13.00000000
-0.38203374 3.11591101 -0.61020714 2 4 35301 3.19800000 2683598457 2683598457 -11.00000000
-0.47918275 3.91959572 -0.62542498 2 6 35303 3.99800000 2683598461 2683598461 -9.00000000
-0.63173229 5.18243122 -0.64103276 2 8 35305 5.26000000 2683598466 2683598466 -7.00000000
-1.31562960 10.82425404 2.11950636 40 11 35307 11.10800000 2683598473 2683598473 11.00000000
-1.26651585 10.45062923 2.43037128 50 13 35309 10.80400000 2683598478 2683598478 13.00000000
-1.08320796 8.96426678 2.41944051 42 15 35311 9.34800000 2683598482 2683598482 15.00000000
-0.26366943 2.19814467 -0.59321326 4 0 35316 2.29200000 2683598503 2683598503 -15.00000000
-0.31078902 2.59863925 -0.60421854 3 2 35318 2.68600000 2683598508 2683598508 -13.00000000
-0.37177736 3.11319709 -0.60944390 2 4 35319 3.19400000 2683598512 2683598512 -11.00000000
-0.46593243 3.91323590 -0.62417352 2 6 35321 3.99000000 2683598517 2683598517 -9.00000000
