# .PCD v0.7 - Point Cloud Data file format
VERSION 0.7
FIELDS x y z intensity laser_id azimuth distance_m adjustedtime timestamp vertical_angle
SIZE 4 4 4 1 1 2 8 8 4 8
TYPE F F F U U U F U U F
COUNT 1 1 1 1 1 1 1 1 1 1
WIDTH 518
HEIGHT 1
VIEWPOINT 0 0 0 1 0 0 0
POINTS 518
DATA ascii
-9.98596191 -2.63467622 2.76729321 30 15 25522 10.69200000 2687371334 2687371334 15.00000000
-1.85910439 -0.48842058 -0.51504987 5 0 25528 1.99000000 2687371354 2687371354 -15.00000000
-2.15073204 -0.56423396 -0.51333833 4 2 25530 2.28200000 2687371359 2687371359 -13.00000000
-2.50108767 -0.65568155 -0.50259089 3 4 25531 2.63400000 2687371364 2687371364 -11.00000000
-2.99450612 -0.78391838 -0.49026561 2 6 25533 3.13400000 2687371368 2687371368 -9.00000000
-3.72587609 -0.97399086 -0.47285306 5 8 25535 3.88000000 2687371373 2687371373 -7.00000000
-4.90021944 -1.28006530 -0.44309980 3 10 25536 5.08400000 2687371377 2687371377 -5.00000000
-7.15251589 -1.86575711 -0.38739076 3 12 25538 7.40200000 2687371382 2687371382 -3.00000000
-9.98297310 -2.60036969 2.76418734 33 15 25540 10.68000000 2687371389 2687371389 15.00000000
-1.86640835 -0.48338115 -0.51660281 5 0 25548 1.99600000 2687371410 2687371410 -15.00000000
-2.15080166 -0.55623513 -0.51288843 4 2 25550 2.28000000 2687371414 2687371414 -13.00000000
-2.49955964 -0.64596468 -0.50182766 3 4 25551 2.63000000 2687371419 2687371419 -11.00000000
-2.98957348 -0.77148646 -0.48901415 2 6 25553 3.12600000 2687371423 2687371423 -9.00000000
-3.73309779 -0.96196985 -0.47334054 5 8 25555 3.88400000 2687371428 2687371428 -7.00000000
-4.91237593 -1.26493990 -0.44379705 6 10 25556 5.09200000 2687371433 2687371433 -5.00000000
-7.16672230 -1.84276831 -0.38780943 3 12 25558 7.41000000 2687371437 2687371437 -3.00000000
-9.99243641 -2.56376266 2.76418734 35 15 25561 10.68000000 2687371444 2687371444 15.00000000
-1.86995614 -0.47734106 -0.51712048 5 0 25568 1.99800000 2687371465 2687371465 -15.00000000
-2.14140010 -0.54583603 -0.51018900 4 2 25570 2.26800000 2687371470 2687371470 -13.00000000
-2.50560427 -0.63820481 -0.50259089 3 4 25571 2.63400000 2687371474 2687371474 -11.00000000
-3.00756359 -0.76494151 -0.49151710 2 6 25573 3.14200000 2687371479 2687371479 -9.00000000
-3.73258495 -0.94795579 -0.47285306 5 8 25575 3.88000000 2687371483 2687371483 -7.00000000
-4.92641687 -1.25023532 -0.44466859 6 10 25576 5.10200000 2687371488 2687371488 -5.00000000
-7.19053555 -1.82215619 -0.38875148 3 12 25578 7.42800000 2687371493 2687371493 -3.00000000
-9.99901009 -2.53013873 2.76366973 30 15 25580 10.67800000 2687371500 2687371500 15.00000000
-1.87723148 -0.47222462 -0.51867336 5 0 25588 2.00400000 2687371520 2687371520 -15.00000000
-2.14140224 -0.53788310 -0.50973910 4 2 25590 2.26600000 2687371525 2687371525 -13.00000000
-2.50020003 -0.62754297 -0.50106442 3 4 25591 2.62600000 2687371529 2687371529 -11.00000000
-3.00638318 -0.75347805 -0.49089134 2 6 25593 3.13800000 2687371534 2687371534 -9.00000000
-3.73587108 -0.93492085 -0.47285306 5 8 25595 3.88000000 2687371539 2687371539 -7.00000000
-4.92881823 -1.23254800 -0.44449428 6 10 25596 5.10000000 2687371543 2687371543 -5.00000000
-7.17941236 -1.79269063 -0.38780943 3 12 25598 7.41000000 2687371548 2687371548 -3.00000000
-10.00259304 -2.49207234 2.76211691 28 15 25601 10.67200000 2687371555 2687371555 15.00000000
-1.87699330 -0.46520424 -0.51815575 4 0 25608 2.00200000 2687371576 2687371576 -15.00000000
-2.14894176 -0.53180933 -0.51108879 4 2 25610 2.27200000 2687371580 2687371580 -13.00000000
-2.49475193 -0.61692661 -0.49953794 3 4 25611 2.61800000 2687371585 2687371585 -11.00000000
-2.99748850 -0.74013799 -0.48901415 2 6 25613 3.12600000 2687371589 2687371589 -9.00000000
-3.73525715 -0.92092419 -0.47236559 5 8 25615 3.87600000 2687371594 2687371594 -7.00000000
-4.92341805 -1.21295261 -0.44362274 6 10 25616 5.09000000 2687371599 2687371599 -5.00000000
-7.70733595 -1.89595616 -0.41596618 20 12 25618 7.94800000 2687371603 2687371603 -3.00000000
-9.99954605 -2.45612407 2.75901103 28 15 25620 10.66000000 2687371610 2687371610 15.00000000
-1.86922204 -0.45635852 -0.51556754 5 0 25628 1.99200000 2687371631 2687371631 -15.00000000
-2.15078521 -0.52430487 -0.51108879 5 2 25630 2.27200000 2687371635 2687371635 -13.00000000
-2.50833511 -0.61100239 -0.50182766 3 4 25631 2.63000000 2687371640 2687371640 -11.00000000
-3.01540899 -0.73340505 -0.49151710 2 6 25633 3.14200000 2687371645 2687371645 -9.00000000
-3.73844886 -0.90788007 -0.47236559 5 8 25635 3.87600000 2687371649 2687371649 -7.00000000
-4.93730307 -1.19810855 -0.44449428 3 10 25636 5.10000000 2687371654 2687371654 -5.00000000
-9.99909210 -2.41718769 2.75642276 30 15 25641 10.65000000 2687371665 2687371665 15.00000000
-1.86892533 -0.44937930 -0.51504987 5 0 25648 1.99000000 2687371686 2687371686 -15.00000000
-2.14881229 -0.51588422 -0.51018900 5 2 25650 2.26800000 2687371691 2687371691 -13.00000000
-2.52190709 -0.60499084 -0.50411737 3 4 25651 2.64200000 2687371695 2687371695 -11.00000000
-3.01026654 -0.72103429 -0.49026561 2 6 25653 3.13400000 2687371700 2687371700 -9.00000000
-3.75704050 -0.89851874 -0.47431549 5 8 25655 3.89200000 2687371705 2687371705 -7.00000000
-4.95114422 -1.18318224 -0.44536585 6 10 25656 5.11000000 2687371709 2687371709 -5.00000000
-10.00893211 -2.38446379 2.75694036 28 15 25660 10.65200000 2687371721 2687371721 15.00000000
-1.87612224 -0.44418803 -0.51660281 5 0 25668 1.99600000 2687371741 2687371741 -15.00000000
-2.15059996 -0.50838029 -0.51018900 5 2 25670 2.26800000 2687371746 2687371746 -13.00000000
-2.52400351 -0.59618407 -0.50411737 3 4 25671 2.64200000 2687371751 2687371751 -11.00000000
-3.00507474 -0.70870835 -0.48901415 2 6 25673 3.12600000 2687371755 2687371755 -9.00000000
-3.75628948 -0.88448876 -0.47382802 5 8 25675 3.88800000 2687371760 2687371760 -7.00000000
-4.96106243 -1.16726124 -0.44588879 6 10 25676 5.11600000 2687371764 2687371764 -5.00000000
-10.01948452 -2.34820414 2.75745821 28 15 25681 10.65400000 2687371776 2687371776 15.00000000
-1.88518703 -0.43939051 -0.51867336 5 0 25688 2.00400000 2687371797 2687371797 -15.00000000
-2.14287138 -0.49866179 -0.50793946 4 2 25690 2.25800000 2687371801 2687371801 -13.00000000
-2.51842046 -0.58559144 -0.50259089 3 4 25691 2.63400000 2687371806 2687371806 -11.00000000
-3.02484798 -0.70223480 -0.49182996 4 6 25693 3.14400000 2687371811 2687371811 -9.00000000
-3.74388337 -0.86778557 -0.47187811 9 8 25695 3.87200000 2687371815 2687371815 -7.00000000
-4.96122456 -1.14903772 -0.44554016 6 10 25696 5.11200000 2687371820 2687371820 -5.00000000
-10.03286362 -2.31626916 2.75901103 35 15 25700 10.66000000 2687371831 2687371831 15.00000000
-1.89047515 -0.43367118 -0.51970863 5 0 25708 2.00800000 2687371852 2687371852 -15.00000000
-2.15599632 -0.49378908 -0.51063889 4 2 25710 2.27000000 2687371857 2687371857 -13.00000000
-2.51662159 -0.57592100 -0.50182766 3 4 25711 2.63000000 2687371861 2687371861 -11.00000000
-3.02920651 -0.69211185 -0.49214283 3 6 25713 3.14600000 2687371866 2687371866 -9.00000000
-3.75076056 -0.85559469 -0.47236559 7 8 25715 3.87600000 2687371870 2687371870 -7.00000000
-4.95743513 -1.12994182 -0.44484290 6 10 25716 5.10400000 2687371875 2687371875 -5.00000000
-7.43544531 -1.69202137 -0.39963737 8 12 25718 7.63600000 2687371880 2687371880 -3.00000000
-10.02998257 -2.27691531 2.75590515 28 15 25721 10.64800000 2687371887 2687371887 15.00000000
-1.87501740 -0.42324123 -0.51504987 5 0 25728 1.99000000 2687371907 2687371907 -15.00000000
-2.16150904 -0.48711708 -0.51153868 4 2 25730 2.27400000 2687371912 2687371912 -13.00000000
-2.51095533 -0.56540775 -0.50030118 3 4 25731 2.62200000 2687371917 2687371917 -11.00000000
-3.00847673 -0.67633450 -0.48838839 2 6 25733 3.12200000 2687371921 2687371921 -9.00000000
-3.76921940 -0.84597468 -0.47431549 7 8 25735 3.89200000 2687371926 2687371926 -7.00000000
-4.94579649 -1.10914230 -0.44344842 6 10 25736 5.08800000 2687371930 2687371930 -5.00000000
-7.59138012 -1.69965696 -0.40769711 12 12 25738 7.79000000 2687371935 2687371935 -3.00000000
-10.02993679 -2.24195647 2.75383472 30 15 25740 10.64000000 2687371942 2687371942 15.00000000
-1.88591301 -0.41878757 -0.51763809 5 0 25748 2.00000000 2687371963 2687371963 -15.00000000
-2.16129375 -0.47914726 -0.51108879 4 2 25750 2.27200000 2687371967 2687371967 -13.00000000
-2.52441454 -0.55918700 -0.50259089 3 4 25751 2.63400000 2687371972 2687371972 -11.00000000
-3.01853442 -0.66753495 -0.48963988 2 6 25753 3.13000000 2687371976 2687371976 -9.00000000
-3.77796483 -0.83409637 -0.47504669 7 8 25755 3.89800000 2687371981 2687371981 -7.00000000
-4.96909380 -1.09616351 -0.44519153 6 10 25756 5.10800000 2687371986 2687371986 -5.00000000
-7.68894100 -1.69333720 -0.41261667 45 12 25758 7.88400000 2687371990 2687371990 -3.00000000
-10.04713535 -2.20900583 2.75642276 30 15 25760 10.65000000 2687371997 2687371997 15.00000000
-1.89099383 -0.41368645 -0.51867336 5 0 25766 2.00400000 2687372018 2687372018 -15.00000000
-2.15136504 -0.46986017 -0.50838935 4 2 25768 2.26000000 2687372023 2687372023 -13.00000000
-2.53191304 -0.55250925 -0.50373572 4 4 25769 2.64000000 2687372027 2687372027 -11.00000000
-3.03219724 -0.66057158 -0.49151710 2 6 25771 3.14200000 2687372032 2687372032 -9.00000000
-3.77474737 -0.82095784 -0.47431549 7 8 25773 3.89200000 2687372036 2687372036 -7.00000000
-4.97251320 -1.08054721 -0.44519153 6 10 25774 5.10800000 2687372041 2687372041 -5.00000000
-10.05024910 -2.17661333 2.75538754 30 15 25778 10.64600000 2687372052 2687372052 15.00000000
-1.89053762 -0.40667686 -0.51815575 5 0 25786 2.00200000 2687372073 2687372073 -15.00000000
-2.16442394 -0.46480259 -0.51108879 4 2 25788 2.27200000 2687372078 2687372078 -13.00000000
-2.52806759 -0.54243225 -0.50259089 4 4 25789 2.63400000 2687372082 2687372082 -11.00000000
-3.03448462 -0.64998317 -0.49151710 2 6 25791 3.14200000 2687372087 2687372087 -9.00000000
-3.76400161 -0.80487084 -0.47260931 7 8 25793 3.87800000 2687372092 2687372092 -7.00000000
-4.97625446 -1.06318331 -0.44519153 6 10 25794 5.10800000 2687372096 2687372096 -5.00000000
-7.73320866 -1.64938784 -0.41439611 47 12 25796 7.91800000 2687372101 2687372101 -3.00000000
-10.06004906 -2.14016461 2.75590515 28 15 25799 10.64800000 2687372108 2687372108 15.00000000
-1.88641465 -0.39821768 -0.51660281 5 0 25808 1.99600000 2687372129 2687372129 -15.00000000
-2.16619253 -0.45648840 -0.51108879 4 2 25810 2.27200000 2687372133 2687372133 -13.00000000
-2.52628946 -0.53191221 -0.50182766 3 4 25811 2.63000000 2687372138 2687372138 -11.00000000
-3.04469061 -0.63995212 -0.49276856 3 6 25813 3.15000000 2687372142 2687372142 -9.00000000
-3.77872086 -0.79285806 -0.47407174 7 8 25815 3.89000000 2687372147 2687372147 -7.00000000
-4.99590015 -1.04733849 -0.44658601 6 10 25816 5.12400000 2687372152 2687372152 -5.00000000
-10.06593418 -2.10288334 2.75538754 33 15 25820 10.64600000 2687372163 2687372163 15.00000000
-1.88968480 -0.39202288 -0.51712048 5 0 25828 1.99800000 2687372184 2687372184 -15.00000000
-2.17158937 -0.44971454 -0.51198858 4 2 25830 2.27600000 2687372188 2687372188 -13.00000000
-2.52813077 -0.52309054 -0.50182766 4 4 25831 2.63000000 2687372193 2687372193 -11.00000000
-3.03529859 -0.62692285 -0.49089134 2 6 25833 3.13800000 2687372198 2687372198 -9.00000000
-3.78146553 -0.77966303 -0.47407174 7 8 25835 3.89000000 2687372202 2687372202 -7.00000000
-4.97610855 -1.02506936 -0.44449428 6 10 25836 5.10000000 2687372207 2687372207 -5.00000000
-7.56902218 -1.55645072 -0.40497562 12 12 25838 7.73800000 2687372211 2687372211 -3.00000000
-10.06564426 -2.06617999 2.75331712 38 15 25840 10.63800000 2687372218 2687372218 15.00000000
-1.88914871 -0.38503844 -0.51660281 5 0 25848 1.99600000 2687372239 2687372239 -15.00000000
-2.18078446 -0.44368562 -0.51378822 4 2 25850 2.28400000 2687372244 2687372244 -13.00000000
-2.53956079 -0.51621795 -0.50373572 4 4 25851 2.64000000 2687372248 2687372248 -11.00000000
-3.03746843 -0.61632389 -0.49089134 2 6 25853 3.13800000 2687372253 2687372253 -9.00000000
-3.79389191 -0.76842880 -0.47529045 7 8 25855 3.90000000 2687372257 2687372257 -7.00000000
-4.98942041 -1.00966907 -0.44536585 6 10 25856 5.11000000 2687372262 2687372262 -5.00000000
-7.32577896 -1.47979748 -0.39168230 7 12 25858 7.48400000 2687372267 2687372267 -3.00000000
-10.07658291 -2.03179550 2.75435233 38 15 25860 10.64200000 2687372274 2687372274 15.00000000
-1.90184689 -0.38071692 -0.51970863 5 0 25868 2.00800000 2687372294 2687372294 -15.00000000
-2.16512132 -0.43263391 -0.50973910 4 2 25870 2.26600000 2687372299 2687372299 -13.00000000
-2.53942204 -0.50696570 -0.50335413 3 4 25871 2.63800000 2687372304 2687372304 -11.00000000
-3.04153872 -0.60610342 -0.49120423 5 6 25873 3.14000000 2687372308 2687372308 -9.00000000
-3.78681636 -0.75324464 -0.47407174 7 8 25875 3.89000000 2687372313 2687372313 -7.00000000
-5.00073147 -0.99379998 -0.44606310 6 10 25876 5.11800000 2687372317 2687372317 -5.00000000
-7.32698202 -1.45343947 -0.39147297 7 12 25878 7.48000000 2687372322 2687372322 -3.00000000
-10.08396149 -1.99484932 2.75435233 38 15 25881 10.64200000 2687372329 2687372329 15.00000000
-1.90303349 -0.37474024 -0.51970863 5 0 25886 2.00800000 2687372350 2687372350 -15.00000000
-2.18367910 -0.42921245 -0.51378822 4 2 25888 2.28400000 2687372354 2687372354 -13.00000000
-2.53329635 -0.49747217 -0.50182766 3 4 25889 2.63000000 2687372359 2687372359 -11.00000000
-3.03761220 -0.59540528 -0.49026561 2 6 25891 3.13400000 2687372363 2687372363 -9.00000000
-3.77942324 -0.73943853 -0.47285306 7 8 25893 3.88000000 2687372368 2687372368 -7.00000000
-5.00187349 -0.97770268 -0.44588879 6 10 25894 5.11600000 2687372373 2687372373 -5.00000000
-7.63339758 -1.48931336 -0.40759242 20 12 25896 7.78800000 2687372377 2687372377 -3.00000000
-10.10310936 -1.96750569 2.75797582 40 15 25898 10.65600000 2687372384 2687372384 15.00000000
-1.89863980 -0.36699525 -0.51815575 5 0 25906 2.00200000 2687372405 2687372405 -15.00000000
-2.18133712 -0.42084903 -0.51288843 4 2 25908 2.28000000 2687372409 2687372409 -13.00000000
-2.53501749 -0.48862627 -0.50182766 3 4 25909 2.63000000 2687372414 2687372414 -11.00000000
-3.05519056 -0.58778399 -0.49276856 3 6 25911 3.15000000 2687372419 2687372419 -9.00000000
-3.80147624 -0.72998488 -0.47529045 7 8 25913 3.90000000 2687372423 2687372423 -7.00000000
-5.01308250 -0.96173847 -0.44658601 6 10 25914 5.12400000 2687372428 2687372428 -5.00000000
-10.10232639 -1.93077672 2.75590515 38 15 25918 10.64800000 2687372439 2687372439 15.00000000
-1.89244246 -0.35826492 -0.51608515 5 0 25928 1.99400000 2687372460 2687372460 -15.00000000
-2.18485188 -0.41283205 -0.51333833 4 2 25930 2.28200000 2687372465 2687372465 -13.00000000
-2.54844999 -0.48107398 -0.50411737 3 4 25931 2.64200000 2687372469 2687372469 -11.00000000
-3.05742502 -0.57604855 -0.49276856 3 6 25933 3.15000000 2687372474 2687372474 -9.00000000
-3.80034924 -0.71464920 -0.47480297 7 8 25935 3.89600000 2687372479 2687372479 -7.00000000
-4.98932457 -0.93733239 -0.44414568 6 10 25936 5.09600000 2687372483 2687372483 -5.00000000
-7.70103788 -1.44399261 -0.41062790 20 12 25938 7.84600000 2687372488 2687372488 -3.00000000
-10.09290504 -1.88701260 2.75124645 40 15 25941 10.63000000 2687372495 2687372495 15.00000000
-1.89558089 -0.35200959 -0.51660281 5 0 25948 1.99600000 2687372515 2687372515 -15.00000000
-2.18436337 -0.40484783 -0.51288843 4 2 25950 2.28000000 2687372520 2687372520 -13.00000000
-2.55397463 -0.47289017 -0.50488061 3 4 25951 2.64600000 2687372525 2687372525 -11.00000000
-3.04387712 -0.56250095 -0.49026561 2 6 25953 3.13400000 2687372529 2687372529 -9.00000000
-3.81843805 -0.70425951 -0.47675288 7 8 25955 3.91200000 2687372534 2687372534 -7.00000000
-5.01999760 -0.92496514 -0.44658601 6 10 25956 5.12400000 2687372539 2687372539 -5.00000000
-7.40549040 -1.36183405 -0.39461312 8 12 25958 7.54000000 2687372543 2687372543 -3.00000000
-10.10513115 -1.85281551 2.75279927 40 15 25961 10.63600000 2687372550 2687372550 15.00000000
-1.90047836 -0.34674624 -0.51763809 4 0 25966 2.00000000 2687372571 2687372571 -15.00000000
-2.18562460 -0.39798346 -0.51288843 4 2 25968 2.28000000 2687372575 2687372575 -13.00000000
-2.55544758 -0.46486431 -0.50488061 3 4 25969 2.64600000 2687372580 2687372580 -11.00000000
-3.05729103 -0.55505270 -0.49214283 3 6 25971 3.14600000 2687372585 2687372585 -9.00000000
-3.81086516 -0.69049054 -0.47553417 7 8 25973 3.90200000 2687372589 2687372589 -7.00000000
-5.01503658 -0.90777028 -0.44588879 6 10 25974 5.11600000 2687372594 2687372594 -5.00000000
-7.36256170 -1.33004105 -0.39210099 7 12 25976 7.49200000 2687372598 2687372598 -3.00000000
-10.11850643 -1.82242990 2.75486994 38 15 25979 10.64400000 2687372605 2687372605 15.00000000
-1.91308713 -0.34215087 -0.52074391 5 0 25986 2.01200000 2687372626 2687372626 -15.00000000
-2.19083738 -0.39103663 -0.51378822 4 2 25988 2.28400000 2687372631 2687372631 -13.00000000
-2.54545808 -0.45387354 -0.50259089 3 4 25989 2.63400000 2687372635 2687372635 -11.00000000
-3.04754090 -0.54230094 -0.49026561 2 6 25991 3.13400000 2687372640 2687372640 -9.00000000
-3.80738878 -0.67614263 -0.47480297 7 8 25993 3.89600000 2687372645 2687372645 -7.00000000
-5.01817465 -0.89025903 -0.44588879 6 10 25994 5.11600000 2687372649 2687372649 -5.00000000
-7.37699270 -1.30607378 -0.39262435 8 12 25996 7.50200000 2687372654 2687372654 -3.00000000
-10.12290382 -1.78676283 2.75435233 38 15 25999 10.64200000 2687372661 2687372661 15.00000000
-1.90671670 -0.33380419 -0.51867336 5 0 26007 2.00400000 2687372681 2687372681 -15.00000000
-2.20377374 -0.38501644 -0.51648760 4 2 26009 2.29600000 2687372686 2687372686 -13.00000000
-2.55097270 -0.44521600 -0.50335413 3 4 26010 2.63800000 2687372691 2687372691 -11.00000000
-3.05340028 -0.53180540 -0.49089134 2 6 26012 3.13800000 2687372695 2687372695 -9.00000000
-3.81179714 -0.66252327 -0.47504669 7 8 26014 3.89800000 2687372700 2687372700 -7.00000000
-5.03907108 -0.87492806 -0.44745758 6 10 26015 5.13400000 2687372704 2687372704 -5.00000000
-7.38763380 -1.28004992 -0.39293835 8 12 26017 7.50800000 2687372709 2687372709 -3.00000000
-10.12336826 -1.75042903 2.75279927 42 15 26019 10.63600000 2687372716 2687372716 15.00000000
-1.90215814 -0.32616699 -0.51712048 4 0 26027 1.99800000 2687372737 2687372737 -15.00000000
-2.20510435 -0.37732151 -0.51648760 4 2 26029 2.29600000 2687372741 2687372741 -13.00000000
-2.55251122 -0.43630871 -0.50335413 3 4 26030 2.63800000 2687372746 2687372746 -11.00000000
-3.05523801 -0.52114379 -0.49089134 2 6 26032 3.13800000 2687372750 2687372750 -9.00000000
-3.82191443 -0.65054595 -0.47602165 7 8 26034 3.90600000 2687372755 2687372755 -7.00000000
-5.01852417 -0.85332525 -0.44536585 3 10 26035 5.11000000 2687372760 2687372760 -5.00000000
-7.37630415 -1.25158155 -0.39210099 7 12 26037 7.49200000 2687372764 2687372764 -3.00000000
-10.12209702 -1.71202457 2.75072885 40 15 26040 10.62800000 2687372771 2687372771 15.00000000
-1.89941895 -0.31921706 -0.51608515 4 0 26046 1.99400000 2687372792 2687372792 -15.00000000
-2.19289017 -0.36775091 -0.51333833 4 2 26048 2.28200000 2687372797 2687372797 -13.00000000
-2.56556153 -0.42978811 -0.50564384 3 4 26049 2.65000000 2687372801 2687372801 -11.00000000
-3.06863928 -0.51296353 -0.49276856 3 6 26051 3.15000000 2687372806 2687372806 -9.00000000
-3.82405066 -0.63786846 -0.47602165 7 8 26053 3.90600000 2687372810 2687372810 -7.00000000
-5.02918768 -0.83798844 -0.44606310 3 10 26054 5.11800000 2687372815 2687372815 -5.00000000
-7.35677147 -1.22318304 -0.39084491 3 12 26056 7.46800000 2687372820 2687372820 -3.00000000
-10.12742519 -1.68021667 2.75072885 40 15 26058 10.62800000 2687372827 2687372827 15.00000000
-1.91005290 -0.31415254 -0.51867336 5 0 26066 2.00400000 2687372847 2687372847 -15.00000000
-2.19608355 -0.36040965 -0.51378822 4 2 26068 2.28400000 2687372852 2687372852 -13.00000000
-2.55542183 -0.41892436 -0.50335413 3 4 26069 2.63800000 2687372856 2687372856 -11.00000000
-3.05481553 -0.49969777 -0.49026561 2 6 26071 3.13400000 2687372861 2687372861 -9.00000000
-3.82429481 -0.62419635 -0.47577792 7 8 26073 3.90400000 2687372866 2687372866 -7.00000000
-5.04781342 -0.82299304 -0.44745758 6 10 26074 5.13400000 2687372870 2687372870 -5.00000000
-7.35705376 -1.19685423 -0.39063558 3 12 26076 7.46400000 2687372875 2687372875 -3.00000000
-10.13351536 -1.64308655 2.75072885 40 15 26079 10.62800000 2687372882 2687372882 15.00000000
-1.91685987 -0.30840391 -0.52022630 5 0 26086 2.01000000 2687372903 2687372903 -15.00000000
-2.18963170 -0.35150614 -0.51198858 4 2 26088 2.27600000 2687372907 2687372907 -13.00000000
-2.56074572 -0.41062340 -0.50411737 3 4 26089 2.64200000 2687372912 2687372912 -11.00000000
-3.06824446 -0.49090391 -0.49214283 3 6 26091 3.14600000 2687372916 2687372916 -9.00000000
-3.81272840 -0.60865277 -0.47407174 9 8 26093 3.89000000 2687372921 2687372921 -7.00000000
-5.04278517 -0.80411291 -0.44676033 6 10 26094 5.12600000 2687372926 2687372926 -5.00000000
-7.36907673 -1.17242134 -0.39105427 3 12 26096 7.47200000 2687372930 2687372930 -3.00000000
-10.15608025 -1.61219943 2.75538754 40 15 26098 10.64600000 2687372937 2687372937 15.00000000
-1.91601634 -0.30141073 -0.51970863 5 0 26106 2.00800000 2687372958 2687372958 -15.00000000
-2.19854617 -0.34506944 -0.51378822 4 2 26108 2.28400000 2687372962 2687372962 -13.00000000
-2.55440521 -0.40046594 -0.50259089 3 4 26109 2.63400000 2687372967 2687372967 -11.00000000
-3.07774615 -0.48141184 -0.49339432 3 6 26111 3.15400000 2687372972 2687372972 -9.00000000
-3.82267523 -0.59656447 -0.47504669 9 8 26113 3.89800000 2687372976 2687372976 -7.00000000
-5.03768682 -0.78527790 -0.44606310 6 10 26114 5.11800000 2687372981 2687372981 -5.00000000
-7.37904453 -1.14761209 -0.39136827 3 12 26116 7.47800000 2687372985 2687372985 -3.00000000
-10.15046692 -1.57318938 2.75228167 40 15 26119 10.63400000 2687372992 2687372992 15.00000000
-1.91514730 -0.29442722 -0.51919103 4 0 26126 2.00600000 2687373013 2687373013 -15.00000000
-2.21129441 -0.33916560 -0.51648760 4 2 26128 2.29600000 2687373018 2687373018 -13.00000000
-2.57131243 -0.39392537 -0.50564384 3 4 26129 2.65000000 2687373022 2687373022 -11.00000000
-3.07550240 -0.47006866 -0.49276856 3 6 26131 3.15000000 2687373027 2687373027 -9.00000000
-3.83650875 -0.58501267 -0.47650912 7 8 26133 3.91000000 2687373032 2687373032 -7.00000000
-5.03842783 -0.76738834 -0.44588879 9 10 26134 5.11600000 2687373036 2687373036 -5.00000000
-7.40670061 -1.12544787 -0.39262435 8 12 26136 7.50200000 2687373041 2687373041 -3.00000000
-10.15562820 -1.53952062 2.75228167 38 15 26138 10.63400000 2687373048 2687373048 15.00000000
-1.91616344 -0.28774029 -0.51919103 5 0 26146 2.00600000 2687373068 2687373068 -15.00000000
-2.19704700 -0.32913497 -0.51288843 4 2 26148 2.28000000 2687373073 2687373073 -13.00000000
-2.56102180 -0.38320425 -0.50335413 4 4 26149 2.63800000 2687373078 2687373078 -11.00000000
-3.07321692 -0.45874700 -0.49214283 3 6 26151 3.14600000 2687373082 2687373082 -9.00000000
-3.84441781 -0.57249433 -0.47724035 7 8 26153 3.91600000 2687373087 2687373087 -7.00000000
-5.04895878 -0.75096875 -0.44658601 9 10 26154 5.12400000 2687373091 2687373091 -5.00000000
-7.39873028 -1.09782791 -0.39199632 3 12 26156 7.49000000 2687373096 2687373096 -3.00000000
-10.16120243 -1.50228798 2.75228167 40 15 26159 10.63400000 2687373103 2687373103 15.00000000
-1.91524470 -0.28076968 -0.51867336 4 0 26166 2.00400000 2687373124 2687373124 -15.00000000
-2.19432616 -0.32089987 -0.51198858 4 2 26168 2.27600000 2687373128 2687373128 -13.00000000
-2.57011437 -0.37539729 -0.50488061 3 4 26169 2.64600000 2687373133 2687373133 -11.00000000
-3.07479954 -0.44801667 -0.49214283 3 6 26171 3.14600000 2687373138 2687373138 -9.00000000
-3.84049940 -0.55821472 -0.47650912 7 8 26173 3.91000000 2687373142 2687373142 -7.00000000
-5.06732321 -0.73562992 -0.44798052 6 10 26174 5.14000000 2687373147 2687373147 -5.00000000
-7.39065790 -1.07027733 -0.39136827 3 12 26176 7.47800000 2687373151 2687373151 -3.00000000
-10.17377663 -1.46968877 2.75435233 38 15 26178 10.64200000 2687373158 2687373158 15.00000000
-1.91812551 -0.27435604 -0.51919103 5 0 26186 2.00600000 2687373179 2687373179 -15.00000000
-2.20314956 -0.31433928 -0.51378822 4 2 26188 2.28400000 2687373184 2687373184 -13.00000000
-2.55974746 -0.36476183 -0.50259089 3 4 26189 2.63400000 2687373188 2687373188 -11.00000000
-3.08416748 -0.43839288 -0.49339432 3 6 26191 3.15400000 2687373193 2687373193 -9.00000000
-3.83456278 -0.54369080 -0.47553417 7 8 26193 3.90200000 2687373197 2687373197 -7.00000000
-5.06985998 -0.71793717 -0.44798052 6 10 26194 5.14000000 2687373202 2687373202 -5.00000000
-7.38446045 -1.04307592 -0.39084491 3 12 26196 7.46800000 2687373207 2687373207 -3.00000000
-10.19822502 -1.43508208 2.75952864 42 15 26199 10.66200000 2687373214 2687373214 15.00000000
-1.92103159 -0.26759046 -0.51970863 5 0 26207 2.00800000 2687373234 2687373234 -15.00000000
-2.20814729 -0.30679861 -0.51468801 4 2 26209 2.28800000 2687373239 2687373239 -13.00000000
-2.56495643 -0.35591713 -0.50335413 3 4 26210 2.63800000 2687373244 2687373244 -11.00000000
-3.08184028 -0.42654425 -0.49276856 3 6 26212 3.15000000 2687373248 2687373248 -9.00000000
-3.83456326 -0.52936131 -0.47529045 7 8 26214 3.90000000 2687373253 2687373253 -7.00000000
-5.05864143 -0.69744551 -0.44676033 6 10 26215 5.12600000 2687373257 2687373257 -5.00000000
-7.41791344 -1.02008498 -0.39241499 3 12 26217 7.49800000 2687373262 2687373262 -3.00000000
-10.19742966 -1.39868736 2.75797582 40 15 26219 10.65600000 2687373269 2687373269 15.00000000
-1.91812539 -0.26036349 -0.51867336 5 0 26227 2.00400000 2687373290 2687373290 -15.00000000
-2.20920491 -0.29908887 -0.51468801 4 2 26229 2.28800000 2687373294 2687373294 -13.00000000
-2.57007432 -0.34748769 -0.50411737 3 4 26230 2.64200000 2687373299 2687373299 -11.00000000
-3.08722568 -0.41631201 -0.49339432 3 6 26232 3.15400000 2687373303 2687373303 -9.00000000
-3.84819198 -0.51756060 -0.47675288 7 8 26234 3.91200000 2687373308 2687373308 -7.00000000
-5.07289267 -0.68137467 -0.44780621 3 10 26235 5.13800000 2687373313 2687373313 -5.00000000
-7.42736769 -0.99498093 -0.39272901 4 12 26237 7.50400000 2687373317 2687373317 -3.00000000
-10.19076157 -1.36154819 2.75486994 42 15 26239 10.64400000 2687373324 2687373324 15.00000000
-1.91323268 -0.25324082 -0.51712048 5 0 26246 1.99800000 2687373345 2687373345 -15.00000000
-2.21404839 -0.29227129 -0.51558781 4 2 26248 2.29200000 2687373350 2687373350 -13.00000000
-2.57510543 -0.33947629 -0.50488061 3 4 26249 2.64600000 2687373354 2687373354 -11.00000000
-3.07292104 -0.40401211 -0.49089134 2 6 26251 3.13800000 2687373359 2687373359 -9.00000000
-3.85972834 -0.50608706 -0.47797155 7 8 26253 3.92200000 2687373363 2687373363 -7.00000000
-5.08697748 -0.66610068 -0.44885206 3 10 26254 5.15000000 2687373368 2687373368 -5.00000000
-7.44448948 -0.97215575 -0.39346170 4 12 26256 7.51800000 2687373373 2687373373 -3.00000000
-10.20862961 -1.32949328 2.75849342 40 15 26258 10.65800000 2687373379 2687373379 15.00000000
-1.92943323 -0.24853532 -0.52126157 5 0 26266 2.01400000 2687373400 2687373400 -15.00000000
-2.19379377 -0.28180984 -0.51063889 4 2 26268 2.27000000 2687373405 2687373405 -13.00000000
-2.57822204 -0.33073524 -0.50526220 4 4 26269 2.64800000 2687373409 2687373409 -11.00000000
-3.10174441 -0.39679238 -0.49527150 3 6 26271 3.16600000 2687373414 2687373414 -9.00000000
-3.84965658 -0.49110377 -0.47650912 7 8 26273 3.91000000 2687373419 2687373419 -7.00000000
-5.08927202 -0.64833981 -0.44885206 3 10 26274 5.15000000 2687373423 2687373423 -5.00000000
-7.43594980 -0.94465351 -0.39283368 4 12 26276 7.50600000 2687373428 2687373428 -3.00000000
-10.22493362 -1.29352260 2.76159930 42 15 26279 10.67000000 2687373435 2687373435 15.00000000
-1.92837214 -0.24155872 -0.52074391 5 0 26286 2.01200000 2687373456 2687373456 -15.00000000
-2.20056534 -0.27487499 -0.51198858 4 2 26288 2.27600000 2687373460 2687373460 -13.00000000
-2.56961989 -0.32051852 -0.50335413 3 4 26289 2.63800000 2687373465 2687373465 -11.00000000
-3.09134889 -0.38449997 -0.49339432 4 6 26291 3.15400000 2687373469 2687373469 -9.00000000
-3.84543753 -0.47692999 -0.47577792 7 8 26293 3.90400000 2687373474 2687373474 -7.00000000
-5.10139036 -0.63179535 -0.44972363 3 10 26294 5.16000000 2687373479 2687373479 -5.00000000
-7.43127298 -0.91771227 -0.39241499 3 12 26296 7.49800000 2687373483 2687373483 -3.00000000
-10.22916698 -1.25960839 2.76159930 42 15 26298 10.67000000 2687373490 2687373490 15.00000000
-1.92345047 -0.23412569 -0.51919103 4 0 26306 2.00600000 2687373511 2687373511 -15.00000000
-2.20731497 -0.26789626 -0.51333833 4 2 26308 2.28200000 2687373515 2687373515 -13.00000000
-2.56682515 -0.31107453 -0.50259089 3 4 26309 2.63400000 2687373520 2687373520 -11.00000000
-3.10443878 -0.37512863 -0.49527150 4 6 26311 3.16600000 2687373525 2687373525 -9.00000000
-3.86087465 -0.46516615 -0.47748408 7 8 26313 3.91800000 2687373529 2687373529 -7.00000000
-5.10158634 -0.61374635 -0.44954932 3 10 26314 5.15800000 2687373534 2687373534 -5.00000000
-7.45029545 -0.89366966 -0.39325237 8 12 26316 7.51400000 2687373538 2687373538 -3.00000000
-10.22966480 -1.22343552 2.76056385 40 15 26318 10.66600000 2687373545 2687373545 15.00000000
-1.91658199 -0.22650325 -0.51712048 5 0 26326 1.99800000 2687373566 2687373566 -15.00000000
-2.21597815 -0.26110181 -0.51513791 4 2 26328 2.29000000 2687373571 2687373571 -13.00000000
-2.57569456 -0.30303031 -0.50411737 3 4 26329 2.64200000 2687373575 2687373575 -11.00000000
-3.09395790 -0.36290908 -0.49339432 4 6 26331 3.15400000 2687373580 2687373580 -9.00000000
-3.86247492 -0.45168635 -0.47748408 7 8 26333 3.91800000 2687373584 2687373584 -7.00000000
-5.08984518 -0.59431726 -0.44832915 3 10 26334 5.14400000 2687373589 2687373589 -5.00000000
-7.45138597 -0.86742687 -0.39314771 4 12 26336 7.51200000 2687373594 2687373594 -3.00000000
-10.23003578 -1.18727434 2.75952864 42 15 26338 10.66200000 2687373601 2687373601 15.00000000
-1.92887664 -0.22113194 -0.52022630 4 0 26346 2.01000000 2687373621 2687373621 -15.00000000
-2.21881223 -0.25358629 -0.51558781 4 2 26348 2.29200000 2687373626 2687373626 -13.00000000
-2.58063769 -0.29448280 -0.50488061 3 4 26349 2.64600000 2687373631 2687373631 -11.00000000
-3.09128022 -0.35166037 -0.49276856 3 6 26351 3.15000000 2687373635 2687373635 -9.00000000
-3.88178015 -0.44021422 -0.47967774 7 8 26353 3.93600000 2687373640 2687373640 -7.00000000
-5.09782791 -0.57721925 -0.44885206 3 10 26354 5.15000000 2687373644 2687373644 -5.00000000
-7.46429157 -0.84253150 -0.39367107 4 12 26356 7.52200000 2687373649 2687373649 -3.00000000
-10.22855854 -1.14912438 2.75797582 42 15 26359 10.65600000 2687373656 2687373656 15.00000000
-1.93351436 -0.21448676 -0.52126157 5 0 26367 2.01400000 2687373677 2687373677 -15.00000000
-2.21585274 -0.24502389 -0.51468801 4 2 26369 2.28800000 2687373681 2687373681 -13.00000000
-2.58950543 -0.28588405 -0.50640708 3 4 26370 2.65400000 2687373686 2687373686 -11.00000000
-3.09647560 -0.34076008 -0.49339432 3 6 26372 3.15400000 2687373690 2687373690 -9.00000000
-3.87942100 -0.42555091 -0.47919026 5 8 26374 3.93200000 2687373695 2687373695 -7.00000000
-5.10783148 -0.55939853 -0.44954932 3 10 26375 5.15800000 2687373700 2687373700 -5.00000000
-7.46137285 -0.81451762 -0.39335704 4 12 26377 7.51600000 2687373704 2687373704 -3.00000000
-1.93040967 -0.20732364 -0.52022630 5 0 26387 2.01000000 2687373732 2687373732 -15.00000000
-2.21475697 -0.23708020 -0.51423812 4 2 26389 2.28600000 2687373736 2687373736 -13.00000000
-2.58658338 -0.27642602 -0.50564384 3 4 26390 2.65000000 2687373741 2687373741 -11.00000000
-3.10157466 -0.33036774 -0.49402004 3 6 26392 3.15800000 2687373746 2687373746 -9.00000000
-3.86114287 -0.40991095 -0.47675288 5 8 26394 3.91200000 2687373750 2687373750 -7.00000000
-5.11371565 -0.54198545 -0.44989794 3 10 26395 5.16200000 2687373755 2687373755 -5.00000000
-7.48403263 -0.79056567 -0.39440376 4 12 26397 7.53600000 2687373760 2687373760 -3.00000000
-8.56678009 -0.90191662 2.30814815 6 15 26399 8.91800000 2687373766 2687373766 15.00000000
-1.93108654 -0.20092103 -0.52022630 5 0 26406 2.01000000 2687373787 2687373787 -15.00000000
-2.22522259 -0.23073946 -0.51648760 4 2 26408 2.29600000 2687373792 2687373792 -13.00000000
-2.57576871 -0.26663417 -0.50335413 3 4 26409 2.63800000 2687373796 2687373796 -11.00000000
-3.12230253 -0.32210782 -0.49714872 3 6 26411 3.17800000 2687373801 2687373801 -9.00000000
-3.87827826 -0.39872885 -0.47870278 5 8 26413 3.92800000 2687373806 2687373806 -7.00000000
-5.10161114 -0.52360082 -0.44867778 6 10 26414 5.14800000 2687373810 2687373810 -5.00000000
-7.48065281 -0.76513374 -0.39408976 4 12 26416 7.53000000 2687373815 2687373815 -3.00000000
-8.65059757 -0.88022107 2.32988906 15 15 26419 9.00200000 2687373822 2687373822 15.00000000
-1.92600965 -0.19359942 -0.51867336 5 0 26426 2.00400000 2687373842 2687373842 -15.00000000
-2.23377061 -0.22374748 -0.51828724 4 2 26428 2.30400000 2687373847 2687373847 -13.00000000
-2.57473040 -0.25744611 -0.50297248 3 4 26429 2.63600000 2687373852 2687373852 -11.00000000
-3.10768270 -0.30964020 -0.49464577 3 6 26431 3.16200000 2687373856 2687373856 -9.00000000
-3.87174511 -0.38440421 -0.47772783 5 8 26433 3.92000000 2687373861 2687373861 -7.00000000
-5.10340738 -0.50578970 -0.44867778 6 10 26434 5.14800000 2687373866 2687373866 -5.00000000
-7.48327780 -0.73901671 -0.39408976 4 12 26436 7.53000000 2687373870 2687373870 -3.00000000
-10.23207092 -1.00506628 2.75486994 35 15 26439 10.64400000 2687373877 2687373877 15.00000000
-1.93051934 -0.18724822 -0.51970863 5 0 26446 2.00800000 2687373898 2687373898 -15.00000000
-2.22677922 -0.21519898 -0.51648760 4 2 26448 2.29600000 2687373902 2687373902 -13.00000000
-2.59124684 -0.24996515 -0.50602543 3 4 26449 2.65200000 2687373907 2687373907 -11.00000000
-3.10087943 -0.29803452 -0.49339432 3 6 26451 3.15400000 2687373912 2687373912 -9.00000000
-3.89677596 -0.37315768 -0.48065269 5 8 26453 3.94400000 2687373916 2687373916 -7.00000000
-5.10514212 -0.48797241 -0.44867778 6 10 26454 5.14800000 2687373921 2687373921 -5.00000000
-7.48183537 -0.71251202 -0.39388040 8 12 26456 7.52600000 2687373925 2687373925 -3.00000000
-10.23359299 -0.96916145 2.75435233 42 15 26459 10.64200000 2687373932 2687373932 15.00000000
-1.92923772 -0.18032852 -0.51919103 5 0 26466 2.00600000 2687373953 2687373953 -15.00000000
-2.21975541 -0.20670202 -0.51468801 4 2 26468 2.28800000 2687373958 2687373958 -13.00000000
-2.59601307 -0.24128185 -0.50678867 3 4 26469 2.65600000 2687373962 2687373962 -11.00000000
-3.11763668 -0.28866559 -0.49589726 3 6 26471 3.17000000 2687373967 2687373967 -9.00000000
-3.89014792 -0.35882381 -0.47967774 5 8 26473 3.93600000 2687373972 2687373972 -7.00000000
-5.13062239 -0.47234100 -0.45076951 6 10 26474 5.17200000 2687373976 2687373976 -5.00000000
-7.51212168 -0.68894488 -0.39534581 8 12 26476 7.55400000 2687373981 2687373981 -3.00000000
-10.02139854 -0.91730964 2.32329440 10 13 26477 10.32800000 2687373983 2687373983 13.00000000
-9.50391960 -0.86659694 2.55713224 13 15 26479 9.88000000 2687373988 2687373988 15.00000000
-1.94335449 -0.17446546 -0.52281445 5 0 26487 2.02000000 2687374008 2687374008 -15.00000000
-2.21661615 -0.19821769 -0.51378822 4 2 26489 2.28400000 2687374013 2687374013 -13.00000000
-2.59296918 -0.23141633 -0.50602543 3 4 26490 2.65200000 2687374018 2687374018 -11.00000000
-3.10293269 -0.27583766 -0.49339432 3 6 26492 3.15400000 2687374022 2687374022 -9.00000000
-3.88352752 -0.34386295 -0.47870278 5 8 26494 3.92800000 2687374027 2687374027 -7.00000000
-5.11247253 -0.45177937 -0.44902638 6 10 26495 5.15200000 2687374031 2687374031 -5.00000000
-11.11599255 -0.98034364 2.16911674 21 11 26496 11.36800000 2687374034 2687374034 11.00000000
-7.49470091 -0.65965581 -0.39429909 8 12 26497 7.53400000 2687374036 2687374036 -3.00000000
-9.99751568 -0.87818587 2.31699586 27 13 26498 10.30000000 2687374038 2687374038 13.00000000
-10.24395847 -0.89803189 2.75538754 35 15 26499 10.64600000 2687374043 2687374043 15.00000000
-1.93817759 -0.16718276 -0.52126157 5 0 26507 2.01400000 2687374064 2687374064 -15.00000000
-2.22894406 -0.19147982 -0.51648760 4 2 26509 2.29600000 2687374068 2687374068 -13.00000000
-2.58984900 -0.22202837 -0.50526220 4 4 26510 2.64800000 2687374073 2687374073 -11.00000000
-3.12355876 -0.26668516 -0.49652299 3 6 26512 3.17400000 2687374077 2687374077 -9.00000000
-3.89261603 -0.33097753 -0.47967774 5 8 26514 3.93600000 2687374082 2687374082 -7.00000000
-5.11203289 -0.43376228 -0.44885206 3 10 26515 5.15000000 2687374087 2687374087 -5.00000000
-7.49695778 -0.63349038 -0.39429909 8 12 26517 7.53400000 2687374091 2687374091 -3.00000000
-10.04906654 -0.84737629 2.32824349 13 13 26518 10.35000000 2687374094 2687374094 13.00000000
-10.24333096 -0.86015660 2.75435233 45 15 26520 10.64200000 2687374098 2687374098 15.00000000
-1.92719769 -0.15946044 -0.51815575 5 0 26527 2.00200000 2687374119 2687374119 -15.00000000
-2.23154116 -0.18385819 -0.51693749 4 2 26529 2.29800000 2687374124 2687374124 -13.00000000
-2.59060812 -0.21298677 -0.50526220 3 4 26530 2.64800000 2687374128 2687374128 -11.00000000
-3.12053323 -0.25545794 -0.49589726 3 6 26532 3.17000000 2687374133 2687374133 -9.00000000
-3.90561867 -0.31835541 -0.48114017 5 8 26534 3.94800000 2687374137 2687374137 -7.00000000
-5.11748791 -0.41623837 -0.44920069 6 10 26535 5.15400000 2687374142 2687374142 -5.00000000
-7.52102137 -0.60909069 -0.39545047 8 12 26537 7.55600000 2687374147 2687374147 -3.00000000
-10.24035072 -0.82571793 2.75279927 47 15 26539 10.63600000 2687374154 2687374154 15.00000000
-1.94122326 -0.15380035 -0.52177918 5 0 26547 2.01600000 2687374174 2687374174 -15.00000000
-2.22634125 -0.17560783 -0.51558781 4 2 26549 2.29200000 2687374179 2687374179 -13.00000000
-2.58742142 -0.20363449 -0.50449896 3 4 26550 2.64400000 2687374183 2687374183 -11.00000000
-3.12140584 -0.24456367 -0.49589726 3 6 26552 3.17000000 2687374188 2687374188 -9.00000000
-3.89483166 -0.30379412 -0.47967774 5 8 26554 3.93600000 2687374193 2687374193 -7.00000000
-5.13082790 -0.39929998 -0.45024657 3 10 26555 5.16600000 2687374197 2687374197 -5.00000000
-7.56292772 -0.58591908 -0.39754394 8 12 26557 7.59600000 2687374202 2687374202 -3.00000000
-10.24908638 -0.78862423 2.75435233 42 15 26560 10.64200000 2687374209 2687374209 15.00000000
-1.93401742 -0.14677741 -0.51970863 5 0 26566 2.00800000 2687374230 2687374230 -15.00000000
-2.21719527 -0.16749009 -0.51333833 4 2 26568 2.28200000 2687374234 2687374234 -13.00000000
-2.60374403 -0.19623351 -0.50755191 3 4 26569 2.66000000 2687374239 2687374239 -11.00000000
-3.10644102 -0.23302923 -0.49339432 3 6 26571 3.15400000 2687374243 2687374243 -9.00000000
-3.89185858 -0.29058111 -0.47919026 5 8 26573 3.93200000 2687374248 2687374248 -7.00000000
-5.12616301 -0.38183936 -0.44972363 9 10 26574 5.16000000 2687374253 2687374253 -5.00000000
-7.57478809 -0.56157464 -0.39806730 12 12 26576 7.60600000 2687374257 2687374257 -3.00000000
-10.25343990 -0.75656408 2.75486994 42 15 26578 10.64400000 2687374264 2687374264 15.00000000
-1.94222522 -0.14058340 -0.52177918 5 0 26586 2.01600000 2687374285 2687374285 -15.00000000
-2.22748494 -0.16044965 -0.51558781 4 2 26588 2.29200000 2687374289 2687374289 -13.00000000
-2.60441327 -0.18714356 -0.50755191 3 4 26589 2.66000000 2687374294 2687374294 -11.00000000
-3.11905742 -0.22302966 -0.49527150 3 6 26591 3.16600000 2687374299 2687374299 -9.00000000
-3.90868998 -0.27812135 -0.48114017 5 8 26593 3.94800000 2687374303 2687374303 -7.00000000
-5.12547731 -0.36380231 -0.44954932 3 10 26594 5.15800000 2687374308 2687374308 -5.00000000
-7.57869434 -0.53527099 -0.39817196 12 12 26596 7.60800000 2687374312 2687374312 -3.00000000
-10.24843597 -0.71843791 2.75279927 45 15 26599 10.63600000 2687374319 2687374319 15.00000000
-1.93692219 -0.13340469 -0.52022630 5 0 26606 2.01000000 2687374340 2687374340 -15.00000000
-2.23191977 -0.15293975 -0.51648760 4 2 26608 2.29600000 2687374345 2687374345 -13.00000000
-2.59329844 -0.17724808 -0.50526220 3 4 26609 2.64800000 2687374349 2687374349 -11.00000000
-3.13558364 -0.21321285 -0.49777448 3 6 26611 3.18200000 2687374354 2687374354 -9.00000000
-3.90171456 -0.26393986 -0.48016521 5 8 26613 3.94000000 2687374359 2687374359 -7.00000000
-5.13665533 -0.34657946 -0.45042089 3 10 26614 5.16800000 2687374363 2687374363 -5.00000000
-11.11240768 -0.74782604 2.16491890 31 11 26615 11.34600000 2687374365 2687374365 11.00000000
-7.58250952 -0.50894690 -0.39827663 12 12 26616 7.61000000 2687374368 2687374368 -3.00000000
-11.10634327 -0.74352366 2.56984091 41 13 26617 11.42400000 2687374370 2687374370 13.00000000
-10.25076199 -0.68444890 2.75279927 45 15 26618 10.63600000 2687374375 2687374375 15.00000000
-1.92966521 -0.12613870 -0.51815575 4 0 26626 2.00200000 2687374395 2687374395 -15.00000000
-2.24021864 -0.14565371 -0.51828724 4 2 26628 2.30400000 2687374400 2687374400 -13.00000000
-2.60173798 -0.16870284 -0.50678867 3 4 26629 2.65600000 2687374405 2687374405 -11.00000000
-3.12842369 -0.20175779 -0.49652299 3 6 26631 3.17400000 2687374409 2687374409 -9.00000000
-3.91449833 -0.25108111 -0.48162764 5 8 26633 3.95200000 2687374414 2687374414 -7.00000000
-5.12789202 -0.32801116 -0.44954932 3 10 26634 5.15800000 2687374418 2687374418 -5.00000000
-7.59619904 -0.48323670 -0.39890465 12 12 26636 7.62200000 2687374423 2687374423 -3.00000000
-10.23392200 -0.64565700 2.74762297 47 15 26639 10.61600000 2687374430 2687374430 15.00000000
-1.93395007 -0.11964072 -0.51919103 4 0 26646 2.00600000 2687374451 2687374451 -15.00000000
-2.22904301 -0.13711512 -0.51558781 4 2 26648 2.29200000 2687374455 2687374455 -13.00000000
-2.60231113 -0.15962005 -0.50678867 3 4 26649 2.65600000 2687374460 2687374460 -11.00000000
-3.12910891 -0.19083633 -0.49652299 3 6 26651 3.17400000 2687374465 2687374465 -9.00000000
-3.92327666 -0.23789604 -0.48260260 5 8 26653 3.96000000 2687374469 2687374469 -7.00000000
-5.12105083 -0.30962849 -0.44885206 3 10 26654 5.15000000 2687374474 2687374474 -5.00000000
-7.59584618 -0.45659825 -0.39879999 12 12 26656 7.62000000 2687374478 2687374478 -3.00000000
-10.24372005 -0.61217755 2.74969363 45 15 26658 10.62400000 2687374485 2687374485 15.00000000
-1.94014156 -0.11322689 -0.52074391 4 0 26666 2.01200000 2687374506 2687374506 -15.00000000
-2.22172618 -0.12888205 -0.51378822 4 2 26668 2.28400000 2687374511 2687374511 -13.00000000
-2.60677242 -0.15076204 -0.50755191 3 4 26669 2.66000000 2687374515 2687374515 -11.00000000
-3.12186742 -0.17945907 -0.49527150 3 6 26671 3.16600000 2687374520 2687374520 -9.00000000
-3.92606521 -0.22431304 -0.48284635 3 8 26673 3.96200000 2687374524 2687374524 -7.00000000
-5.15591621 -0.29367694 -0.45181537 6 10 26674 5.18400000 2687374529 2687374529 -5.00000000
-7.60138178 -0.43030676 -0.39900932 12 12 26676 7.62400000 2687374534 2687374534 -3.00000000
-10.24589539 -0.57462829 2.74969363 45 15 26679 10.62400000 2687374541 2687374541 15.00000000
-1.94245398 -0.10655966 -0.52126157 4 0 26686 2.01400000 2687374561 2687374561 -15.00000000
-2.23189187 -0.12165631 -0.51603770 4 2 26688 2.29400000 2687374566 2687374566 -13.00000000
-2.60336185 -0.14144875 -0.50678867 3 4 26689 2.65600000 2687374571 2687374571 -11.00000000
-3.13431001 -0.16919951 -0.49714872 3 6 26691 3.17800000 2687374575 2687374575 -9.00000000
-3.92285967 -0.21039452 -0.48235887 5 8 26693 3.95800000 2687374580 2687374580 -7.00000000
-5.16884708 -0.27631578 -0.45286125 3 10 26694 5.19600000 2687374584 2687374584 -5.00000000
-7.62078762 -0.40472367 -0.39995137 16 12 26696 7.64200000 2687374589 2687374589 -3.00000000
-10.25160217 -0.54085213 2.75072885 45 15 26698 10.62800000 2687374596 2687374596 15.00000000
-1.94281411 -0.09977859 -0.52126157 4 0 26706 2.01400000 2687374617 2687374617 -15.00000000
-2.24398017 -0.11446045 -0.51873714 4 2 26708 2.30600000 2687374621 2687374621 -13.00000000
-2.59599686 -0.13196179 -0.50526220 3 4 26709 2.64800000 2687374626 2687374626 -11.00000000
-3.14671874 -0.15885527 -0.49902594 3 6 26711 3.19000000 2687374630 2687374630 -9.00000000
-3.90969205 -0.19600414 -0.48065269 3 8 26713 3.94400000 2687374635 2687374635 -7.00000000
-5.15386105 -0.25747615 -0.45146674 3 10 26714 5.18000000 2687374640 2687374640 -5.00000000
-7.61816406 -0.37792176 -0.39974204 16 12 26716 7.63800000 2687374644 2687374644 -3.00000000
-10.24185085 -0.50449377 2.74762297 45 15 26718 10.61600000 2687374651 2687374651 15.00000000
-1.92964303 -0.09234984 -0.51763809 4 0 26726 2.00000000 2687374672 2687374672 -15.00000000
-2.24825907 -0.10681175 -0.51963693 4 2 26728 2.31000000 2687374677 2687374677 -13.00000000
-2.60428596 -0.12327056 -0.50678867 3 4 26729 2.65600000 2687374681 2687374681 -11.00000000
-3.13541484 -0.14731397 -0.49714872 3 6 26731 3.17800000 2687374686 2687374686 -9.00000000
-3.92026711 -0.18281794 -0.48187140 3 8 26733 3.95400000 2687374690 2687374690 -7.00000000
-5.13482618 -0.23855960 -0.44972363 3 10 26734 5.16000000 2687374695 2687374695 -5.00000000
-7.61544657 -0.35114312 -0.39953268 16 12 26736 7.63400000 2687374700 2687374700 -3.00000000
-10.23583031 -0.46838674 2.74555254 45 15 26738 10.60800000 2687374706 2687374706 15.00000000
-1.94153333 -0.08612725 -0.52074391 4 0 26746 2.01200000 2687374727 2687374727 -15.00000000
-2.24861813 -0.09896322 -0.51963693 4 2 26748 2.31000000 2687374732 2687374732 -13.00000000
-2.61254597 -0.11452307 -0.50831515 3 4 26749 2.66400000 2687374736 2687374736 -11.00000000
-3.12012172 -0.13568187 -0.49464577 3 6 26751 3.16200000 2687374741 2687374741 -9.00000000
-3.93476415 -0.16973139 -0.48357755 3 8 26753 3.96800000 2687374746 2687374746 -7.00000000
-5.15354252 -0.22140393 -0.45129243 3 10 26754 5.17800000 2687374750 2687374750 -5.00000000
-7.62460756 -0.32489824 -0.39995137 16 12 26756 7.64200000 2687374755 2687374755 -3.00000000
-10.23747826 -0.43086740 2.74555254 45 15 26759 10.60800000 2687374762 2687374762 15.00000000
-1.94954312 -0.07966501 -0.52281445 5 0 26766 2.02000000 2687374783 2687374783 -15.00000000
-2.22558427 -0.09016684 -0.51423812 4 2 26768 2.28600000 2687374787 2687374787 -13.00000000
-2.60508323 -0.10508636 -0.50678867 3 4 26769 2.65600000 2687374792 2687374792 -11.00000000
-3.14820957 -0.12589481 -0.49902594 3 6 26771 3.19000000 2687374796 2687374796 -9.00000000
-3.93136549 -0.15583821 -0.48309007 3 8 26773 3.96400000 2687374801 2687374801 -7.00000000
-5.16224718 -0.20372762 -0.45198968 3 10 26774 5.18600000 2687374806 2687374806 -5.00000000
-7.62369967 -0.29820335 -0.39984670 16 12 26776 7.64000000 2687374810 2687374810 -3.00000000
-10.23885059 -0.39691633 2.74555254 42 15 26778 10.60800000 2687374817 2687374817 15.00000000
-1.95173991 -0.07293149 -0.52333212 4 0 26786 2.02200000 2687374838 2687374838 -15.00000000
-2.23756981 -0.08283008 -0.51693749 4 2 26788 2.29800000 2687374842 2687374842 -13.00000000
-2.60935783 -0.09613685 -0.50755191 3 4 26789 2.66000000 2687374847 2687374847 -11.00000000
-3.15257788 -0.11504883 -0.49965167 3 6 26791 3.19400000 2687374852 2687374852 -9.00000000
-3.91998267 -0.14168403 -0.48162764 3 8 26793 3.95200000 2687374856 2687374856 -7.00000000
-5.14301586 -0.18499060 -0.45024657 3 10 26794 5.16600000 2687374861 2687374861 -5.00000000
-7.63467407 -0.27194533 -0.40037006 16 12 26796 7.65000000 2687374865 2687374865 -3.00000000
-10.24789619 -0.36144602 2.74762297 45 15 26798 10.61600000 2687374872 2687374872 15.00000000
-1.94040954 -0.06538714 -0.52022630 5 0 26807 2.01000000 2687374893 2687374893 -15.00000000
-2.23006773 -0.07436862 -0.51513791 4 2 26809 2.29000000 2687374898 2687374898 -13.00000000
-2.60576844 -0.08644224 -0.50678867 3 4 26810 2.65600000 2687374902 2687374902 -11.00000000
-3.13323545 -0.10284522 -0.49652299 3 6 26812 3.17400000 2687374907 2687374907 -9.00000000
-3.91253948 -0.12705790 -0.48065269 3 8 26814 3.94400000 2687374911 2687374911 -7.00000000
-5.14963341 -0.16633222 -0.45076951 3 10 26815 5.17200000 2687374916 2687374916 -5.00000000
-7.65158939 -0.24447128 -0.40120745 16 12 26817 7.66600000 2687374921 2687374921 -3.00000000
