# .PCD v0.7 - Point Cloud Data file format
VERSION 0.7
FIELDS x y z intensity laser_id azimuth distance_m adjustedtime timestamp vertical_angle
SIZE 4 4 4 1 1 2 8 8 4 8
TYPE F F F U U U F U U F
COUNT 1 1 1 1 1 1 1 1 1 1
WIDTH 527
HEIGHT 1
VIEWPOINT 0 0 0 1 0 0 0
POINTS 527
DATA ascii
8.04763794 -2.55904603 -0.14740303 16 14 10764 8.44600000 2691830462 2691830462 -1.00000000
8.11151123 -2.57935691 2.28071332 47 15 10764 8.81200000 2691830464 2691830464 15.00000000
2.07021999 -0.66148782 -0.58234286 4 0 10772 2.25000000 2691830485 2691830485 -15.00000000
8.05313110 -2.57472897 0.14757755 18 1 10773 8.45600000 2691830487 2691830487 1.00000000
2.43702722 -0.77962965 -0.59072149 4 2 10774 2.62600000 2691830489 2691830489 -13.00000000
8.07140541 -2.58212423 0.44412291 15 3 10774 8.48600000 2691830492 2691830492 3.00000000
2.89257312 -0.92591995 -0.59036303 5 4 10775 3.09400000 2691830494 2691830494 -11.00000000
8.07359505 -2.58593178 0.74169534 76 5 10776 8.51000000 2691830496 2691830496 5.00000000
3.58731508 -1.14968932 -0.59664106 4 6 10777 3.81400000 2691830498 2691830498 -9.00000000
8.07904148 -2.59078598 1.04173911 83 7 10778 8.54800000 2691830501 2691830501 7.00000000
4.78213167 -1.53445387 -0.61665887 6 8 10779 5.06000000 2691830503 2691830503 -7.00000000
6.53520823 -2.09822583 -0.60050309 36 10 10780 6.89000000 2691830508 2691830508 -5.00000000
9.60565090 -3.08588672 1.96113491 56 11 10781 10.27800000 2691830510 2691830510 11.00000000
8.04307365 -2.58544564 -0.44276220 17 12 10782 8.46000000 2691830512 2691830512 -3.00000000
8.05388451 -2.59202290 -0.14768226 16 14 10784 8.46200000 2691830517 2691830517 -1.00000000
8.12039089 -2.61499143 2.28588986 45 15 10785 8.83200000 2691830519 2691830519 15.00000000
2.07536793 -0.67072558 -0.58441341 4 0 10791 2.25800000 2691830540 2691830540 -15.00000000
8.05977058 -2.60634232 0.14785679 21 1 10792 8.47200000 2691830542 2691830542 1.00000000
2.42330384 -0.78410727 -0.58802205 4 2 10793 2.61400000 2691830545 2691830545 -13.00000000
8.06994343 -2.61274385 0.44454160 13 3 10794 8.49400000 2691830547 2691830547 3.00000000
2.90069366 -0.93913537 -0.59265274 4 4 10794 3.10600000 2691830549 2691830549 -11.00000000
8.07634830 -2.61637473 0.74274123 79 5 10795 8.52200000 2691830551 2691830551 5.00000000
3.58724117 -1.16279721 -0.59726679 4 6 10796 3.81800000 2691830554 2691830554 -9.00000000
8.07795906 -2.62001252 1.04271412 85 7 10797 8.55600000 2691830556 2691830556 7.00000000
4.76568794 -1.54662693 -0.61519647 8 8 10798 5.04800000 2691830558 2691830558 -7.00000000
9.45654297 -3.06896806 1.57466936 186 9 10798 10.06600000 2691830561 2691830561 9.00000000
6.55284882 -2.12788534 -0.60276914 32 10 10799 6.91600000 2691830563 2691830563 -5.00000000
9.58602905 -3.11468983 1.95922673 43 11 10800 10.26800000 2691830565 2691830565 11.00000000
8.03445530 -2.61210322 -0.44276220 17 12 10801 8.46000000 2691830568 2691830568 -3.00000000
8.05665302 -2.62243009 -0.14789169 16 14 10803 8.47400000 2691830572 2691830572 -1.00000000
8.12315750 -2.64407706 2.28899574 45 15 10803 8.84400000 2691830575 2691830575 15.00000000
2.07852244 -0.67976743 -0.58596629 4 0 10811 2.26400000 2691830595 2691830595 -15.00000000
8.06392765 -2.63881373 0.14810112 18 1 10812 8.48600000 2691830598 2691830598 1.00000000
2.42055202 -0.79256141 -0.58802205 4 2 10813 2.61400000 2691830600 2691830600 -13.00000000
8.06457043 -2.64214087 0.44475096 18 3 10814 8.49800000 2691830602 2691830602 3.00000000
2.88993502 -0.94681001 -0.59112626 4 4 10814 3.09800000 2691830604 2691830604 -11.00000000
8.08420563 -2.65013647 0.74431002 83 5 10815 8.54000000 2691830607 2691830607 5.00000000
3.59254527 -1.17839026 -0.59883112 2 6 10816 3.82800000 2691830609 2691830609 -9.00000000
8.07630825 -2.65067005 1.04368901 83 7 10817 8.56400000 2691830611 2691830611 7.00000000
4.76026011 -1.56325293 -0.61519647 8 8 10818 5.04800000 2691830614 2691830614 -7.00000000
9.45273781 -3.10607409 1.57592082 186 9 10819 10.07400000 2691830616 2691830616 9.00000000
6.55484533 -2.15385580 -0.60364068 12 10 10819 6.92600000 2691830618 2691830618 -5.00000000
9.56950378 -3.14629269 1.95808196 56 11 10820 10.26200000 2691830621 2691830621 11.00000000
8.03856945 -2.64450192 -0.44349489 17 12 10821 8.47400000 2691830623 2691830623 -3.00000000
8.04934978 -2.65116262 -0.14792660 18 14 10823 8.47600000 2691830628 2691830628 -1.00000000
8.12442112 -2.67746019 2.29210138 45 15 10824 8.85600000 2691830630 2691830630 15.00000000
2.06146455 -0.68216342 -0.58182520 4 0 10831 2.24800000 2691830651 2691830651 -15.00000000
8.06226063 -2.66946006 0.14824075 18 1 10832 8.49400000 2691830653 2691830653 1.00000000
2.43071985 -0.80529588 -0.59117138 4 2 10833 2.62800000 2691830655 2691830655 -13.00000000
8.06098557 -2.67216063 0.44506496 13 3 10834 8.50400000 2691830657 2691830657 3.00000000
2.87915826 -0.95442098 -0.58959979 4 4 10834 3.09000000 2691830660 2691830660 -11.00000000
8.07301426 -2.67771220 0.74413574 76 5 10835 8.53800000 2691830662 2691830662 5.00000000
3.59028482 -1.19154561 -0.59914398 2 6 10836 3.83000000 2691830664 2691830664 -9.00000000
8.08019447 -2.68322468 1.04539526 78 7 10837 8.57800000 2691830667 2691830667 7.00000000
4.74535513 -1.57673013 -0.61397773 4 8 10838 5.03800000 2691830669 2691830669 -7.00000000
9.42738914 -3.13242030 1.57341790 186 9 10838 10.05800000 2691830671 2691830671 9.00000000
6.55674028 -2.17986631 -0.60451221 56 10 10839 6.93600000 2691830674 2691830674 -5.00000000
9.56777763 -3.18277597 1.95999002 43 11 10840 10.27200000 2691830676 2691830676 11.00000000
8.04444981 -2.67759180 -0.44433227 17 12 10841 8.49000000 2691830678 2691830678 -3.00000000
8.03625202 -2.67797947 -0.14785679 14 14 10843 8.47200000 2691830683 2691830683 -1.00000000
8.11549759 -2.70438695 2.29210138 45 15 10843 8.85600000 2691830685 2691830685 15.00000000
2.05723906 -0.68874180 -0.58130759 4 0 10851 2.24600000 2691830706 2691830706 -15.00000000
8.05478954 -2.69822168 0.14827564 15 1 10852 8.49600000 2691830708 2691830708 1.00000000
2.42235088 -0.81191784 -0.58982164 4 2 10853 2.62200000 2691830710 2691830710 -13.00000000
8.06675816 -2.70536304 0.44590235 10 3 10854 8.52000000 2691830713 2691830713 3.00000000
2.87208652 -0.96321678 -0.58883655 4 4 10854 3.08600000 2691830715 2691830715 -11.00000000
8.06739616 -2.70714355 0.74448436 76 5 10855 8.54200000 2691830717 2691830717 5.00000000
3.57861328 -1.20155573 -0.59789252 4 6 10856 3.82200000 2691830720 2691830720 -9.00000000
8.08018780 -2.71457434 1.04661393 83 7 10857 8.58800000 2691830722 2691830722 7.00000000
4.73982286 -1.59328485 -0.61397773 4 8 10858 5.03800000 2691830724 2691830724 -7.00000000
9.43082333 -3.17199039 1.57592082 186 9 10859 10.07400000 2691830727 2691830727 9.00000000
9.54358387 -3.21177077 1.95731866 56 11 10860 10.25800000 2691830731 2691830731 11.00000000
8.05208969 -2.71139216 -0.44527432 25 12 10861 8.50800000 2691830733 2691830733 -3.00000000
8.03633022 -2.70920897 -0.14803131 16 14 10863 8.48200000 2691830738 2691830738 -1.00000000
8.10919189 -2.73534846 2.29313684 47 15 10864 8.86000000 2691830740 2691830740 15.00000000
2.06567883 -0.69999743 -0.58441341 4 0 10872 2.25800000 2691830761 2691830761 -15.00000000
8.05052757 -2.72965217 0.14838035 12 1 10873 8.50200000 2691830763 2691830763 1.00000000
2.41197705 -0.81828642 -0.58802205 4 2 10874 2.61400000 2691830766 2691830766 -13.00000000
8.08326530 -2.74389887 0.44736776 13 3 10875 8.54800000 2691830768 2691830768 3.00000000
2.87969112 -0.97752345 -0.59112626 4 4 10875 3.09800000 2691830770 2691830770 -11.00000000
8.07628536 -2.74310160 0.74622744 90 5 10876 8.56200000 2691830773 2691830773 5.00000000
3.56670403 -1.21212149 -0.59664106 4 6 10877 3.81400000 2691830775 2691830775 -9.00000000
8.06830406 -2.74353242 1.04637015 76 7 10878 8.58600000 2691830777 2691830777 7.00000000
4.74522686 -1.61448288 -0.61544019 4 8 10879 5.05000000 2691830780 2691830780 -7.00000000
9.43091393 -3.20870829 1.57779801 186 9 10879 10.08600000 2691830782 2691830782 9.00000000
9.52431488 -3.24419618 1.95579219 56 11 10881 10.25000000 2691830786 2691830786 11.00000000
8.05344105 -2.74475217 -0.44590235 21 12 10882 8.52000000 2691830789 2691830789 -3.00000000
8.04716396 -2.74574876 -0.14841527 14 14 10884 8.50400000 2691830793 2691830793 -1.00000000
8.10325146 -2.76488590 2.29417205 47 15 10884 8.86400000 2691830796 2691830796 15.00000000
2.06139517 -0.70657736 -0.58389574 4 0 10892 2.25600000 2691830816 2691830816 -15.00000000
8.05797386 -2.76357555 0.14869450 12 1 10893 8.52000000 2691830819 2691830819 1.00000000
2.40541959 -0.82543582 -0.58712226 4 2 10894 2.61000000 2691830821 2691830821 -13.00000000
8.06230450 -2.76820660 0.44673973 10 3 10895 8.53600000 2691830823 2691830823 3.00000000
2.88368893 -0.99011970 -0.59265274 4 4 10895 3.10600000 2691830826 2691830826 -11.00000000
8.05912399 -2.76868701 0.74553025 72 5 10896 8.55400000 2691830828 2691830828 5.00000000
3.57365966 -1.22841704 -0.59851825 4 6 10897 3.82600000 2691830830 2691830830 -9.00000000
8.06994152 -2.77555323 1.04783261 87 7 10898 8.59800000 2691830833 2691830833 7.00000000
4.72830009 -1.62716126 -0.61397773 4 8 10899 5.03800000 2691830835 2691830835 -7.00000000
9.42842865 -3.24646854 1.57936239 156 9 10900 10.09600000 2691830837 2691830837 9.00000000
9.51478863 -3.27806211 1.95617378 59 11 10901 10.25200000 2691830842 2691830842 11.00000000
8.03625774 -2.77024364 -0.44548365 17 12 10902 8.51200000 2691830844 2691830844 -3.00000000
8.05076313 -2.77838826 -0.14865960 12 14 10904 8.51800000 2691830849 2691830849 -1.00000000
8.11497498 -2.80213380 2.30038357 47 15 10905 8.88800000 2691830851 2691830851 15.00000000
2.05916524 -0.71304989 -0.58389574 4 0 10910 2.25600000 2691830872 2691830872 -15.00000000
8.05869961 -2.79215002 0.14886902 12 1 10911 8.53000000 2691830874 2691830874 1.00000000
2.41017938 -0.83554178 -0.58892184 4 2 10912 2.61800000 2691830876 2691830876 -13.00000000
8.06300259 -2.79679394 0.44726309 13 3 10913 8.54600000 2691830879 2691830879 3.00000000
2.85830617 -0.99145359 -0.58807331 4 4 10913 3.08200000 2691830881 2691830881 -11.00000000
8.08050156 -2.80444384 0.74831921 76 5 10914 8.58600000 2691830883 2691830883 5.00000000
3.57538104 -1.24158204 -0.59945685 6 6 10915 3.83200000 2691830886 2691830886 -9.00000000
8.06493187 -2.80219483 1.04832006 78 7 10916 8.60200000 2691830888 2691830888 7.00000000
4.72878981 -1.64396310 -0.61470896 6 8 10917 5.04400000 2691830890 2691830890 -7.00000000
9.51185989 -3.31051874 1.95770025 59 11 10919 10.26000000 2691830897 2691830897 11.00000000
8.03883171 -2.79941750 -0.44611168 17 12 10920 8.52400000 2691830899 2691830899 -3.00000000
8.04765892 -2.80564165 -0.14876431 14 14 10922 8.52400000 2691830904 2691830904 -1.00000000
8.12304306 -2.83192253 2.30504251 47 15 10922 8.90600000 2691830906 2691830906 15.00000000
2.04937053 -0.71767938 -0.58182520 4 0 10930 2.24800000 2691830927 2691830927 -15.00000000
8.05079079 -2.82092452 0.14890394 12 1 10931 8.53200000 2691830929 2691830929 1.00000000
2.39621425 -0.84008139 -0.58622247 4 2 10932 2.60600000 2691830932 2691830932 -13.00000000
8.07015324 -2.83087206 0.44820514 13 3 10933 8.56400000 2691830934 2691830934 3.00000000
2.86223817 -1.00402427 -0.58959979 4 4 10933 3.09000000 2691830936 2691830936 -11.00000000
8.07442284 -2.83395267 0.74866784 90 5 10934 8.59000000 2691830939 2691830939 5.00000000
3.55984259 -1.25012779 -0.59757966 8 6 10935 3.82000000 2691830941 2691830941 -9.00000000
8.07570267 -2.83756852 1.05100119 90 7 10936 8.62400000 2691830943 2691830943 7.00000000
4.71365881 -1.65716767 -0.61349028 4 8 10937 5.03400000 2691830945 2691830945 -7.00000000
9.39178276 -3.30368447 1.57685935 69 9 10938 10.08000000 2691830948 2691830948 9.00000000
6.53877258 -2.30010009 -0.60642964 12 10 10938 6.95800000 2691830950 2691830950 -5.00000000
9.51135731 -3.34761190 1.95999002 59 11 10939 10.27200000 2691830952 2691830952 11.00000000
8.04219818 -2.83210516 -0.44684440 17 12 10940 8.53800000 2691830955 2691830955 -3.00000000
8.04158878 -2.83504581 -0.14883412 14 14 10942 8.52800000 2691830959 2691830959 -1.00000000
8.10714340 -2.85974813 2.30348945 47 15 10943 8.90000000 2691830962 2691830962 15.00000000
2.03592658 -0.72095942 -0.57871938 4 0 10950 2.23600000 2691830982 2691830982 -15.00000000
8.04843426 -2.85168123 0.14904355 12 1 10951 8.54000000 2691830985 2691830985 1.00000000
2.40796113 -0.85364980 -0.58982164 4 2 10952 2.62200000 2691830987 2691830987 -13.00000000
8.06775188 -2.86169553 0.44862381 10 3 10953 8.57200000 2691830989 2691830989 3.00000000
2.84391356 -1.00875878 -0.58654684 4 4 10953 3.07400000 2691830992 2691830992 -11.00000000
8.05321598 -2.85812211 0.74762195 76 5 10954 8.57800000 2691830994 2691830994 5.00000000
3.54428816 -1.25858021 -0.59570247 8 6 10955 3.80800000 2691830996 2691830996 -9.00000000
8.06948948 -2.86706972 1.05148864 83 7 10956 8.62800000 2691830998 2691830998 7.00000000
4.70597506 -1.67294645 -0.61324656 4 8 10957 5.03200000 2691831001 2691831001 -7.00000000
9.39752674 -3.34076548 1.57967520 63 9 10957 10.09800000 2691831003 2691831003 9.00000000
6.52507257 -2.32090759 -0.60590672 12 10 10958 6.95200000 2691831005 2691831005 -5.00000000
9.50331306 -3.38210869 1.96075320 59 11 10959 10.27600000 2691831008 2691831008 11.00000000
8.05484200 -2.86820006 -0.44810045 17 12 10960 8.56200000 2691831010 2691831010 -3.00000000
8.17992878 -2.91435027 2.00476384 0 13 10961 8.91200000 2691831012 2691831012 13.00000000
8.04106140 -2.86645627 -0.14900865 16 14 10962 8.53800000 2691831015 2691831015 -1.00000000
8.10307503 -2.88856268 2.30504251 47 15 10962 8.90600000 2691831017 2691831017 15.00000000
2.04249144 -0.73131788 -0.58130759 4 0 10970 2.24600000 2691831038 2691831038 -15.00000000
8.04596138 -2.88245583 0.14918317 12 1 10971 8.54800000 2691831040 2691831040 1.00000000
2.40496659 -0.86204994 -0.58982164 4 2 10972 2.62200000 2691831042 2691831042 -13.00000000
8.07275391 -2.89523387 0.44946119 10 3 10973 8.58800000 2691831045 2691831045 3.00000000
2.85146308 -1.02265632 -0.58883655 4 4 10973 3.08600000 2691831047 2691831047 -11.00000000
8.06006813 -2.89227200 0.74919075 72 5 10974 8.59600000 2691831049 2691831049 5.00000000
3.53987336 -1.27094436 -0.59570247 8 6 10975 3.80800000 2691831051 2691831051 -9.00000000
8.06690598 -2.89790463 1.05246365 87 7 10976 8.63600000 2691831054 2691831054 7.00000000
4.70384312 -1.69070601 -0.61373401 6 8 10977 5.03600000 2691831056 2691831056 -7.00000000
9.39696217 -3.37755752 1.58155239 63 9 10977 10.11000000 2691831058 2691831058 9.00000000
6.53942919 -2.35176110 -0.60799849 12 10 10978 6.97600000 2691831061 2691831061 -5.00000000
9.48221302 -3.41193748 1.95884514 56 11 10979 10.26600000 2691831063 2691831063 11.00000000
8.04666042 -2.89697599 -0.44820514 17 12 10980 8.56400000 2691831065 2691831065 -3.00000000
8.15870476 -2.93892312 2.00206447 1 13 10981 8.90000000 2691831068 2691831068 13.00000000
8.05170059 -2.90196562 -0.14939260 16 14 10982 8.56000000 2691831070 2691831070 -1.00000000
8.11111641 -2.92338037 2.31021881 47 15 10982 8.92600000 2691831072 2691831072 15.00000000
2.03434825 -0.73682541 -0.57975465 4 0 10991 2.24000000 2691831093 2691831093 -15.00000000
8.05602360 -2.91942072 0.14956713 12 1 10992 8.57000000 2691831095 2691831095 1.00000000
2.38713455 -0.86554462 -0.58622247 4 2 10993 2.60600000 2691831098 2691831098 -13.00000000
8.06208801 -2.92480254 0.44946119 13 3 10994 8.58800000 2691831100 2691831100 3.00000000
2.84769559 -1.03310061 -0.58883655 4 4 10994 3.08600000 2691831102 2691831102 -11.00000000
8.06252289 -2.92655277 0.75041097 72 5 10995 8.61000000 2691831104 2691831104 5.00000000
3.53147793 -1.28256154 -0.59507668 8 6 10996 3.80400000 2691831107 2691831107 -9.00000000
8.05809593 -2.92812967 1.05270743 80 7 10997 8.63800000 2691831109 2691831109 7.00000000
4.68268967 -1.70250881 -0.61178410 6 8 10998 5.02000000 2691831111 2691831111 -7.00000000
9.39877510 -3.41901660 1.58405542 60 9 10999 10.12600000 2691831114 2691831114 9.00000000
6.54012728 -2.37911916 -0.60887003 12 10 10999 6.98600000 2691831116 2691831116 -5.00000000
9.48255825 -3.45136881 1.96151650 59 11 11000 10.28000000 2691831118 2691831118 11.00000000
8.03035831 -2.92439866 -0.44789112 17 12 11001 8.55800000 2691831121 2691831121 -3.00000000
8.14970970 -2.96947384 2.00251436 2 13 11002 8.90200000 2691831123 2691831123 13.00000000
8.05040359 -2.93488169 -0.14956713 16 14 11003 8.57000000 2691831125 2691831125 -1.00000000
8.11123753 -2.95705962 2.31332469 47 15 11003 8.93800000 2691831127 2691831127 15.00000000
2.05534673 -0.75255692 -0.58648396 4 0 11011 2.26600000 2691831148 2691831148 -15.00000000
8.04953861 -2.94889951 0.14963694 12 1 11012 8.57400000 2691831151 2691831151 1.00000000
2.38958788 -0.87588400 -0.58757216 4 2 11013 2.61200000 2691831153 2691831153 -13.00000000
8.04245377 -2.94948816 0.44893783 10 3 11014 8.57800000 2691831155 2691831155 3.00000000
2.83485603 -1.03965473 -0.58692849 4 4 11014 3.07600000 2691831157 2691831157 -11.00000000
8.07657337 -2.96360087 0.75267702 76 5 11015 8.63600000 2691831160 2691831160 5.00000000
3.53439665 -1.29760408 -0.59632820 8 6 11016 3.81200000 2691831162 2691831162 -9.00000000
8.06086922 -2.96103120 1.05441356 83 7 11017 8.65200000 2691831164 2691831164 7.00000000
4.66553879 -1.71473527 -0.61032170 6 8 11018 5.00800000 2691831167 2691831167 -7.00000000
9.39419937 -3.45453072 1.58530688 63 9 11019 10.13400000 2691831169 2691831169 9.00000000
7.11521149 -2.61647820 -0.66325521 17 10 11019 7.61000000 2691831171 2691831171 -5.00000000
9.47229481 -3.48512602 1.96189809 56 11 11020 10.28200000 2691831174 2691831174 11.00000000
8.04634094 -2.96207166 -0.44935653 17 12 11021 8.58600000 2691831176 2691831176 -3.00000000
8.14478016 -2.99992418 2.00386405 2 13 11022 8.90800000 2691831178 2691831178 13.00000000
8.04386234 -2.96434808 -0.14963694 16 14 11023 8.57400000 2691831180 2691831180 -1.00000000
8.11665821 -2.99278378 2.31798339 47 15 11024 8.95600000 2691831183 2691831183 15.00000000
2.03096652 -0.75168031 -0.58027232 4 0 11031 2.24200000 2691831204 2691831204 -15.00000000
8.05044746 -2.98114610 0.14984636 12 1 11032 8.58600000 2691831206 2691831206 1.00000000
2.38468862 -0.88354284 -0.58712226 4 2 11033 2.61000000 2691831208 2691831208 -13.00000000
8.05645466 -2.98656869 0.45029858 10 3 11034 8.60400000 2691831210 2691831210 3.00000000
2.83120966 -1.04954386 -0.58692849 4 4 11034 3.07600000 2691831213 2691831213 -11.00000000
8.06057549 -2.98969674 0.75215405 72 5 11035 8.63000000 2691831215 2691831215 5.00000000
3.52984571 -1.30993342 -0.59632820 8 6 11036 3.81200000 2691831217 2691831217 -9.00000000
8.07281590 -2.99744248 1.05733848 85 7 11037 8.67600000 2691831220 2691831220 7.00000000
4.66324663 -1.73239326 -0.61080915 6 8 11038 5.01200000 2691831222 2691831222 -7.00000000
9.38208294 -3.48730159 1.58530688 60 9 11039 10.13400000 2691831224 2691831224 9.00000000
7.10229969 -2.63991070 -0.66290659 17 10 11039 7.60600000 2691831227 2691831227 -5.00000000
9.48215389 -3.52638125 1.96647751 56 11 11040 10.30600000 2691831229 2691831229 11.00000000
8.04905605 -2.99501610 -0.45008922 17 12 11041 8.60000000 2691831231 2691831231 -3.00000000
8.14704323 -3.03309584 2.00701332 3 13 11042 8.92200000 2691831233 2691831233 13.00000000
8.04096222 -2.99520040 -0.14977655 16 14 11043 8.58200000 2691831236 2691831236 -1.00000000
8.11211967 -3.02170610 2.31953621 47 15 11043 8.96200000 2691831238 2691831238 15.00000000
2.02833033 -0.75876510 -0.58027232 4 0 11051 2.24200000 2691831259 2691831259 -15.00000000
8.04935646 -3.01273417 0.15002088 12 1 11052 8.59600000 2691831261 2691831261 1.00000000
2.39618969 -0.89732891 -0.59072149 4 2 11053 2.62600000 2691831263 2691831263 -13.00000000
8.06842327 -3.02308178 0.45155463 10 3 11054 8.62800000 2691831266 2691831266 3.00000000
2.83672118 -1.06286442 -0.58883655 4 4 11054 3.08600000 2691831268 2691831268 -11.00000000
8.05382156 -3.01921391 0.75250268 76 5 11055 8.63400000 2691831270 2691831270 5.00000000
3.52155256 -1.32085943 -0.59570247 8 6 11056 3.80800000 2691831273 2691831273 -9.00000000
8.08088875 -3.03257823 1.05977583 87 7 11057 8.69600000 2691831275 2691831275 7.00000000
4.66088772 -1.75005603 -0.61129665 6 8 11058 5.01600000 2691831277 2691831277 -7.00000000
9.38464642 -3.52558756 1.58780980 14 9 11059 10.15000000 2691831280 2691831280 9.00000000
7.09490681 -2.66538692 -0.66308087 17 10 11059 7.60800000 2691831282 2691831282 -5.00000000
8.05163765 -3.02801561 -0.45082194 17 12 11061 8.61400000 2691831286 2691831286 -3.00000000
8.15464497 -3.06837869 2.01151228 3 13 11062 8.94200000 2691831289 2691831289 13.00000000
8.03420067 -3.02465940 -0.14984636 16 14 11063 8.58600000 2691831291 2691831291 -1.00000000
8.09971428 -3.04932380 2.31901860 47 15 11063 8.96000000 2691831293 2691831293 15.00000000
2.02734256 -0.76687771 -0.58078992 4 0 11072 2.24400000 2691831314 2691831314 -15.00000000
8.04387093 -3.04433966 0.15012559 12 1 11073 8.60200000 2691831316 2691831316 1.00000000
2.37283778 -0.89851421 -0.58577257 3 2 11074 2.60400000 2691831319 2691831319 -13.00000000
8.07089710 -3.05617857 0.45228735 10 3 11074 8.64200000 2691831321 2691831321 3.00000000
2.83647823 -1.07464552 -0.58959979 4 4 11075 3.09000000 2691831323 2691831323 -11.00000000
8.05760574 -3.05436206 0.75389719 72 5 11076 8.65000000 2691831326 2691831326 5.00000000
3.50560570 -1.32955468 -0.59382522 8 6 11077 3.79600000 2691831328 2691831328 -9.00000000
8.06971931 -3.06217599 1.05977583 83 7 11078 8.69600000 2691831330 2691831330 7.00000000
4.64516306 -1.76360428 -0.61007792 4 8 11079 5.00600000 2691831332 2691831332 -7.00000000
7.08508968 -2.69137311 -0.66308087 12 10 11080 7.60800000 2691831337 2691831337 -5.00000000
9.45667648 -3.59414339 1.96647751 37 11 11081 10.30600000 2691831339 2691831339 11.00000000
8.03861904 -3.05679631 -0.45071724 12 12 11082 8.61200000 2691831342 2691831342 -3.00000000
8.14880848 -3.10032511 2.01286197 3 13 11083 8.94800000 2691831344 2691831344 13.00000000
8.04361820 -3.06191134 -0.15023032 14 14 11084 8.60800000 2691831346 2691831346 -1.00000000
8.10653877 -3.08586287 2.32419491 47 15 11084 8.98000000 2691831349 2691831349 15.00000000
2.02104425 -0.77257019 -0.57975465 4 0 11092 2.24000000 2691831369 2691831369 -15.00000000
8.03879833 -3.07454252 0.15023032 12 1 11093 8.60800000 2691831372 2691831372 1.00000000
2.37150693 -0.90748799 -0.58622247 4 2 11094 2.60600000 2691831374 2691831374 -13.00000000
8.05777550 -3.08502507 0.45218265 10 3 11095 8.64000000 2691831376 2691831376 3.00000000
2.83270979 -1.08454013 -0.58959979 4 4 11095 3.09000000 2691831379 2691831379 -11.00000000
8.05991936 -3.08745861 0.75511736 75 5 11096 8.66400000 2691831381 2691831381 5.00000000
3.49725437 -1.34036958 -0.59319949 8 6 11097 3.79200000 2691831383 2691831383 -9.00000000
8.06083488 -3.09103656 1.06001949 80 7 11098 8.69800000 2691831385 2691831385 7.00000000
4.63712549 -1.77909708 -0.60983419 4 8 11099 5.00400000 2691831388 2691831388 -7.00000000
7.01799011 -2.69395399 -0.65767723 12 10 11100 7.54600000 2691831392 2691831392 -5.00000000
9.45690250 -3.63205862 1.96914887 46 11 11101 10.32000000 2691831395 2691831395 11.00000000
8.02230644 -3.08268833 -0.45040324 12 12 11102 8.60600000 2691831397 2691831397 -3.00000000
8.14703083 -3.13224745 2.01511145 3 13 11103 8.95800000 2691831399 2691831399 13.00000000
8.04594612 -3.09499574 -0.15047465 14 14 11104 8.62200000 2691831402 2691831402 -1.00000000
8.11680889 -3.12388086 2.33040667 45 15 11105 9.00400000 2691831404 2691831404 15.00000000
2.03122354 -0.78378391 -0.58337814 4 0 11110 2.25400000 2691831425 2691831425 -15.00000000
8.04588985 -3.10626388 0.15054446 12 1 11111 8.62600000 2691831427 2691831427 1.00000000
2.36137295 -0.91212511 -0.58442283 4 2 11112 2.59800000 2691831429 2691831429 -13.00000000
8.04858685 -3.10891938 0.45218265 10 3 11112 8.64000000 2691831432 2691831432 3.00000000
2.82196355 -1.09060311 -0.58807331 4 4 11113 3.08200000 2691831434 2691831434 -11.00000000
8.06690407 -3.11923146 0.75668615 71 5 11114 8.68200000 2691831436 2691831436 5.00000000
3.49302626 -1.35134995 -0.59319949 8 6 11115 3.79200000 2691831438 2691831438 -9.00000000
8.06774521 -3.12279415 1.06221318 83 7 11116 8.71600000 2691831441 2691831441 7.00000000
4.63336420 -1.79437315 -0.61007792 4 8 11117 5.00600000 2691831443 2691831443 -7.00000000
9.38836765 -3.63773823 1.59469295 20 9 11118 10.19400000 2691831445 2691831445 9.00000000
6.64536285 -2.57489800 -0.62351221 4 10 11118 7.15400000 2691831448 2691831448 -5.00000000
8.04237652 -3.11943221 -0.45207798 12 12 11120 8.63800000 2691831452 2691831452 -3.00000000
8.14441776 -3.16064692 2.01691127 3 13 11121 8.96600000 2691831455 2691831455 13.00000000
8.03245449 -3.11880994 -0.15040484 14 14 11122 8.61800000 2691831457 2691831457 -1.00000000
8.11110592 -3.14934850 2.33144188 45 15 11122 9.00800000 2691831459 2691831459 15.00000000
2.01767588 -0.78665894 -0.58027232 4 0 11130 2.24200000 2691831480 2691831480 -15.00000000
8.04803848 -3.13941741 0.15078880 12 1 11131 8.64000000 2691831482 2691831482 1.00000000
2.36906672 -0.92461336 -0.58712226 4 2 11132 2.61000000 2691831484 2691831484 -13.00000000
8.05815220 -3.14498305 0.45333406 10 3 11132 8.66200000 2691831487 2691831487 3.00000000
2.81448197 -1.09901869 -0.58731008 4 4 11133 3.07800000 2691831489 2691831489 -11.00000000
8.05411148 -3.14664602 0.75651187 75 5 11134 8.68000000 2691831491 2691831491 5.00000000
3.49932671 -1.36784959 -0.59507668 8 6 11135 3.80400000 2691831494 2691831494 -9.00000000
8.07343388 -3.15744400 1.06440687 80 7 11136 8.73400000 2691831496 2691831496 7.00000000
4.61043501 -1.80402553 -0.60788429 4 8 11137 4.98800000 2691831498 2691831498 -7.00000000
9.38297081 -3.67336798 1.59594440 11 9 11138 10.20200000 2691831501 2691831501 9.00000000
6.56397867 -2.56975222 -0.61671406 4 10 11138 7.07600000 2691831503 2691831503 -5.00000000
9.46733856 -3.70830321 1.97639954 28 11 11139 10.35800000 2691831505 2691831505 11.00000000
8.03887653 -3.15040135 -0.45249668 12 12 11140 8.64600000 2691831508 2691831508 -3.00000000
8.14603519 -3.19403648 2.02006054 3 13 11141 8.98000000 2691831510 2691831510 13.00000000
8.03268814 -3.15121126 -0.15061426 12 14 11142 8.63000000 2691831512 2691831512 -1.00000000
8.10725689 -3.18046451 2.33351254 45 15 11142 9.01600000 2691831514 2691831514 15.00000000
2.00772786 -0.79086506 -0.57820177 4 0 11150 2.23400000 2691831535 2691831535 -15.00000000
8.04075146 -3.16895747 0.15085860 12 1 11151 8.64400000 2691831537 2691831537 1.00000000
2.36945057 -0.93430698 -0.58802205 4 2 11152 2.61400000 2691831540 2691831540 -13.00000000
8.05400276 -3.17742848 0.45375273 10 3 11153 8.67000000 2691831542 2691831542 3.00000000
2.81062865 -1.10883641 -0.58731008 4 4 11153 3.07800000 2691831544 2691831544 -11.00000000
8.05049133 -3.17766714 0.75720912 67 5 11154 8.68800000 2691831547 2691831547 5.00000000
3.49085617 -1.37860501 -0.59445095 8 6 11155 3.80000000 2691831549 2691831549 -9.00000000
8.07713318 -3.19144225 1.06635678 78 7 11156 8.75000000 2691831551 2691831551 7.00000000
4.60410976 -1.82010806 -0.60788429 2 8 11157 4.98800000 2691831554 2691831554 -7.00000000
6.50679731 -2.57359624 -0.61218196 8 10 11158 7.02400000 2691831558 2691831558 -5.00000000
9.46163845 -3.74421763 1.97792602 34 11 11159 10.36600000 2691831561 2691831561 11.00000000
8.03525829 -3.18138385 -0.45291537 12 12 11160 8.65400000 2691831563 2691831563 -3.00000000
8.14751816 -3.22747588 2.02320981 3 13 11161 8.99400000 2691831565 2691831565 13.00000000
8.03651142 -3.18512559 -0.15089351 12 14 11162 8.64600000 2691831567 2691831567 -1.00000000
8.09913731 -3.21158195 2.33454776 45 15 11163 9.02000000 2691831570 2691831570 15.00000000
2.00495505 -0.79786849 -0.57820177 4 0 11170 2.23400000 2691831590 2691831590 -15.00000000
8.03335667 -3.19848514 0.15092841 12 1 11171 8.64800000 2691831593 2691831593 1.00000000
2.35893345 -0.93968755 -0.58622247 4 2 11172 2.60600000 2691831595 2691831595 -13.00000000
8.06568718 -3.21298838 0.45500880 10 3 11172 8.69400000 2691831597 2691831597 3.00000000
2.80309343 -1.11718678 -0.58654684 4 4 11173 3.07400000 2691831600 2691831600 -11.00000000
8.05045414 -3.21017694 0.75825495 71 5 11174 8.70000000 2691831602 2691831602 5.00000000
3.47868371 -1.38785398 -0.59319949 8 6 11175 3.79200000 2691831604 2691831604 -9.00000000
8.06963062 -3.22108912 1.06684422 80 7 11176 8.75400000 2691831607 2691831607 7.00000000
4.60694599 -1.83984947 -0.60910296 4 8 11177 4.99800000 2691831609 2691831609 -7.00000000
9.39378452 -3.75344253 1.60220182 60 9 11178 10.24200000 2691831611 2691831611 9.00000000
6.50517464 -2.59925056 -0.61287916 8 10 11178 7.03200000 2691831614 2691831614 -5.00000000
9.45762539 -3.78086591 1.97983408 50 11 11179 10.37600000 2691831616 2691831616 11.00000000
8.02410412 -3.20941281 -0.45291537 12 12 11180 8.65400000 2691831618 2691831618 -3.00000000
8.03833961 -3.21836185 -0.15113784 12 14 11182 8.66000000 2691831623 2691831623 -1.00000000
8.10043049 -3.24486208 2.33817124 45 15 11183 9.03400000 2691831625 2691831625 15.00000000
2.01994038 -0.81242037 -0.58337814 4 0 11191 2.25400000 2691831646 2691831646 -15.00000000
8.04569626 -3.23761201 0.15138218 12 1 11192 8.67400000 2691831648 2691831648 1.00000000
2.35185790 -0.94687158 -0.58532262 4 2 11193 2.60200000 2691831650 2691831650 -13.00000000
8.06126785 -3.24551272 0.45542750 10 3 11193 8.70200000 2691831653 2691831653 3.00000000
2.80262208 -1.12892020 -0.58731008 4 4 11194 3.07800000 2691831655 2691831655 -11.00000000
8.05711365 -3.24710917 0.75999808 75 5 11195 8.72000000 2691831657 2691831657 5.00000000
3.47357345 -1.40059471 -0.59319949 8 6 11196 3.79200000 2691831660 2691831660 -9.00000000
8.05777073 -3.25064397 1.06684422 80 7 11197 8.75400000 2691831662 2691831662 7.00000000
4.58360434 -1.85003555 -0.60690933 4 8 11198 4.98000000 2691831664 2691831664 -7.00000000
9.38795185 -3.78916740 1.60345328 60 9 11198 10.25000000 2691831667 2691831667 9.00000000
6.52146864 -2.63352036 -0.61531955 8 10 11199 7.06000000 2691831669 2691831669 -5.00000000
9.47464943 -3.82800698 1.98632169 53 11 11200 10.41000000 2691831671 2691831671 11.00000000
8.02710152 -3.24478912 -0.45375273 12 12 11201 8.67000000 2691831673 2691831673 -3.00000000
8.03575802 -3.25155234 -0.15131237 12 14 11203 8.67000000 2691831678 2691831678 -1.00000000
8.09922791 -3.27887940 2.34127712 45 15 11204 9.04600000 2691831680 2691831680 15.00000000
2.00635338 -0.81510359 -0.58027232 4 0 11211 2.24200000 2691831701 2691831701 -15.00000000
8.04175568 -3.26868892 0.15152179 12 1 11212 8.68200000 2691831703 2691831703 1.00000000
2.34673309 -0.95434117 -0.58487272 4 2 11213 2.60000000 2691831706 2691831706 -13.00000000
8.04248905 -3.27062249 0.45500880 10 3 11213 8.69400000 2691831708 2691831708 3.00000000
2.79502726 -1.13721657 -0.58654684 4 4 11214 3.07400000 2691831710 2691831710 -11.00000000
8.05680275 -3.27972126 0.76104397 75 5 11215 8.73200000 2691831713 2691831713 5.00000000
3.47415185 -1.41494656 -0.59413809 6 6 11216 3.79800000 2691831715 2691831715 -9.00000000
8.06475830 -3.28624201 1.06928158 73 7 11217 8.77400000 2691831717 2691831717 7.00000000
4.57895708 -1.86677337 -0.60715306 4 8 11218 4.98200000 2691831720 2691831720 -7.00000000
9.38564396 -3.82638884 1.60533047 60 9 11218 10.26200000 2691831722 2691831722 9.00000000
6.52514982 -2.66153598 -0.61653972 8 10 11219 7.07400000 2691831724 2691831724 -5.00000000
9.48122501 -3.86921620 1.99051940 50 11 11220 10.43200000 2691831726 2691831726 11.00000000
8.03051853 -3.27882886 -0.45459011 12 12 11221 8.68600000 2691831729 2691831729 -3.00000000
8.03361416 -3.28336525 -0.15148689 14 14 11223 8.68000000 2691831733 2691831733 -1.00000000
8.10203743 -3.31298065 2.34541821 45 15 11224 9.06200000 2691831736 2691831736 15.00000000
2.00735784 -0.82286817 -0.58130759 4 0 11229 2.24600000 2691831756 2691831756 -15.00000000
8.04254818 -3.29848933 0.15173122 12 1 11230 8.69400000 2691831759 2691831759 1.00000000
2.34913206 -0.96392828 -0.58622247 4 2 11231 2.60600000 2691831761 2691831761 -13.00000000
8.05619526 -3.30572915 0.45636955 10 3 11231 8.72000000 2691831763 2691831763 3.00000000
2.77327919 -1.13853574 -0.58273065 4 4 11232 3.05400000 2691831766 2691831766 -11.00000000
8.05383110 -3.30804420 0.76174122 75 5 11233 8.74000000 2691831768 2691831768 5.00000000
3.46968937 -1.42585385 -0.59413809 8 6 11234 3.79800000 2691831770 2691831770 -9.00000000
8.07458973 -3.31986547 1.07196271 85 7 11235 8.79600000 2691831772 2691831772 7.00000000
4.57306957 -1.88114941 -0.60715306 4 8 11236 4.98200000 2691831775 2691831775 -7.00000000
9.38636398 -3.86111617 1.60752058 63 9 11236 10.27600000 2691831777 2691831777 9.00000000
6.53702307 -2.69036317 -0.61845714 16 10 11237 7.09600000 2691831779 2691831779 -5.00000000
9.49262238 -3.90870070 1.99548042 50 11 11238 10.45800000 2691831782 2691831782 11.00000000
8.02756500 -3.30708456 -0.45500880 12 12 11239 8.69400000 2691831784 2691831784 -3.00000000
8.03620052 -3.31392384 -0.15173122 12 14 11241 8.69400000 2691831789 2691831789 -1.00000000
8.09574413 -3.33847809 2.34645343 42 15 11241 9.06600000 2691831791 2691831791 15.00000000
1.99197876 -0.82469732 -0.57768410 4 0 11249 2.23200000 2691831812 2691831812 -15.00000000
8.03652763 -3.32883883 0.15183593 12 1 11250 8.70000000 2691831814 2691831814 1.00000000
2.35295415 -0.97510666 -0.58802205 4 2 11251 2.61400000 2691831816 2691831816 -13.00000000
8.05567741 -3.33841825 0.45699757 10 3 11251 8.73200000 2691831819 2691831819 3.00000000
2.78379631 -1.15422487 -0.58578360 5 4 11252 3.07000000 2691831821 2691831821 -11.00000000
8.04775524 -3.33842731 0.76226413 75 5 11253 8.74600000 2691831823 2691831823 5.00000000
3.45921755 -1.43568504 -0.59319949 6 6 11254 3.79200000 2691831825 2691831825 -9.00000000
8.06295204 -3.34803081 1.07196271 73 7 11255 8.79600000 2691831828 2691831828 7.00000000
4.57564116 -1.90090883 -0.60837173 2 8 11256 4.99200000 2691831830 2691831830 -7.00000000
9.39107132 -3.90143585 1.61064923 60 9 11256 10.29600000 2691831832 2691831832 9.00000000
6.52575254 -2.71240044 -0.61828285 24 10 11257 7.09400000 2691831835 2691831835 -5.00000000
9.50067425 -3.95085835 2.00005984 50 11 11258 10.48200000 2691831837 2691831837 11.00000000
8.04178810 -3.34582663 -0.45647421 12 12 11259 8.72200000 2691831839 2691831839 -3.00000000
8.03196812 -3.34503055 -0.15187085 12 14 11261 8.70200000 2691831844 2691831844 -1.00000000
8.09058666 -3.37110019 2.34852409 42 15 11262 9.07400000 2691831846 2691831846 15.00000000
1.99443495 -0.83388120 -0.57923704 4 0 11269 2.23800000 2691831867 2691831867 -15.00000000
8.03592777 -3.36150146 0.15204537 12 1 11270 8.71200000 2691831869 2691831869 1.00000000
2.34234548 -0.98030472 -0.58622247 4 2 11271 2.60600000 2691831872 2691831872 -13.00000000
8.05812550 -3.37409258 0.45783496 10 3 11272 8.74800000 2691831874 2691831874 3.00000000
2.77793956 -1.16317677 -0.58540201 5 4 11272 3.06800000 2691831876 2691831876 -11.00000000
8.04891682 -3.37188792 0.76348430 78 5 11273 8.76000000 2691831878 2691831878 5.00000000
3.44325423 -1.44316971 -0.59132230 6 6 11274 3.78000000 2691831881 2691831881 -9.00000000
8.06769276 -3.38306427 1.07415640 87 7 11275 8.81400000 2691831883 2691831883 7.00000000
4.55250311 -1.90995741 -0.60617810 2 8 11276 4.97400000 2691831885 2691831885 -7.00000000
9.39925480 -3.94336367 1.61440372 60 9 11276 10.32000000 2691831888 2691831888 9.00000000
6.51991892 -2.73670530 -0.61863148 33 10 11277 7.09800000 2691831890 2691831890 -5.00000000
9.49587536 -3.98779869 2.00196791 46 11 11278 10.49200000 2691831892 2691831892 11.00000000
8.02637768 -3.37233019 -0.45626485 12 12 11279 8.71800000 2691831895 2691831895 -3.00000000
8.03498936 -3.37924886 -0.15215008 12 14 11281 8.71800000 2691831899 2691831899 -1.00000000
8.08826733 -3.40165567 2.35111213 47 15 11281 9.08400000 2691831902 2691831902 15.00000000
1.99507141 -0.84234083 -0.58027232 4 0 11289 2.24200000 2691831922 2691831922 -15.00000000
8.03151321 -3.39264417 0.15218498 12 1 11290 8.72000000 2691831925 2691831925 1.00000000
2.32813907 -0.98392332 -0.58352304 4 2 11291 2.59400000 2691831927 2691831927 -13.00000000
8.05365753 -3.40531135 0.45825362 10 3 11292 8.75600000 2691831929 2691831929 3.00000000
2.78471184 -1.17745399 -0.58769172 5 4 11292 3.08000000 2691831931 2691831931 -11.00000000
8.05361271 -3.40694952 0.76505309 82 5 11293 8.77800000 2691831934 2691831934 5.00000000
3.44183397 -1.45671999 -0.59194803 6 6 11294 3.78400000 2691831936 2691831936 -9.00000000
8.05217838 -3.40965700 1.07366896 78 7 11295 8.81000000 2691831938 2691831938 7.00000000
4.54398060 -1.92506266 -0.60593438 4 8 11296 4.97200000 2691831941 2691831941 -7.00000000
9.40838146 -3.98780870 1.61847103 60 9 11297 10.34600000 2691831943 2691831943 9.00000000
6.51766396 -2.76255751 -0.61932874 16 10 11297 7.10600000 2691831945 2691831945 -5.00000000
9.51081657 -4.03318453 2.00807381 43 11 11298 10.52400000 2691831948 2691831948 11.00000000
8.03662014 -3.40968776 -0.45752093 12 12 11299 8.74200000 2691831950 2691831950 -3.00000000
8.03602886 -3.41274714 -0.15239441 10 14 11301 8.73200000 2691831955 2691831955 -1.00000000
8.09708118 -3.44034338 2.35732388 47 15 11302 9.10800000 2691831957 2691831957 15.00000000
1.99211895 -0.84929985 -0.58027232 4 0 11309 2.24200000 2691831978 2691831978 -15.00000000
8.03617573 -3.42771959 0.15249912 12 1 11310 8.73800000 2691831980 2691831980 1.00000000
2.33365226 -0.99586844 -0.58577257 4 2 11311 2.60400000 2691831982 2691831982 -13.00000000
8.04906845 -3.43654013 0.45867231 10 3 11312 8.76400000 2691831984 2691831984 3.00000000
2.76614022 -1.18100023 -0.58463877 5 4 11312 3.06400000 2691831987 2691831987 -11.00000000
8.05816078 -3.44208479 0.76662189 78 5 11313 8.79600000 2691831989 2691831989 5.00000000
3.44217730 -1.47105420 -0.59288663 6 6 11314 3.79000000 2691831991 2691831991 -9.00000000
8.05117893 -3.44242620 1.07513130 80 7 11315 8.82200000 2691831994 2691831994 7.00000000
4.53358316 -1.93935084 -0.60544688 6 8 11316 4.96800000 2691831996 2691831996 -7.00000000
9.40963554 -4.02520132 1.62097394 57 9 11316 10.36200000 2691831998 2691831998 9.00000000
6.52080297 -2.79077911 -0.62054890 12 10 11317 7.12000000 2691832001 2691832001 -5.00000000
9.53818989 -4.08413315 2.01685119 40 11 11318 10.57000000 2691832003 2691832003 11.00000000
8.04302788 -3.44558477 -0.45856765 12 12 11319 8.76200000 2691832005 2691832005 -3.00000000
8.02774239 -3.44235349 -0.15246423 10 14 11321 8.73600000 2691832010 2691832010 -1.00000000
8.10515881 -3.47555017 2.36301780 47 15 11321 9.13000000 2691832012 2691832012 15.00000000
1.98204446 -0.85319316 -0.57820177 4 0 11329 2.23400000 2691832033 2691832033 -15.00000000
8.04803848 -3.46603274 0.15295289 12 1 11330 8.76400000 2691832035 2691832035 1.00000000
2.32479262 -1.00169492 -0.58442283 4 2 11331 2.59800000 2691832037 2691832037 -13.00000000
8.05169678 -3.47094083 0.45950970 15 3 11332 8.78000000 2691832040 2691832040 3.00000000
2.75478935 -1.18753994 -0.58311230 5 4 11332 3.05600000 2691832042 2691832042 -11.00000000
8.05524445 -3.47413731 0.76749349 78 5 11333 8.80600000 2691832044 2691832044 5.00000000
3.42976642 -1.47993016 -0.59163517 6 6 11334 3.78200000 2691832047 2691832047 -9.00000000
8.05733871 -3.47837687 1.07756877 76 7 11335 8.84200000 2691832049 2691832049 7.00000000
4.52678585 -1.95516419 -0.60544688 6 8 11336 4.96800000 2691832051 2691832051 -7.00000000
9.40388584 -4.06358004 1.62253833 57 9 11337 10.37200000 2691832054 2691832054 9.00000000
6.51833725 -2.81668520 -0.62124616 12 10 11337 7.12800000 2691832056 2691832056 -5.00000000
9.56171894 -4.13376331 2.02486515 34 11 11338 10.61200000 2691832058 2691832058 11.00000000
8.03828430 -3.47681069 -0.45898634 12 12 11339 8.77000000 2691832060 2691832060 -3.00000000
8.02852345 -3.47591615 -0.15270856 12 14 11341 8.75000000 2691832065 2691832065 -1.00000000
8.09236622 -3.50523353 2.36301780 47 15 11342 9.13000000 2691832067 2691832067 15.00000000
1.96842360 -0.85548645 -0.57509589 4 0 11349 2.22200000 2691832088 2691832088 -15.00000000
8.03589058 -3.49410462 0.15295289 12 1 11350 8.76400000 2691832090 2691832090 1.00000000
2.33557773 -1.01602292 -0.58802205 4 2 11351 2.61400000 2691832093 2691832093 -13.00000000
8.05967617 -3.50779295 0.46066108 18 3 11352 8.80200000 2691832095 2691832095 3.00000000
2.76142836 -1.20184958 -0.58540201 5 4 11352 3.06800000 2691832097 2691832097 -11.00000000
8.04306793 -3.50223422 0.76749349 75 5 11353 8.80600000 2691832100 2691832100 5.00000000
3.42820168 -1.49347126 -0.59226090 4 6 11354 3.78600000 2691832102 2691832102 -9.00000000
8.06516457 -3.51520562 1.08024991 83 7 11355 8.86400000 2691832104 2691832104 7.00000000
4.52721214 -1.97412765 -0.60642183 6 8 11356 4.97600000 2691832107 2691832107 -7.00000000
9.41570854 -4.10579634 1.62691844 51 9 11356 10.40000000 2691832109 2691832109 9.00000000
6.50663948 -2.83862472 -0.62107182 28 10 11357 7.12600000 2691832111 2691832111 -5.00000000
9.58141804 -4.18203640 2.03211570 21 11 11358 10.65000000 2691832113 2691832113 11.00000000
8.03159046 -3.50724626 -0.45930034 8 12 11359 8.77600000 2691832116 2691832116 -3.00000000
8.02367020 -3.50712323 -0.15284817 12 14 11361 8.75800000 2691832120 2691832120 -1.00000000
8.08954811 -3.53591824 2.36560607 47 15 11361 9.14000000 2691832123 2691832123 15.00000000
1.97603977 -0.86700952 -0.57820177 4 0 11369 2.23400000 2691832143 2691832143 -15.00000000
8.02730656 -3.52374125 0.15302271 12 1 11370 8.76800000 2691832146 2691832146 1.00000000
2.31952715 -1.01868415 -0.58487272 3 2 11371 2.60000000 2691832148 2691832148 -13.00000000
8.06018257 -3.54152894 0.46139380 13 3 11372 8.81600000 2691832150 2691832150 3.00000000
2.74643183 -1.20674288 -0.58311230 5 4 11372 3.05600000 2691832153 2691832153 -11.00000000
8.04720974 -3.53750467 0.76906228 78 5 11373 8.82400000 2691832155 2691832155 5.00000000
3.41211820 -1.50065720 -0.59038365 6 6 11374 3.77400000 2691832157 2691832157 -9.00000000
8.05284595 -3.54333687 1.08024991 85 7 11375 8.86400000 2691832160 2691832160 7.00000000
4.50394201 -1.98272026 -0.60422820 4 8 11376 4.95800000 2691832162 2691832162 -7.00000000
9.42229080 -4.14983368 1.63067281 54 9 11377 10.42400000 2691832164 2691832164 9.00000000
6.51492500 -2.86935043 -0.62281495 28 10 11377 7.14600000 2691832166 2691832166 -5.00000000
6.42201805 -2.83110881 -0.36781710 7 12 11379 7.02800000 2691832171 2691832171 -3.00000000
8.03333378 -3.54479718 -0.15326703 12 14 11381 8.78200000 2691832176 2691832176 -1.00000000
8.08890533 -3.57100558 2.36922956 47 15 11382 9.15400000 2691832178 2691832178 15.00000000
1.97668672 -0.87512165 -0.57923704 4 0 11388 2.23800000 2691832199 2691832199 -15.00000000
8.03020477 -3.55682015 0.15330194 12 1 11389 8.78400000 2691832201 2691832201 1.00000000
2.30544662 -1.02163327 -0.58217335 3 2 11390 2.58800000 2691832203 2691832203 -13.00000000
8.05204582 -3.56985712 0.46160313 18 3 11391 8.82000000 2691832206 2691832206 3.00000000
2.75318360 -1.22061801 -0.58540201 5 4 11391 3.06800000 2691832208 2691832208 -11.00000000
3.40712309 -1.51196396 -0.59038365 6 6 11393 3.77400000 2691832213 2691832213 -9.00000000
8.05556583 -3.57646561 1.08219981 85 7 11394 8.88000000 2691832215 2691832215 7.00000000
4.50097036 -1.99925661 -0.60471570 4 8 11395 4.96200000 2691832217 2691832217 -7.00000000
9.43809223 -4.19224405 1.63567877 57 9 11395 10.45600000 2691832219 2691832219 9.00000000
6.51629829 -2.89579344 -0.62386084 28 10 11396 7.15800000 2691832222 2691832222 -5.00000000
6.38704634 -2.84102535 -0.36635169 36 12 11398 7.00000000 2691832226 2691832226 -3.00000000
8.03249550 -3.57629728 -0.15347646 12 14 11400 8.79400000 2691832231 2691832231 -1.00000000
8.10235405 -3.60740066 2.37647653 47 15 11400 9.18200000 2691832233 2691832233 15.00000000
1.97009254 -0.88043982 -0.57820177 4 0 11408 2.23400000 2691832254 2691832254 -15.00000000
8.03234386 -3.59135890 0.15358117 12 1 11409 8.80000000 2691832256 2691832256 1.00000000
2.31253958 -1.03444898 -0.58487272 3 2 11410 2.60000000 2691832259 2691832259 -13.00000000
8.02130508 -3.58978367 0.46055642 5 3 11411 8.80000000 2691832261 2691832261 3.00000000
2.74353027 -1.22781503 -0.58425713 5 4 11411 3.06200000 2691832263 2691832263 -11.00000000
3.39461350 -1.52061760 -0.58913219 4 6 11413 3.76600000 2691832268 2691832268 -9.00000000
8.05752468 -3.61105776 1.08414972 87 7 11414 8.89600000 2691832270 2691832270 7.00000000
4.48853016 -2.01251936 -0.60398448 4 8 11415 4.95600000 2691832272 2691832272 -7.00000000
9.44609356 -4.23731899 1.63974607 60 9 11416 10.48200000 2691832275 2691832275 9.00000000
6.52251101 -2.92586112 -0.62542963 20 10 11416 7.17600000 2691832277 2691832277 -5.00000000
6.38620043 -2.86739326 -0.36687505 26 12 11418 7.01000000 2691832282 2691832282 -3.00000000
8.02725887 -3.60759306 -0.15361609 16 14 11420 8.80200000 2691832286 2691832286 -1.00000000
8.10493565 -3.64420295 2.38113523 45 15 11421 9.20000000 2691832289 2691832289 15.00000000
1.97405112 -0.89048880 -0.58027232 4 0 11428 2.24200000 2691832309 2691832309 -15.00000000
8.03798580 -3.62760091 0.15393023 12 1 11429 8.82000000 2691832312 2691832312 1.00000000
2.30536246 -1.04091108 -0.58397293 3 2 11430 2.59600000 2691832314 2691832314 -13.00000000
6.28320932 -2.83829808 0.36132744 7 3 11431 6.90400000 2691832316 2691832316 3.00000000
2.73922753 -1.23738432 -0.58425713 5 4 11431 3.06200000 2691832319 2691832319 -11.00000000
3.40368438 -1.53896844 -0.59163517 4 6 11433 3.78200000 2691832323 2691832323 -9.00000000
8.07199955 -3.65143418 1.08780575 78 7 11434 8.92600000 2691832325 2691832325 7.00000000
4.49052048 -2.03226733 -0.60520315 4 8 11435 4.96600000 2691832328 2691832328 -7.00000000
9.44098854 -4.27269220 1.64131045 63 9 11435 10.49200000 2691832330 2691832330 9.00000000
6.29082680 -2.84835172 -0.60416359 8 10 11436 6.93200000 2691832332 2691832332 -5.00000000
6.30520535 -2.85751462 -0.36279285 7 12 11438 6.93200000 2691832337 2691832337 -3.00000000
8.02190113 -3.63889575 -0.15375569 14 14 11440 8.81000000 2691832342 2691832342 -1.00000000
8.09632492 -3.67265582 2.38217044 45 15 11440 9.20400000 2691832344 2691832344 15.00000000
1.95510697 -0.89016950 -0.57561356 4 0 11448 2.22400000 2691832365 2691832365 -15.00000000
8.03255367 -3.65895247 0.15406984 12 1 11449 8.82800000 2691832367 2691832367 1.00000000
2.30526137 -1.05056822 -0.58487272 3 2 11450 2.60000000 2691832369 2691832369 -13.00000000
6.28780222 -2.86684203 0.36216483 22 3 11451 6.92000000 2691832372 2691832372 3.00000000
2.73667789 -1.24775290 -0.58463877 5 4 11451 3.06400000 2691832374 2691832374 -11.00000000
3.38750911 -1.54591942 -0.58975792 4 6 11453 3.77000000 2691832378 2691832378 -9.00000000
8.07365131 -3.68618417 1.08975565 80 7 11454 8.94200000 2691832381 2691832381 7.00000000
4.47256565 -2.04298115 -0.60374075 4 8 11455 4.95400000 2691832383 2691832383 -7.00000000
9.45476532 -4.31875324 1.64631629 60 9 11455 10.52400000 2691832385 2691832385 9.00000000
6.21198511 -2.83882451 -0.59753978 8 10 11456 6.85600000 2691832388 2691832388 -5.00000000
6.21527672 -2.84295177 -0.35818729 7 12 11458 6.84400000 2691832392 2691832392 -3.00000000
8.49145508 -3.88589907 2.15593100 29 13 11459 9.58400000 2691832395 2691832395 13.00000000
8.02733231 -3.67519951 -0.15410475 8 14 11460 8.83000000 2691832397 2691832397 -1.00000000
8.09048176 -3.70411181 2.38424110 45 15 11460 9.21200000 2691832399 2691832399 15.00000000
1.95725393 -0.89940864 -0.57716650 4 0 11468 2.23000000 2691832420 2691832420 -15.00000000
8.02699947 -3.69031024 0.15420946 12 1 11469 8.83600000 2691832422 2691832422 1.00000000
2.29449844 -1.05535138 -0.58307314 3 2 11470 2.59200000 2691832425 2691832425 -13.00000000
6.20336676 -2.85454178 0.35787326 30 3 11471 6.83800000 2691832427 2691832427 3.00000000
2.73587275 -1.25893950 -0.58540201 5 4 11471 3.06800000 2691832429 2691832429 -11.00000000
6.11173296 -2.81366825 0.58864987 3 5 11472 6.75400000 2691832431 2691832431 5.00000000
3.37132692 -1.55277634 -0.58788073 4 6 11473 3.75800000 2691832434 2691832434 -9.00000000
8.06253815 -3.71517467 1.08999944 83 7 11474 8.94400000 2691832436 2691832436 7.00000000
