# .PCD v0.7 - Point Cloud Data file format
VERSION 0.7
FIELDS x y z intensity laser_id azimuth distance_m adjustedtime timestamp vertical_angle
SIZE 4 4 4 1 1 2 8 8 4 8
TYPE F F F U U U F U U F
COUNT 1 1 1 1 1 1 1 1 1 1
WIDTH 528
HEIGHT 1
VIEWPOINT 0 0 0 1 0 0 0
POINTS 528
DATA ascii
4.26669836 -5.31619596 -0.35724524 10 12 14125 6.82600000 2691539876 2691539876 -3.00000000
4.21580076 -5.25465727 1.55531156 66 13 14126 6.91400000 2691539879 2691539879 13.00000000
3.02143502 -3.76732326 -0.08429512 6 14 14127 4.83000000 2691539881 2691539881 -1.00000000
4.20523977 -5.24524403 1.80138052 51 15 14128 6.96000000 2691539883 2691539883 15.00000000
1.29250765 -1.61562347 -0.55439037 4 0 14134 2.14200000 2691539904 2691539904 -15.00000000
3.00618052 -3.75904465 0.08401588 6 1 14135 4.81400000 2691539906 2691539906 1.00000000
1.51375163 -1.89353120 -0.55967820 4 2 14136 2.48800000 2691539909 2691539909 -13.00000000
3.01242900 -3.76955485 0.25288734 6 3 14137 4.83200000 2691539911 2691539911 3.00000000
1.78207695 -2.22997355 -0.55487257 3 4 14137 2.90800000 2691539913 2691539913 -11.00000000
2.99074864 -3.74376512 0.41921914 6 5 14138 4.81000000 2691539915 2691539915 5.00000000
2.19168139 -2.74448919 -0.55628097 1 6 14139 3.55600000 2691539918 2691539918 -9.00000000
4.22314358 -5.29024076 0.83114892 68 7 14140 6.82000000 2691539920 2691539920 7.00000000
2.81563902 -3.52835298 -0.55426174 8 8 14141 4.54800000 2691539922 2691539922 -7.00000000
4.20894861 -5.27434635 1.06876028 57 9 14141 6.83200000 2691539925 2691539925 9.00000000
3.82804227 -4.79874039 -0.53705370 11 10 14142 6.16200000 2691539927 2691539927 -5.00000000
4.19964981 -5.26646328 1.30933130 59 11 14143 6.86200000 2691539929 2691539929 11.00000000
4.23535109 -5.31313610 -0.35609385 10 12 14144 6.80400000 2691539932 2691539932 -3.00000000
4.18863678 -5.25641632 1.55171239 70 13 14145 6.89800000 2691539934 2691539934 13.00000000
4.21623373 -5.29294300 -0.11811788 6 14 14146 6.76800000 2691539936 2691539936 -1.00000000
4.17670393 -5.24331903 1.79620421 51 15 14146 6.94000000 2691539939 2691539939 15.00000000
1.28926325 -1.62315083 -0.55542564 4 0 14154 2.14600000 2691539959 2691539959 -15.00000000
4.19920969 -5.28859711 0.11787355 11 1 14155 6.75400000 2691539962 2691539962 1.00000000
1.51319039 -1.90643549 -0.56192774 9 2 14156 2.49800000 2691539964 2691539964 -13.00000000
4.19721556 -5.28987551 0.35389572 7 3 14157 6.76200000 2691539966 2691539966 3.00000000
1.76940095 -2.23002887 -0.55334610 3 4 14157 2.90000000 2691539968 2691539968 -11.00000000
4.18853712 -5.28083086 0.58969575 10 5 14158 6.76600000 2691539971 2691539971 5.00000000
2.19067883 -2.76295805 -0.55847102 1 6 14159 3.57000000 2691539973 2691539973 -9.00000000
4.18369007 -5.27850294 0.82700539 55 7 14160 6.78600000 2691539975 2691539975 7.00000000
2.79837465 -3.53193617 -0.55328679 8 8 14161 4.54000000 2691539978 2691539978 -7.00000000
4.17977715 -5.27734947 1.06625736 55 9 14162 6.81600000 2691539980 2691539980 9.00000000
3.85703802 -4.86986208 -0.54350322 11 10 14162 6.23600000 2691539982 2691539982 -5.00000000
4.16661692 -5.26261997 1.30475187 59 11 14163 6.83800000 2691539985 2691539985 11.00000000
4.19942617 -5.30596209 -0.35462844 10 12 14164 6.77600000 2691539987 2691539987 -3.00000000
4.15333557 -5.24960947 1.54541373 66 13 14165 6.87000000 2691539989 2691539989 13.00000000
4.19897270 -5.30919647 -0.11815279 8 14 14166 6.77000000 2691539992 2691539992 -1.00000000
4.15026951 -5.24949932 1.79309833 54 15 14167 6.92800000 2691539994 2691539994 15.00000000
1.28808951 -1.63393378 -0.55749625 4 0 14175 2.15400000 2691540015 2691540015 -15.00000000
4.16742086 -5.28824615 0.11752450 11 1 14176 6.73400000 2691540017 2691540017 1.00000000
1.50257504 -1.90737641 -0.56057805 12 2 14177 2.49200000 2691540019 2691540019 -13.00000000
4.15555668 -5.27697945 0.35201165 10 3 14178 6.72600000 2691540021 2691540021 3.00000000
1.76121557 -2.23649907 -0.55334610 3 4 14178 2.90000000 2691540024 2691540024 -11.00000000
4.16175938 -5.28675365 0.58864987 10 5 14179 6.75400000 2691540026 2691540026 5.00000000
2.15610552 -2.73992133 -0.55221367 1 6 14180 3.53000000 2691540028 2691540028 -9.00000000
4.15695143 -5.28444052 0.82554293 55 7 14181 6.77400000 2691540031 2691540031 7.00000000
2.77804828 -3.53280640 -0.55182439 6 8 14182 4.52800000 2691540033 2691540033 -7.00000000
4.15156174 -5.27948475 1.06375432 52 9 14182 6.80000000 2691540035 2691540035 9.00000000
3.86132646 -4.91216087 -0.54664081 11 10 14183 6.27200000 2691540038 2691540038 -5.00000000
4.13759613 -5.26550674 1.30169892 53 11 14184 6.82200000 2691540040 2691540040 11.00000000
4.16021061 -5.29618835 -0.35295370 10 12 14185 6.74400000 2691540042 2691540042 -3.00000000
4.12203169 -5.24947023 1.54091477 64 13 14186 6.85000000 2691540045 2691540045 13.00000000
4.15232182 -5.28994560 -0.11738489 8 14 14187 6.72600000 2691540047 2691540047 -1.00000000
4.12237787 -5.25179768 1.78895724 58 15 14187 6.91200000 2691540049 2691540049 15.00000000
1.27523398 -1.62929237 -0.55439037 4 0 14195 2.14200000 2691540070 2691540070 -15.00000000
4.14647150 -5.29961109 0.11745469 11 1 14196 6.73000000 2691540072 2691540072 1.00000000
1.49590790 -1.91260970 -0.56057805 17 2 14197 2.49200000 2691540074 2691540074 -13.00000000
4.13342094 -5.28673267 0.35169762 10 3 14198 6.72000000 2691540077 2691540077 3.00000000
1.74856114 -2.23644662 -0.55181962 3 4 14198 2.89200000 2691540079 2691540079 -11.00000000
4.12610292 -5.27927160 0.58620954 10 5 14199 6.72600000 2691540081 2691540081 5.00000000
2.15382528 -2.75677061 -0.55409086 1 6 14200 3.54200000 2691540084 2691540084 -9.00000000
4.13114882 -5.28953171 0.82408053 55 7 14201 6.76200000 2691540086 2691540086 7.00000000
2.76814270 -3.54561162 -0.55231184 8 8 14202 4.53200000 2691540088 2691540088 -7.00000000
4.11516857 -5.27286434 1.05937421 52 9 14203 6.77200000 2691540091 2691540091 9.00000000
3.82699490 -4.90362024 -0.54420048 15 10 14203 6.24400000 2691540093 2691540093 -5.00000000
4.11194515 -5.27063036 1.29940927 59 11 14204 6.81000000 2691540095 2691540095 11.00000000
4.13678503 -5.30437803 -0.35253501 10 12 14205 6.73600000 2691540097 2691540097 -3.00000000
4.09409714 -5.25153160 1.53731549 64 13 14206 6.83400000 2691540100 2691540100 13.00000000
4.12030983 -5.28705740 -0.11700093 8 14 14207 6.70400000 2691540102 2691540102 -1.00000000
4.08885431 -5.24858379 1.78274560 49 15 14208 6.88800000 2691540104 2691540104 15.00000000
1.26745272 -1.63046181 -0.55335510 4 0 14214 2.13800000 2691540125 2691540125 -15.00000000
4.11537743 -5.29596329 0.11707074 11 1 14215 6.70800000 2691540127 2691540127 1.00000000
1.48597074 -1.91294289 -0.55922830 27 2 14216 2.48600000 2691540130 2691540130 -13.00000000
4.10974169 -5.29252291 0.35117427 10 3 14217 6.71000000 2691540132 2691540132 3.00000000
1.74113512 -2.24223280 -0.55181962 3 4 14217 2.89200000 2691540134 2691540134 -11.00000000
4.09635687 -5.27718639 0.58446640 10 5 14218 6.70600000 2691540137 2691540137 5.00000000
2.13619471 -2.75297332 -0.55190080 1 6 14219 3.52800000 2691540139 2691540139 -9.00000000
4.10628510 -5.29379082 0.82261807 55 7 14220 6.75000000 2691540141 2691540141 7.00000000
2.75880265 -3.55790901 -0.55279934 6 8 14221 4.53600000 2691540144 2691540144 -7.00000000
4.08405781 -5.26703358 1.05561972 55 9 14221 6.74800000 2691540146 2691540146 9.00000000
3.80827165 -4.91313457 -0.54385185 15 10 14222 6.24000000 2691540148 2691540148 -5.00000000
4.08241987 -5.26871777 1.29559302 53 11 14223 6.79000000 2691540150 2691540150 11.00000000
4.11672592 -5.31490898 -0.35232565 10 12 14224 6.73200000 2691540153 2691540153 -3.00000000
4.01462126 -5.18495512 1.51392055 13 13 14225 6.73000000 2691540155 2691540155 13.00000000
4.08806658 -5.28171539 -0.11658207 8 14 14226 6.68000000 2691540157 2691540157 -1.00000000
1.26647496 -1.64099348 -0.55542564 4 0 14234 2.14600000 2691540180 2691540180 -15.00000000
4.07243633 -5.27863073 0.11637264 11 1 14235 6.66800000 2691540183 2691540183 1.00000000
1.47571409 -1.91348886 -0.55787861 38 2 14236 2.48000000 2691540185 2691540185 -13.00000000
4.08758402 -5.30209112 0.35086024 10 3 14237 6.70400000 2691540187 2691540187 3.00000000
1.73090029 -2.24518704 -0.55105639 3 4 14237 2.88800000 2691540190 2691540190 -11.00000000
4.06818151 -5.27882814 0.58307195 10 5 14238 6.69000000 2691540192 2691540192 5.00000000
2.12657189 -2.76041317 -0.55190080 1 6 14239 3.52800000 2691540194 2691540194 -9.00000000
4.07082462 -5.28607368 0.81920570 55 7 14240 6.72200000 2691540197 2691540197 7.00000000
2.74394464 -3.56437135 -0.55231184 6 8 14241 4.53200000 2691540199 2691540199 -7.00000000
4.03822184 -5.24752617 1.04873669 12 9 14242 6.70400000 2691540201 2691540201 9.00000000
3.79109836 -4.92639780 -0.54385185 15 10 14242 6.24000000 2691540203 2691540203 -5.00000000
4.07866812 -5.30391455 -0.35065091 10 12 14244 6.70000000 2691540208 2691540208 -3.00000000
3.97155690 -5.16649199 1.50447261 47 13 14245 6.68800000 2691540210 2691540210 13.00000000
4.06107616 -5.28485394 -0.11633774 9 14 14246 6.66600000 2691540213 2691540213 -1.00000000
3.95182562 -5.14453983 1.73822868 9 15 14247 6.71600000 2691540215 2691540215 15.00000000
1.25810242 -1.64255702 -0.55439037 4 0 14255 2.14200000 2691540236 2691540236 -15.00000000
4.04212093 -5.27923203 0.11605851 11 1 14256 6.65000000 2691540238 2691540238 1.00000000
1.46276867 -1.91114736 -0.55562907 39 2 14257 2.47000000 2691540240 2691540240 -13.00000000
4.04749155 -5.29007149 0.34908083 10 3 14258 6.67000000 2691540243 2691540243 3.00000000
1.72265971 -2.25151610 -0.55105639 3 4 14258 2.88800000 2691540245 2691540245 -11.00000000
4.03670216 -5.27787781 0.58132881 10 5 14259 6.67000000 2691540247 2691540247 5.00000000
2.11404061 -2.76505041 -0.55127507 1 6 14260 3.52400000 2691540250 2691540250 -9.00000000
4.03213596 -5.27572298 0.81530589 57 7 14261 6.69000000 2691540252 2691540252 7.00000000
2.72604156 -3.56809497 -0.55133688 6 8 14262 4.52400000 2691540254 2691540254 -7.00000000
3.96831226 -5.19409370 1.03528333 7 9 14262 6.61800000 2691540256 2691540256 9.00000000
3.77301693 -4.94025993 -0.54385185 15 10 14263 6.24000000 2691540259 2691540259 -5.00000000
3.95049715 -5.17451859 1.26544523 12 11 14264 6.63200000 2691540261 2691540261 11.00000000
4.03254366 -5.28389835 -0.34834811 10 12 14265 6.65600000 2691540263 2691540263 -3.00000000
3.93604612 -5.15932322 1.49817407 22 13 14266 6.66000000 2691540266 2691540266 13.00000000
4.03561592 -5.29175282 -0.11616322 9 14 14267 6.65600000 2691540268 2691540268 -1.00000000
3.92915797 -5.15215826 1.73615813 9 15 14267 6.70800000 2691540270 2691540270 15.00000000
1.25236118 -1.64693856 -0.55439037 2 0 14275 2.14200000 2691540291 2691540291 -15.00000000
4.01640749 -5.28375769 0.11584907 11 1 14276 6.63800000 2691540293 2691540293 1.00000000
1.45490956 -1.91469002 -0.55517918 33 2 14277 2.46800000 2691540296 2691540296 -13.00000000
4.00967169 -5.27871990 0.34740609 10 3 14278 6.63800000 2691540298 2691540298 3.00000000
1.70528972 -2.24500847 -0.54800344 3 4 14278 2.87200000 2691540300 2691540300 -11.00000000
4.00861502 -5.27924204 0.57993430 9 5 14279 6.65400000 2691540303 2691540303 5.00000000
2.10557032 -2.77398634 -0.55158794 1 6 14280 3.52600000 2691540305 2691540305 -9.00000000
4.00289679 -5.27553320 0.81311226 60 7 14281 6.67200000 2691540307 2691540307 7.00000000
2.71836853 -3.58391523 -0.55231184 6 8 14282 4.53200000 2691540309 2691540309 -7.00000000
3.92895913 -5.18184423 1.02996457 10 9 14283 6.58400000 2691540312 2691540312 9.00000000
3.75936055 -4.95816326 -0.54437476 15 10 14283 6.24600000 2691540314 2691540314 -5.00000000
3.92529535 -5.17888927 1.26315558 12 11 14284 6.62000000 2691540316 2691540316 11.00000000
4.00683784 -5.28839064 -0.34772009 10 12 14285 6.64400000 2691540319 2691540319 -3.00000000
3.89918756 -5.14817572 1.49097562 21 13 14286 6.62800000 2691540321 2691540321 13.00000000
4.00866985 -5.29464722 -0.11591888 9 14 14287 6.64200000 2691540323 2691540323 -1.00000000
3.90325284 -5.15728235 1.73305237 9 15 14288 6.69600000 2691540326 2691540326 15.00000000
1.24660468 -1.65130007 -0.55439037 3 0 14295 2.14200000 2691540346 2691540346 -15.00000000
3.98830271 -5.28497601 0.11556984 11 1 14296 6.62200000 2691540349 2691540349 1.00000000
1.45291162 -1.92597985 -0.55697882 15 2 14297 2.47600000 2691540351 2691540351 -13.00000000
3.98520827 -5.28471088 0.34688273 10 3 14298 6.62800000 2691540353 2691540353 3.00000000
1.70217097 -2.25721741 -0.54952991 3 4 14298 2.88000000 2691540356 2691540356 -11.00000000
3.97577095 -5.27411079 0.57784259 9 5 14299 6.63000000 2691540358 2691540358 5.00000000
2.09468555 -2.77974176 -0.55127507 1 6 14300 3.52400000 2691540360 2691540360 -9.00000000
3.97490215 -5.27678919 0.81116235 60 7 14301 6.65600000 2691540362 2691540362 7.00000000
2.70345354 -3.59021068 -0.55182439 6 8 14302 4.52800000 2691540365 2691540365 -7.00000000
3.89868307 -5.17748642 1.02652299 10 9 14302 6.56200000 2691540367 2691540367 9.00000000
3.73124647 -4.95692921 -0.54280597 15 10 14303 6.22800000 2691540369 2691540369 -5.00000000
3.89893079 -5.18157816 1.26048422 12 11 14304 6.60600000 2691540372 2691540372 11.00000000
3.98115015 -5.29276800 -0.34709206 10 12 14305 6.63200000 2691540374 2691540374 -3.00000000
3.87299514 -5.15085220 1.48782623 23 13 14306 6.61400000 2691540376 2691540376 13.00000000
3.97214150 -5.28463078 -0.11539531 9 14 14307 6.61200000 2691540379 2691540379 -1.00000000
3.87684345 -5.15784359 1.72891128 9 15 14307 6.68000000 2691540381 2691540381 15.00000000
1.24083292 -1.65564156 -0.55439037 4 0 14315 2.14200000 2691540402 2691540402 -15.00000000
3.96023846 -5.28606224 0.11529060 11 1 14316 6.60600000 2691540404 2691540404 1.00000000
1.44617987 -1.93103969 -0.55697882 6 2 14317 2.47600000 2691540406 2691540406 -13.00000000
3.94878244 -5.27460718 0.34531263 10 3 14318 6.59800000 2691540409 2691540409 3.00000000
1.69428146 -2.26314545 -0.54952991 3 4 14318 2.88000000 2691540411 2691540411 -11.00000000
3.93823624 -5.26243401 0.57505357 9 5 14319 6.59800000 2691540413 2691540413 5.00000000
2.08851957 -2.79178190 -0.55221367 1 6 14320 3.53000000 2691540415 2691540415 -9.00000000
3.95289207 -5.28586292 0.81043112 57 7 14321 6.65000000 2691540418 2691540418 7.00000000
2.68020773 -3.58531618 -0.54963076 6 8 14322 4.51000000 2691540420 2691540420 -7.00000000
3.87112451 -5.17840672 1.02401996 10 9 14322 6.54600000 2691540422 2691540422 9.00000000
3.71153545 -4.96673155 -0.54245734 15 10 14323 6.22400000 2691540425 2691540425 -5.00000000
3.86789560 -5.17785501 1.25628638 12 11 14324 6.58400000 2691540427 2691540427 11.00000000
3.96026063 -5.30343199 -0.34688273 10 12 14325 6.62800000 2691540429 2691540429 -3.00000000
3.85032892 -5.15809345 1.48602664 29 13 14326 6.60600000 2691540432 2691540432 13.00000000
3.94410324 -5.28564215 -0.11511607 9 14 14327 6.59600000 2691540434 2691540434 -1.00000000
3.84726214 -5.15586185 1.72373486 9 15 14327 6.66000000 2691540436 2691540436 15.00000000
1.22928035 -1.65221310 -0.55180222 4 0 14335 2.13200000 2691540457 2691540457 -15.00000000
3.92982864 -5.28380823 0.11494155 11 1 14336 6.58600000 2691540459 2691540459 1.00000000
1.42780340 -1.92043734 -0.55247980 4 2 14337 2.45600000 2691540462 2691540462 -13.00000000
3.93272948 -5.29156494 0.34552199 7 3 14338 6.60200000 2691540464 2691540464 3.00000000
1.69808221 -2.28480291 -0.55334610 3 4 14338 2.90000000 2691540466 2691540466 -11.00000000
3.91627836 -5.27135086 0.57453066 9 5 14339 6.59200000 2691540468 2691540468 5.00000000
2.06227303 -2.77685308 -0.54783350 1 6 14340 3.50200000 2691540471 2691540471 -9.00000000
3.91785073 -5.27731466 0.80701882 55 7 14341 6.62200000 2691540473 2691540473 7.00000000
2.68068933 -3.61218500 -0.55231184 6 8 14342 4.53200000 2691540475 2691540475 -7.00000000
3.84388018 -5.18145466 1.02182996 15 9 14343 6.53200000 2691540478 2691540478 9.00000000
3.69180155 -4.97645664 -0.54210871 15 10 14343 6.22000000 2691540480 2691540480 -5.00000000
3.83459520 -5.17082453 1.25132537 15 11 14344 6.55800000 2691540482 2691540482 11.00000000
3.92982984 -5.30117893 -0.34583601 10 12 14345 6.60800000 2691540485 2691540485 -3.00000000
3.77428794 -5.09321737 1.46353161 15 13 14346 6.50600000 2691540487 2691540487 13.00000000
3.92086768 -5.29295015 -0.11497645 9 14 14347 6.58800000 2691540489 2691540489 -1.00000000
3.68895078 -4.97987556 1.66058302 9 15 14347 6.41600000 2691540491 2691540491 15.00000000
1.22924423 -1.66426373 -0.55439037 4 0 14355 2.14200000 2691540512 2691540512 -15.00000000
3.89948297 -5.28140688 0.11459250 11 1 14356 6.56600000 2691540515 2691540515 1.00000000
1.41530490 -1.91756999 -0.55023026 12 2 14357 2.44600000 2691540517 2691540517 -13.00000000
3.89763355 -5.28276014 0.34405658 7 3 14358 6.57400000 2691540519 2691540519 3.00000000
1.68776524 -2.28755689 -0.55258286 3 4 14358 2.89600000 2691540521 2691540521 -11.00000000
3.88484550 -5.26735115 0.57261324 9 5 14359 6.57000000 2691540524 2691540524 5.00000000
2.06311750 -2.79834437 -0.55064934 1 6 14360 3.52000000 2691540526 2691540526 -9.00000000
3.88409543 -5.27018452 0.80385017 42 7 14361 6.59600000 2691540528 2691540528 7.00000000
2.66335440 -3.61512756 -0.55133688 6 8 14362 4.52400000 2691540531 2691540531 -7.00000000
3.72385883 -5.05646038 0.99461031 10 9 14363 6.35800000 2691540533 2691540533 9.00000000
3.67204499 -4.98610449 -0.54176009 15 10 14363 6.21600000 2691540535 2691540535 -5.00000000
3.65357232 -4.96283484 1.19789886 9 11 14364 6.27800000 2691540538 2691540538 11.00000000
3.89946342 -5.29877806 -0.34478927 14 12 14365 6.58800000 2691540540 2691540540 -3.00000000
3.63638973 -4.94310808 1.41674173 9 13 14366 6.29800000 2691540542 2691540542 13.00000000
3.89999843 -5.30338240 -0.11490665 9 14 14367 6.58400000 2691540544 2691540544 -1.00000000
3.63291454 -4.94199705 1.64350092 9 15 14368 6.35000000 2691540547 2691540547 15.00000000
1.22828901 -1.67456186 -0.55646098 4 0 14374 2.15000000 2691540568 2691540568 -15.00000000
3.87012339 -5.27818251 0.11424346 11 1 14375 6.54600000 2691540570 2691540570 1.00000000
1.41239429 -1.92696798 -0.55158001 10 2 14376 2.45200000 2691540572 2691540572 -13.00000000
3.75614810 -5.12649155 0.33306602 7 3 14377 6.36400000 2691540574 2691540574 3.00000000
1.67320812 -2.28363919 -0.55029315 3 4 14377 2.88400000 2691540577 2691540577 -11.00000000
3.64602876 -4.97801971 0.53984267 9 5 14378 6.19400000 2691540579 2691540579 5.00000000
2.05149269 -2.80198288 -0.55002356 1 6 14379 3.51600000 2691540581 2691540581 -9.00000000
2.65135169 -3.62393951 -0.55133688 6 8 14381 4.52400000 2691540586 2691540586 -7.00000000
3.63127327 -4.96514130 0.97427386 10 9 14382 6.22800000 2691540588 2691540588 9.00000000
3.65078568 -4.99182129 -0.54106283 15 10 14382 6.20800000 2691540591 2691540591 -5.00000000
3.62782550 -4.96224451 1.19484591 12 11 14383 6.26200000 2691540593 2691540593 11.00000000
3.86301494 -5.28587961 -0.34311453 10 12 14384 6.55600000 2691540595 2691540595 -3.00000000
3.60848212 -4.93940401 1.41224277 9 13 14385 6.27800000 2691540597 2691540597 13.00000000
3.73025537 -5.10796261 -0.11040393 6 14 14386 6.32600000 2691540600 2691540600 -1.00000000
3.60939550 -4.94246531 1.63987744 9 15 14386 6.33600000 2691540602 2691540602 15.00000000
1.21333897 -1.66634548 -0.55231982 4 0 14394 2.13400000 2691540623 2691540623 -15.00000000
3.63043666 -4.98770857 0.10768135 11 1 14395 6.17000000 2691540625 2691540625 1.00000000
1.41024554 -1.93818951 -0.55337960 4 2 14396 2.46000000 2691540627 2691540627 -13.00000000
3.61957526 -4.97643614 0.32249415 10 3 14397 6.16200000 2691540630 2691540630 3.00000000
1.66522658 -2.28946590 -0.55029315 3 4 14397 2.88400000 2691540632 2691540632 -11.00000000
3.60636854 -4.96009827 0.53653073 9 5 14398 6.15600000 2691540634 2691540634 5.00000000
2.04750633 -2.81711650 -0.55158794 1 6 14399 3.52600000 2691540637 2691540637 -9.00000000
3.61593795 -4.97691154 0.75534618 10 7 14400 6.19800000 2691540639 2691540639 7.00000000
2.63635254 -3.62996006 -0.55084944 6 8 14401 4.52000000 2691540641 2691540641 -7.00000000
3.60347462 -4.96339989 0.97145802 10 9 14402 6.21000000 2691540644 2691540644 9.00000000
3.61812186 -4.98357487 -0.53879678 15 10 14402 6.18200000 2691540646 2691540646 -5.00000000
3.60702252 -4.97011089 1.19370103 12 11 14403 6.25600000 2691540648 2691540648 11.00000000
3.62170243 -4.99217129 -0.32322687 9 12 14404 6.17600000 2691540650 2691540650 -3.00000000
3.58435392 -4.94250441 1.40954328 9 13 14405 6.26600000 2691540653 2691540653 13.00000000
3.60559607 -4.97362185 -0.10722759 9 14 14406 6.14400000 2691540655 2691540655 -1.00000000
3.58418393 -4.94408560 1.63625395 9 15 14406 6.32200000 2691540657 2691540657 15.00000000
1.20496058 -1.66764963 -0.55128455 4 0 14415 2.13000000 2691540678 2691540678 -15.00000000
3.59573913 -4.97828627 0.10719268 11 1 14416 6.14200000 2691540680 2691540680 1.00000000
1.42024362 -1.96704459 -0.56012815 4 2 14417 2.49000000 2691540683 2691540683 -13.00000000
3.59282875 -4.97608614 0.32165679 7 3 14417 6.14600000 2691540685 2691540685 3.00000000
1.64993024 -2.28600240 -0.54800344 3 4 14418 2.87200000 2691540687 2691540687 -11.00000000
3.57883859 -4.96035719 0.53513628 9 5 14419 6.14000000 2691540690 2691540690 5.00000000
2.03254509 -2.81819344 -0.55033642 1 6 14420 3.51800000 2691540692 2691540692 -9.00000000
3.59186769 -4.98207998 0.75412750 10 7 14421 6.18800000 2691540694 2691540694 7.00000000
2.62535167 -3.64281940 -0.55133688 6 8 14422 4.52400000 2691540696 2691540696 -7.00000000
3.57688761 -4.96312761 0.96895510 10 9 14422 6.19400000 2691540699 2691540699 9.00000000
3.59400868 -4.98871946 -0.53792524 15 10 14423 6.17200000 2691540701 2691540701 -5.00000000
3.57501411 -4.96418047 1.18912160 12 11 14424 6.23200000 2691540703 2691540703 11.00000000
3.60104704 -5.00217009 -0.32301751 9 12 14425 6.17200000 2691540706 2691540706 -3.00000000
3.56052327 -4.94770002 1.40729380 9 13 14426 6.25600000 2691540708 2691540708 13.00000000
3.57800078 -4.97381735 -0.10694835 9 14 14427 6.12800000 2691540710 2691540710 -1.00000000
3.54798865 -4.93209743 1.62797177 9 15 14427 6.29000000 2691540713 2691540713 15.00000000
1.20363581 -1.67812479 -0.55335510 4 0 14435 2.13800000 2691540733 2691540733 -15.00000000
3.56552267 -4.97293091 0.10680873 11 1 14436 6.12000000 2691540736 2691540736 1.00000000
1.41450393 -1.97357416 -0.56057805 5 2 14437 2.49200000 2691540738 2691540738 -13.00000000
3.56991363 -4.98272705 0.32123810 7 3 14438 6.13800000 2691540740 2691540740 3.00000000
1.64880097 -2.30132318 -0.55029315 3 4 14438 2.88400000 2691540743 2691540743 -11.00000000
3.55454135 -4.96310043 0.53409040 9 5 14439 6.12800000 2691540745 2691540745 5.00000000
2.01694584 -2.81724024 -0.54877210 1 6 14440 3.50800000 2691540747 2691540747 -9.00000000
3.56059170 -4.97521639 0.75120264 10 7 14441 6.16400000 2691540749 2691540749 7.00000000
2.61723971 -3.65841913 -0.55231184 6 8 14442 4.53200000 2691540752 2691540752 -7.00000000
3.54948020 -4.96335030 0.96645212 10 9 14443 6.17800000 2691540754 2691540754 9.00000000
3.56961918 -4.99151087 -0.53687936 11 10 14443 6.16000000 2691540756 2691540756 -5.00000000
3.54167986 -4.95426941 1.18377900 12 11 14444 6.20400000 2691540759 2691540759 11.00000000
3.56846833 -4.99358463 -0.32165679 13 12 14445 6.14600000 2691540761 2691540761 -3.00000000
3.53756714 -4.95216990 1.40504432 9 13 14446 6.24600000 2691540763 2691540763 13.00000000
3.55364442 -4.97651196 -0.10673892 9 14 14447 6.11600000 2691540766 2691540766 -1.00000000
3.52315354 -4.93563414 1.62486601 9 15 14448 6.27800000 2691540768 2691540768 15.00000000
1.19440937 -1.67759490 -0.55180222 4 0 14455 2.13200000 2691540789 2691540789 -15.00000000
3.54002547 -4.97394228 0.10656440 11 1 14456 6.10600000 2691540791 2691540791 1.00000000
1.38501227 -1.94674206 -0.55158001 4 2 14457 2.45200000 2691540793 2691540793 -13.00000000
3.54179239 -4.97826338 0.32019138 7 3 14457 6.11800000 2691540796 2691540796 3.00000000
1.64530921 -2.31346416 -0.55181962 2 4 14458 2.89200000 2691540798 2691540798 -11.00000000
3.53026867 -4.96573496 0.53304452 13 5 14459 6.11600000 2691540800 2691540800 5.00000000
2.01053262 -2.82909417 -0.54971069 1 6 14460 3.51400000 2691540802 2691540802 -9.00000000
3.52250981 -4.95848513 0.74681532 10 7 14461 6.12800000 2691540805 2691540805 7.00000000
2.59525871 -3.65458488 -0.55036193 6 8 14462 4.51600000 2691540807 2691540807 -7.00000000
3.52870297 -4.97087765 0.96551353 10 9 14463 6.17200000 2691540809 2691540809 9.00000000
3.55217361 -5.00394058 -0.53687936 11 10 14463 6.16000000 2691540812 2691540812 -5.00000000
3.51641154 -4.95539474 1.18110764 12 11 14464 6.19000000 2691540814 2691540814 11.00000000
3.53368235 -4.98157501 -0.32008672 9 12 14465 6.11600000 2691540816 2691540816 -3.00000000
3.51124167 -4.95177078 1.40144503 9 13 14466 6.23000000 2691540819 2691540819 13.00000000
3.52700043 -4.97583485 -0.10645968 9 14 14467 6.10000000 2691540821 2691540821 -1.00000000
3.50229836 -4.94098568 1.62279546 9 15 14467 6.27000000 2691540823 2691540823 15.00000000
1.19635093 -1.69279730 -0.55542564 4 0 14475 2.14600000 2691540844 2691540844 -15.00000000
3.51571870 -4.97646952 0.10635497 11 1 14476 6.09400000 2691540846 2691540846 1.00000000
1.37371182 -1.94519758 -0.54978037 3 2 14477 2.44400000 2691540848 2691540848 -13.00000000
3.51056767 -4.97101927 0.31893530 10 3 14477 6.09400000 2691540851 2691540851 3.00000000
1.63043022 -2.30957007 -0.54952991 3 4 14478 2.88000000 2691540853 2691540853 -11.00000000
3.50831842 -4.97151613 0.53234726 9 5 14479 6.10800000 2691540855 2691540855 5.00000000
2.00292230 -2.83932328 -0.55033642 3 6 14480 3.51800000 2691540858 2691540858 -9.00000000
3.50517988 -4.97075081 0.74681532 10 7 14481 6.12800000 2691540860 2691540860 7.00000000
2.58019853 -3.66037655 -0.54987448 6 8 14482 4.51200000 2691540862 2691540862 -7.00000000
3.49995160 -4.96701717 0.96238482 10 9 14483 6.15200000 2691540865 2691540865 9.00000000
3.52435637 -5.00165176 -0.53531057 11 10 14483 6.14200000 2691540867 2691540867 -5.00000000
3.49343967 -4.95961380 1.17919958 12 11 14484 6.18000000 2691540869 2691540869 11.00000000
3.50247359 -4.97428274 -0.31883064 9 12 14485 6.09200000 2691540872 2691540872 -3.00000000
3.47374582 -4.93531275 1.39334679 9 13 14486 6.19400000 2691540874 2691540874 13.00000000
3.49810314 -4.97176170 -0.10611063 9 14 14487 6.08000000 2691540876 2691540876 -1.00000000
3.47835994 -4.94370127 1.61968958 9 15 14487 6.25800000 2691540878 2691540878 15.00000000
1.18740165 -1.69201136 -0.55387276 4 0 14494 2.14000000 2691540899 2691540899 -15.00000000
3.49460316 -4.98155212 0.10621534 11 1 14495 6.08600000 2691540901 2691540901 1.00000000
1.38068008 -1.96888864 -0.55517918 3 2 14496 2.46800000 2691540904 2691540904 -13.00000000
3.48860836 -4.97670126 0.31851664 10 3 14497 6.08600000 2691540906 2691540906 3.00000000
1.61149323 -2.29888797 -0.54571372 3 4 14497 2.86000000 2691540908 2691540908 -11.00000000
3.47809267 -4.96354246 0.53025556 9 5 14498 6.08400000 2691540911 2691540911 5.00000000
1.98669577 -2.83624196 -0.54845923 1 6 14499 3.50600000 2691540913 2691540913 -9.00000000
3.48867702 -4.98234701 0.74681532 10 7 14500 6.12800000 2691540915 2691540915 7.00000000
2.56576943 -3.66566014 -0.54938698 6 8 14501 4.50800000 2691540918 2691540918 -7.00000000
3.46733880 -4.95371294 0.95769179 10 9 14501 6.12200000 2691540920 2691540920 9.00000000
3.49290204 -4.99208927 -0.53304452 15 10 14502 6.11600000 2691540922 2691540922 -5.00000000
3.46572137 -4.95508289 1.17538345 12 11 14503 6.16000000 2691540925 2691540925 11.00000000
3.48138118 -4.97932291 -0.31841195 9 12 14504 6.08400000 2691540927 2691540927 -3.00000000
3.45289516 -4.94041586 1.39154720 9 13 14505 6.18600000 2691540929 2691540929 13.00000000
3.47243476 -4.97022057 -0.10583139 9 14 14506 6.06400000 2691540931 2691540931 -1.00000000
3.45112681 -4.94155836 1.61503088 9 15 14507 6.24000000 2691540934 2691540934 15.00000000
1.17375886 -1.68504953 -0.55024928 4 0 14514 2.12600000 2691540954 2691540954 -15.00000000
3.46348071 -4.97402763 0.10579649 11 1 14515 6.06200000 2691540957 2691540957 1.00000000
1.36934590 -1.96729839 -0.55337960 3 2 14516 2.46000000 2691540959 2691540959 -13.00000000
3.46067595 -4.97184992 0.31746992 10 3 14516 6.06600000 2691540961 2691540961 3.00000000
1.60906529 -2.31255674 -0.54762185 3 4 14517 2.87000000 2691540964 2691540964 -11.00000000
3.45164418 -4.96256828 0.52886105 9 5 14518 6.06800000 2691540966 2691540966 5.00000000
1.98129404 -2.84964705 -0.54971069 1 6 14519 3.51400000 2691540968 2691540968 -9.00000000
3.45540333 -4.97167397 0.74340302 10 7 14520 6.10000000 2691540971 2691540971 7.00000000
2.55295849 -3.67459416 -0.54938698 6 8 14521 4.50800000 2691540973 2691540973 -7.00000000
3.44014478 -4.95340824 0.95518887 10 9 14522 6.10600000 2691540975 2691540975 9.00000000
3.45727110 -4.97806787 -0.53025556 11 10 14522 6.08400000 2691540978 2691540978 -5.00000000
3.44168615 -4.95747423 1.17309368 12 11 14523 6.14800000 2691540980 2691540980 11.00000000
3.45373058 -4.97667694 -0.31746992 9 12 14524 6.06600000 2691540982 2691540982 -3.00000000
3.43007493 -4.94443274 1.38929772 9 13 14525 6.17600000 2691540984 2691540984 13.00000000
3.44594812 -4.96916533 -0.10555215 9 14 14526 6.04800000 2691540987 2691540987 -1.00000000
3.42285061 -4.93769789 1.60985446 9 15 14527 6.22000000 2691540989 2691540989 15.00000000
1.16786969 -1.68913651 -0.55024928 4 0 14534 2.12600000 2691541010 2691541010 -15.00000000
3.42904282 -4.96141195 0.10527292 11 1 14535 6.03200000 2691541012 2691541012 1.00000000
1.36247039 -1.97206628 -0.55337960 3 2 14536 2.46000000 2691541014 2691541014 -13.00000000
3.43421745 -4.97075367 0.31663254 7 3 14536 6.05000000 2691541017 2691541017 3.00000000
1.60098314 -2.31815934 -0.54762185 3 4 14537 2.87000000 2691541019 2691541019 -11.00000000
3.43203688 -4.97130728 0.52851242 9 5 14538 6.06400000 2691541021 2691541021 5.00000000
1.96123683 -2.84191346 -0.54689491 1 6 14539 3.49600000 2691541024 2691541024 -9.00000000
3.42675567 -4.96736526 0.74096560 10 7 14540 6.08000000 2691541026 2691541026 7.00000000
2.54913163 -3.69655681 -0.55133688 6 8 14541 4.52400000 2691541028 2691541028 -7.00000000
3.41697121 -4.95503187 0.95331162 10 9 14541 6.09400000 2691541031 2691541031 9.00000000
3.43308854 -4.98026371 -0.52920967 11 10 14542 6.07200000 2691541033 2691541033 -5.00000000
3.40430880 -4.94035864 1.16622460 12 11 14543 6.11200000 2691541035 2691541035 11.00000000
3.42614079 -4.97389936 -0.31652787 9 12 14544 6.04800000 2691541037 2691541037 -3.00000000
3.40726876 -4.94835043 1.38704824 9 13 14545 6.16600000 2691541040 2691541040 13.00000000
3.42404628 -4.97457504 -0.10541254 9 14 14546 6.04000000 2691541042 2691541042 -1.00000000
3.39792871 -4.93847513 1.60623097 9 15 14547 6.20600000 2691541044 2691541044 15.00000000
1.16196644 -1.69320285 -0.55024928 4 0 14554 2.12600000 2691541065 2691541065 -15.00000000
3.41057205 -4.97170210 0.10523801 11 1 14555 6.03000000 2691541067 2691541067 1.00000000
1.35337412 -1.97359586 -0.55247980 3 2 14556 2.45600000 2691541070 2691541070 -13.00000000
3.40103197 -4.95965052 0.31516713 10 3 14556 6.02200000 2691541072 2691541072 3.00000000
1.59954166 -2.33344984 -0.54991150 3 4 14557 2.88200000 2691541074 2691541074 -11.00000000
3.40114832 -4.96353436 0.52642071 9 5 14558 6.04000000 2691541077 2691541077 5.00000000
1.95800269 -2.85852027 -0.54877210 1 6 14559 3.50800000 2691541079 2691541079 -9.00000000
3.39593720 -4.95964146 0.73804075 10 7 14560 6.05600000 2691541081 2691541081 7.00000000
2.52275801 -3.68577480 -0.54841202 6 8 14561 4.50000000 2691541084 2691541084 -7.00000000
3.39965415 -4.96692896 0.95331162 10 9 14561 6.09400000 2691541086 2691541086 9.00000000
3.40668273 -4.97906208 -0.52781516 11 10 14562 6.05600000 2691541088 2691541088 -5.00000000
3.38371801 -4.94735050 1.16507971 12 11 14563 6.10600000 2691541090 2691541090 11.00000000
3.39861274 -4.97098970 -0.31558582 9 12 14564 6.03000000 2691541093 2691541093 -3.00000000
3.38007903 -4.94573402 1.38299906 9 13 14565 6.14800000 2691541095 2691541095 13.00000000
3.39763665 -4.97328758 -0.10513330 6 14 14566 6.02400000 2691541097 2691541097 -1.00000000
3.37195349 -4.93754387 1.60208988 9 15 14567 6.19000000 2691541100 2691541100 15.00000000
1.16148663 -1.70523179 -0.55283749 4 0 14574 2.13600000 2691541120 2691541120 -15.00000000
3.38419342 -4.97035360 0.10495877 11 1 14575 6.01400000 2691541123 2691541123 1.00000000
1.35086262 -1.98475206 -0.55427939 3 2 14576 2.46400000 2691541125 2691541125 -13.00000000
3.38145137 -4.96819019 0.31495780 10 3 14576 6.01800000 2691541127 2691541127 3.00000000
1.58255172 -2.32603335 -0.54685861 3 4 14577 2.86600000 2691541130 2691541130 -11.00000000
3.37931967 -4.96878624 0.52572346 9 5 14578 6.03200000 2691541132 2691541132 5.00000000
1.95245504 -2.87187219 -0.55002356 3 6 14579 3.51600000 2691541134 2691541134 -9.00000000
3.37414098 -4.96489763 0.73706579 10 7 14580 6.04800000 2691541136 2691541136 7.00000000
2.51099229 -3.69620061 -0.54865581 6 8 14581 4.50200000 2691541139 2691541139 -7.00000000
3.37008524 -4.96079206 0.94987005 47 9 14581 6.07200000 2691541141 2691541141 9.00000000
3.38928175 -4.99092340 -0.52781516 11 10 14582 6.05600000 2691541143 2691541143 -5.00000000
3.35650396 -4.94451284 1.16164517 12 11 14583 6.08800000 2691541146 2691541146 11.00000000
3.37563252 -4.97455931 -0.31506246 9 12 14584 6.02000000 2691541148 2691541148 -3.00000000
3.34966731 -4.93814993 1.37760031 9 13 14585 6.12400000 2691541150 2691541150 13.00000000
3.37240028 -4.97353125 -0.10488896 9 14 14586 6.01000000 2691541153 2691541153 -1.00000000
3.34905648 -4.93910456 1.59898400 9 15 14586 6.17800000 2691541155 2691541155 15.00000000
1.15228128 -1.70447445 -0.55128455 4 0 14594 2.13000000 2691541176 2691541176 -15.00000000
3.36458373 -4.97882271 0.10488896 11 1 14595 6.01000000 2691541178 2691541178 1.00000000
1.34610796 -1.99268496 -0.55517918 3 2 14596 2.46800000 2691541180 2691541180 -13.00000000
3.35290837 -4.96341324 0.31391108 9 3 14596 5.99800000 2691541183 2691541183 3.00000000
1.57222533 -2.32828927 -0.54609537 3 4 14597 2.86200000 2691541185 2691541185 -11.00000000
3.34411955 -4.95413017 0.52293444 9 5 14598 6.00000000 2691541187 2691541187 5.00000000
1.92915964 -2.85902023 -0.54626918 3 6 14599 3.49200000 2691541189 2691541189 -9.00000000
3.34790945 -4.96348000 0.73511589 10 7 14600 6.03200000 2691541192 2691541192 7.00000000
2.49918461 -3.70658898 -0.54889953 6 8 14601 4.50400000 2691541194 2691541194 -7.00000000
3.34722662 -4.96433640 0.94830573 57 9 14601 6.06200000 2691541196 2691541196 9.00000000
3.36070418 -4.98620224 -0.52607208 11 10 14602 6.03600000 2691541199 2691541199 -5.00000000
3.34032106 -4.95782709 1.16202676 12 11 14603 6.09000000 2691541201 2691541201 11.00000000
3.35601616 -4.98299885 -0.31485310 9 12 14604 6.01600000 2691541203 2691541203 -3.00000000
3.32479119 -4.93849659 1.37445092 9 13 14605 6.11000000 2691541206 2691541206 13.00000000
3.34832001 -4.97531891 -0.10467953 9 14 14606 5.99800000 2691541208 2691541208 -1.00000000
3.31799126 -4.93211174 1.59277236 9 15 14607 6.15400000 2691541210 2691541210 15.00000000
1.14632463 -1.70848620 -0.55128455 4 0 14614 2.13000000 2691541231 2691541231 -15.00000000
3.33381724 -4.97060823 0.10447010 11 1 14615 5.98600000 2691541233 2691541233 1.00000000
1.33697367 -1.99413443 -0.55427939 3 2 14616 2.46400000 2691541236 2691541236 -13.00000000
3.33469415 -4.97566891 0.31391108 9 3 14617 5.99800000 2691541238 2691541238 3.00000000
1.52146137 -2.27015972 -0.53121227 3 4 14617 2.78400000 2691541240 2691541240 -11.00000000
3.31793451 -4.95253086 0.52153999 9 5 14618 5.98400000 2691541242 2691541242 5.00000000
1.92356479 -2.87230206 -0.54752064 3 6 14619 3.50000000 2691541245 2691541245 -9.00000000
3.33056331 -4.97513580 0.73511589 10 7 14620 6.03200000 2691541247 2691541247 7.00000000
2.48623109 -3.71529007 -0.54889953 6 8 14621 4.50400000 2691541249 2691541249 -7.00000000
3.31339836 -4.95136452 0.94361269 57 9 14621 6.03200000 2691541252 2691541252 9.00000000
3.32555413 -4.97140646 -0.52328306 15 10 14622 6.00400000 2691541254 2691541254 -5.00000000
3.31317282 -4.95476866 1.15859222 12 11 14623 6.07200000 2691541256 2691541256 11.00000000
3.33749199 -4.99302292 -0.31474844 13 12 14624 6.01400000 2691541259 2691541259 -3.00000000
3.29995370 -4.93872976 1.37130165 9 13 14625 6.09600000 2691541261 2691541261 13.00000000
3.31760430 -4.96702194 -0.10426068 9 14 14626 5.97400000 2691541263 2691541263 -1.00000000
3.28874159 -4.92381001 1.58656073 9 15 14626 6.13000000 2691541266 2691541266 15.00000000
1.17461801 -1.76393199 -0.56784898 5 0 14634 2.19400000 2691541286 2691541286 -15.00000000
3.30647373 -4.96723318 0.10415597 11 1 14635 5.96800000 2691541289 2691541289 1.00000000
1.32784557 -1.99554431 -0.55337960 3 2 14636 2.46000000 2691541291 2691541291 -13.00000000
3.30956244 -4.97563791 0.31317836 9 3 14637 5.98400000 2691541293 2691541293 3.00000000
1.34282100 -2.01881385 -0.47129822 5 4 14637 2.47000000 2691541295 2691541295 -11.00000000
3.29621410 -4.95744610 0.52084273 9 5 14638 5.97600000 2691541298 2691541298 5.00000000
1.91243339 -2.87735391 -0.54720777 1 6 14639 3.49800000 2691541300 2691541300 -9.00000000
3.30219102 -4.97019720 0.73267847 10 7 14640 6.01200000 2691541302 2691541302 7.00000000
2.47764015 -3.73056054 -0.54987448 6 8 14641 4.51200000 2691541305 2691541305 -7.00000000
3.28867292 -4.95360136 0.94173551 55 9 14642 6.02000000 2691541307 2691541307 9.00000000
3.31258821 -4.98962402 -0.52398032 11 10 14642 6.01200000 2691541309 2691541309 -5.00000000
3.28283024 -4.94667387 1.15401280 12 11 14643 6.04800000 2691541312 2691541312 11.00000000
3.30237699 -4.97801304 -0.31307369 12 12 14644 5.98200000 2691541314 2691541314 -3.00000000
3.27946329 -4.94534636 1.36995196 9 13 14645 6.09000000 2691541316 2691541316 13.00000000
3.29914093 -4.97690582 -0.10422577 9 14 14646 5.97200000 2691541319 2691541319 -1.00000000
3.26213598 -4.92294741 1.58241963 9 15 14647 6.11400000 2691541321 2691541321 15.00000000
1.16495049 -1.76338971 -0.56629604 5 0 14655 2.18800000 2691541342 2691541342 -15.00000000
3.28383780 -4.97264433 0.10401634 11 1 14656 5.96000000 2691541344 2691541344 1.00000000
1.31622827 -1.99389243 -0.55158001 3 2 14657 2.45200000 2691541346 2691541346 -13.00000000
3.28140330 -4.97273111 0.31223631 9 3 14658 5.96600000 2691541348 2691541348 3.00000000
1.32892478 -2.01389027 -0.46900851 12 4 14658 2.45800000 2691541351 2691541351 -11.00000000
3.26924562 -4.95618868 0.51944822 9 5 14659 5.96000000 2691541353 2691541353 5.00000000
1.90404940 -2.88764238 -0.54783350 3 6 14660 3.50200000 2691541355 2691541355 -9.00000000
3.27193522 -4.96403503 0.72999740 10 7 14661 5.99000000 2691541358 2691541358 7.00000000
2.45958161 -3.73298597 -0.54889953 6 8 14662 4.50400000 2691541360 2691541360 -7.00000000
3.26701427 -4.95845270 0.94048399 42 9 14662 6.01200000 2691541362 2691541362 9.00000000
3.28551102 -4.98842049 -0.52258581 11 10 14663 5.99600000 2691541365 2691541365 -5.00000000
3.26359820 -4.95703316 1.15363121 12 11 14664 6.04600000 2691541367 2691541367 11.00000000
3.27752137 -4.98007345 -0.31244567 12 12 14665 5.97000000 2691541369 2691541369 -3.00000000
3.24953413 -4.93942499 1.36500299 9 13 14666 6.06800000 2691541372 2691541372 13.00000000
3.27318621 -4.97726870 -0.10398144 9 14 14667 5.95800000 2691541374 2691541374 -1.00000000
3.24280906 -4.93107653 1.58138442 9 15 14667 6.11000000 2691541376 2691541376 15.00000000
1.13654435 -1.73351824 -0.55542564 4 0 14675 2.14600000 2691541397 2691541397 -15.00000000
3.25221038 -4.96233416 0.10356258 11 1 14676 5.93400000 2691541399 2691541399 1.00000000
1.31566763 -2.00825524 -0.55427939 3 2 14677 2.46400000 2691541401 2691541401 -13.00000000
3.25089478 -4.96410513 0.31098026 9 3 14678 5.94200000 2691541404 2691541404 3.00000000
1.30145097 -1.98731112 -0.46175778 14 4 14678 2.42000000 2691541406 2691541406 -11.00000000
3.24537778 -4.95756865 0.51840234 9 5 14679 5.94800000 2691541408 2691541408 5.00000000
1.89720297 -2.89923000 -0.54877210 1 6 14680 3.50800000 2691541411 2691541411 -9.00000000
3.25132751 -4.97044230 0.72926617 10 7 14681 5.98400000 2691541413 2691541413 7.00000000
2.44001770 -3.73158002 -0.54743707 6 8 14682 4.49200000 2691541415 2691541415 -7.00000000
3.25206113 -4.97535372 0.94142258 10 9 14683 6.01800000 2691541418 2691541418 9.00000000
3.26153755 -4.98985195 -0.52153999 15 10 14683 5.98400000 2691541420 2691541420 -5.00000000
3.23983192 -4.95853376 1.15134144 12 11 14684 6.03400000 2691541422 2691541422 11.00000000
3.25356483 -4.98145056 -0.31181762 12 12 14685 5.95800000 2691541424 2691541424 -3.00000000
3.22161913 -4.93442011 1.36050403 9 13 14686 6.04800000 2691541427 2691541427 13.00000000
3.23830581 -4.96187019 -0.10342296 9 14 14687 5.92600000 2691541429 2691541429 -1.00000000
3.22365832 -4.94131088 1.58086669 9 15 14688 6.10800000 2691541431 2691541431 15.00000000
1.12868178 -1.73403943 -0.55439037 4 0 14694 2.14200000 2691541452 2691541452 -15.00000000
3.23900867 -4.97811985 0.10366730 11 1 14695 5.94000000 2691541454 2691541454 1.00000000
1.30050087 -1.99953818 -0.55068016 3 2 14696 2.44800000 2691541457 2691541457 -13.00000000
3.22897196 -4.96648598 0.31045690 9 3 14697 5.93200000 2691541459 2691541459 3.00000000
1.29271328 -1.98832393 -0.46099454 6 4 14697 2.41600000 2691541461 2691541461 -11.00000000
3.22132015 -4.95660925 0.51718217 12 5 14698 5.93400000 2691541464 2691541464 5.00000000
1.89295912 -2.91378784 -0.55033642 1 6 14699 3.51800000 2691541466 2691541466 -9.00000000
3.22185302 -4.96121883 0.72634131 10 7 14700 5.96000000 2691541468 2691541468 7.00000000
2.43195343 -3.74631119 -0.54841202 6 8 14701 4.50000000 2691541471 2691541471 -7.00000000
3.21490288 -4.95240831 0.93516523 9 9 14701 5.97800000 2691541473 2691541473 9.00000000
3.23629642 -4.98726988 -0.52014548 15 10 14702 5.96800000 2691541475 2691541475 -5.00000000
3.21909738 -4.96266174 1.14981496 12 11 14703 6.02600000 2691541477 2691541477 11.00000000
3.23159480 -4.98383331 -0.31129426 12 12 14704 5.94800000 2691541480 2691541480 -3.00000000
3.19781876 -4.93362951 1.35735464 9 13 14705 6.03400000 2691541482 2691541482 13.00000000
3.21313500 -4.95915556 -0.10314372 9 14 14706 5.91000000 2691541484 2691541484 -1.00000000
3.19656372 -4.93357944 1.57517266 9 15 14706 6.08600000 2691541487 2691541487 15.00000000
1.11633277 -1.72823215 -0.55128455 4 0 14714 2.13000000 2691541507 2691541507 -15.00000000
3.20859528 -4.96923637 0.10324844 11 1 14715 5.91600000 2691541510 2691541510 1.00000000
1.29774034 -2.01061487 -0.55247980 3 2 14716 2.45600000 2691541512 2691541512 -13.00000000
3.20836759 -4.97269201 0.31014287 9 3 14717 5.92600000 2691541514 2691541514 3.00000000
1.49757552 -2.32111239 -0.53693652 3 4 14717 2.81400000 2691541517 2691541517 -11.00000000
3.19751930 -4.95777750 0.51613629 12 5 14718 5.92200000 2691541519 2691541519 5.00000000
1.86886179 -2.89879465 -0.54626918 1 6 14719 3.49200000 2691541521 2691541521 -9.00000000
3.20451570 -4.97243500 0.72634131 10 7 14720 5.96000000 2691541524 2691541524 7.00000000
2.41133618 -3.74309587 -0.54670590 4 8 14721 4.48600000 2691541526 2691541526 -7.00000000
3.18924332 -4.95253277 0.93297517 9 9 14722 5.96400000 2691541528 2691541528 9.00000000
3.20592332 -4.97843456 -0.51805371 15 10 14722 5.94400000 2691541530 2691541530 -5.00000000
3.18687773 -4.95075703 1.14447236 12 11 14723 5.99800000 2691541533 2691541533 11.00000000
3.20877433 -4.98668528 -0.31077090 12 12 14724 5.93800000 2691541535 2691541535 -3.00000000
3.18057775 -4.94476175 1.35735464 9 13 14725 6.03400000 2691541537 2691541537 13.00000000
3.19256020 -4.96529531 -0.10303900 9 14 14726 5.90400000 2691541540 2691541540 -1.00000000
3.16905928 -4.93063641 1.57051396 9 15 14727 6.06800000 2691541542 2691541542 15.00000000
1.13979435 -1.77745867 -0.56577843 6 0 14733 2.18600000 2691541563 2691541563 -15.00000000
3.17699122 -4.95628023 0.10275977 11 1 14734 5.88800000 2691541565 2691541565 1.00000000
1.29421985 -2.01982975 -0.55382949 4 2 14735 2.46200000 2691541567 2691541567 -13.00000000
3.18862820 -4.97825861 0.30982885 9 3 14736 5.92000000 2691541570 2691541570 3.00000000
1.51740158 -2.36904931 -0.54685861 3 4 14736 2.86600000 2691541572 2691541572 -11.00000000
3.17676401 -4.96164179 0.51543903 12 5 14737 5.91400000 2691541574 2691541574 5.00000000
1.86456299 -2.91329503 -0.54783350 3 6 14738 3.50200000 2691541577 2691541577 -9.00000000
3.17196178 -4.95795155 0.72268522 10 7 14739 5.93000000 2691541579 2691541579 7.00000000
2.40318847 -3.75776100 -0.54768085 4 8 14740 4.49400000 2691541581 2691541581 -7.00000000
3.16515470 -4.94921446 0.93047220 9 9 14740 5.94800000 2691541583 2691541583 9.00000000
3.18081141 -4.97560930 -0.51665926 15 10 14741 5.92800000 2691541586 2691541586 -5.00000000
3.14929962 -4.92821169 1.13683999 27 11 14742 5.95800000 2691541588 2691541588 11.00000000
3.17286706 -4.96700191 -0.30888683 12 12 14743 5.90200000 2691541590 2691541590 -3.00000000
3.15996766 -4.94871187 1.35555506 9 13 14744 6.02600000 2691541593 2691541593 13.00000000
3.16531825 -4.95899916 -0.10268996 9 14 14745 5.88400000 2691541595 2691541595 -1.00000000
3.14523816 -4.92754078 1.56637287 9 15 14745 6.05200000 2691541597 2691541597 15.00000000
1.15017700 -1.80750418 -0.57406062 7 0 14753 2.21800000 2691541618 2691541618 -15.00000000
3.15752459 -4.96396494 0.10268996 11 1 14754 5.88400000 2691541620 2691541620 1.00000000
1.28088772 -2.01446819 -0.55113006 4 2 14755 2.45000000 2691541623 2691541623 -13.00000000
3.16373181 -4.97755909 0.30909616 9 3 14756 5.90600000 2691541625 2691541625 3.00000000
1.49964476 -2.35941935 -0.54342401 5 4 14756 2.84800000 2691541627 2691541627 -11.00000000
3.15408301 -4.96429205 0.51456749 12 5 14757 5.90400000 2691541630 2691541630 5.00000000
1.84379196 -2.90311074 -0.54470479 3 6 14758 3.48200000 2691541632 2691541632 -9.00000000
3.14399648 -4.95223475 0.72024781 10 7 14759 5.91000000 2691541634 2691541634 7.00000000
2.39112043 -3.76780272 -0.54792458 4 8 14760 4.49600000 2691541636 2691541636 -7.00000000
3.14381909 -4.95577765 0.92953360 16 9 14761 5.94200000 2691541639 2691541639 9.00000000
3.16555834 -4.99004698 -0.51700789 15 10 14761 5.93200000 2691541641 2691541641 -5.00000000
3.12682080 -4.93088484 1.13493192 45 11 14762 5.94800000 2691541643 2691541643 11.00000000
3.14695525 -4.96455193 -0.30804944 12 12 14763 5.88600000 2691541646 2691541646 -3.00000000
3.12911463 -4.93831301 1.34970629 9 13 14764 6.00000000 2691541648 2691541648 13.00000000
3.14584875 -4.96663904 -0.10262015 9 14 14765 5.88000000 2691541650 2691541650 -1.00000000
3.12819028 -4.94066763 1.56689048 9 15 14766 6.05400000 2691541653 2691541653 15.00000000
1.10879195 -1.75597036 -0.55646098 4 0 14773 2.15000000 2691541673 2691541673 -15.00000000
3.13377380 -4.96481037 0.10248053 11 1 14774 5.87200000 2691541676 2691541676 1.00000000
1.28736651 -2.04035234 -0.55697882 4 2 14775 2.47600000 2691541678 2691541678 -13.00000000
3.13035560 -4.96323252 0.30752608 9 3 14776 5.87600000 2691541680 2691541680 3.00000000
1.45369577 -2.30485964 -0.52968580 17 4 14776 2.77600000 2691541683 2691541683 -11.00000000
3.12717199 -4.96010303 0.51299870 12 5 14777 5.88600000 2691541685 2691541685 5.00000000
1.83996618 -2.91955614 -0.54658204 1 6 14778 3.49400000 2691541687 2691541687 -9.00000000
3.12457442 -4.95982027 0.71976036 10 7 14779 5.90600000 2691541689 2691541689 7.00000000
2.36737561 -3.75932860 -0.54548717 4 8 14780 4.47600000 2691541692 2691541692 -7.00000000
3.11789417 -4.95113182 0.92671776 19 9 14780 5.92400000 2691541694 2691541694 9.00000000
3.13750648 -4.98420477 -0.51526475 15 10 14781 5.91200000 2691541696 2691541696 -5.00000000
3.11063528 -4.94343090 1.13531351 60 11 14782 5.95000000 2691541699 2691541699 11.00000000
3.12535286 -4.96874380 -0.30763075 12 12 14783 5.87800000 2691541701 2691541701 -3.00000000
3.09733582 -4.92610931 1.34340775 8 13 14784 5.97200000 2691541703 2691541703 13.00000000
3.12104392 -4.96573877 -0.10237581 9 14 14785 5.86600000 2691541706 2691541706 -1.00000000
