# .PCD v0.7 - Point Cloud Data file format
VERSION 0.7
FIELDS x y z intensity laser_id azimuth distance_m adjustedtime timestamp vertical_angle
SIZE 4 4 4 1 1 2 8 8 4 8
TYPE F F F U U U F U U F
COUNT 1 1 1 1 1 1 1 1 1 1
WIDTH 518
HEIGHT 1
VIEWPOINT 0 0 0 1 0 0 0
POINTS 518
DATA ascii
-4.61385202 -2.03014350 -0.44100806 6 10 24625 5.06000000 2686868902 2686868902 -5.00000000
-6.71203756 -2.95057106 -0.38425058 3 12 24627 7.34200000 2686868907 2686868907 -3.00000000
-10.14804554 -4.45890617 2.55904317 47 13 24628 11.37600000 2686868909 2686868909 13.00000000
-9.57518673 -4.20321321 2.80197501 38 15 24630 10.82600000 2686868914 2686868914 15.00000000
-1.75938678 -0.76938862 -0.51453227 4 0 24638 1.98800000 2686868934 2686868934 -15.00000000
-2.02504373 -0.88471985 -0.51018900 4 2 24640 2.26800000 2686868939 2686868939 -13.00000000
-2.35513997 -1.02844596 -0.49953794 3 4 24641 2.61800000 2686868944 2686868944 -11.00000000
-2.83717155 -1.23776114 -0.49026561 2 6 24643 3.13400000 2686868948 2686868948 -9.00000000
-3.49393439 -1.52283275 -0.46797827 3 8 24645 3.84000000 2686868953 2686868953 -7.00000000
-4.62308836 -2.01401496 -0.44118237 3 10 24646 5.06200000 2686868957 2686868957 -5.00000000
-6.72463799 -2.92674732 -0.38435528 3 12 24648 7.34400000 2686868962 2686868962 -3.00000000
-10.23579884 -4.45277643 2.57703924 44 13 24649 11.45600000 2686868964 2686868964 13.00000000
-9.86056232 -4.28749418 -0.18768318 6 14 24650 10.75400000 2686868967 2686868967 -1.00000000
-9.56676960 -4.15974998 2.79524565 33 15 24650 10.80000000 2686868969 2686868969 15.00000000
-1.75142550 -0.75863546 -0.51142645 4 0 24658 1.97600000 2686868990 2686868990 -15.00000000
-2.03527355 -0.88074148 -0.51198858 4 2 24660 2.27600000 2686868994 2686868994 -13.00000000
-2.36592340 -1.02333629 -0.50106442 3 4 24661 2.62600000 2686868999 2686868999 -11.00000000
-2.83784842 -1.22628284 -0.48963988 2 6 24663 3.13000000 2686869003 2686869003 -9.00000000
-3.50834131 -1.51456130 -0.46919698 3 8 24665 3.85000000 2686869008 2686869008 -7.00000000
-4.65204287 -2.00733733 -0.44327411 3 10 24666 5.08600000 2686869013 2686869013 -5.00000000
-6.73297930 -2.90246558 -0.38425058 3 12 24668 7.34200000 2686869017 2686869017 -3.00000000
-10.33539486 -4.45326281 2.59818459 53 13 24669 11.55000000 2686869020 2686869020 13.00000000
-9.87914085 -4.25463057 -0.18775299 6 14 24670 10.75800000 2686869022 2686869022 -1.00000000
-9.57945728 -4.12556601 2.79472804 38 15 24670 10.79800000 2686869024 2686869024 15.00000000
-1.77004123 -0.75937212 -0.51608515 4 0 24678 1.99400000 2686869045 2686869045 -15.00000000
-2.02758861 -0.86902553 -0.50928921 4 2 24680 2.26400000 2686869050 2686869050 -13.00000000
-2.36226249 -1.01197898 -0.49953794 3 4 24681 2.61800000 2686869054 2686869054 -11.00000000
-2.83121538 -1.21170604 -0.48776266 2 6 24683 3.11800000 2686869059 2686869059 -9.00000000
-3.54281068 -1.51479232 -0.47309679 3 8 24685 3.88200000 2686869063 2686869063 -7.00000000
-4.62787580 -1.97777605 -0.44031081 3 10 24686 5.05200000 2686869068 2686869068 -5.00000000
-10.10865879 -4.31796551 2.13667917 12 11 24687 11.19800000 2686869070 2686869070 11.00000000
-6.74123287 -2.87816119 -0.38414592 3 12 24688 7.34000000 2686869073 2686869073 -3.00000000
-10.43332481 -4.45234251 2.61888027 50 13 24689 11.64200000 2686869075 2686869075 13.00000000
-9.86634254 -4.20835161 -0.18722941 2 14 24690 10.72800000 2686869077 2686869077 -1.00000000
-9.59024620 -4.09058666 2.79369283 38 15 24690 10.79400000 2686869079 2686869079 15.00000000
-1.77623725 -0.75469983 -0.51712048 5 0 24698 1.99800000 2686869100 2686869100 -15.00000000
-2.02343440 -0.85889691 -0.50748956 4 2 24700 2.25600000 2686869105 2686869105 -13.00000000
-2.36939526 -1.00526059 -0.50030118 3 4 24701 2.62200000 2686869109 2686869109 -11.00000000
-2.84634018 -1.20644128 -0.48963988 2 6 24703 3.13000000 2686869114 2686869114 -9.00000000
-4.65493393 -1.97015190 -0.44222823 3 10 24706 5.07400000 2686869123 2686869123 -5.00000000
-10.12547779 -4.28341818 2.13706064 12 11 24707 11.20000000 2686869126 2686869126 11.00000000
-6.73468208 -2.84761190 -0.38320386 3 12 24708 7.32200000 2686869128 2686869128 -3.00000000
-10.51342392 -4.44320679 2.63507676 53 13 24709 11.71400000 2686869130 2686869130 13.00000000
-9.87544537 -4.17155170 -0.18712470 6 14 24710 10.72200000 2686869132 2686869132 -1.00000000
-9.60517406 -4.05540895 2.79369283 40 15 24711 10.79400000 2686869135 2686869135 15.00000000
-1.78954458 -0.75299042 -0.52022630 5 0 24718 2.01000000 2686869156 2686869156 -15.00000000
-2.03001308 -0.85333890 -0.50838935 4 2 24720 2.26000000 2686869160 2686869160 -13.00000000
-2.37650990 -0.99850470 -0.50106442 3 4 24721 2.62600000 2686869165 2686869165 -11.00000000
-2.85053420 -1.19649827 -0.48963988 2 6 24723 3.13000000 2686869169 2686869169 -9.00000000
-4.67097044 -1.95774198 -0.44309980 3 10 24726 5.08400000 2686869179 2686869179 -5.00000000
-10.12769222 -4.24273777 2.13438940 12 11 24727 11.18600000 2686869181 2686869181 11.00000000
-6.76116180 -2.83102870 -0.38414592 7 12 24728 7.34000000 2686869183 2686869183 -3.00000000
-10.61695480 -4.44334555 2.65712190 52 13 24729 11.81200000 2686869185 2686869185 13.00000000
-9.61856937 -4.02353477 2.79369283 40 15 24730 10.79400000 2686869190 2686869190 15.00000000
-1.77254641 -0.73856592 -0.51453227 4 0 24738 1.98800000 2686869211 2686869211 -15.00000000
-2.04377389 -0.85074097 -0.51108879 4 2 24740 2.27200000 2686869215 2686869215 -13.00000000
-2.36547971 -0.98416984 -0.49801147 3 4 24741 2.61000000 2686869220 2686869220 -11.00000000
-2.84739685 -1.18350816 -0.48838839 2 6 24743 3.12200000 2686869225 2686869225 -9.00000000
-3.52364588 -1.46314573 -0.46846575 1 8 24745 3.84400000 2686869229 2686869229 -7.00000000
-4.67409563 -1.93989778 -0.44275117 3 10 24746 5.08000000 2686869234 2686869234 -5.00000000
-10.12249279 -4.19908476 2.13019156 6 11 24747 11.16400000 2686869236 2686869236 11.00000000
-6.79314232 -2.81659007 -0.38540199 3 12 24748 7.36400000 2686869238 2686869238 -3.00000000
-10.70621109 -4.43684721 2.67556787 50 13 24749 11.89400000 2686869241 2686869241 13.00000000
-9.61649227 -3.98328161 2.78903413 35 15 24750 10.77600000 2686869245 2686869245 15.00000000
-1.77141452 -0.73120970 -0.51349699 4 0 24757 1.98400000 2686869266 2686869266 -15.00000000
-2.05018711 -0.84544474 -0.51198858 4 2 24759 2.27600000 2686869271 2686869271 -13.00000000
-2.37599087 -0.97931272 -0.49953794 3 4 24760 2.61800000 2686869275 2686869275 -11.00000000
-2.84765267 -1.17255509 -0.48776266 2 6 24762 3.11800000 2686869280 2686869280 -9.00000000
-3.54867268 -1.45975983 -0.47114688 3 8 24764 3.86600000 2686869284 2686869284 -7.00000000
-4.65101910 -1.91226518 -0.43996218 3 10 24765 5.04800000 2686869289 2686869289 -5.00000000
-6.79874992 -2.79253006 -0.38519263 3 12 24767 7.36000000 2686869294 2686869294 -3.00000000
-10.81641006 -4.44054461 2.69941258 46 13 24768 12.00000000 2686869296 2686869296 13.00000000
-9.61713791 -3.94623685 2.78541064 33 15 24769 10.76200000 2686869301 2686869301 15.00000000
-1.78468561 -0.72940707 -0.51660281 5 0 24777 1.99600000 2686869321 2686869321 -15.00000000
-2.04049659 -0.83312672 -0.50883931 4 2 24779 2.26200000 2686869326 2686869326 -13.00000000
-2.38666558 -0.97398019 -0.50106442 3 4 24780 2.62600000 2686869331 2686869331 -11.00000000
-2.85172844 -1.16260779 -0.48776266 2 6 24782 3.11800000 2686869335 2686869335 -9.00000000
-3.55558515 -1.44811249 -0.47139063 3 8 24784 3.86800000 2686869340 2686869340 -7.00000000
-4.69457293 -1.91104233 -0.44344842 3 10 24785 5.08800000 2686869344 2686869344 -5.00000000
-6.78810501 -2.76050472 -0.38404125 3 12 24787 7.33800000 2686869349 2686869349 -3.00000000
-9.63511753 -3.91241527 2.78644586 40 15 24790 10.76600000 2686869356 2686869356 15.00000000
-1.78363931 -0.72172362 -0.51556754 5 0 24797 1.99200000 2686869377 2686869377 -15.00000000
-2.04519916 -0.82672930 -0.50928921 4 2 24799 2.26400000 2686869381 2686869381 -13.00000000
-2.39733219 -0.96858507 -0.50259089 3 4 24800 2.63400000 2686869386 2686869386 -11.00000000
-2.86309648 -1.15560365 -0.48901415 2 6 24802 3.12600000 2686869390 2686869390 -9.00000000
-3.55325389 -1.43272305 -0.47041565 3 8 24804 3.86000000 2686869395 2686869395 -7.00000000
-4.71230268 -1.89911211 -0.44449428 3 10 24805 5.10000000 2686869400 2686869400 -5.00000000
-6.81437445 -2.74350643 -0.38498330 3 12 24807 7.35600000 2686869404 2686869404 -3.00000000
-9.64983082 -3.88116360 2.78696346 40 15 24809 10.76800000 2686869411 2686869411 15.00000000
-1.78973436 -0.71692991 -0.51660281 4 0 24817 1.99600000 2686869432 2686869432 -15.00000000
-2.05169082 -0.82103324 -0.51018900 4 2 24819 2.26800000 2686869436 2686869436 -13.00000000
-2.39705276 -0.95875275 -0.50182766 3 4 24820 2.63000000 2686869441 2686869441 -11.00000000
-2.86344409 -1.14413667 -0.48838839 2 6 24822 3.12200000 2686869446 2686869446 -9.00000000
-3.54164076 -1.41368794 -0.46822202 3 8 24824 3.84200000 2686869450 2686869450 -7.00000000
-4.71150112 -1.87969828 -0.44379705 3 10 24825 5.09200000 2686869455 2686869455 -5.00000000
-6.80721140 -2.71304798 -0.38404125 3 12 24827 7.33800000 2686869460 2686869460 -3.00000000
-9.67947292 -3.85388708 2.79162216 42 15 24829 10.78600000 2686869466 2686869466 15.00000000
-1.79940927 -0.71352661 -0.51867336 5 0 24837 2.00400000 2686869487 2686869487 -15.00000000
-2.06179142 -0.81673729 -0.51198858 4 2 24839 2.27600000 2686869492 2686869492 -13.00000000
-2.39308333 -0.94748873 -0.50030118 3 4 24840 2.62200000 2686869496 2686869496 -11.00000000
-2.87109423 -1.13558745 -0.48901415 2 6 24842 3.12600000 2686869501 2686869501 -9.00000000
-3.56316948 -1.40788198 -0.47041565 3 8 24844 3.86000000 2686869506 2686869506 -7.00000000
-4.71062136 -1.86031330 -0.44309980 3 10 24845 5.08400000 2686869510 2686869510 -5.00000000
-6.83150339 -2.69513369 -0.38487864 3 12 24847 7.35400000 2686869515 2686869515 -3.00000000
-9.67735577 -3.81201196 2.78696346 45 15 24850 10.76800000 2686869522 2686869522 15.00000000
-1.78930092 -0.70230037 -0.51504987 5 0 24857 1.99000000 2686869542 2686869542 -15.00000000
-2.06825829 -0.81095803 -0.51288843 4 2 24859 2.28000000 2686869547 2686869547 -13.00000000
-2.39454818 -0.93841320 -0.49991956 3 4 24860 2.62000000 2686869552 2686869552 -11.00000000
-2.87871957 -1.12699878 -0.48963988 2 6 24862 3.13000000 2686869556 2686869556 -9.00000000
-3.59024715 -1.40411186 -0.47334054 3 8 24864 3.88400000 2686869561 2686869561 -7.00000000
-4.70966387 -1.84095740 -0.44240254 3 10 24865 5.07600000 2686869566 2686869566 -5.00000000
-6.84645081 -2.67345023 -0.38519263 3 12 24867 7.36000000 2686869570 2686869570 -3.00000000
-9.33062553 -3.63785911 2.68343592 28 15 24870 10.36800000 2686869577 2686869577 15.00000000
-1.79546475 -0.69713598 -0.51608515 4 0 24878 1.99400000 2686869598 2686869598 -15.00000000
-2.06031561 -0.79914373 -0.51018900 4 2 24880 2.26800000 2686869602 2686869602 -13.00000000
-2.40163255 -0.93104970 -0.50068283 3 4 24881 2.62400000 2686869607 2686869607 -11.00000000
-2.88651514 -1.11786699 -0.49026561 2 6 24883 3.13400000 2686869612 2686869612 -9.00000000
-3.58240986 -1.38592982 -0.47163436 3 8 24885 3.87000000 2686869616 2686869616 -7.00000000
-4.71637964 -1.82368326 -0.44240254 3 10 24886 5.07600000 2686869621 2686869621 -5.00000000
-6.84688807 -2.64474058 -0.38466927 3 12 24888 7.35000000 2686869625 2686869625 -3.00000000
-9.70258427 -3.74197006 2.78644586 35 15 24891 10.76600000 2686869632 2686869632 15.00000000
-1.79788721 -0.69086438 -0.51608515 5 0 24898 1.99400000 2686869653 2686869653 -15.00000000
-2.05217671 -0.78775686 -0.50748956 4 2 24900 2.25600000 2686869658 2686869658 -13.00000000
-2.40120196 -0.92125428 -0.49991956 3 4 24901 2.62000000 2686869662 2686869662 -11.00000000
-2.88671041 -1.10637045 -0.48963988 2 6 24903 3.13000000 2686869667 2686869667 -9.00000000
-3.57610250 -1.36915779 -0.47017193 3 8 24905 3.85800000 2686869672 2686869672 -7.00000000
-4.72271633 -1.80720890 -0.44240254 3 10 24906 5.07600000 2686869676 2686869676 -5.00000000
-6.84488487 -2.61654544 -0.38404125 3 12 24908 7.33800000 2686869681 2686869681 -3.00000000
-9.72641563 -3.71221209 2.78955173 38 15 24911 10.77800000 2686869688 2686869688 15.00000000
-1.81292772 -0.68939090 -0.51970863 5 0 24918 2.00800000 2686869708 2686869708 -15.00000000
-2.06948781 -0.78612471 -0.51108879 4 2 24920 2.27200000 2686869713 2686869713 -13.00000000
-2.41358018 -0.91635114 -0.50182766 3 4 24921 2.63000000 2686869718 2686869718 -11.00000000
-2.88316679 -1.09348524 -0.48838839 2 6 24923 3.12200000 2686869722 2686869722 -9.00000000
-3.57714725 -1.35525990 -0.46968445 3 8 24925 3.85400000 2686869727 2686869727 -7.00000000
-4.74203920 -1.79565156 -0.44362274 3 10 24926 5.09000000 2686869731 2686869731 -5.00000000
-6.86518478 -2.59687614 -0.38466927 3 12 24928 7.35000000 2686869736 2686869736 -3.00000000
-9.74228668 -3.68130350 2.79058695 40 15 24930 10.78200000 2686869743 2686869743 15.00000000
-1.80085838 -0.67761570 -0.51556754 4 0 24938 1.99200000 2686869764 2686869764 -15.00000000
-2.05945039 -0.77409655 -0.50793946 4 2 24940 2.25800000 2686869768 2686869768 -13.00000000
-2.40389919 -0.90308756 -0.49915633 3 4 24941 2.61600000 2686869773 2686869773 -11.00000000
-2.89806271 -1.08757877 -0.49026561 2 6 24943 3.13400000 2686869777 2686869777 -9.00000000
-3.58557391 -1.34415865 -0.47017193 3 8 24945 3.85800000 2686869782 2686869782 -7.00000000
-4.72215796 -1.76930106 -0.44118237 3 10 24946 5.06200000 2686869787 2686869787 -5.00000000
-6.88169003 -2.57569671 -0.38508797 3 12 24948 7.35800000 2686869791 2686869791 -3.00000000
-9.74666595 -3.64219022 2.78799868 40 15 24951 10.77200000 2686869798 2686869798 15.00000000
-1.79778147 -0.66930336 -0.51401460 5 0 24958 1.98600000 2686869819 2686869819 -15.00000000
-2.07309914 -0.77097863 -0.51063889 4 2 24960 2.27000000 2686869824 2686869824 -13.00000000
-2.41439795 -0.89742690 -0.50068283 3 4 24961 2.62400000 2686869828 2686869828 -11.00000000
-2.89443421 -1.07470560 -0.48901415 2 6 24963 3.12600000 2686869833 2686869833 -9.00000000
-3.60885596 -1.33853781 -0.47260931 3 8 24965 3.87800000 2686869837 2686869837 -7.00000000
-4.73951435 -1.75696206 -0.44222823 3 10 24966 5.07400000 2686869842 2686869842 -5.00000000
-6.88314724 -2.54888511 -0.38466927 3 12 24968 7.35000000 2686869847 2686869847 -3.00000000
-9.65878010 -3.57480788 2.37773275 15 13 24969 10.57000000 2686869849 2686869849 13.00000000
-9.75325489 -3.60783839 2.78644586 40 15 24970 10.76600000 2686869854 2686869854 15.00000000
-1.80373240 -0.66435921 -0.51504987 5 0 24978 1.99000000 2686869874 2686869874 -15.00000000
-2.06846213 -0.76104587 -0.50883931 4 2 24980 2.26200000 2686869879 2686869879 -13.00000000
-2.42120123 -0.89034879 -0.50144607 3 4 24981 2.62800000 2686869883 2686869883 -11.00000000
-2.89445949 -1.06323338 -0.48838839 2 6 24983 3.12200000 2686869888 2686869888 -9.00000000
-3.62096071 -1.32866764 -0.47358426 3 8 24985 3.88600000 2686869893 2686869893 -7.00000000
-4.72317171 -1.73217523 -0.44013649 6 10 24986 5.05000000 2686869897 2686869897 -5.00000000
-6.89950371 -2.52759123 -0.38508797 3 12 24988 7.35800000 2686869902 2686869902 -3.00000000
-9.72975731 -3.56251144 2.39212942 20 13 24989 10.63400000 2686869904 2686869904 13.00000000
-9.77185535 -3.57405758 2.78799868 40 15 24991 10.77200000 2686869909 2686869909 15.00000000
-1.80967069 -0.65938169 -0.51608515 5 0 24998 1.99400000 2686869930 2686869930 -15.00000000
-2.07659984 -0.75582051 -0.51018900 4 2 25000 2.26800000 2686869934 2686869934 -13.00000000
-2.42798424 -0.88323408 -0.50220925 3 4 25001 2.63200000 2686869939 2686869939 -11.00000000
-2.89815331 -1.05312335 -0.48838839 2 6 25003 3.12200000 2686869943 2686869943 -9.00000000
-3.57892728 -1.29908717 -0.46749079 7 8 25005 3.83600000 2686869948 2686869948 -7.00000000
-4.75166464 -1.72383142 -0.44222823 6 10 25006 5.07400000 2686869953 2686869953 -5.00000000
-6.90452909 -2.50213099 -0.38487864 3 12 25008 7.35400000 2686869957 2686869957 -3.00000000
-9.81359196 -3.55440807 2.40967560 14 13 25009 10.71200000 2686869960 2686869960 13.00000000
-9.79273605 -3.54492092 2.79058695 40 15 25010 10.78200000 2686869964 2686869964 15.00000000
-1.82286572 -0.65699095 -0.51919103 5 0 25018 2.00600000 2686869985 2686869985 -15.00000000
-2.07372475 -0.74658686 -0.50883931 4 2 25020 2.26200000 2686869989 2686869989 -13.00000000
-2.42366338 -0.87209463 -0.50068283 3 4 25021 2.62400000 2686869994 2686869994 -11.00000000
-2.90924740 -1.04567313 -0.48963988 2 6 25023 3.13000000 2686869999 2686869999 -9.00000000
-3.57409859 -1.28323257 -0.46627212 7 8 25025 3.82600000 2686870003 2686870003 -7.00000000
-4.76140356 -1.70858037 -0.44257686 3 10 25026 5.07800000 2686870008 2686870008 -5.00000000
-6.89442015 -2.47127533 -0.38383189 3 12 25028 7.33400000 2686870012 2686870012 -3.00000000
-9.80748177 -3.50965595 2.79110456 40 15 25031 10.78400000 2686870019 2686870019 15.00000000
-1.81786919 -0.64802921 -0.51712048 4 0 25038 1.99800000 2686870040 2686870040 -15.00000000
-2.08916903 -0.74391961 -0.51198858 4 2 25040 2.27600000 2686870045 2686870045 -13.00000000
-2.42299342 -0.86231267 -0.49991956 3 4 25041 2.62000000 2686870049 2686870049 -11.00000000
-2.90543461 -1.03286493 -0.48838839 2 6 25043 3.12200000 2686870054 2686870054 -9.00000000
-3.62158108 -1.28602695 -0.47187811 5 8 25045 3.87200000 2686870059 2686870059 -7.00000000
-4.76546097 -1.69128323 -0.44240254 3 10 25046 5.07600000 2686870063 2686870063 -5.00000000
-6.91806412 -2.45253301 -0.38466927 3 12 25048 7.35000000 2686870068 2686870068 -3.00000000
-9.81360340 -3.47517920 2.78955173 42 15 25050 10.77800000 2686870075 2686870075 15.00000000
-1.80918860 -0.63782579 -0.51401460 4 0 25058 1.98600000 2686870095 2686870095 -15.00000000
-2.08991504 -0.73597527 -0.51153868 4 2 25060 2.27400000 2686870100 2686870100 -13.00000000
-2.43339634 -0.85645676 -0.50144607 3 4 25061 2.62800000 2686870105 2686870105 -11.00000000
-2.92020369 -1.02664781 -0.49026561 2 6 25063 3.13400000 2686870109 2686870109 -9.00000000
-3.63541293 -1.27666616 -0.47309679 5 8 25065 3.88200000 2686870114 2686870114 -7.00000000
-4.76569557 -1.67265892 -0.44187963 3 10 25066 5.07000000 2686870118 2686870118 -5.00000000
-6.95297003 -2.43762040 -0.38613468 3 12 25068 7.37800000 2686870123 2686870123 -3.00000000
-9.81898117 -3.43663454 2.78748107 40 15 25071 10.77000000 2686870130 2686870130 15.00000000
-1.81676590 -0.63373160 -0.51556754 5 0 25077 1.99200000 2686870151 2686870151 -15.00000000
-2.09050393 -0.72839957 -0.51108879 4 2 25079 2.27200000 2686870155 2686870155 -13.00000000
-2.43622303 -0.84838265 -0.50144607 3 4 25080 2.62800000 2686870160 2686870160 -11.00000000
-2.91239786 -1.01306450 -0.48838839 2 6 25082 3.12200000 2686870165 2686870165 -9.00000000
-3.64525199 -1.26655817 -0.47382802 5 8 25084 3.88800000 2686870169 2686870169 -7.00000000
-4.77498055 -1.65815330 -0.44222823 6 10 25085 5.07400000 2686870174 2686870174 -5.00000000
-6.93837166 -2.40669584 -0.38487864 3 12 25087 7.35400000 2686870178 2686870178 -3.00000000
-9.83155441 -3.40640283 2.78799868 38 15 25089 10.77200000 2686870185 2686870185 15.00000000
-1.82444572 -0.62927580 -0.51712048 4 0 25097 1.99800000 2686870206 2686870206 -15.00000000
-2.08566380 -0.71855885 -0.50928921 4 2 25099 2.26400000 2686870211 2686870211 -13.00000000
-2.43916965 -0.83987343 -0.50144607 3 4 25100 2.62800000 2686870215 2686870215 -11.00000000
-2.91218042 -1.00160718 -0.48776266 2 6 25102 3.11800000 2686870220 2686870220 -9.00000000
-3.63838649 -1.24995637 -0.47236559 5 8 25104 3.87600000 2686870224 2686870224 -7.00000000
-4.78262377 -1.64212239 -0.44240254 6 10 25105 5.07600000 2686870229 2686870229 -5.00000000
-6.93539476 -2.37857413 -0.38425058 3 12 25107 7.34200000 2686870234 2686870234 -3.00000000
-9.84397411 -3.37034559 2.78799868 42 15 25110 10.77200000 2686870241 2686870241 15.00000000
-1.82114589 -0.62103289 -0.51556754 4 0 25117 1.99200000 2686870261 2686870261 -15.00000000
-2.08631468 -0.71064579 -0.50883931 4 2 25119 2.26200000 2686870266 2686870266 -13.00000000
-2.44208646 -0.83135402 -0.50144607 3 4 25120 2.62800000 2686870271 2686870271 -11.00000000
-2.91191840 -0.99016380 -0.48713693 2 6 25122 3.11400000 2686870275 2686870275 -9.00000000
-3.63144970 -1.23341787 -0.47090313 5 8 25124 3.86400000 2686870280 2686870280 -7.00000000
-4.80530643 -1.63118184 -0.44397137 6 10 25125 5.09400000 2686870284 2686870284 -5.00000000
-6.95689583 -2.35883999 -0.38498330 3 12 25127 7.35600000 2686870289 2686870289 -3.00000000
-9.86424446 -3.34078169 2.79058695 42 15 25129 10.78200000 2686870296 2686870296 15.00000000
-1.82513320 -0.61528927 -0.51608515 5 0 25137 1.99400000 2686870317 2686870317 -15.00000000
-2.09432316 -0.70522457 -0.51018900 4 2 25139 2.26800000 2686870321 2686870321 -13.00000000
-2.43380928 -0.81906730 -0.49915633 3 4 25140 2.61600000 2686870326 2686870326 -11.00000000
-2.95280552 -0.99258149 -0.49339432 3 6 25142 3.15400000 2686870330 2686870330 -9.00000000
-3.62820554 -1.21820688 -0.46992818 5 8 25144 3.85600000 2686870335 2686870335 -7.00000000
-4.79963779 -1.61059511 -0.44292548 3 10 25145 5.08200000 2686870340 2686870340 -5.00000000
-6.95561886 -2.33136773 -0.38445994 3 12 25147 7.34600000 2686870344 2686870344 -3.00000000
-9.85935879 -3.30080891 2.78592825 42 15 25149 10.76400000 2686870351 2686870351 15.00000000
-1.81821167 -0.60554355 -0.51349699 5 0 25158 1.98400000 2686870372 2686870372 -15.00000000
-2.09504485 -0.69692862 -0.50973910 4 2 25160 2.26600000 2686870377 2686870377 -13.00000000
-2.44797301 -0.81385773 -0.50144607 3 4 25161 2.62800000 2686870381 2686870381 -11.00000000
-2.92267871 -0.97054648 -0.48776266 2 6 25163 3.11800000 2686870386 2686870386 -9.00000000
-3.64771938 -1.20990026 -0.47187811 5 8 25165 3.87200000 2686870390 2686870390 -7.00000000
-4.78281450 -1.58546972 -0.44083375 3 10 25166 5.05800000 2686870395 2686870395 -5.00000000
-6.98876524 -2.31401968 -0.38582066 3 12 25168 7.37200000 2686870400 2686870400 -3.00000000
-9.86221981 -3.26161742 2.78333998 40 15 25170 10.75400000 2686870406 2686870406 15.00000000
-1.83866429 -0.60523337 -0.51867336 5 0 25178 2.00400000 2686870427 2686870427 -15.00000000
-2.09746480 -0.68961132 -0.50973910 4 2 25180 2.26600000 2686870432 2686870432 -13.00000000
-2.45079899 -0.80530775 -0.50144607 3 4 25181 2.62800000 2686870436 2686870436 -11.00000000
-2.92229509 -0.95910650 -0.48713693 2 6 25183 3.11400000 2686870441 2686870441 -9.00000000
-3.67078376 -1.20334363 -0.47431549 5 8 25185 3.89200000 2686870446 2686870446 -7.00000000
-4.80535984 -1.57434773 -0.44240254 3 10 25186 5.07600000 2686870450 2686870450 -5.00000000
-6.97591972 -2.28277755 -0.38466927 7 12 25188 7.35000000 2686870455 2686870455 -3.00000000
-9.87594509 -3.22604847 2.78385758 40 15 25191 10.75600000 2686870462 2686870462 15.00000000
-1.83525455 -0.59701866 -0.51712048 5 0 25198 1.99800000 2686870483 2686870483 -15.00000000
-2.10171247 -0.68288779 -0.51018900 4 2 25200 2.26800000 2686870487 2686870487 -13.00000000
-2.45359492 -0.79674792 -0.50144607 3 4 25201 2.62800000 2686870492 2686870492 -11.00000000
-2.94065738 -0.95377547 -0.48963988 2 6 25203 3.13000000 2686870496 2686870496 -9.00000000
-3.65607715 -1.18440509 -0.47187811 5 8 25205 3.87200000 2686870501 2686870501 -7.00000000
-4.80893087 -1.55695069 -0.44222823 3 10 25206 5.07400000 2686870506 2686870506 -5.00000000
-6.98954678 -2.26025677 -0.38498330 3 12 25208 7.35600000 2686870510 2686870510 -3.00000000
-9.88291168 -3.19209337 2.78282237 40 15 25210 10.75200000 2686870517 2686870517 15.00000000
-1.84100568 -0.59179121 -0.51815575 4 0 25218 2.00200000 2686870538 2686870538 -15.00000000
-2.10593891 -0.67614299 -0.51063889 4 2 25220 2.27000000 2686870542 2686870542 -13.00000000
-2.45636129 -0.78817844 -0.50144607 3 4 25221 2.62800000 2686870547 2686870547 -11.00000000
-2.94020629 -0.94229913 -0.48901415 2 6 25223 3.12600000 2686870552 2686870552 -9.00000000
-3.65640807 -1.17042542 -0.47139063 5 8 25225 3.86800000 2686870556 2686870556 -7.00000000
-4.82002926 -1.54197609 -0.44275117 6 10 25226 5.08000000 2686870561 2686870561 -5.00000000
-7.00500393 -2.23827648 -0.38540199 3 12 25228 7.36400000 2686870565 2686870565 -3.00000000
-9.89951515 -3.15933824 2.78437519 42 15 25230 10.75800000 2686870572 2686870572 15.00000000
-1.83569527 -0.58302218 -0.51608515 4 0 25238 1.99400000 2686870593 2686870593 -15.00000000
-2.11757374 -0.67173398 -0.51288843 4 2 25240 2.28000000 2686870598 2686870598 -13.00000000
-2.45161176 -0.77722615 -0.49991956 3 4 25241 2.62000000 2686870602 2686870602 -11.00000000
-2.95101070 -0.93441534 -0.49026561 2 6 25243 3.13400000 2686870607 2686870607 -9.00000000
-3.66425657 -1.15885222 -0.47187811 5 8 25245 3.87200000 2686870611 2686870611 -7.00000000
-4.81208420 -1.52093852 -0.44153100 6 10 25246 5.06600000 2686870616 2686870616 -5.00000000
-7.00706053 -2.21200705 -0.38508797 7 12 25248 7.35800000 2686870621 2686870621 -3.00000000
-9.89758587 -3.12069678 2.78075171 40 15 25250 10.74400000 2686870628 2686870628 15.00000000
-1.82113004 -0.57140577 -0.51142645 4 0 25258 1.97600000 2686870648 2686870648 -15.00000000
-2.11990571 -0.66433817 -0.51288843 4 2 25260 2.28000000 2686870653 2686870653 -13.00000000
-2.45430970 -0.76866364 -0.49991956 3 4 25261 2.62000000 2686870658 2686870658 -11.00000000
-2.94294262 -0.92057031 -0.48838839 2 6 25263 3.12200000 2686870662 2686870662 -9.00000000
-3.67206907 -1.14723849 -0.47236559 5 8 25265 3.87600000 2686870667 2686870667 -7.00000000
-4.82687283 -1.50710106 -0.44240254 6 10 25266 5.07600000 2686870671 2686870671 -5.00000000
-7.02999258 -2.19229126 -0.38592535 7 12 25268 7.37400000 2686870676 2686870676 -3.00000000
-9.90526867 -3.08325100 2.77971649 40 15 25271 10.74000000 2686870683 2686870683 15.00000000
-1.84146643 -0.57108581 -0.51660281 5 0 25277 1.99600000 2686870704 2686870704 -15.00000000
-2.11278963 -0.65442175 -0.51063889 4 2 25279 2.27000000 2686870708 2686870708 -13.00000000
-2.46434712 -0.76284283 -0.50144607 3 4 25280 2.62800000 2686870713 2686870713 -11.00000000
-2.94975352 -0.91197306 -0.48901415 2 6 25282 3.12600000 2686870717 2686870717 -9.00000000
-3.66826630 -1.13271236 -0.47139063 5 8 25284 3.86800000 2686870722 2686870722 -7.00000000
-4.82803631 -1.48991120 -0.44205391 6 10 25285 5.07200000 2686870727 2686870727 -5.00000000
-7.05440187 -2.17426133 -0.38686737 19 12 25287 7.39200000 2686870731 2686870731 -3.00000000
-9.80735683 -3.02088475 2.36918449 16 13 25288 10.53200000 2686870734 2686870734 13.00000000
-9.80781746 -3.01915240 2.74969363 19 15 25289 10.62400000 2686870738 2686870738 15.00000000
-1.84529579 -0.56522024 -0.51712048 5 0 25297 1.99800000 2686870759 2686870759 -15.00000000
-2.10947061 -0.64533252 -0.50928921 4 2 25299 2.26400000 2686870763 2686870763 -13.00000000
-2.47450471 -0.75653201 -0.50297248 3 4 25300 2.63600000 2686870768 2686870768 -11.00000000
-2.94158340 -0.89820963 -0.48713693 2 6 25302 3.11400000 2686870773 2686870773 -9.00000000
-3.67219782 -1.11990082 -0.47139063 5 8 25304 3.86800000 2686870777 2686870777 -7.00000000
-4.86370134 -1.48234284 -0.44484290 3 10 25305 5.10400000 2686870782 2686870782 -5.00000000
-7.66764069 -2.33399343 -0.42004839 59 12 25307 8.02600000 2686870787 2686870787 -3.00000000
-9.81038380 -2.98436356 2.36738491 34 13 25308 10.52400000 2686870789 2686870789 13.00000000
-9.80720615 -2.98152685 2.74658775 23 15 25309 10.61200000 2686870793 2686870793 15.00000000
-1.86020124 -0.56269085 -0.52074391 5 0 25317 2.01200000 2686870814 2686870814 -15.00000000
-2.11357594 -0.63852870 -0.50973910 4 2 25319 2.26600000 2686870819 2686870819 -13.00000000
-2.46585369 -0.74448514 -0.50068283 3 4 25320 2.62400000 2686870823 2686870823 -11.00000000
-2.96739602 -0.89477956 -0.49089134 2 6 25322 3.13800000 2686870828 2686870828 -9.00000000
-3.67228317 -1.10593081 -0.47090313 5 8 25324 3.86400000 2686870833 2686870833 -7.00000000
-4.84213591 -1.45731759 -0.44240254 6 10 25325 5.07600000 2686870837 2686870837 -5.00000000
-9.79274654 -2.94169116 2.36063647 29 13 25328 10.49400000 2686870844 2686870844 13.00000000
-9.81621838 -2.94500661 2.74607015 21 15 25330 10.61000000 2686870849 2686870849 15.00000000
-1.84919679 -0.55232394 -0.51712048 5 0 25337 1.99800000 2686870869 2686870869 -15.00000000
-2.13073134 -0.63560355 -0.51333833 4 2 25339 2.28200000 2686870874 2686870874 -13.00000000
-2.46467447 -0.73475140 -0.49991956 3 4 25340 2.62000000 2686870879 2686870879 -11.00000000
-2.97428775 -0.88554335 -0.49151710 2 6 25342 3.14200000 2686870883 2686870883 -9.00000000
-3.67612123 -1.09310544 -0.47090313 5 8 25344 3.86400000 2686870888 2686870888 -7.00000000
-4.87393141 -1.44835198 -0.44484290 3 10 25345 5.10400000 2686870893 2686870893 -5.00000000
-7.05189228 -2.09288263 -0.38550666 7 12 25347 7.36600000 2686870897 2686870897 -3.00000000
-9.92831421 -2.94090080 2.77454019 35 15 25350 10.72000000 2686870904 2686870904 15.00000000
-1.83804810 -0.54236162 -0.51349699 4 0 25356 1.98400000 2686870925 2686870925 -15.00000000
-2.12721944 -0.62688172 -0.51198858 4 2 25358 2.27600000 2686870929 2686870929 -13.00000000
-2.48216391 -0.73101133 -0.50297248 3 4 25359 2.63600000 2686870934 2686870934 -11.00000000
-2.97720814 -0.87567538 -0.49151710 2 6 25361 3.14200000 2686870939 2686870939 -9.00000000
-3.69115353 -1.08426583 -0.47236559 5 8 25363 3.87600000 2686870943 2686870943 -7.00000000
-4.86723709 -1.42881429 -0.44379705 3 10 25364 5.09200000 2686870948 2686870948 -5.00000000
-10.05604649 -2.95012212 2.03707695 6 11 25365 10.67600000 2686870950 2686870950 11.00000000
-7.09137583 -2.07903862 -0.38728607 3 12 25366 7.40000000 2686870952 2686870952 -3.00000000
-9.93986607 -2.90850353 2.77505779 42 15 25369 10.72200000 2686870959 2686870959 15.00000000
-1.85105872 -0.53918391 -0.51660281 6 0 25376 1.99600000 2686870980 2686870980 -15.00000000
-2.12752366 -0.61890817 -0.51153868 4 2 25378 2.27400000 2686870985 2686870985 -13.00000000
-2.48093009 -0.72124636 -0.50220925 3 4 25379 2.63200000 2686870989 2686870989 -11.00000000
-2.94230580 -0.85426199 -0.48525971 2 6 25381 3.10200000 2686870994 2686870994 -9.00000000
-3.69110274 -1.07026899 -0.47187811 5 8 25383 3.87200000 2686870999 2686870999 -7.00000000
-4.86071301 -1.40848863 -0.44275117 3 10 25384 5.08000000 2686871003 2686871003 -5.00000000
-10.16622925 -2.94394469 2.05730247 9 11 25385 10.78200000 2686871005 2686871005 11.00000000
-7.08132267 -2.04927540 -0.38634402 3 12 25386 7.38200000 2686871008 2686871008 -3.00000000
-10.37102222 -2.99932528 2.49245763 13 13 25387 11.08000000 2686871010 2686871010 13.00000000
-9.92954254 -2.86789274 2.76936388 40 15 25389 10.70000000 2686871015 2686871015 15.00000000
-1.86425638 -0.53527123 -0.51970863 5 0 25398 2.00800000 2686871035 2686871035 -15.00000000
-2.12426472 -0.60912311 -0.51018900 4 2 25400 2.26800000 2686871040 2686871040 -13.00000000
-2.49123025 -0.71387827 -0.50373572 3 4 25401 2.64000000 2686871045 2686871045 -11.00000000
-2.97595048 -0.85165399 -0.49026561 2 6 25403 3.13400000 2686871049 2686871049 -9.00000000
-3.69136763 -1.05499732 -0.47139063 5 8 25405 3.86800000 2686871054 2686871054 -7.00000000
-4.88715887 -1.39583337 -0.44466859 3 10 25406 5.10200000 2686871058 2686871058 -5.00000000
-10.29828167 -2.93937325 2.08172607 9 11 25407 10.91000000 2686871061 2686871061 11.00000000
-7.08145666 -2.01987863 -0.38592535 3 12 25408 7.37400000 2686871063 2686871063 -3.00000000
-10.38995838 -2.96161819 2.49425721 27 13 25409 11.08800000 2686871065 2686871065 13.00000000
-9.94927692 -2.83412600 2.77195191 42 15 25410 10.71000000 2686871070 2686871070 15.00000000
-1.85681999 -0.52612722 -0.51712048 4 0 25418 1.99800000 2686871091 2686871091 -15.00000000
-2.12825298 -0.60223490 -0.51063889 4 2 25420 2.27000000 2686871095 2686871095 -13.00000000
-2.48237205 -0.70197254 -0.50144607 3 4 25421 2.62800000 2686871100 2686871100 -11.00000000
-2.96749902 -0.83803964 -0.48838839 2 6 25423 3.12200000 2686871104 2686871104 -9.00000000
-3.69884896 -1.04318333 -0.47187811 7 8 25425 3.87200000 2686871109 2686871109 -7.00000000
-4.90158987 -1.38146782 -0.44554016 3 10 25426 5.11200000 2686871114 2686871114 -5.00000000
-10.38595772 -2.92522979 2.09737253 18 11 25427 10.99200000 2686871116 2686871116 11.00000000
-7.09615421 -1.99731207 -0.38634402 3 12 25428 7.38200000 2686871118 2686871118 -3.00000000
-10.37209415 -2.91741753 2.48750877 27 13 25429 11.05800000 2686871121 2686871121 13.00000000
-9.95587826 -2.79659629 2.77091670 40 15 25431 10.70600000 2686871125 2686871125 15.00000000
-1.84748220 -0.51652151 -0.51401460 4 0 25438 1.98600000 2686871146 2686871146 -15.00000000
-2.13034225 -0.59480226 -0.51063889 4 2 25440 2.27000000 2686871151 2686871151 -13.00000000
-2.47724295 -0.69119263 -0.49991956 3 4 25441 2.62000000 2686871155 2686871155 -11.00000000
-2.98182344 -0.83085734 -0.49026561 2 6 25443 3.13400000 2686871160 2686871160 -9.00000000
-3.70246792 -1.03026557 -0.47187811 7 8 25445 3.87200000 2686871164 2686871164 -7.00000000
-4.89870405 -1.36221457 -0.44484290 3 10 25446 5.10400000 2686871169 2686871169 -5.00000000
-7.10308313 -1.97252965 -0.38634402 3 12 25448 7.38200000 2686871174 2686871174 -3.00000000
-9.95951271 -2.76201725 2.76936388 40 15 25450 10.70000000 2686871181 2686871181 15.00000000
-1.84741163 -0.50955582 -0.51349699 5 0 25458 1.98400000 2686871201 2686871201 -15.00000000
-2.14367819 -0.59046733 -0.51333833 4 2 25460 2.28200000 2686871206 2686871206 -13.00000000
-2.47585487 -0.68149918 -0.49915633 3 4 25461 2.61600000 2686871210 2686871210 -11.00000000
-2.97708678 -0.81834948 -0.48901415 2 6 25463 3.12600000 2686871215 2686871215 -9.00000000
-3.71369863 -1.01943719 -0.47285306 7 8 25465 3.88000000 2686871220 2686871220 -7.00000000
-4.90150785 -1.34457958 -0.44466859 3 10 25466 5.10200000 2686871224 2686871224 -5.00000000
-7.12340927 -1.95141709 -0.38707674 3 12 25468 7.39600000 2686871229 2686871229 -3.00000000
-9.95838833 -2.72243857 2.76625800 38 15 25471 10.68800000 2686871236 2686871236 15.00000000
-1.85841119 -0.50596422 -0.51608515 5 0 25477 1.99400000 2686871257 2686871257 -15.00000000
-2.13810253 -0.58131033 -0.51153868 4 2 25479 2.27400000 2686871261 2686871261 -13.00000000
-2.48567963 -0.67534417 -0.50068283 3 4 25480 2.62400000 2686871266 2686871266 -11.00000000
-2.98740983 -0.81054163 -0.49026561 2 6 25482 3.13400000 2686871270 2686871270 -9.00000000
-3.72855496 -1.01023126 -0.47431549 7 8 25484 3.89200000 2686871275 2686871275 -7.00000000
-4.91555548 -1.33092165 -0.44554016 3 10 25485 5.11200000 2686871280 2686871280 -5.00000000
-7.11827278 -1.92465651 -0.38644871 3 12 25487 7.38400000 2686871284 2686871284 -3.00000000
-9.97248650 -2.69265079 2.76781082 26 15 25489 10.69400000 2686871291 2686871291 15.00000000
-1.87882364 -0.50448382 -0.52126157 5 0 25497 2.01400000 2686871312 2686871312 -15.00000000
-2.13258958 -0.57182461 -0.50973910 4 2 25499 2.26600000 2686871316 2686871316 -13.00000000
-2.50129628 -0.67022032 -0.50335413 3 4 25500 2.63800000 2686871321 2686871321 -11.00000000
-2.97113848 -0.79500270 -0.48713693 2 6 25502 3.11400000 2686871326 2686871326 -9.00000000
-3.71288037 -0.99208564 -0.47187811 5 8 25504 3.87200000 2686871330 2686871330 -7.00000000
-4.93557072 -1.31786692 -0.44693464 3 10 25505 5.12800000 2686871335 2686871335 -5.00000000
-7.12301826 -1.89928281 -0.38634402 3 12 25507 7.38200000 2686871339 2686871339 -3.00000000
-9.98788929 -2.65757179 2.76936388 30 15 25510 10.70000000 2686871346 2686871346 15.00000000
-1.87488401 -0.49676627 -0.51970863 5 0 25516 2.00800000 2686871367 2686871367 -15.00000000
-2.13824201 -0.56574649 -0.51063889 4 2 25518 2.27000000 2686871372 2686871372 -13.00000000
-2.49970913 -0.66091835 -0.50259089 3 4 25519 2.63400000 2686871376 2686871376 -11.00000000
-3.00049758 -0.79220545 -0.49151710 2 6 25521 3.14200000 2686871381 2686871381 -9.00000000
-3.70847201 -0.97774351 -0.47090313 5 8 25523 3.86400000 2686871386 2686871386 -7.00000000
-4.93220758 -1.29946244 -0.44623742 3 10 25524 5.12000000 2686871390 2686871390 -5.00000000
-7.13700342 -1.87768424 -0.38676271 3 12 25526 7.39000000 2686871395 2686871395 -3.00000000
-10.00179482 -2.62765360 2.77091670 30 15 25528 10.70600000 2686871402 2686871402 15.00000000
-1.86539185 -0.48728910 -0.51660281 5 0 25536 1.99600000 2686871422 2686871422 -15.00000000
-2.14020371 -0.55827916 -0.51063889 4 2 25538 2.27000000 2686871427 2686871427 -13.00000000
-2.49440169 -0.65020788 -0.50106442 3 4 25539 2.62600000 2686871432 2686871432 -11.00000000
-3.00324464 -0.78172690 -0.49151710 2 6 25541 3.14200000 2686871436 2686871436 -9.00000000
-3.71954727 -0.96679008 -0.47187811 5 8 25543 3.87200000 2686871441 2686871441 -7.00000000
-4.90200186 -1.27322209 -0.44309980 3 10 25544 5.08400000 2686871445 2686871445 -5.00000000
-7.15511417 -1.85576856 -0.38739076 3 12 25546 7.40200000 2686871450 2686871450 -3.00000000
-9.99639606 -2.58710527 2.76677561 38 15 25549 10.69000000 2686871457 2686871457 15.00000000
-1.86146903 -0.47932947 -0.51504987 5 0 25556 1.99000000 2686871478 2686871478 -15.00000000
-2.14780164 -0.55226094 -0.51198858 4 2 25558 2.27600000 2686871482 2686871482 -13.00000000
-2.50045919 -0.64247400 -0.50182766 3 4 25559 2.63000000 2686871487 2686871487 -11.00000000
-3.00595498 -0.77123886 -0.49151710 2 6 25561 3.14200000 2686871492 2686871492 -9.00000000
-3.73059130 -0.95577121 -0.47285306 5 8 25563 3.88000000 2686871496 2686871496 -7.00000000
-4.92185783 -1.26005626 -0.44449428 6 10 25564 5.10000000 2686871501 2686871501 -5.00000000
-7.16541815 -1.83177054 -0.38760009 3 12 25566 7.40600000 2686871505 2686871505 -3.00000000
-9.99181747 -2.55059719 2.76315212 35 15 25568 10.67600000 2686871512 2686871512 15.00000000
-1.86874831 -0.47425443 -0.51660281 5 0 25576 1.99600000 2686871533 2686871533 -15.00000000
-2.14593816 -0.54380292 -0.51108879 4 2 25578 2.27200000 2686871538 2686871538 -13.00000000
-2.50649309 -0.63470572 -0.50259089 3 4 25579 2.63400000 2686871542 2686871542 -11.00000000
-2.98947787 -0.75589901 -0.48838839 2 6 25581 3.12200000 2686871547 2686871547 -9.00000000
-3.74545288 -0.94565892 -0.47431549 5 8 25583 3.89200000 2686871551 2686871551 -7.00000000
-4.92815781 -1.24335551 -0.44466859 6 10 25584 5.10200000 2686871556 2686871556 -5.00000000
-7.15627480 -1.80284417 -0.38676271 3 12 25586 7.39000000 2686871561 2686871561 -3.00000000
-9.99360466 -2.51207423 2.76108146 30 15 25589 10.66800000 2686871568 2686871568 15.00000000
-1.87405884 -0.46899283 -0.51763809 5 0 25595 2.00000000 2686871588 2686871588 -15.00000000
-2.13449550 -0.53337675 -0.50793946 4 2 25597 2.25800000 2686871593 2686871593 -13.00000000
-2.51620293 -0.62829286 -0.50411737 3 4 25598 2.64200000 2686871598 2686871598 -11.00000000
-3.00346828 -0.74884874 -0.49026561 2 6 25600 3.13400000 2686871602 2686871602 -9.00000000
-3.73701048 -0.93035597 -0.47285306 5 8 25602 3.88000000 2686871607 2686871607 -7.00000000
-4.94385481 -1.22989225 -0.44571447 6 10 25603 5.11400000 2686871611 2686871611 -5.00000000
-7.52856255 -1.87010467 -0.40654570 8 12 25605 7.76800000 2686871616 2686871616 -3.00000000
-9.99769688 -2.47973609 2.76004624 28 15 25607 10.66400000 2686871623 2686871623 15.00000000
-1.87380886 -0.46198583 -0.51712048 4 0 25615 1.99800000 2686871644 2686871644 -15.00000000
-2.14959002 -0.52918351 -0.51108879 5 2 25617 2.27200000 2686871648 2686871648 -13.00000000
-2.51075530 -0.61763000 -0.50259089 3 4 25618 2.63400000 2686871653 2686871653 -11.00000000
-2.99839044 -0.73647535 -0.48901415 2 6 25620 3.12600000 2686871657 2686871657 -9.00000000
-3.72866750 -0.91446865 -0.47139063 5 8 25622 3.86800000 2686871662 2686871662 -7.00000000
-4.95005274 -1.21310174 -0.44588879 3 10 25623 5.11600000 2686871667 2686871667 -5.00000000
-10.00816917 -2.44528103 2.76056385 33 15 25627 10.66600000 2686871678 2686871678 15.00000000
-1.87556887 -0.45478752 -0.51712048 4 0 25637 1.99800000 2686871699 2686871699 -15.00000000
-2.14402986 -0.51909155 -0.50928921 5 2 25639 2.26400000 2686871704 2686871704 -13.00000000
-2.50547528 -0.60613829 -0.50106442 3 4 25640 2.62600000 2686871708 2686871708 -11.00000000
-3.00503659 -0.72588456 -0.48963988 2 6 25642 3.13000000 2686871713 2686871713 -9.00000000
-3.73987055 -0.90200663 -0.47236559 5 8 25644 3.87600000 2686871717 2686871717 -7.00000000
-4.96435881 -1.19642007 -0.44676033 3 10 25645 5.12600000 2686871722 2686871722 -5.00000000
-10.00809193 -2.40457797 2.75797582 30 15 25649 10.65600000 2686871733 2686871733 15.00000000
-1.86587083 -0.44554567 -0.51401460 4 0 25657 1.98600000 2686871754 2686871754 -15.00000000
-2.15720248 -0.51431602 -0.51198858 5 2 25659 2.27600000 2686871759 2686871759 -13.00000000
-2.50375628 -0.59647888 -0.50030118 3 4 25660 2.62200000 2686871763 2686871763 -11.00000000
-3.01908255 -0.71813333 -0.49151710 2 6 25662 3.14200000 2686871768 2686871768 -9.00000000
-3.75072169 -0.89078128 -0.47334054 5 8 25664 3.88400000 2686871773 2686871773 -7.00000000
-4.93554974 -1.17126322 -0.44379705 6 10 25665 5.09200000 2686871777 2686871777 -5.00000000
-10.01119804 -2.36654687 2.75642276 28 15 25670 10.65000000 2686871789 2686871789 15.00000000
-1.87493706 -0.44079837 -0.51608515 5 0 25677 1.99400000 2686871810 2686871810 -15.00000000
-2.15329313 -0.50544685 -0.51063889 4 2 25679 2.27000000 2686871814 2686871814 -13.00000000
-2.51729155 -0.59042537 -0.50259089 3 4 25680 2.63400000 2686871819 2686871819 -11.00000000
-3.00618410 -0.70398712 -0.48901415 2 6 25682 3.12600000 2686871823 2686871823 -9.00000000
-3.76347303 -0.87994313 -0.47455922 7 8 25684 3.89400000 2686871828 2686871828 -7.00000000
-4.94930887 -1.15629411 -0.44466859 6 10 25685 5.10200000 2686871833 2686871833 -5.00000000
-10.01899052 -2.33333564 2.75642276 30 15 25689 10.65000000 2686871844 2686871844 15.00000000
-1.88587487 -0.43642873 -0.51867336 5 0 25697 2.00400000 2686871865 2686871865 -15.00000000
-2.15124702 -0.49704999 -0.50973910 4 2 25699 2.26600000 2686871869 2686871869 -13.00000000
-2.52316284 -0.58251804 -0.50335413 3 4 25700 2.63800000 2686871874 2686871874 -11.00000000
-3.02402234 -0.69703883 -0.49151710 4 6 25702 3.14200000 2686871879 2686871879 -9.00000000
-3.75104547 -0.86323923 -0.47260931 7 8 25704 3.87800000 2686871883 2686871883 -7.00000000
-4.96496534 -1.14168978 -0.44571447 6 10 25705 5.11400000 2686871888 2686871888 -5.00000000
-7.24920130 -1.66428399 -0.38979819 3 12 25707 7.44800000 2686871892 2686871892 -3.00000000
-10.03648949 -2.30050659 2.75901103 28 15 25709 10.66000000 2686871899 2686871899 15.00000000
-1.88912010 -0.43093157 -0.51919103 5 0 25715 2.00600000 2686871920 2686871920 -15.00000000
-2.14899778 -0.48942372 -0.50883931 4 2 25717 2.26200000 2686871925 2686871925 -13.00000000
-2.52115202 -0.57371724 -0.50259089 3 4 25718 2.63400000 2686871929 2686871929 -11.00000000
-3.03004980 -0.68841046 -0.49214283 3 6 25720 3.14600000 2686871934 2686871934 -9.00000000
-3.75180292 -0.85101163 -0.47236559 7 8 25722 3.87600000 2686871938 2686871938 -7.00000000
-4.96075487 -1.12432468 -0.44501722 6 10 25723 5.10600000 2686871943 2686871943 -5.00000000
-7.53490782 -1.70497549 -0.40487096 12 12 25725 7.73600000 2686871948 2686871948 -3.00000000
-10.03989887 -2.26811337 2.75797582 28 15 25727 10.65600000 2686871955 2686871955 15.00000000
-1.88495791 -0.42306548 -0.51763809 5 0 25735 2.00000000 2686871975 2686871975 -15.00000000
-2.16020083 -0.48404986 -0.51108879 4 2 25737 2.27200000 2686871980 2686871980 -13.00000000
-2.52313924 -0.56491327 -0.50259089 3 4 25738 2.63400000 2686871985 2686871985 -11.00000000
-3.02472329 -0.67610574 -0.49089134 2 6 25740 3.13800000 2686871989 2686871989 -9.00000000
-3.76637530 -0.84050435 -0.47382802 7 8 25742 3.88800000 2686871994 2686871994 -7.00000000
-4.97242785 -1.10873604 -0.44571447 6 10 25743 5.11400000 2686871998 2686871998 -5.00000000
-7.66753340 -1.70687258 -0.41167462 16 12 25745 7.86600000 2686872003 2686872003 -3.00000000
-10.04060078 -2.22962499 2.75590515 30 15 25748 10.64800000 2686872010 2686872010 15.00000000
-1.87713563 -0.41374552 -0.51504987 5 0 25757 1.99000000 2686872031 2686872031 -15.00000000
-2.17346287 -0.47826448 -0.51378822 4 2 25759 2.28400000 2686872035 2686872035 -13.00000000
-2.52145481 -0.55437779 -0.50182766 3 4 25760 2.63000000 2686872040 2686872040 -11.00000000
-3.02343822 -0.66363966 -0.49026561 2 6 25762 3.13400000 2686872044 2686872044 -9.00000000
-3.77151394 -0.82646126 -0.47407174 7 8 25764 3.89000000 2686872049 2686872049 -7.00000000
-4.97275591 -1.08878279 -0.44536585 9 10 25765 5.11000000 2686872054 2686872054 -5.00000000
-10.03549290 -2.18992615 2.75228167 33 15 25769 10.63400000 2686872065 2686872065 15.00000000
-1.88423252 -0.40841830 -0.51660281 5 0 25777 1.99600000 2686872086 2686872086 -15.00000000
-2.17511916 -0.47067478 -0.51378822 4 2 25779 2.28400000 2686872090 2686872090 -13.00000000
-2.53105021 -0.54723245 -0.50335413 4 4 25780 2.63800000 2686872095 2686872095 -11.00000000
-3.02573633 -0.65308183 -0.49026561 2 6 25782 3.13400000 2686872100 2686872100 -9.00000000
-3.77825689 -0.81412745 -0.47455922 7 8 25784 3.89400000 2686872104 2686872104 -7.00000000
-4.96873522 -1.06974065 -0.44466859 6 10 25785 5.10200000 2686872109 2686872109 -5.00000000
-10.05252075 -2.15690899 2.75486994 28 15 25789 10.64400000 2686872120 2686872120 15.00000000
-1.89131486 -0.40304655 -0.51815575 5 0 25797 2.00200000 2686872141 2686872141 -15.00000000
-2.15768790 -0.45902434 -0.50928921 4 2 25799 2.26400000 2686872146 2686872146 -13.00000000
-2.53102469 -0.53798592 -0.50297248 4 4 25800 2.63600000 2686872150 2686872150 -11.00000000
-3.04345632 -0.64579630 -0.49276856 3 6 25802 3.15000000 2686872155 2686872155 -9.00000000
-3.77719188 -0.80011117 -0.47407174 7 8 25804 3.89000000 2686872160 2686872160 -7.00000000
-4.99582958 -1.05734050 -0.44676033 6 10 25805 5.12600000 2686872164 2686872164 -5.00000000
-10.06035900 -2.12005019 2.75486994 28 15 25810 10.64400000 2686872176 2686872176 15.00000000
-1.90027356 -0.39802635 -0.52022630 5 0 25817 2.01000000 2686872196 2686872196 -15.00000000
-2.16690707 -0.45308518 -0.51108879 4 2 25819 2.27200000 2686872201 2686872201 -13.00000000
-2.53673077 -0.52995068 -0.50373572 4 4 25820 2.64000000 2686872206 2686872206 -11.00000000
-3.03408933 -0.63274908 -0.49089134 2 6 25822 3.13800000 2686872210 2686872210 -9.00000000
-3.77996182 -0.78692144 -0.47407174 7 8 25824 3.89000000 2686872215 2686872215 -7.00000000
-5.01509476 -1.04314125 -0.44815484 6 10 25825 5.14200000 2686872220 2686872220 -5.00000000
-10.07148075 -2.08570337 2.75590515 35 15 25830 10.64800000 2686872231 2686872231 15.00000000
-1.88840604 -0.38866463 -0.51660281 5 0 25837 1.99600000 2686872252 2686872252 -15.00000000
-2.17229319 -0.44630286 -0.51198858 4 2 25839 2.27600000 2686872256 2686872256 -13.00000000
-2.53279567 -0.51990831 -0.50259089 4 4 25840 2.63400000 2686872261 2686872261 -11.00000000
-3.03627968 -0.62215424 -0.49089134 2 6 25842 3.13800000 2686872266 2686872266 -9.00000000
-3.77879596 -0.77292657 -0.47358426 7 8 25844 3.88600000 2686872270 2686872270 -7.00000000
-4.99137688 -1.02004409 -0.44571447 6 10 25845 5.11400000 2686872275 2686872275 -5.00000000
-7.43447113 -1.51661444 -0.39764860 12 12 25847 7.59800000 2686872279 2686872279 -3.00000000
-10.08059311 -2.05091977 2.75642276 38 15 25850 10.65000000 2686872286 2686872286 15.00000000
-1.87838995 -0.37977347 -0.51349699 5 0 25857 1.98400000 2686872307 2686872307 -15.00000000
-2.17956853 -0.43987396 -0.51333833 4 2 25859 2.28200000 2686872312 2686872312 -13.00000000
-2.54229307 -0.51261622 -0.50411737 3 4 25860 2.64200000 2686872316 2686872316 -11.00000000
-3.04230595 -0.61233139 -0.49151710 4 6 25862 3.14200000 2686872321 2686872321 -9.00000000
-3.79509425 -0.76246846 -0.47529045 7 8 25864 3.90000000 2686872326 2686872326 -7.00000000
-4.99100018 -1.00183046 -0.44536585 6 10 25865 5.11000000 2686872330 2686872330 -5.00000000
-7.30851126 -1.46436453 -0.39063558 7 12 25867 7.46400000 2686872335 2686872335 -3.00000000
-10.08011341 -2.01420546 2.75435233 40 15 25870 10.64200000 2686872342 2686872342 15.00000000
-1.89486313 -0.37622416 -0.51763809 5 0 25877 2.00000000 2686872362 2686872362 -15.00000000
