# .PCD v0.7 - Point Cloud Data file format
VERSION 0.7
FIELDS x y z intensity laser_id azimuth distance_m adjustedtime timestamp vertical_angle
SIZE 4 4 4 1 1 2 8 8 4 8
TYPE F F F U U U F U U F
COUNT 1 1 1 1 1 1 1 1 1 1
WIDTH 539
HEIGHT 1
VIEWPOINT 0 0 0 1 0 0 0
POINTS 539
DATA ascii
2.37392235 1.30453539 -0.62536395 3 2 6121 2.78000000 2688717597 2688717597 -13.00000000
8.23982620 4.52613783 0.49269068 15 3 6122 9.41400000 2688717599 2688717599 3.00000000
2.83406377 1.55675161 -0.62852484 4 4 6122 3.29400000 2688717602 2688717602 -11.00000000
8.22576332 4.51654434 0.82100707 81 5 6123 9.42000000 2688717604 2688717604 5.00000000
3.56210637 1.95504737 -0.64357138 4 6 6124 4.11400000 2688717606 2688717606 -9.00000000
8.23897552 4.52005672 1.15385890 94 7 6125 9.46800000 2688717608 2688717608 7.00000000
4.83002663 2.64874673 -0.67637485 4 8 6126 5.55000000 2688717611 2688717611 -7.00000000
8.21557045 4.49975729 -0.49091128 21 12 6129 9.38000000 2688717620 2688717620 -3.00000000
8.27999401 4.53316450 2.17932582 74 13 6130 9.68800000 2688717622 2688717622 13.00000000
8.21663857 4.49661446 -0.16349414 14 14 6131 9.36800000 2688717625 2688717625 -1.00000000
7.73112154 4.23091173 2.36146498 45 15 6131 9.12400000 2688717627 2688717627 15.00000000
1.99785435 1.08971798 -0.60977769 4 0 6139 2.35600000 2688717648 2688717648 -15.00000000
8.21666908 4.47987318 0.16335453 13 1 6140 9.36000000 2688717650 2688717650 1.00000000
2.36819482 1.29064560 -0.62266451 3 2 6141 2.76800000 2688717652 2688717652 -13.00000000
8.22751236 4.48206043 0.49101594 10 3 6142 9.38200000 2688717655 2688717655 3.00000000
2.83430839 1.54403186 -0.62737995 5 4 6142 3.28800000 2688717657 2688717657 -11.00000000
8.22747993 4.48018074 0.81961262 81 5 6143 9.40400000 2688717659 2688717659 5.00000000
3.57931900 1.94826770 -0.64544863 6 6 6144 4.12600000 2688717661 2688717661 -9.00000000
8.23203564 4.47893667 1.15069032 92 7 6145 9.44200000 2688717664 2688717664 7.00000000
4.81482887 2.61859274 -0.67296249 4 8 6146 5.52200000 2688717666 2688717666 -7.00000000
6.69021177 3.63702559 -0.66621852 29 10 6147 7.64400000 2688717671 2688717671 -5.00000000
8.21016598 4.45961237 -0.48965520 17 12 6149 9.35600000 2688717675 2688717675 -3.00000000
8.27692890 4.49400568 2.17437696 75 13 6150 9.66600000 2688717678 2688717678 13.00000000
8.21646690 4.45932102 -0.16317999 16 14 6151 9.35000000 2688717680 2688717680 -1.00000000
7.74414539 4.20297813 2.36094737 45 15 6151 9.12200000 2688717682 2688717682 15.00000000
2.01014185 1.08733320 -0.61236584 4 0 6159 2.36600000 2688717703 2688717703 -15.00000000
8.21114826 4.43975115 0.16293566 13 1 6160 9.33600000 2688717705 2688717705 1.00000000
2.36925697 1.28051805 -0.62176472 3 2 6161 2.76400000 2688717708 2688717708 -13.00000000
8.21850681 4.44002295 0.48955053 10 3 6162 9.35400000 2688717710 2688717710 3.00000000
2.83449888 1.53132939 -0.62623513 4 4 6162 3.28200000 2688717712 2688717712 -11.00000000
8.23780918 4.44859409 0.81908965 81 5 6163 9.39800000 2688717714 2688717714 5.00000000
3.57566833 1.93013179 -0.64357138 4 6 6164 4.11400000 2688717717 2688717717 -9.00000000
8.23364353 4.44263315 1.14874041 90 7 6165 9.42600000 2688717719 2688717719 7.00000000
4.82743454 2.60365462 -0.67344999 4 8 6166 5.52600000 2688717721 2688717721 -7.00000000
6.68708277 3.60514092 -0.66464967 12 10 6167 7.62600000 2688717726 2688717726 -5.00000000
8.20985794 4.42240143 -0.48871315 17 12 6169 9.33800000 2688717731 2688717731 -3.00000000
8.27540779 4.45584774 2.16987777 70 13 6170 9.64600000 2688717733 2688717733 13.00000000
8.21613503 4.42208338 -0.16286586 14 14 6171 9.33200000 2688717735 2688717735 -1.00000000
7.76557398 4.17958260 2.36301780 47 15 6171 9.13000000 2688717737 2688717737 15.00000000
2.00881815 1.07757020 -0.61081296 4 0 6179 2.36000000 2688717758 2688717758 -15.00000000
8.22307110 4.40917206 0.16286586 13 1 6180 9.33200000 2688717761 2688717761 1.00000000
2.38401794 1.27776349 -0.62446415 3 2 6181 2.77600000 2688717763 2688717763 -13.00000000
8.23043442 4.40942192 0.48934120 10 3 6182 9.35000000 2688717765 2688717765 3.00000000
2.84674907 1.52513433 -0.62776160 4 4 6182 3.29000000 2688717767 2688717767 -11.00000000
8.22518539 4.40476227 0.81630069 81 5 6183 9.36600000 2688717770 2688717770 5.00000000
3.60328245 1.92882562 -0.64732581 6 6 6184 4.13800000 2688717772 2688717772 -9.00000000
8.24209976 4.41011906 1.14776552 92 7 6185 9.41800000 2688717774 2688717774 7.00000000
4.83299255 2.58491540 -0.67296249 4 8 6186 5.52200000 2688717777 2688717777 -7.00000000
6.68556976 3.57426167 -0.66325521 17 10 6187 7.61000000 2688717781 2688717781 -5.00000000
8.21467495 4.38807058 -0.48808512 17 12 6189 9.32600000 2688717786 2688717786 -3.00000000
8.27715874 4.41959095 2.16627860 66 13 6190 9.63000000 2688717788 2688717788 13.00000000
8.21035099 4.38207817 -0.16244701 16 14 6191 9.30800000 2688717790 2688717790 -1.00000000
7.77572727 4.14836407 2.36146498 45 15 6192 9.12400000 2688717793 2688717793 15.00000000
2.00214791 1.06545758 -0.60770714 4 0 6198 2.34800000 2688717814 2688717814 -15.00000000
8.21116543 4.36779261 0.16234228 12 1 6199 9.30200000 2688717816 2688717816 1.00000000
2.39168310 1.27168047 -0.62536395 3 2 6200 2.78000000 2688717818 2688717818 -13.00000000
8.22913837 4.37366819 0.48839915 10 3 6201 9.33200000 2688717820 2688717820 3.00000000
2.83965564 1.50923610 -0.62509024 5 4 6201 3.27600000 2688717823 2688717823 -11.00000000
8.21863270 4.36624527 0.81420892 85 5 6202 9.34200000 2688717825 2688717825 5.00000000
3.59570193 1.90945423 -0.64482284 6 6 6203 4.12200000 2688717827 2688717827 -9.00000000
8.24966526 4.37904024 1.14679050 92 7 6204 9.41000000 2688717830 2688717830 7.00000000
4.84153795 2.56887436 -0.67296249 4 8 6205 5.52200000 2688717832 2688717832 -7.00000000
8.21153355 4.35145378 -0.48703840 17 12 6208 9.30600000 2688717841 2688717841 -3.00000000
8.28143597 4.38664579 2.16357923 70 13 6209 9.61800000 2688717843 2688717843 13.00000000
8.20009613 4.34172726 -0.16195834 16 14 6210 9.28000000 2688717846 2688717846 -1.00000000
7.78189182 4.12029982 2.35939431 45 15 6210 9.11600000 2688717848 2688717848 15.00000000
2.00927210 1.06026542 -0.60874242 4 0 6218 2.35200000 2688717869 2688717869 -15.00000000
8.20867443 4.32977438 0.16199324 12 1 6219 9.28200000 2688717871 2688717871 1.00000000
2.38576484 1.25787103 -0.62266451 3 2 6220 2.76800000 2688717873 2688717873 -13.00000000
8.23021984 4.33746719 0.48756176 10 3 6221 9.31600000 2688717876 2688717876 3.00000000
2.86053801 1.50755262 -0.62852484 5 4 6221 3.29400000 2688717878 2688717878 -11.00000000
8.22148514 4.33103037 0.81298876 81 5 6222 9.32800000 2688717880 2688717880 5.00000000
3.59185791 1.89136910 -0.64294565 6 6 6223 4.11000000 2688717883 2688717883 -9.00000000
8.24030781 4.33727217 1.14337814 85 7 6224 9.38200000 2688717885 2688717885 7.00000000
4.87507057 2.56489873 -0.67637485 4 8 6225 5.55000000 2688717887 2688717887 -7.00000000
8.20368862 4.31068611 -0.48567766 17 12 6228 9.28000000 2688717896 2688717896 -3.00000000
8.28634644 4.35227442 2.16087985 70 13 6229 9.60600000 2688717899 2688717899 13.00000000
8.20989037 4.31028843 -0.16185361 16 14 6230 9.27400000 2688717901 2688717901 -1.00000000
7.79793739 4.09400892 2.35991216 45 15 6230 9.11800000 2688717903 2688717903 15.00000000
2.01980758 1.05682778 -0.61081296 4 0 6238 2.36000000 2688717924 2688717924 -15.00000000
8.20424652 4.29089975 0.16160928 15 1 6239 9.26000000 2688717926 2688717926 1.00000000
2.39014101 1.24953556 -0.62266451 3 2 6240 2.76800000 2688717929 2688717929 -13.00000000
8.22154808 4.29812145 0.48620105 13 3 6240 9.29000000 2688717931 2688717931 3.00000000
2.87622285 1.50301385 -0.63081455 5 4 6241 3.30600000 2688717933 2688717933 -11.00000000
8.22772312 4.29769325 0.81211722 78 5 6242 9.31800000 2688717936 2688717936 5.00000000
3.60194039 1.88064814 -0.64357138 6 6 6243 4.11400000 2688717938 2688717938 -9.00000000
8.23427963 4.29746056 1.14045334 85 7 6244 9.35800000 2688717940 2688717940 7.00000000
4.87167406 2.54143882 -0.67466867 6 8 6245 5.53600000 2688717942 2688717942 -7.00000000
8.20097256 4.27279520 -0.48463094 17 12 6248 9.26000000 2688717952 2688717952 -3.00000000
8.28420448 4.31432199 2.15638089 72 13 6249 9.58600000 2688717954 2688717954 13.00000000
8.22311211 4.28068113 -0.16181871 16 14 6250 9.27200000 2688717956 2688717956 -1.00000000
7.81046724 4.06587172 2.35939431 45 15 6250 9.11600000 2688717959 2688717959 15.00000000
2.02691388 1.05155015 -0.61184824 4 0 6258 2.36400000 2688717979 2688717979 -15.00000000
8.21207333 4.25855350 0.16146967 12 1 6259 9.25200000 2688717982 2688717982 1.00000000
2.39448810 1.24118471 -0.62266451 3 2 6260 2.76800000 2688717984 2688717984 -13.00000000
8.21419334 4.25601435 0.48484030 13 3 6261 9.26400000 2688717986 2688717986 3.00000000
2.86053395 1.48212659 -0.62623513 5 4 6261 3.28200000 2688717989 2688717989 -11.00000000
8.23205948 4.26344919 0.81107134 78 5 6262 9.30600000 2688717991 2688717991 5.00000000
3.61900854 1.87351251 -0.64544863 6 6 6263 4.12600000 2688717993 2688717993 -9.00000000
8.23865223 4.26321745 1.13899088 85 7 6264 9.34600000 2688717995 2688717995 7.00000000
4.88051558 2.52441812 -0.67466867 6 8 6265 5.53600000 2688717998 2688717998 -7.00000000
8.33843327 4.31116104 1.48675311 2 9 6266 9.50400000 2688718000 2688718000 9.00000000
8.20164204 4.23680925 -0.48379359 17 12 6268 9.24400000 2688718007 2688718007 -3.00000000
8.27150917 4.27107286 2.14918232 75 13 6269 9.55400000 2688718009 2688718009 13.00000000
8.21312618 4.23911095 -0.16133004 14 14 6270 9.24400000 2688718012 2688718012 -1.00000000
7.82188320 4.03544617 2.35835910 45 15 6271 9.11200000 2688718014 2688718014 15.00000000
2.02026463 1.03916669 -0.60874242 4 0 6278 2.35200000 2688718035 2688718035 -15.00000000
8.21977520 4.22620440 0.16133004 12 1 6279 9.24400000 2688718037 2688718037 1.00000000
2.40400577 1.23549116 -0.62401420 4 2 6280 2.77400000 2688718039 2688718039 -13.00000000
8.22648525 4.22783899 0.48473564 13 3 6280 9.26200000 2688718042 2688718042 3.00000000
2.86743641 1.47302949 -0.62661672 5 4 6281 3.28400000 2688718044 2688718044 -11.00000000
8.22207832 4.22194672 0.80863100 75 5 6282 9.27800000 2688718046 2688718046 5.00000000
3.62552643 1.86086833 -0.64544863 4 6 6283 4.12600000 2688718048 2688718048 -9.00000000
8.24288654 4.22899628 1.13752842 85 7 6284 9.33400000 2688718051 2688718051 7.00000000
4.89283037 2.50917816 -0.67515618 6 8 6285 5.54000000 2688718053 2688718053 -7.00000000
6.68604517 3.42731428 -0.65732861 12 10 6286 7.54200000 2688718058 2688718058 -5.00000000
8.20038223 4.19996023 -0.48285154 12 12 6288 9.22600000 2688718062 2688718062 -3.00000000
8.27249050 4.23506927 2.14558315 80 13 6289 9.53800000 2688718065 2688718065 13.00000000
8.20117188 4.19675159 -0.16080648 16 14 6290 9.21400000 2688718067 2688718067 -1.00000000
7.82834339 4.00596571 2.35628867 45 15 6290 9.10400000 2688718069 2688718069 15.00000000
2.02387977 1.03210831 -0.60874242 4 0 6298 2.35200000 2688718090 2688718090 -15.00000000
8.20953560 4.18477201 0.16084138 12 1 6299 9.21600000 2688718092 2688718092 1.00000000
2.41524911 1.23063087 -0.62581384 4 2 6300 2.78200000 2688718094 2688718094 -13.00000000
8.22695637 4.19184351 0.48389825 15 3 6300 9.24600000 2688718097 2688718097 3.00000000
2.87431026 1.46390235 -0.62699836 5 4 6301 3.28600000 2688718099 2688718099 -11.00000000
8.21190739 4.18056583 0.80619061 78 5 6302 9.25000000 2688718101 2688718101 5.00000000
3.62847877 1.84640980 -0.64482284 6 6 6303 4.12200000 2688718104 2688718104 -9.00000000
8.24698162 4.19479752 1.13606596 92 7 6304 9.32200000 2688718106 2688718106 7.00000000
4.90155935 2.49208379 -0.67515618 6 8 6305 5.54000000 2688718108 2688718108 -7.00000000
6.67132521 3.39041471 -0.65471393 12 10 6306 7.51200000 2688718113 2688718113 -5.00000000
8.21321201 4.17040586 -0.48274687 17 12 6308 9.22400000 2688718118 2688718118 -3.00000000
8.26637077 4.19558334 2.14018440 78 13 6309 9.51400000 2688718120 2688718120 13.00000000
8.20863724 4.16447973 -0.16066685 16 14 6310 9.20600000 2688718122 2688718122 -1.00000000
7.83711052 3.97599316 2.35473561 42 15 6310 9.09800000 2688718124 2688718124 15.00000000
2.03073907 1.02713501 -0.60977769 4 0 6317 2.35600000 2688718145 2688718145 -15.00000000
8.20195198 4.14669847 0.16042252 12 1 6318 9.19200000 2688718147 2688718147 1.00000000
2.39844561 1.21206748 -0.62041503 4 2 6319 2.75800000 2688718150 2688718150 -13.00000000
8.23975563 4.16219997 0.48379359 15 3 6320 9.24400000 2688718152 2688718152 3.00000000
2.87564421 1.45259237 -0.62623513 5 4 6320 3.28200000 2688718154 2688718154 -11.00000000
8.21683311 4.14882135 0.80531907 78 5 6321 9.24000000 2688718157 2688718157 5.00000000
3.62047362 1.82724690 -0.64231992 6 6 6322 4.10600000 2688718159 2688718159 -9.00000000
8.23603439 4.15490913 1.13265371 97 7 6323 9.29400000 2688718161 2688718161 7.00000000
4.91511393 2.47849727 -0.67588741 6 8 6324 5.54600000 2688718164 2688718164 -7.00000000
6.67541504 3.36468625 -0.65401667 8 10 6325 7.50400000 2688718168 2688718168 -5.00000000
8.20559025 4.13236666 -0.48149079 17 12 6327 9.20000000 2688718173 2688718173 -3.00000000
8.27327538 4.16464329 2.13838482 76 13 6328 9.50600000 2688718175 2688718175 13.00000000
8.21347046 4.13274193 -0.16049233 16 14 6329 9.19600000 2688718177 2688718177 -1.00000000
7.85784531 3.95208430 2.35680628 47 15 6330 9.10600000 2688718180 2688718180 15.00000000
2.03085804 1.01830840 -0.60874242 4 0 6337 2.35200000 2688718200 2688718200 -15.00000000
8.20207500 4.11087513 0.16014329 12 1 6338 9.17600000 2688718203 2688718203 1.00000000
2.40614653 1.20543373 -0.62131482 4 2 6339 2.76200000 2688718205 2688718205 -13.00000000
8.22315598 4.11964464 0.48201415 13 3 6339 9.21000000 2688718207 2688718207 3.00000000
2.88947439 1.44694102 -0.62814319 5 4 6340 3.29200000 2688718210 2688718210 -11.00000000
8.22235680 4.11565495 0.80444753 78 5 6341 9.23000000 2688718212 2688718212 5.00000000
3.64096284 1.82166898 -0.64482284 6 6 6342 4.12200000 2688718214 2688718214 -9.00000000
8.22208023 4.11192799 1.12875390 95 7 6343 9.26200000 2688718217 2688718217 7.00000000
4.90420389 2.45156145 -0.67320627 9 8 6344 5.52400000 2688718219 2688718219 -7.00000000
8.33523464 4.16488075 1.47580278 2 9 6345 9.43400000 2688718221 2688718221 9.00000000
6.72811174 3.36184692 -0.65802586 8 10 6345 7.55000000 2688718224 2688718224 -5.00000000
8.21103001 4.09923792 -0.48096743 17 12 6347 9.19000000 2688718228 2688718228 -3.00000000
8.25811958 4.12094641 2.13073635 74 13 6348 9.47200000 2688718230 2688718230 13.00000000
8.21353149 4.09690571 -0.16021310 16 14 6349 9.18000000 2688718233 2688718233 -1.00000000
7.86986351 3.92376924 2.35628867 45 15 6350 9.10400000 2688718235 2688718235 15.00000000
2.03786016 1.01293290 -0.60977769 4 0 6357 2.35600000 2688718256 2688718256 -15.00000000
8.20742035 4.07777071 0.15996876 12 1 6358 9.16600000 2688718258 2688718258 1.00000000
8.19271183 4.06867981 -2.11184049 8 2 6359 9.38800000 2688718260 2688718260 -13.00000000
8.21423149 4.07936668 0.48065343 13 3 6359 9.18400000 2688718263 2688718263 3.00000000
2.88747334 1.43335426 -0.62661672 5 4 6360 3.28400000 2688718265 2688718265 -11.00000000
8.22239494 4.07984352 0.80305302 82 5 6361 9.21400000 2688718267 2688718267 5.00000000
3.63668132 1.80368233 -0.64294565 4 6 6362 4.11000000 2688718270 2688718270 -9.00000000
8.23282623 4.08143902 1.12826633 95 7 6363 9.25800000 2688718272 2688718272 7.00000000
4.91984606 2.43795323 -0.67418122 9 8 6364 5.53200000 2688718274 2688718274 -7.00000000
6.77372789 3.35514307 -0.66133779 4 10 6365 7.58800000 2688718279 2688718279 -5.00000000
8.20917892 4.06257868 -0.48002538 17 12 6367 9.17200000 2688718283 2688718283 -3.00000000
8.25498772 4.08345461 2.12623739 74 13 6368 9.45200000 2688718286 2688718286 13.00000000
8.20806408 4.05846071 -0.15982914 16 14 6369 9.15800000 2688718288 2688718288 -1.00000000
7.89390373 3.90141010 2.35939431 45 15 6370 9.11600000 2688718290 2688718290 15.00000000
2.04484940 1.00752091 -0.61081296 4 0 6377 2.36000000 2688718311 2688718311 -15.00000000
8.21622276 4.04644585 0.15986404 12 1 6378 9.16000000 2688718313 2688718313 1.00000000
8.19987011 4.03661442 -2.11004090 8 2 6379 9.38000000 2688718316 2688718316 -13.00000000
8.22125340 4.04714060 0.48023474 10 3 6379 9.17600000 2688718318 2688718318 3.00000000
2.89245915 1.42326641 -0.62661672 5 4 6380 3.28400000 2688718320 2688718320 -11.00000000
8.22585869 4.04584122 0.80200714 93 5 6381 9.20200000 2688718323 2688718323 5.00000000
3.66777349 1.80317819 -0.64732581 4 6 6382 4.13800000 2688718325 2688718325 -9.00000000
8.22920704 4.04392147 1.12582898 95 7 6383 9.23800000 2688718327 2688718327 7.00000000
4.92476273 2.41901469 -0.67369372 9 8 6384 5.52800000 2688718330 2688718330 -7.00000000
7.54728031 3.70554495 -0.73559445 13 10 6385 8.44000000 2688718334 2688718334 -5.00000000
8.20717144 4.02598190 -0.47908333 17 12 6387 9.15400000 2688718339 2688718339 -3.00000000
8.26044273 4.05032492 2.12398791 72 13 6388 9.44200000 2688718341 2688718341 13.00000000
8.20063305 4.01922369 -0.15941028 18 14 6389 9.13400000 2688718343 2688718343 -1.00000000
7.90226936 3.87128186 2.35784149 45 15 6390 9.11000000 2688718346 2688718346 15.00000000
2.03446674 0.99359471 -0.60667187 4 0 6397 2.34400000 2688718366 2688718366 -15.00000000
8.19974804 4.00282812 0.15927066 12 1 6398 9.12600000 2688718369 2688718369 1.00000000
8.20340252 4.00283909 -2.10734153 8 2 6399 9.36800000 2688718371 2688718371 -13.00000000
8.22097015 4.01141167 0.47939736 13 3 6399 9.16000000 2688718373 2688718373 3.00000000
2.89388061 1.41143990 -0.62585348 5 4 6400 3.28000000 2688718376 2688718376 -11.00000000
8.20232296 3.99876809 0.79834658 78 5 6401 9.16000000 2688718378 2688718378 5.00000000
3.65273619 1.77998042 -0.64357138 6 6 6402 4.11400000 2688718380 2688718380 -9.00000000
8.22899628 4.00821733 1.12387908 95 7 6403 9.22200000 2688718382 2688718382 7.00000000
4.94031572 2.40528512 -0.67466867 6 8 6404 5.53600000 2688718385 2688718385 -7.00000000
7.54941988 3.67394638 -0.73454863 13 10 6405 8.42800000 2688718389 2688718389 -5.00000000
8.21039772 3.99206877 -0.47845531 17 12 6407 9.14200000 2688718394 2688718394 -3.00000000
8.26751900 4.01805878 2.12218833 70 13 6408 9.43400000 2688718396 2688718396 13.00000000
8.20202255 3.98445725 -0.15916595 14 14 6409 9.12000000 2688718399 2688718399 -1.00000000
7.90811300 3.84167910 2.35577106 47 15 6409 9.10200000 2688718401 2688718401 15.00000000
2.03792262 0.98648703 -0.60667187 4 0 6417 2.34400000 2688718422 2688718422 -15.00000000
8.19387054 3.96460080 0.15888670 18 1 6418 9.10400000 2688718424 2688718424 1.00000000
8.19451904 3.96314979 -2.10149264 8 2 6419 9.34200000 2688718426 2688718426 -13.00000000
8.22413445 3.97747302 0.47876933 13 3 6419 9.14800000 2688718429 2688718429 3.00000000
2.89525461 1.39962077 -0.62509024 5 4 6420 3.27600000 2688718431 2688718431 -11.00000000
8.20367336 3.96404433 0.79712641 75 5 6421 9.14600000 2688718433 2688718433 5.00000000
3.64825463 1.76206434 -0.64169419 6 6 6422 4.10200000 2688718435 2688718435 -9.00000000
8.23221111 3.97428989 1.12241662 92 7 6423 9.21000000 2688718438 2688718438 7.00000000
4.95225763 2.38975096 -0.67515618 6 8 6424 5.54000000 2688718440 2688718440 -7.00000000
7.57296562 3.65276504 -0.73559445 13 10 6425 8.44000000 2688718445 2688718445 -5.00000000
8.19729424 3.95037889 -0.47688523 17 12 6427 9.11200000 2688718449 2688718449 -3.00000000
8.27096081 3.98410106 2.11948872 68 13 6428 9.42200000 2688718452 2688718452 13.00000000
8.20146656 3.94886255 -0.15888670 18 14 6429 9.10400000 2688718454 2688718454 -1.00000000
7.93258476 3.81769514 2.35887671 45 15 6430 9.11400000 2688718456 2688718456 15.00000000
2.04832077 0.98270988 -0.60874242 4 0 6437 2.35200000 2688718477 2688718477 -15.00000000
8.20585632 3.93511009 0.15885180 18 1 6438 9.10200000 2688718479 2688718479 1.00000000
8.18721485 3.92441344 -2.09609389 8 2 6439 9.31800000 2688718482 2688718482 -13.00000000
8.21524239 3.93608451 0.47740859 10 3 6440 9.12200000 2688718484 2688718484 3.00000000
2.90897536 1.39374745 -0.62699836 5 4 6440 3.28600000 2688718486 2688718486 -11.00000000
8.21746063 3.93538404 0.79712641 78 5 6441 9.14600000 2688718488 2688718488 5.00000000
3.66151023 1.75273049 -0.64294565 6 6 6442 4.11000000 2688718491 2688718491 -9.00000000
8.22096443 3.93353486 1.11900437 97 7 6443 9.18200000 2688718493 2688718493 7.00000000
4.94982433 2.36731100 -0.67369372 6 8 6444 5.52800000 2688718495 2688718495 -7.00000000
7.58566999 3.62630820 -0.73559445 13 10 6445 8.44000000 2688718500 2688718500 -5.00000000
8.19841766 3.91571546 -0.47615254 17 12 6447 9.09800000 2688718505 2688718505 -3.00000000
8.27074814 3.94848919 2.11588955 70 13 6448 9.40600000 2688718507 2688718507 13.00000000
8.20256805 3.91418147 -0.15864238 16 14 6449 9.09000000 2688718509 2688718509 -1.00000000
7.95217514 3.79469681 2.36094737 47 15 6449 9.12200000 2688718512 2688718512 15.00000000
2.05173850 0.97555393 -0.60874242 4 0 6457 2.35200000 2688718532 2688718532 -15.00000000
8.19967556 3.89700031 0.15846784 18 1 6458 9.08000000 2688718535 2688718535 1.00000000
8.18326187 3.88744879 -2.09159493 8 2 6459 9.29800000 2688718537 2688718537 -13.00000000
8.21088982 3.89881706 0.47636187 10 3 6460 9.10200000 2688718539 2688718539 3.00000000
2.91914296 1.38611102 -0.62814319 5 4 6460 3.29200000 2688718541 2688718541 -11.00000000
8.22394753 3.90325856 0.79642916 78 5 6461 9.13800000 2688718544 2688718544 5.00000000
3.67117548 1.74163210 -0.64357138 6 6 6462 4.11400000 2688718546 2688718546 -9.00000000
8.23105812 3.90311337 1.11851680 90 7 6463 9.17800000 2688718548 2688718548 7.00000000
4.95446968 2.34831786 -0.67320627 6 8 6464 5.52400000 2688718551 2688718551 -7.00000000
7.59468079 3.59810114 -0.73524582 13 10 6465 8.43600000 2688718555 2688718555 -5.00000000
8.19939995 3.88109231 -0.47541982 17 12 6467 9.08400000 2688718560 2688718560 -3.00000000
8.25805759 3.90709329 2.10914111 74 13 6468 9.37600000 2688718562 2688718562 13.00000000
8.19991112 3.87783122 -0.15832824 18 14 6469 9.07200000 2688718565 2688718565 -1.00000000
7.96952295 3.76717639 2.36198258 45 15 6470 9.12600000 2688718567 2688718567 15.00000000
2.05163622 0.96673918 -0.60770714 4 0 6477 2.34800000 2688718588 2688718588 -15.00000000
8.20599174 3.86494613 0.15832824 21 1 6478 9.07200000 2688718590 2688718590 1.00000000
8.19325542 3.85720015 -2.09069514 8 2 6479 9.29400000 2688718592 2688718592 -13.00000000
8.21179867 3.86417913 0.47562918 10 3 6480 9.08800000 2688718594 2688718594 3.00000000
2.90975237 1.36922562 -0.62509024 5 4 6480 3.27600000 2688718597 2688718597 -11.00000000
8.21228218 3.86265588 0.79398882 82 5 6481 9.11000000 2688718599 2688718599 5.00000000
3.68080783 1.73048759 -0.64419711 6 6 6482 4.11800000 2688718601 2688718601 -9.00000000
8.22846222 3.86675930 1.11632323 87 7 6483 9.16000000 2688718604 2688718604 7.00000000
4.96263695 2.33100939 -0.67320627 9 8 6484 5.52400000 2688718606 2688718606 -7.00000000
8.31759453 3.90687275 1.45546627 2 9 6484 9.30400000 2688718608 2688718608 9.00000000
7.60719442 3.57156873 -0.73524582 13 10 6485 8.43600000 2688718611 2688718611 -5.00000000
8.19662380 3.84481382 -0.47447777 17 12 6487 9.06600000 2688718615 2688718615 -3.00000000
8.26105976 3.87328005 2.10644174 74 13 6488 9.36400000 2688718618 2688718618 13.00000000
8.19166851 3.83900166 -0.15790938 18 14 6489 9.04800000 2688718620 2688718620 -1.00000000
7.98197174 3.74072766 2.36198258 45 15 6489 9.12600000 2688718622 2688718622 15.00000000
2.05499840 0.95957172 -0.60770714 4 0 6497 2.34800000 2688718643 2688718643 -15.00000000
8.20131302 3.82782078 0.15797919 15 1 6498 9.05200000 2688718645 2688718645 1.00000000
8.18900967 3.82033801 -2.08619618 8 2 6499 9.27400000 2688718647 2688718647 -13.00000000
8.21437645 3.83042669 0.47500113 10 3 6500 9.07600000 2688718650 2688718650 3.00000000
2.92341089 1.36320889 -0.62699836 5 4 6500 3.28600000 2688718652 2688718652 -11.00000000
8.20043278 3.82218218 0.79154843 75 5 6501 9.08200000 2688718654 2688718654 5.00000000
3.69040728 1.71929705 -0.64482284 6 6 6502 4.12200000 2688718657 2688718657 -9.00000000
8.23471165 3.83466125 1.11534822 90 7 6503 9.15200000 2688718659 2688718659 7.00000000
4.96174479 2.30948377 -0.67198753 9 8 6504 5.51400000 2688718661 2688718661 -7.00000000
8.35693264 3.88802671 1.45984638 2 9 6505 9.33200000 2688718664 2688718664 9.00000000
7.60877657 3.53995037 -0.73420000 13 10 6505 8.42400000 2688718666 2688718666 -5.00000000
8.20818329 3.81533694 -0.47437310 17 12 6507 9.06400000 2688718670 2688718670 -3.00000000
8.26392555 3.83949327 2.10374236 74 13 6508 9.35200000 2688718673 2688718673 13.00000000
8.19595146 3.80617261 -0.15773486 16 14 6509 9.03800000 2688718675 2688718675 -1.00000000
7.98686695 3.70738029 2.35939431 45 15 6510 9.11600000 2688718677 2688718677 15.00000000
2.05992222 0.95356339 -0.60822475 4 0 6516 2.35000000 2688718698 2688718698 -15.00000000
8.19581318 3.79220605 0.15763013 12 1 6517 9.03200000 2688718700 2688718700 1.00000000
8.17510223 3.78089094 -2.07944751 8 2 6518 9.24400000 2688718703 2688718703 -13.00000000
8.22340775 3.80148959 0.47479180 10 3 6519 9.07200000 2688718705 2688718705 3.00000000
2.92613316 1.35268319 -0.62661672 5 4 6519 3.28400000 2688718707 2688718707 -11.00000000
8.20582771 3.79162478 0.79085124 75 5 6520 9.07400000 2688718710 2688718710 5.00000000
3.68891478 1.70373678 -0.64357138 6 6 6521 4.11400000 2688718712 2688718712 -9.00000000
8.22755718 3.79818058 1.11266708 92 7 6522 9.13000000 2688718714 2688718714 7.00000000
4.98740101 2.30133462 -0.67442495 9 8 6523 5.53400000 2688718717 2688718717 -7.00000000
7.61323643 3.51136136 -0.73350275 13 10 6524 8.41600000 2688718721 2688718721 -5.00000000
8.20265102 3.77973795 -0.47332639 17 12 6526 9.04400000 2688718726 2688718726 -3.00000000
8.26245213 3.80554605 2.10014296 74 13 6527 9.33600000 2688718728 2688718728 13.00000000
8.19762897 3.77395558 -0.15752542 16 14 6528 9.02600000 2688718730 2688718730 -1.00000000
8.00198460 3.68388629 2.36042976 45 15 6528 9.12000000 2688718733 2688718733 15.00000000
2.07026196 0.94958878 -0.61029530 4 0 6536 2.35800000 2688718753 2688718753 -15.00000000
8.19627571 3.75774050 0.15738580 12 1 6537 9.01800000 2688718756 2688718756 1.00000000
8.17053413 3.74421310 -2.07494855 8 2 6538 9.22400000 2688718758 2688718758 -13.00000000
8.21302128 3.76194882 0.47343105 13 3 6539 9.04600000 2688718760 2688718760 3.00000000
2.93440700 1.34409595 -0.62737995 5 4 6539 3.28800000 2688718763 2688718763 -11.00000000
8.21176720 3.75964046 0.79015398 75 5 6540 9.06600000 2688718765 2688718765 5.00000000
3.69843197 1.69249368 -0.64419711 4 6 6541 4.11800000 2688718767 2688718767 -9.00000000
8.21910286 3.75952911 1.10974228 92 7 6542 9.10600000 2688718770 2688718770 7.00000000
4.98276615 2.27813339 -0.67271876 9 8 6543 5.52000000 2688718772 2688718772 -7.00000000
8.31313419 3.79903197 1.44764459 2 9 6544 9.25400000 2688718774 2688718774 9.00000000
7.63994408 3.49138999 -0.73489720 13 10 6544 8.43200000 2688718776 2688718776 -5.00000000
8.19035816 3.73946905 -0.47186098 17 12 6546 9.01600000 2688718781 2688718781 -3.00000000
8.25618458 3.76778197 2.09519410 72 13 6547 9.31400000 2688718783 2688718783 13.00000000
8.20529461 3.74282765 -0.15742071 16 14 6548 9.02000000 2688718786 2688718786 -1.00000000
8.02949524 3.66094422 2.36457086 47 15 6549 9.13600000 2688718788 2688718788 15.00000000
2.07180524 0.94155717 -0.60977769 4 0 6556 2.35600000 2688718809 2688718809 -15.00000000
8.20570183 3.72745323 0.15731598 12 1 6557 9.01400000 2688718811 2688718811 1.00000000
8.17823124 3.71325278 -2.07359886 8 2 6558 9.21800000 2688718813 2688718813 -13.00000000
8.21882820 3.72995543 0.47301236 13 3 6559 9.03800000 2688718816 2688718816 3.00000000
2.93192983 1.33059943 -0.62585348 5 4 6559 3.28000000 2688718818 2688718818 -11.00000000
8.21032524 3.72436857 0.78875947 78 5 6560 9.05000000 2688718820 2688718820 5.00000000
3.70071912 1.67794192 -0.64357138 6 6 6561 4.11400000 2688718823 2688718823 -9.00000000
8.22494316 3.72753859 1.10876727 95 7 6562 9.09800000 2688718825 2688718825 7.00000000
4.99430418 2.26236463 -0.67320627 6 8 6563 5.52400000 2688718827 2688718827 -7.00000000
7.65208483 3.46470022 -0.73489720 13 10 6564 8.43200000 2688718832 2688718832 -5.00000000
8.19790268 3.70838714 -0.47154698 17 12 6566 9.01000000 2688718836 2688718836 -3.00000000
8.24265099 3.72689652 2.08844566 74 13 6567 9.28400000 2688718839 2688718839 13.00000000
8.20008755 3.70592785 -0.15707166 14 14 6568 9.00000000 2688718841 2688718841 -1.00000000
8.03983021 3.63350177 2.36405325 45 15 6568 9.13400000 2688718843 2688718843 15.00000000
2.06803322 0.93114692 -0.60770714 4 0 6576 2.34800000 2688718864 2688718864 -15.00000000
8.20589828 3.69304252 0.15707166 12 1 6577 9.00000000 2688718866 2688718866 1.00000000
8.17159367 3.67588902 -2.06865001 8 2 6578 9.19600000 2688718869 2688718869 -13.00000000
8.21540356 3.69387245 0.47207034 13 3 6579 9.02000000 2688718871 2688718871 3.00000000
2.93655658 1.32035697 -0.62585348 5 4 6579 3.28000000 2688718873 2688718873 -11.00000000
8.20873737 3.68915272 0.78736496 78 5 6580 9.03400000 2688718876 2688718876 5.00000000
3.71736526 1.66987038 -0.64544863 6 6 6581 4.12600000 2688718878 2688718878 -9.00000000
8.21979523 3.69067430 1.10632992 95 7 6582 9.07800000 2688718880 2688718880 7.00000000
4.99492693 2.24166632 -0.67223132 9 8 6583 5.51600000 2688718882 2688718882 -7.00000000
7.65322495 3.43307567 -0.73385137 13 10 6584 8.42000000 2688718887 2688718887 -5.00000000
8.21261978 3.68056536 -0.47165164 12 12 6586 9.01200000 2688718892 2688718892 -3.00000000
8.24316120 3.69252491 2.08529639 70 13 6587 9.27000000 2688718894 2688718894 13.00000000
8.19837284 3.67074418 -0.15679242 14 14 6588 8.98400000 2688718896 2688718896 -1.00000000
7.11676979 3.18497562 2.08918738 20 15 6589 8.07200000 2688718899 2688718899 15.00000000
2.06052470 0.91956019 -0.60460126 4 0 6595 2.33600000 2688718919 2688718919 -15.00000000
8.19253254 3.65440583 0.15658300 12 1 6596 8.97200000 2688718922 2688718922 1.00000000
8.18729782 3.65035796 -2.06954980 8 2 6597 9.20000000 2688718924 2688718924 -13.00000000
8.21483803 3.66091776 0.47133762 13 3 6598 9.00600000 2688718926 2688718926 3.00000000
2.94629860 1.31300914 -0.62699836 5 4 6598 3.28600000 2688718929 2688718929 -11.00000000
8.19908524 3.65218306 0.78527325 82 5 6599 9.01000000 2688718931 2688718931 5.00000000
3.71205473 1.65271330 -0.64357138 6 6 6600 4.11400000 2688718933 2688718933 -9.00000000
8.22110748 3.65855384 1.10486746 97 7 6601 9.06600000 2688718935 2688718935 7.00000000
5.00958776 2.22831726 -0.67320627 9 8 6602 5.52400000 2688718938 2688718938 -7.00000000
7.65364408 3.40282130 -0.73280549 13 10 6603 8.40800000 2688718942 2688718942 -5.00000000
8.20287609 3.64358187 -0.47039557 12 12 6605 8.98800000 2688718947 2688718947 -3.00000000
8.25536060 3.66516924 2.08529639 72 13 6606 9.27000000 2688718949 2688718949 13.00000000
8.19404984 3.63623714 -0.15647827 18 14 6607 8.96600000 2688718952 2688718952 -1.00000000
7.11614561 3.15790033 2.08608150 47 15 6607 8.06000000 2688718954 2688718954 15.00000000
2.07432342 0.91704881 -0.60770714 4 0 6615 2.34800000 2688718975 2688718975 -15.00000000
8.18694782 3.61770368 0.15623394 12 1 6616 8.95200000 2688718977 2688718977 1.00000000
8.18038177 3.61309576 -2.06460071 8 2 6617 9.17800000 2688718979 2688718979 -13.00000000
8.22025776 3.62899399 0.47091892 13 3 6618 8.99800000 2688718982 2688718982 3.00000000
2.94906807 1.30192375 -0.62661672 5 4 6618 3.28400000 2688718984 2688718984 -11.00000000
8.20084763 3.61871457 0.78422737 82 5 6619 8.99800000 2688718986 2688718986 5.00000000
3.70334220 1.63336849 -0.64106846 6 6 6620 4.09800000 2688718988 2688718988 -9.00000000
8.21203136 3.62022543 1.10194266 97 7 6621 9.04200000 2688718991 2688718991 7.00000000
5.01733589 2.21081686 -0.67320627 9 8 6622 5.52400000 2688718993 2688718993 -7.00000000
7.67094564 3.37849355 -0.73332840 13 10 6623 8.41400000 2688718998 2688718998 -5.00000000
8.19909191 3.60768676 -0.46945351 17 12 6625 8.97000000 2688719002 2688719002 -3.00000000
8.26096821 3.63319230 2.08349657 62 13 6626 9.26200000 2688719005 2688719005 13.00000000
8.19021702 3.60036969 -0.15616414 18 14 6627 8.94800000 2688719007 2688719007 -1.00000000
7.12358856 3.13148642 2.08504629 42 15 6627 8.05600000 2688719009 2688719009 15.00000000
2.07381415 0.90861452 -0.60667187 4 0 6634 2.34400000 2688719030 2688719030 -15.00000000
8.18974113 3.58652401 0.15605941 12 1 6635 8.94200000 2688719032 2688719032 1.00000000
8.17625141 3.57891607 -2.06055164 8 2 6636 9.16000000 2688719035 2688719035 -13.00000000
8.21211910 3.59290838 0.46976754 13 3 6637 8.97600000 2688719037 2688719037 3.00000000
2.96236229 1.29607189 -0.62852484 5 4 6637 3.29400000 2688719039 2688719039 -11.00000000
8.20550060 3.58830643 0.78353012 78 5 6638 8.99000000 2688719041 2688719041 5.00000000
3.71054816 1.62186992 -0.64138132 6 6 6639 4.10000000 2688719044 2688719044 -9.00000000
8.20580006 3.58502603 1.09950519 95 7 6640 9.02200000 2688719046 2688719046 7.00000000
5.01918173 2.19178343 -0.67247504 9 8 6641 5.51800000 2688719048 2688719048 -7.00000000
7.68941116 3.35622525 -0.73402566 13 10 6642 8.42200000 2688719053 2688719053 -5.00000000
8.18171787 3.56770468 -0.46777877 17 12 6644 8.93800000 2688719058 2688719058 -3.00000000
8.25510693 3.59799170 2.07899761 62 13 6645 9.24200000 2688719060 2688719060 13.00000000
8.19477844 3.56999564 -0.15602452 20 14 6646 8.94000000 2688719062 2688719062 -1.00000000
7.13393354 3.10784650 2.08504629 45 15 6646 8.05600000 2688719064 2688719064 15.00000000
2.08583403 0.90521544 -0.60926002 4 0 6654 2.35400000 2688719085 2688719085 -15.00000000
8.18203068 3.54916120 0.15567547 18 1 6655 8.92000000 2688719088 2688719088 1.00000000
8.17796707 3.54570270 -2.05785227 8 2 6656 9.14800000 2688719090 2688719090 -13.00000000
8.19895458 3.55310249 0.46830213 10 3 6657 8.94800000 2688719092 2688719092 3.00000000
2.95606017 1.28103948 -0.62623513 5 4 6657 3.28200000 2688719094 2688719094 -11.00000000
8.20883465 3.55568242 0.78265858 86 5 6658 8.98000000 2688719097 2688719097 5.00000000
3.71799970 1.60969269 -0.64169419 6 6 6659 4.10200000 2688719099 2688719099 -9.00000000
8.21097755 3.55320716 1.09853029 92 7 6660 9.01400000 2688719101 2688719101 7.00000000
5.02862406 2.17503810 -0.67271876 9 8 6661 5.52000000 2688719104 2688719104 -7.00000000
7.70107985 3.32936358 -0.73402566 13 10 6662 8.42200000 2688719108 2688719108 -5.00000000
8.19412231 3.53912330 -0.46777877 17 12 6664 8.93800000 2688719113 2688719113 -3.00000000
8.25330257 3.56297517 2.07539845 64 13 6665 9.22600000 2688719115 2688719115 13.00000000
8.19066525 3.53423858 -0.15571037 16 14 6666 8.92200000 2688719117 2688719117 -1.00000000
7.15237236 3.08473873 2.08711672 45 15 6667 8.06400000 2688719120 2688719120 15.00000000
2.08543134 0.89640319 -0.60822475 4 0 6674 2.35000000 2688719141 2688719141 -15.00000000
8.19253159 3.51978946 0.15564056 18 1 6675 8.91800000 2688719143 2688719143 1.00000000
8.18313122 3.51405883 -2.05605268 8 2 6676 9.14000000 2688719145 2688719145 -13.00000000
8.20213032 3.52052236 0.46777877 10 3 6677 8.93800000 2688719147 2688719147 3.00000000
2.96051383 1.27071309 -0.62623513 6 4 6677 3.28200000 2688719150 2688719150 -11.00000000
8.19190025 3.51443839 0.77986956 75 5 6678 8.94800000 2688719152 2688719152 5.00000000
3.73448896 1.60137558 -0.64357138 6 6 6679 4.11400000 2688719154 2688719154 -9.00000000
8.21603203 3.52139568 1.09755528 95 7 6680 9.00600000 2688719157 2688719157 7.00000000
5.03618574 2.15747166 -0.67271876 9 8 6681 5.52000000 2688719159 2688719159 -7.00000000
7.71265459 3.30246162 -0.73402566 13 10 6682 8.42200000 2688719164 2688719164 -5.00000000
8.19173527 3.50421476 -0.46694142 17 12 6684 8.92200000 2688719168 2688719168 -3.00000000
8.26210594 3.53261185 2.07449865 64 13 6685 9.22200000 2688719170 2688719170 13.00000000
8.18456364 3.49776793 -0.15536132 20 14 6686 8.90200000 2688719173 2688719173 -1.00000000
7.15723276 3.05872607 2.08556390 45 15 6686 8.05800000 2688719175 2688719175 15.00000000
2.07788277 0.88457805 -0.60511893 4 0 6694 2.33800000 2688719196 2688719196 -15.00000000
8.18820763 3.48412418 0.15532641 15 1 6695 8.90000000 2688719198 2688719198 1.00000000
8.18279457 3.48013425 -2.05290341 8 2 6696 9.12600000 2688719200 2688719200 -13.00000000
8.20517921 3.48796344 0.46725541 13 3 6697 8.92800000 2688719203 2688719203 3.00000000
2.96673822 1.26113927 -0.62661672 6 4 6697 3.28400000 2688719205 2688719205 -11.00000000
8.17844582 3.47491407 0.77742922 71 5 6698 8.92000000 2688719207 2688719207 5.00000000
3.72187400 1.58060849 -0.64044273 6 6 6699 4.09400000 2688719210 2688719210 -9.00000000
8.22096443 3.48959255 1.09658039 92 7 6700 8.99800000 2688719212 2688719212 7.00000000
5.05830526 2.14608145 -0.67466867 6 8 6701 5.53600000 2688719214 2688719214 -7.00000000
7.70946074 3.26929641 -0.73263115 13 10 6702 8.40600000 2688719219 2688719219 -5.00000000
8.19288349 3.47092438 -0.46631336 17 12 6704 8.91000000 2688719223 2688719223 -3.00000000
8.26361942 3.49919081 2.07179928 66 13 6705 9.21000000 2688719226 2688719226 13.00000000
8.18015003 3.46216226 -0.15504718 16 14 6706 8.88400000 2688719228 2688719228 -1.00000000
7.16252899 3.03146505 2.08401084 40 15 6706 8.05200000 2688719230 2688719230 15.00000000
2.08273792 0.87807000 -0.60563654 4 0 6714 2.34000000 2688719251 2688719251 -15.00000000
8.18004990 3.44697905 0.15494247 12 1 6715 8.87800000 2688719253 2688719253 1.00000000
2.46942306 1.04007912 -0.61861539 4 2 6716 2.75000000 2688719256 2688719256 -13.00000000
8.21117878 3.45840907 0.46694142 13 3 6716 8.92200000 2688719258 2688719258 3.00000000
2.96931291 1.25001407 -0.62623513 6 4 6717 3.28200000 2688719260 2688719260 -11.00000000
8.20338058 3.45175385 0.77864939 78 5 6718 8.93400000 2688719263 2688719263 5.00000000
3.72736859 1.56760705 -0.64044273 6 6 6719 4.09400000 2688719265 2688719265 -9.00000000
8.21296597 3.45241284 1.09389925 87 7 6720 8.97600000 2688719267 2688719267 7.00000000
5.06210566 2.12687373 -0.67418122 6 8 6721 5.53200000 2688719269 2688719269 -7.00000000
7.73001099 3.24622273 -0.73350275 13 10 6722 8.41600000 2688719274 2688719274 -5.00000000
8.18469048 3.43380523 -0.46516198 17 12 6724 8.88800000 2688719279 2688719279 -3.00000000
8.26859570 3.46730971 2.06999969 62 13 6725 9.20200000 2688719281 2688719281 13.00000000
8.19402885 3.43436027 -0.15508208 18 14 6726 8.88600000 2688719283 2688719283 -1.00000000
7.17663050 3.00793815 2.08504629 42 15 6726 8.05600000 2688719286 2688719286 15.00000000
2.08935571 0.87228304 -0.60667187 4 0 6734 2.34400000 2688719306 2688719306 -15.00000000
8.19387722 3.41917443 0.15497737 12 1 6735 8.88000000 2688719309 2688719309 1.00000000
2.47663569 1.03295314 -0.61951518 4 2 6736 2.75400000 2688719311 2688719311 -13.00000000
8.20536423 3.42060542 0.46589467 10 3 6737 8.90200000 2688719313 2688719313 3.00000000
2.97909427 1.24190784 -0.62737995 6 4 6737 3.28800000 2688719316 2688719316 -11.00000000
8.20066643 3.41696715 0.77725494 78 5 6738 8.91800000 2688719318 2688719318 5.00000000
3.74193573 1.55838382 -0.64200705 6 6 6739 4.10400000 2688719320 2688719320 -9.00000000
8.20297527 3.41456890 1.09097433 90 7 6740 8.95200000 2688719322 2688719322 7.00000000
5.07316446 2.11071587 -0.67466867 6 8 6741 5.53600000 2688719325 2688719325 -7.00000000
7.73577642 3.21692514 -0.73297977 13 10 6742 8.41000000 2688719329 2688719329 -5.00000000
8.17633724 3.39678550 -0.46401060 17 12 6744 8.86600000 2688719334 2688719334 -3.00000000
8.26265049 3.43095255 2.06550050 66 13 6745 9.18200000 2688719336 2688719336 13.00000000
8.19673252 3.40190411 -0.15490755 18 14 6746 8.87600000 2688719339 2688719339 -1.00000000
7.18939161 2.98235464 2.08556390 40 15 6747 8.05800000 2688719341 2688719341 15.00000000
2.08866644 0.86387300 -0.60563654 4 0 6753 2.34000000 2688719362 2688719362 -15.00000000
8.18669033 3.38434434 0.15462832 12 1 6754 8.86000000 2688719364 2688719364 1.00000000
2.47644544 1.02324629 -0.61861539 4 2 6755 2.75000000 2688719366 2688719366 -13.00000000
8.19207382 3.38489556 0.46453395 10 3 6755 8.87600000 2688719369 2688719369 3.00000000
2.97412324 1.22827494 -0.62547189 6 4 6756 3.27800000 2688719371 2688719371 -11.00000000
8.20458603 3.38671303 0.77655768 78 5 6757 8.91000000 2688719373 2688719373 5.00000000
3.74525690 1.54521310 -0.64169419 6 6 6758 4.10200000 2688719375 2688719375 -9.00000000
8.20691204 3.38432097 1.08999944 90 7 6759 8.94400000 2688719378 2688719378 7.00000000
5.05444145 2.08329058 -0.67125636 6 8 6760 5.50800000 2688719380 2688719380 -7.00000000
7.76298094 3.19808483 -0.73454863 13 10 6761 8.42800000 2688719385 2688719385 -5.00000000
8.18570995 3.36889315 -0.46390593 12 12 6763 8.86400000 2688719389 2688719389 -3.00000000
8.25956535 3.39760303 2.06190133 70 13 6764 9.16600000 2688719392 2688719392 13.00000000
8.18947411 3.36709976 -0.15455851 18 14 6765 8.85600000 2688719394 2688719394 -1.00000000
7.20408535 2.96195769 2.08711672 42 15 6765 8.06400000 2688719396 2688719396 15.00000000
2.09166932 0.85657692 -0.60563654 4 0 6773 2.34000000 2688719417 2688719417 -15.00000000
8.18920135 3.35195923 0.15445380 12 1 6774 8.85000000 2688719419 2688719419 1.00000000
2.48721671 1.01754725 -0.62041503 4 2 6775 2.75800000 2688719421 2688719421 -13.00000000
8.19644451 3.35325408 0.46411526 13 3 6775 8.86800000 2688719424 2688719424 3.00000000
2.97294116 1.21565664 -0.62432700 6 4 6776 3.27200000 2688719426 2688719426 -11.00000000
8.19607067 3.34976172 0.77464026 71 5 6777 8.88800000 2688719428 2688719428 5.00000000
3.75611401 1.53437138 -0.64263278 6 6 6778 4.10800000 2688719431 2688719431 -9.00000000
8.21683788 3.35490251 1.08975565 92 7 6779 8.94200000 2688719433 2688719433 7.00000000
5.07271051 2.07013488 -0.67271876 6 8 6780 5.52000000 2688719435 2688719435 -7.00000000
7.75564909 3.16344285 -0.73280549 13 10 6781 8.40800000 2688719440 2688719440 -5.00000000
8.18817139 3.33653069 -0.46338254 17 12 6783 8.85400000 2688719445 2688719445 -3.00000000
8.26776505 3.36728096 2.06100154 64 13 6784 9.16200000 2688719447 2688719447 13.00000000
8.18080425 3.33019924 -0.15417455 16 14 6785 8.83400000 2688719449 2688719449 -1.00000000
7.20722342 2.93387914 2.08504629 40 15 6785 8.05600000 2688719451 2688719451 15.00000000
2.08748531 0.84636694 -0.60356599 4 0 6793 2.33200000 2688719472 2688719472 -15.00000000
8.18787861 3.31809592 0.15420946 12 1 6794 8.83600000 2688719474 2688719474 1.00000000
2.49617195 1.01105380 -0.62176472 4 2 6795 2.76400000 2688719477 2688719477 -13.00000000
8.19942379 3.31944275 0.46359190 13 3 6796 8.85800000 2688719479 2688719479 3.00000000
2.98262572 1.20748186 -0.62547189 6 4 6796 3.27800000 2688719481 2688719481 -11.00000000
8.18555069 3.31216359 0.77254850 75 5 6797 8.86400000 2688719484 2688719484 5.00000000
3.75595307 1.51902890 -0.64169419 6 6 6798 4.10200000 2688719486 2688719486 -9.00000000
8.22113705 3.32322407 1.08878076 90 7 6799 8.93400000 2688719488 2688719488 7.00000000
5.07622480 2.05092788 -0.67223132 6 8 6800 5.51600000 2688719491 2688719491 -7.00000000
7.77218628 3.13858938 -0.73332840 13 10 6801 8.41400000 2688719495 2688719495 -5.00000000
8.19235992 3.30493951 -0.46296388 17 12 6803 8.84600000 2688719500 2688719500 -3.00000000
8.26500988 3.33257055 2.05740237 66 13 6804 9.14600000 2688719502 2688719502 13.00000000
8.18310547 3.29788518 -0.15400003 20 14 6805 8.82400000 2688719504 2688719504 -1.00000000
7.21792841 2.90744352 2.08504629 40 15 6806 8.05600000 2688719507 2688719507 15.00000000
2.10118389 0.84339279 -0.60667187 4 0 6813 2.34400000 2688719527 2688719527 -15.00000000
8.17714024 3.28055978 0.15379061 12 1 6814 8.81200000 2688719530 2688719530 1.00000000
2.49425983 1.00015855 -0.62041503 4 2 6815 2.75800000 2688719532 2688719532 -13.00000000
8.20667839 3.29074764 0.46338254 10 3 6815 8.85400000 2688719534 2688719534 3.00000000
2.99228954 1.19925427 -0.62661672 6 4 6816 3.28400000 2688719537 2688719537 -11.00000000
8.19336319 3.28208876 0.77219987 78 5 6817 8.86000000 2688719539 2688719539 5.00000000
3.74656177 1.50003505 -0.63919121 4 6 6818 4.08600000 2688719541 2688719541 -9.00000000
8.21425724 3.28713155 1.08634329 90 7 6819 8.91400000 2688719544 2688719544 7.00000000
5.08335257 2.03319597 -0.67223132 6 8 6820 5.51600000 2688719546 2688719546 -7.00000000
7.78864479 3.11365891 -0.73385137 13 10 6821 8.42000000 2688719551 2688719551 -5.00000000
8.18158817 3.26743364 -0.46170780 17 12 6823 8.82200000 2688719555 2688719555 -3.00000000
8.28021145 3.30514479 2.05830216 62 13 6824 9.15000000 2688719557 2688719557 13.00000000
8.18713760 3.26633692 -0.15386042 16 14 6825 8.81600000 2688719560 2688719560 -1.00000000
7.22803307 2.88223076 2.08504629 40 15 6826 8.05600000 2688719562 2688719562 15.00000000
2.11115003 0.83927506 -0.60874242 4 0 6832 2.35200000 2688719583 2688719583 -15.00000000
8.18054008 3.25047183 0.15365098 12 1 6833 8.80400000 2688719585 2688719585 1.00000000
2.49031830 0.98900467 -0.61861539 4 2 6834 2.75000000 2688719587 2688719587 -13.00000000
8.20640850 3.25909209 0.46275452 10 3 6834 8.84200000 2688719590 2688719590 3.00000000
2.99442530 1.18860066 -0.62623513 5 4 6835 3.28200000 2688719592 2688719592 -11.00000000
8.19494247 3.25122690 0.77132833 78 5 6836 8.85000000 2688719594 2688719594 5.00000000
3.76436949 1.49269974 -0.64138132 6 6 6837 4.10000000 2688719597 2688719597 -9.00000000
8.19927597 3.24963427 1.08293104 95 7 6838 8.88600000 2688719599 2688719599 7.00000000
5.08637619 2.01486564 -0.67174381 6 8 6839 5.51200000 2688719601 2688719601 -7.00000000
7.80448484 3.09001422 -0.73437428 13 10 6840 8.42600000 2688719606 2688719606 -5.00000000
8.19423580 3.24101925 -0.46181247 12 12 6842 8.82400000 2688719610 2688719610 -3.00000000
8.27300358 3.27050424 2.05380321 64 13 6843 9.13000000 2688719613 2688719613 13.00000000
8.18490601 3.23402548 -0.15361609 16 14 6844 8.80200000 2688719615 2688719615 -1.00000000
7.23395777 2.85682654 2.08401084 40 15 6845 8.05200000 2688719617 2688719617 15.00000000
2.11406660 0.83190066 -0.60874242 4 0 6852 2.35200000 2688719638 2688719638 -15.00000000
8.18997574 3.22116470 0.15361609 15 1 6853 8.80200000 2688719640 2688719640 1.00000000
2.49012804 0.97887987 -0.61771560 4 2 6854 2.74600000 2688719643 2688719643 -13.00000000
8.18613529 3.21800447 0.46097511 10 3 6854 8.80800000 2688719645 2688719645 3.00000000
2.99124694 1.17526913 -0.62470865 6 4 6855 3.27400000 2688719647 2688719647 -11.00000000
8.20253181 3.22114491 0.77097970 82 5 6856 8.84600000 2688719650 2688719650 5.00000000
3.77323461 1.48099399 -0.64200705 6 6 6857 4.10400000 2688719652 2688719652 -9.00000000
8.20317745 3.21809387 1.08195603 95 7 6858 8.87800000 2688719654 2688719654 7.00000000
5.09337807 1.99709868 -0.67174381 6 8 6859 5.51200000 2688719657 2688719657 -7.00000000
7.81151342 3.06129861 -0.73402566 13 10 6860 8.42200000 2688719661 2688719661 -5.00000000
8.18318176 3.20365906 -0.46055642 17 12 6862 8.80000000 2688719666 2688719666 -3.00000000
8.27348137 3.23734546 2.05110383 64 13 6863 9.11800000 2688719668 2688719668 13.00000000
8.18310833 3.20033669 -0.15337175 14 14 6864 8.78800000 2688719670 2688719670 -1.00000000
7.24388599 2.83155799 2.08401084 40 15 6865 8.05200000 2688719673 2688719673 15.00000000
2.11155725 0.82241279 -0.60718948 4 0 6872 2.34600000 2688719693 2688719693 -15.00000000
8.18439865 3.18602800 0.15330194 18 1 6873 8.78400000 2688719696 2688719696 1.00000000
2.50442648 0.97442144 -0.62041503 4 2 6874 2.75800000 2688719698 2688719698 -13.00000000
8.19173431 3.18723726 0.46066108 13 3 6874 8.80200000 2688719700 2688719700 3.00000000
2.99533105 1.16482055 -0.62470865 6 4 6875 3.27400000 2688719703 2688719703 -11.00000000
8.19144154 3.18383145 0.76888794 82 5 6876 8.82200000 2688719705 2688719705 5.00000000
3.78574657 1.47067523 -0.64325851 6 6 6877 4.11200000 2688719707 2688719707 -9.00000000
8.20695877 3.18656588 1.08098114 95 7 6878 8.87000000 2688719709 2688719709 7.00000000
5.10031843 1.97930729 -0.67174381 9 8 6879 5.51200000 2688719712 2688719712 -7.00000000
