# .PCD v0.7 - Point Cloud Data file format
VERSION 0.7
FIELDS x y z intensity laser_id azimuth distance_m adjustedtime timestamp vertical_angle
SIZE 4 4 4 1 1 2 8 8 4 8
TYPE F F F U U U F U U F
COUNT 1 1 1 1 1 1 1 1 1 1
WIDTH 534
HEIGHT 1
VIEWPOINT 0 0 0 1 0 0 0
POINTS 534
DATA ascii
8.12717819 -0.24404848 0.42611936 28 3 9172 8.14200000 2691026044 2691026044 3.00000000
3.13192582 -0.09459473 -0.60906231 6 4 9173 3.19200000 2691026047 2691026047 -11.00000000
8.11126041 -0.24640442 0.70997065 76 5 9174 8.14600000 2691026049 2691026049 5.00000000
3.92126822 -0.11980558 -0.62135768 8 6 9175 3.97200000 2691026051 2691026051 -9.00000000
8.12511826 -0.24966425 0.99810994 90 7 9176 8.19000000 2691026054 2691026054 7.00000000
5.22227001 -0.16137941 -0.64152020 8 8 9177 5.26400000 2691026056 2691026056 -7.00000000
8.20767879 -0.25506887 1.30059612 10 9 9178 8.31400000 2691026058 2691026058 9.00000000
8.09316349 -0.25151011 -0.70840186 17 10 9178 8.12800000 2691026061 2691026061 -5.00000000
8.10287476 -0.25464308 -0.42486328 17 12 9180 8.11800000 2691026065 2691026065 -3.00000000
8.10267544 -0.25746801 -0.14150411 18 14 9182 8.10800000 2691026070 2691026070 -1.00000000
8.17335701 -0.26114196 2.19116211 49 15 9183 8.46600000 2691026072 2691026072 15.00000000
2.21652055 -0.07430413 -0.59424853 4 0 9192 2.29600000 2691026093 2691026093 -15.00000000
8.11016083 -0.27329296 0.14164373 15 1 9193 8.11600000 2691026095 2691026095 1.00000000
2.62150073 -0.08879635 -0.60556823 7 2 9194 2.69200000 2691026097 2691026097 -13.00000000
8.10622025 -0.27457657 0.42507264 23 3 9194 8.12200000 2691026100 2691026100 3.00000000
3.12565303 -0.10641932 -0.60791749 5 4 9195 3.18600000 2691026102 2691026102 -11.00000000
8.10428047 -0.27734309 0.70944774 76 5 9196 8.14000000 2691026104 2691026104 5.00000000
3.93262458 -0.13526869 -0.62323493 8 6 9197 3.98400000 2691026107 2691026107 -9.00000000
8.12608337 -0.28092912 0.99835366 90 7 9198 8.19200000 2691026109 2691026109 7.00000000
5.22954750 -0.18170598 -0.64249516 8 8 9199 5.27200000 2691026111 2691026111 -7.00000000
8.19484329 -0.28473824 1.29871893 10 9 9199 8.30200000 2691026114 2691026114 9.00000000
8.08019066 -0.28216648 -0.70735604 17 10 9200 8.11600000 2691026116 2691026116 -5.00000000
8.22293663 -0.28858820 1.59936094 6 11 9201 8.38200000 2691026118 2691026118 11.00000000
8.11381340 -0.28617632 -0.42549133 17 12 9202 8.13000000 2691026120 2691026120 -3.00000000
8.09163475 -0.28822216 -0.14132959 16 14 9204 8.09800000 2691026125 2691026125 -1.00000000
8.16843319 -0.29238519 2.19012666 47 15 9205 8.46200000 2691026127 2691026127 15.00000000
2.22396994 -0.08232664 -0.59631908 4 0 9212 2.30400000 2691026148 2691026148 -15.00000000
8.10516071 -0.30145240 0.14157392 15 1 9213 8.11200000 2691026150 2691026150 1.00000000
2.61728001 -0.09780101 -0.60466844 7 2 9214 2.68800000 2691026153 2691026153 -13.00000000
8.11519146 -0.30324382 0.42559600 21 3 9214 8.13200000 2691026155 2691026155 3.00000000
3.12722445 -0.11740289 -0.60829908 5 4 9215 3.18800000 2691026157 2691026157 -11.00000000
8.09928131 -0.30548045 0.70909911 76 5 9216 8.13600000 2691026160 2691026160 5.00000000
3.92423272 -0.14869609 -0.62198341 8 6 9217 3.97600000 2691026162 2691026162 -9.00000000
8.12306976 -0.30921721 0.99810994 92 7 9218 8.19000000 2691026164 2691026164 7.00000000
5.22888136 -0.19995941 -0.64249516 8 8 9219 5.27200000 2691026167 2691026167 -7.00000000
8.20366955 -0.31371927 1.30028331 10 9 9219 8.31200000 2691026169 2691026169 9.00000000
6.60189342 -0.25361916 -0.57801688 12 10 9220 6.63200000 2691026171 2691026171 -5.00000000
8.11875153 -0.31472918 -0.42580533 17 12 9222 8.13600000 2691026176 2691026176 -3.00000000
8.10057068 -0.31685629 -0.14150411 14 14 9224 8.10800000 2691026180 2691026180 -1.00000000
8.16350174 -0.32074487 2.18909144 47 15 9225 8.45800000 2691026183 2691026183 15.00000000
2.22756076 -0.08946808 -0.59735435 4 0 9230 2.30800000 2691026203 2691026203 -15.00000000
8.10017776 -0.32675278 0.14150411 21 1 9231 8.10800000 2691026206 2691026206 1.00000000
2.60917139 -0.10570740 -0.60286885 7 2 9232 2.68000000 2691026208 2691026208 -13.00000000
8.12218094 -0.32906029 0.42601469 21 3 9232 8.14000000 2691026210 2691026210 3.00000000
3.12684011 -0.12722676 -0.60829908 6 4 9233 3.18800000 2691026213 2691026213 -11.00000000
8.09031868 -0.33059815 0.70840186 72 5 9234 8.12800000 2691026215 2691026215 5.00000000
3.90993023 -0.16045670 -0.61979336 6 6 9235 3.96200000 2691026217 2691026217 -9.00000000
8.12602520 -0.33489853 0.99859738 90 7 9236 8.19400000 2691026219 2691026219 7.00000000
5.23219395 -0.21654959 -0.64298266 8 8 9237 5.27600000 2691026222 2691026222 -7.00000000
8.19672203 -0.33924520 1.29934466 10 9 9237 8.30600000 2691026224 2691026224 9.00000000
6.59310150 -0.27402738 -0.57731962 16 10 9238 6.62400000 2691026226 2691026226 -5.00000000
8.09976387 -0.33948067 -0.42486328 17 12 9240 8.11800000 2691026231 2691026231 -3.00000000
8.10353088 -0.34247226 -0.14157392 14 14 9242 8.11200000 2691026236 2691026236 -1.00000000
8.17023468 -0.34529132 2.19116211 47 15 9242 8.46600000 2691026238 2691026238 15.00000000
2.22723484 -0.09724317 -0.59735435 4 0 9250 2.30800000 2691026259 2691026259 -15.00000000
8.10298252 -0.35520083 0.14157392 15 1 9251 8.11200000 2691026261 2691026261 1.00000000
2.60683966 -0.11472879 -0.60241890 9 2 9252 2.67800000 2691026263 2691026263 -13.00000000
8.11300182 -0.35705873 0.42559600 21 3 9252 8.13200000 2691026266 2691026266 3.00000000
3.13029981 -0.13831402 -0.60906231 8 4 9253 3.19200000 2691026268 2691026268 -11.00000000
8.10105801 -0.35936639 0.70944774 72 5 9254 8.14000000 2691026270 2691026270 5.00000000
3.91329312 -0.17427970 -0.62041909 4 6 9255 3.96600000 2691026272 2691026272 -9.00000000
8.11092472 -0.36264095 0.99689120 90 7 9256 8.18000000 2691026275 2691026275 7.00000000
5.21950769 -0.23427796 -0.64152020 8 8 9257 5.26400000 2691026277 2691026277 -7.00000000
8.20930195 -0.36847505 1.30153477 10 9 9257 8.32000000 2691026279 2691026279 9.00000000
6.60205650 -0.29748836 -0.57819122 16 10 9258 6.63400000 2691026282 2691026282 -5.00000000
8.08456230 -0.36711785 -0.42413059 17 12 9260 8.10400000 2691026286 2691026286 -3.00000000
8.10228634 -0.37075678 -0.14157392 16 14 9262 8.11200000 2691026291 2691026291 -1.00000000
8.16698456 -0.37514573 2.19064450 47 15 9263 8.46400000 2691026293 2691026293 15.00000000
2.23072290 -0.10558843 -0.59838963 4 0 9271 2.31200000 2691026314 2691026314 -15.00000000
8.10562134 -0.38508713 0.14164373 15 1 9272 8.11600000 2691026316 2691026316 1.00000000
2.60056210 -0.12400410 -0.60106921 7 2 9273 2.67200000 2691026319 2691026319 -13.00000000
8.10359097 -0.38782582 0.42517731 15 3 9274 8.12400000 2691026321 2691026321 3.00000000
3.12584972 -0.14959851 -0.60829908 6 4 9274 3.18800000 2691026323 2691026323 -11.00000000
8.10764694 -0.38943821 0.71014500 76 5 9275 8.14800000 2691026325 2691026325 5.00000000
3.93038583 -0.18947753 -0.62323493 4 6 9276 3.98400000 2691026328 2691026328 -9.00000000
8.11747169 -0.39275026 0.99786621 87 7 9277 8.18800000 2691026330 2691026330 7.00000000
5.21464872 -0.25321427 -0.64103276 8 8 9278 5.26000000 2691026332 2691026332 -7.00000000
8.21184254 -0.39875281 1.30216050 10 9 9278 8.32400000 2691026335 2691026335 9.00000000
6.59694195 -0.32149017 -0.57784259 16 10 9279 6.63000000 2691026337 2691026337 -5.00000000
8.18876266 -0.40049729 1.59363675 6 11 9280 8.35200000 2691026339 2691026339 11.00000000
8.09513187 -0.39733428 -0.42475861 17 12 9281 8.11600000 2691026342 2691026342 -3.00000000
8.09288406 -0.40005571 -0.14143430 16 14 9283 8.10400000 2691026346 2691026346 -1.00000000
8.16562557 -0.40365157 2.19064450 47 15 9283 8.46400000 2691026349 2691026349 15.00000000
2.21104717 -0.11239371 -0.59321326 4 0 9291 2.29200000 2691026369 2691026369 -15.00000000
8.12020493 -0.41419363 0.14192297 15 1 9292 8.13200000 2691026372 2691026372 1.00000000
2.60011339 -0.13308100 -0.60106921 7 2 9293 2.67200000 2691026374 2691026374 -13.00000000
8.11016655 -0.41652003 0.42559600 13 3 9294 8.13200000 2691026376 2691026376 3.00000000
3.11746573 -0.16010606 -0.60677260 6 4 9294 3.18000000 2691026378 2691026378 -11.00000000
8.10623837 -0.41773680 0.71014500 72 5 9295 8.14800000 2691026381 2691026381 5.00000000
3.93561864 -0.20350201 -0.62417352 4 6 9296 3.99000000 2691026383 2691026383 -9.00000000
8.12398148 -0.42149454 0.99884117 90 7 9297 8.19600000 2691026385 2691026385 7.00000000
5.20976830 -0.27120885 -0.64054525 6 8 9298 5.25600000 2691026388 2691026388 -7.00000000
8.18862629 -0.42771459 1.29871893 10 9 9299 8.30200000 2691026390 2691026390 9.00000000
6.58981037 -0.34420404 -0.57731962 16 10 9299 6.62400000 2691026392 2691026392 -5.00000000
8.10167408 -0.42600864 -0.42517731 12 12 9301 8.12400000 2691026397 2691026397 -3.00000000
8.09143829 -0.42830271 -0.14143430 14 14 9303 8.10400000 2691026402 2691026402 -1.00000000
8.16602039 -0.43367982 2.19116211 47 15 9304 8.46600000 2691026404 2691026404 15.00000000
2.21066236 -0.11972519 -0.59321326 4 0 9310 2.29200000 2691026425 2691026425 -15.00000000
8.10680580 -0.44046798 0.14171354 15 1 9311 8.12000000 2691026427 2691026427 1.00000000
2.61327863 -0.14244501 -0.60421854 9 2 9312 2.68600000 2691026429 2691026429 -13.00000000
8.11871243 -0.44395727 0.42611936 18 3 9313 8.14200000 2691026431 2691026431 3.00000000
3.12475896 -0.17087187 -0.60829908 5 4 9313 3.18800000 2691026434 2691026434 -11.00000000
8.09287167 -0.44396093 0.70909911 76 5 9314 8.13600000 2691026436 2691026436 5.00000000
3.92703271 -0.21611768 -0.62292206 4 6 9315 3.98200000 2691026438 2691026438 -9.00000000
8.12650299 -0.44865119 0.99932861 87 7 9316 8.20000000 2691026441 2691026441 7.00000000
5.21478605 -0.28881291 -0.64127648 4 8 9317 5.26200000 2691026443 2691026443 -7.00000000
8.20696545 -0.45453012 1.30184758 10 9 9317 8.32200000 2691026445 2691026445 9.00000000
6.59062195 -0.36616528 -0.57749397 100 10 9318 6.62600000 2691026448 2691026448 -5.00000000
8.10221100 -0.45298389 -0.42528197 17 12 9320 8.12600000 2691026452 2691026452 -3.00000000
8.09196949 -0.45524487 -0.14146921 16 14 9322 8.10600000 2691026457 2691026457 -1.00000000
8.16075993 -0.45911491 2.19012666 47 15 9322 8.46200000 2691026459 2691026459 15.00000000
2.22180271 -0.12810835 -0.59631908 4 0 9330 2.30400000 2691026480 2691026480 -15.00000000
8.09124470 -0.46795514 0.14146921 12 1 9331 8.10600000 2691026482 2691026482 1.00000000
2.60498357 -0.15111476 -0.60241890 9 2 9332 2.67800000 2691026484 2691026484 -13.00000000
8.11711311 -0.47229415 0.42611936 18 3 9333 8.14200000 2691026487 2691026487 3.00000000
3.13198328 -0.18223442 -0.60982555 5 4 9333 3.19600000 2691026489 2691026489 -11.00000000
8.09723949 -0.47255588 0.70962209 72 5 9334 8.14200000 2691026491 2691026491 5.00000000
3.91442227 -0.22913168 -0.62104481 4 6 9335 3.97000000 2691026494 2691026494 -9.00000000
8.12092400 -0.47678256 0.99884117 90 7 9336 8.19600000 2691026496 2691026496 7.00000000
5.24347115 -0.30876452 -0.64493257 6 8 9337 5.29200000 2691026498 2691026498 -7.00000000
8.20130062 -0.48437420 1.30122185 10 9 9338 8.31800000 2691026501 2691026501 9.00000000
8.09659290 -0.48102623 -0.42507264 17 12 9340 8.12200000 2691026507 2691026507 -3.00000000
8.09831619 -0.48396549 -0.14160882 16 14 9342 8.11400000 2691026512 2691026512 -1.00000000
8.16287899 -0.48925367 2.19116211 47 15 9343 8.46600000 2691026514 2691026514 15.00000000
2.21365261 -0.13500500 -0.59424853 4 0 9349 2.29600000 2691026535 2691026535 -15.00000000
8.09164429 -0.49490616 0.14150411 15 1 9350 8.10800000 2691026537 2691026537 1.00000000
2.59668779 -0.15927514 -0.60061932 9 2 9351 2.67000000 2691026540 2691026540 -13.00000000
8.11749554 -0.49933150 0.42622402 18 3 9352 8.14400000 2691026542 2691026542 3.00000000
3.12548304 -0.19225784 -0.60868067 4 4 9352 3.19000000 2691026544 2691026544 -11.00000000
8.12346840 -0.50112212 0.71206242 90 5 9353 8.17000000 2691026547 2691026547 5.00000000
3.90575457 -0.24162322 -0.61979336 4 6 9354 3.96200000 2691026549 2691026549 -9.00000000
8.11335468 -0.50334114 0.99810994 90 7 9355 8.19000000 2691026551 2691026551 7.00000000
5.20873690 -0.32405534 -0.64078903 4 8 9356 5.25800000 2691026554 2691026554 -7.00000000
8.21353912 -0.51099551 1.30341196 10 9 9356 8.33200000 2691026556 2691026556 9.00000000
6.58797693 -0.41101739 -0.57749397 114 10 9357 6.62600000 2691026558 2691026558 -5.00000000
8.19626713 -0.51279312 1.59630811 3 11 9358 8.36600000 2691026560 2691026560 11.00000000
8.08498573 -0.50724757 -0.42454928 17 12 9359 8.11200000 2691026563 2691026563 -3.00000000
8.10065746 -0.51106966 -0.14167863 18 14 9361 8.11800000 2691026567 2691026567 -1.00000000
8.16515827 -0.51513892 2.19219732 47 15 9361 8.47000000 2691026570 2691026570 15.00000000
2.22473502 -0.14347725 -0.59735435 4 0 9369 2.30800000 2691026590 2691026590 -15.00000000
8.09984493 -0.52379352 0.14167863 15 1 9370 8.11800000 2691026593 2691026593 1.00000000
2.59806085 -0.16846439 -0.60106921 7 2 9371 2.67200000 2691026595 2691026595 -13.00000000
8.09975910 -0.52662712 0.42538664 18 3 9372 8.12800000 2691026597 2691026597 3.00000000
3.12283397 -0.20303926 -0.60829908 4 4 9372 3.18800000 2691026600 2691026600 -11.00000000
8.10974121 -0.52869755 0.71101654 76 5 9373 8.15800000 2691026602 2691026602 5.00000000
3.93248367 -0.25705931 -0.62417352 4 6 9374 3.99000000 2691026604 2691026604 -9.00000000
8.11352921 -0.53178877 0.99835366 87 7 9375 8.19200000 2691026607 2691026607 7.00000000
8.10947418 -0.53294450 -0.99786621 2 8 9376 8.18800000 2691026609 2691026609 -7.00000000
8.19781303 -0.54018700 1.30122185 10 9 9377 8.31800000 2691026611 2691026611 9.00000000
6.60240698 -0.43505922 -0.57888842 84 10 9377 6.64200000 2691026613 2691026613 -5.00000000
8.09113789 -0.53599441 -0.42496797 17 12 9379 8.12000000 2691026618 2691026618 -3.00000000
8.09283924 -0.53894448 -0.14157392 20 14 9381 8.11200000 2691026623 2691026623 -1.00000000
8.17092514 -0.54557711 2.19426775 49 15 9382 8.47800000 2691026625 2691026625 15.00000000
2.20880151 -0.15019368 -0.59321326 4 0 9389 2.29200000 2691026646 2691026646 -15.00000000
8.09996223 -0.55220002 0.14171354 15 1 9390 8.12000000 2691026648 2691026648 1.00000000
2.60134530 -0.17779806 -0.60196900 7 2 9391 2.67600000 2691026650 2691026650 -13.00000000
8.11580467 -0.55612624 0.42632869 26 3 9392 8.14600000 2691026653 2691026653 3.00000000
3.11231279 -0.21326768 -0.60639101 4 4 9392 3.17800000 2691026655 2691026655 -11.00000000
8.09790707 -0.55631989 0.71014500 76 5 9393 8.14800000 2691026657 2691026657 5.00000000
3.90791392 -0.26915589 -0.62041909 4 6 9394 3.96600000 2691026660 2691026660 -9.00000000
8.11558437 -0.56038052 0.99884117 87 7 9395 8.19600000 2691026662 2691026662 7.00000000
5.20832825 -0.36054808 -0.64103276 2 8 9396 5.26000000 2691026664 2691026664 -7.00000000
8.19203568 -0.56709611 1.30059612 7 9 9396 8.31400000 2691026666 2691026666 9.00000000
6.57699680 -0.45644799 -0.57679671 28 10 9397 6.61800000 2691026669 2691026669 -5.00000000
8.10714912 -0.56548524 -0.42591003 17 12 9399 8.13800000 2691026673 2691026673 -3.00000000
8.09090805 -0.56719047 -0.14157392 20 14 9401 8.11200000 2691026678 2691026678 -1.00000000
8.15943527 -0.57199436 2.19167972 45 15 9401 8.46800000 2691026680 2691026680 15.00000000
2.20055604 -0.15735178 -0.59114271 4 0 9409 2.28400000 2691026701 2691026701 -15.00000000
8.09399605 -0.58018488 0.14164373 18 1 9410 8.11600000 2691026703 2691026703 1.00000000
2.61237121 -0.18771538 -0.60466844 7 2 9411 2.68800000 2691026706 2691026706 -13.00000000
8.11381340 -0.58445227 0.42632869 23 3 9412 8.14600000 2691026708 2691026708 3.00000000
3.11154938 -0.22413038 -0.60639101 4 4 9412 3.17800000 2691026710 2691026710 -11.00000000
8.09591675 -0.58458346 0.71014500 79 5 9413 8.14800000 2691026713 2691026713 5.00000000
3.90301013 -0.28251019 -0.61979336 4 6 9414 3.96200000 2691026715 2691026715 -9.00000000
8.12149811 -0.58928043 0.99981612 90 7 9415 8.20400000 2691026717 2691026717 7.00000000
5.21297741 -0.37915835 -0.64176399 2 8 9416 5.26600000 2691026719 2691026719 -7.00000000
8.20172310 -0.59797949 1.30247331 7 9 9417 8.32600000 2691026722 2691026722 9.00000000
6.58529902 -0.48012760 -0.57766825 20 10 9417 6.62800000 2691026724 2691026724 -5.00000000
8.10910988 -0.59407288 -0.42611936 17 12 9419 8.14200000 2691026729 2691026729 -3.00000000
8.09286785 -0.59572315 -0.14164373 20 14 9421 8.11600000 2691026733 2691026733 -1.00000000
8.15535736 -0.60175419 2.19116211 47 15 9422 8.46600000 2691026736 2691026736 15.00000000
2.21152306 -0.16628525 -0.59424853 4 0 9430 2.29600000 2691026756 2691026756 -15.00000000
8.08583355 -0.60939610 0.14153902 12 1 9431 8.11000000 2691026759 2691026759 1.00000000
2.59029031 -0.19567423 -0.59971952 6 2 9432 2.66600000 2691026761 2691026761 -13.00000000
8.11360836 -0.61433774 0.42643338 21 3 9433 8.14800000 2691026763 2691026763 3.00000000
3.11853766 -0.23612618 -0.60791749 5 4 9433 3.18600000 2691026766 2691026766 -11.00000000
8.09967899 -0.61470485 0.71066791 76 5 9434 8.15400000 2691026768 2691026768 5.00000000
3.89013028 -0.29591456 -0.61791611 6 6 9435 3.95000000 2691026770 2691026770 -9.00000000
8.11532497 -0.61874145 0.99932861 90 7 9436 8.20000000 2691026772 2691026772 7.00000000
5.19571829 -0.39705226 -0.63981408 4 8 9437 5.25000000 2691026775 2691026775 -7.00000000
8.19564629 -0.62630415 1.30184758 10 9 9437 8.32200000 2691026777 2691026777 9.00000000
6.58150816 -0.50410855 -0.57749397 32 10 9438 6.62600000 2691026779 2691026779 -5.00000000
8.09094715 -0.62256444 -0.42528197 17 12 9440 8.12600000 2691026784 2691026784 -3.00000000
8.08265495 -0.62476456 -0.14150411 16 14 9442 8.10800000 2691026789 2691026789 -1.00000000
8.15705967 -0.63051581 2.19219732 47 15 9442 8.47000000 2691026791 2691026791 15.00000000
2.20707726 -0.17370075 -0.59321326 4 0 9450 2.29200000 2691026812 2691026812 -15.00000000
8.09362411 -0.63840342 0.14171354 12 1 9451 8.12000000 2691026814 2691026814 1.00000000
2.59347701 -0.20502199 -0.60061932 6 2 9452 2.67000000 2691026816 2691026816 -13.00000000
8.10743332 -0.64234030 0.42622402 23 3 9453 8.14400000 2691026819 2691026819 3.00000000
3.12160850 -0.24732059 -0.60868067 4 4 9453 3.19000000 2691026821 2691026821 -11.00000000
8.10344219 -0.64344740 0.71119088 76 5 9454 8.16000000 2691026823 2691026823 5.00000000
3.88513541 -0.30917844 -0.61729038 6 6 9455 3.94600000 2691026825 2691026825 -9.00000000
8.10520077 -0.64643413 0.99835366 90 7 9456 8.19200000 2691026828 2691026828 7.00000000
5.19825792 -0.41550261 -0.64030153 4 8 9457 5.25400000 2691026830 2691026830 -7.00000000
8.21310139 -0.65648240 1.30497634 10 9 9457 8.34200000 2691026832 2691026832 9.00000000
6.59956884 -0.52867019 -0.57923704 52 10 9458 6.64600000 2691026835 2691026835 -5.00000000
8.20356750 -0.65860236 1.59974265 6 11 9459 8.38400000 2691026837 2691026837 11.00000000
8.09867859 -0.65160424 -0.42580533 17 12 9460 8.13600000 2691026839 2691026839 -3.00000000
8.09637070 -0.65426302 -0.14178336 14 14 9462 8.12400000 2691026844 2691026844 -1.00000000
8.15865993 -0.65929663 2.19323254 47 15 9462 8.47400000 2691026846 2691026846 15.00000000
2.21037149 -0.18094885 -0.59424853 4 0 9468 2.29600000 2691026867 2691026867 -15.00000000
8.09157944 -0.66382712 0.14171354 15 1 9469 8.12000000 2691026869 2691026869 1.00000000
2.59281993 -0.21316861 -0.60061932 6 2 9470 2.67000000 2691026872 2691026872 -13.00000000
8.09343147 -0.66682339 0.42559600 21 3 9471 8.13200000 2691026874 2691026874 3.00000000
3.10516334 -0.25583652 -0.60562778 4 4 9471 3.17400000 2691026876 2691026876 -11.00000000
8.10733795 -0.66939372 0.71171379 76 5 9472 8.16600000 2691026878 2691026878 5.00000000
3.89201951 -0.32203397 -0.61854190 6 6 9473 3.95400000 2691026881 2691026881 -9.00000000
8.10906506 -0.67238629 0.99908489 90 7 9474 8.19800000 2691026883 2691026883 7.00000000
5.19297075 -0.43150258 -0.63981408 4 8 9475 5.25000000 2691026885 2691026885 -7.00000000
8.19906807 -0.68273091 1.30309904 7 9 9476 8.33000000 2691026888 2691026888 9.00000000
6.60383177 -0.54989666 -0.57976002 72 10 9476 6.65200000 2691026890 2691026890 -5.00000000
8.09062099 -0.67654443 -0.42549133 17 12 9478 8.13000000 2691026895 2691026895 -3.00000000
8.09228230 -0.67952794 -0.14174844 18 14 9480 8.12200000 2691026899 2691026899 -1.00000000
8.17002392 -0.68605608 2.19685602 51 15 9480 8.48800000 2691026901 2691026901 15.00000000
2.20972633 -0.18866339 -0.59424853 4 0 9488 2.29600000 2691026922 2691026922 -15.00000000
8.10315990 -0.69326121 0.14195788 12 1 9489 8.13400000 2691026925 2691026925 1.00000000
2.59400177 -0.22238439 -0.60106921 7 2 9490 2.67200000 2691026927 2691026927 -13.00000000
8.09901428 -0.69575441 0.42601469 18 3 9491 8.14000000 2691026929 2691026929 3.00000000
3.10816336 -0.26701006 -0.60639101 5 4 9491 3.17800000 2691026931 2691026931 -11.00000000
8.10892200 -0.69803131 0.71206242 76 5 9492 8.17000000 2691026934 2691026934 5.00000000
3.89283967 -0.33578745 -0.61885476 6 6 9493 3.95600000 2691026936 2691026936 -9.00000000
8.11457920 -0.70137185 1.00005984 92 7 9494 8.20600000 2691026938 2691026938 7.00000000
5.18352175 -0.44894165 -0.63883913 4 8 9495 5.24200000 2691026941 2691026941 -7.00000000
8.17301846 -0.70929730 1.29934466 7 9 9496 8.30600000 2691026943 2691026943 9.00000000
6.59790230 -0.57260048 -0.57941139 49 10 9496 6.64800000 2691026945 2691026945 -5.00000000
8.09616852 -0.70547533 -0.42591003 17 12 9498 8.13800000 2691026950 2691026950 -3.00000000
8.08189297 -0.70707399 -0.14160882 16 14 9500 8.11400000 2691026954 2691026954 -1.00000000
8.15783215 -0.71515256 2.19426775 47 15 9501 8.47800000 2691026957 2691026957 15.00000000
2.19747472 -0.19573282 -0.59114271 4 0 9509 2.28400000 2691026978 2691026978 -15.00000000
8.08861351 -0.72188950 0.14174844 15 1 9510 8.12200000 2691026980 2691026980 1.00000000
2.59705114 -0.23223753 -0.60196900 7 2 9511 2.67600000 2691026982 2691026982 -13.00000000
8.11431408 -0.72703826 0.42695674 18 3 9512 8.15800000 2691026984 2691026984 3.00000000
3.11107469 -0.27875069 -0.60715425 4 4 9512 3.18200000 2691026987 2691026987 -11.00000000
8.09638691 -0.72685653 0.71119088 76 5 9513 8.16000000 2691026989 2691026989 5.00000000
3.88371325 -0.34934527 -0.61760324 6 6 9514 3.94800000 2691026991 2691026991 -9.00000000
8.11788559 -0.73164314 1.00079107 87 7 9515 8.21200000 2691026994 2691026994 7.00000000
5.18184185 -0.46793720 -0.63883913 6 8 9516 5.24200000 2691026996 2691026996 -7.00000000
8.19397259 -0.74138421 1.30309904 7 9 9517 8.33000000 2691026998 2691026998 9.00000000
6.58782196 -0.59606099 -0.57871413 125 10 9517 6.64000000 2691027001 2691027001 -5.00000000
8.10546303 -0.73622859 -0.42653805 17 12 9519 8.15000000 2691027005 2691027005 -3.00000000
8.08721256 -0.73741722 -0.14174844 16 14 9521 8.12200000 2691027010 2691027010 -1.00000000
8.14951515 -0.74309808 2.19271493 51 15 9521 8.47200000 2691027012 2691027012 15.00000000
2.19677806 -0.20340224 -0.59114271 4 0 9529 2.28400000 2691027033 2691027033 -15.00000000
8.08604431 -0.75011963 0.14174844 12 1 9530 8.12200000 2691027035 2691027035 1.00000000
2.59040356 -0.24076049 -0.60061932 6 2 9531 2.67000000 2691027037 2691027037 -13.00000000
8.12564659 -0.75665438 0.42768943 21 3 9532 8.17200000 2691027040 2691027040 3.00000000
3.11790180 -0.29033676 -0.60868067 4 4 9532 3.19000000 2691027042 2691027042 -11.00000000
8.09380054 -0.75511378 0.71119088 79 5 9533 8.16000000 2691027044 2691027044 5.00000000
3.87066936 -0.36179680 -0.61572605 6 6 9534 3.93600000 2691027047 2691027047 -9.00000000
8.11330509 -0.75979030 1.00054729 90 7 9535 8.21000000 2691027049 2691027049 7.00000000
5.18412971 -0.48639321 -0.63932657 8 8 9536 5.24600000 2691027051 2691027051 -7.00000000
8.21100140 -0.77183068 1.30622780 7 9 9537 8.35000000 2691027054 2691027054 9.00000000
6.58966875 -0.61942607 -0.57906276 96 10 9537 6.64400000 2691027056 2691027056 -5.00000000
8.10284424 -0.76451743 -0.42653805 17 12 9539 8.15000000 2691027060 2691027060 -3.00000000
8.09653378 -0.76677358 -0.14195788 16 14 9541 8.13400000 2691027065 2691027065 -1.00000000
8.15264130 -0.77208710 2.19426775 49 15 9541 8.47800000 2691027067 2691027067 15.00000000
2.20762968 -0.21179283 -0.59424853 4 0 9548 2.29600000 2691027088 2691027088 -15.00000000
8.08948421 -0.77750373 0.14185315 12 1 9549 8.12800000 2691027090 2691027090 1.00000000
2.58377171 -0.24878891 -0.59926963 7 2 9550 2.66400000 2691027093 2691027093 -13.00000000
8.10732555 -0.78064662 0.42685205 18 3 9550 8.15600000 2691027095 2691027095 3.00000000
3.11692190 -0.30067450 -0.60868067 4 4 9551 3.19000000 2691027097 2691027097 -11.00000000
8.09720135 -0.78252459 0.71171379 76 5 9552 8.16600000 2691027100 2691027100 5.00000000
3.87338066 -0.37501115 -0.61635178 6 6 9553 3.94000000 2691027102 2691027102 -9.00000000
8.10086250 -0.78573257 0.99932861 87 7 9554 8.20000000 2691027104 2691027104 7.00000000
5.16668177 -0.50204587 -0.63737667 8 8 9555 5.23000000 2691027106 2691027106 -7.00000000
8.20853615 -0.79762244 1.30622780 7 9 9555 8.35000000 2691027109 2691027109 9.00000000
8.09231281 -0.79060638 -0.42611936 17 12 9558 8.14200000 2691027116 2691027116 -3.00000000
8.09792709 -0.79400867 -0.14202769 16 14 9560 8.13800000 2691027120 2691027120 -1.00000000
8.15772629 -0.79987204 2.19633842 47 15 9560 8.48600000 2691027123 2691027123 15.00000000
2.21072149 -0.21988000 -0.59528381 4 0 9568 2.30000000 2691027143 2691027143 -15.00000000
8.09865952 -0.80692613 0.14206259 12 1 9569 8.14000000 2691027146 2691027146 1.00000000
2.58288741 -0.25780645 -0.59926963 5 2 9570 2.66400000 2691027148 2691027148 -13.00000000
8.10043526 -0.80995882 0.42664272 15 3 9571 8.15200000 2691027150 2691027150 3.00000000
3.11585355 -0.31155276 -0.60868067 4 4 9571 3.19000000 2691027153 2691027153 -11.00000000
8.10829830 -0.81217438 0.71293396 79 5 9572 8.18000000 2691027155 2691027155 5.00000000
3.87794447 -0.38912115 -0.61729038 6 6 9573 3.94600000 2691027157 2691027157 -9.00000000
8.10597038 -0.81479925 1.00030363 87 7 9574 8.20800000 2691027159 2691027159 7.00000000
5.15897274 -0.51948124 -0.63664544 6 8 9575 5.22400000 2691027162 2691027162 -7.00000000
8.21341896 -0.82849592 1.30747926 7 9 9576 8.35800000 2691027164 2691027164 9.00000000
6.58133507 -0.66386592 -0.57871413 40 10 9576 6.64000000 2691027166 2691027166 -5.00000000
8.08552933 -0.81844676 -0.42591003 17 12 9578 8.13800000 2691027171 2691027171 -3.00000000
8.08913803 -0.82166463 -0.14192297 14 14 9580 8.13200000 2691027176 2691027176 -1.00000000
8.16434956 -0.83074403 2.19892669 51 15 9581 8.49600000 2691027178 2691027178 15.00000000
2.20609713 -0.22719970 -0.59424853 4 0 9588 2.29600000 2691027199 2691027199 -15.00000000
8.09977150 -0.83560127 0.14213240 12 1 9589 8.14400000 2691027201 2691027201 1.00000000
2.58972549 -0.26762208 -0.60106921 5 2 9590 2.67200000 2691027203 2691027203 -13.00000000
8.09969139 -0.83702165 0.42674738 15 3 9590 8.15400000 2691027206 2691027206 3.00000000
3.09521866 -0.32040575 -0.60486454 4 4 9591 3.17000000 2691027208 2691027208 -11.00000000
8.11135864 -0.84108913 0.71345693 83 5 9592 8.18600000 2691027210 2691027210 5.00000000
3.88442183 -0.40347165 -0.61854190 4 6 9593 3.95400000 2691027212 2691027212 -9.00000000
8.10702610 -0.84350026 1.00079107 85 7 9594 8.21200000 2691027215 2691027215 7.00000000
5.15317917 -0.53707469 -0.63615799 6 8 9595 5.22000000 2691027217 2691027217 -7.00000000
8.20458317 -0.85654569 1.30654061 7 9 9596 8.35200000 2691027219 2691027219 9.00000000
6.57303286 -0.68621439 -0.57819122 40 10 9596 6.63400000 2691027222 2691027222 -5.00000000
8.09652805 -0.84812206 -0.42664272 17 12 9598 8.15200000 2691027226 2691027226 -3.00000000
8.07627678 -0.84885085 -0.14174844 16 14 9600 8.12200000 2691027231 2691027231 -1.00000000
8.15194321 -0.85680377 2.19633842 49 15 9600 8.48600000 2691027233 2691027233 15.00000000
2.19376469 -0.23367134 -0.59114271 4 0 9608 2.28400000 2691027254 2691027254 -15.00000000
8.08487511 -0.86259675 0.14192297 12 1 9609 8.13200000 2691027256 2691027256 1.00000000
2.58490014 -0.27624613 -0.60016942 4 2 9610 2.66800000 2691027258 2691027258 -13.00000000
8.10267830 -0.86592644 0.42706141 15 3 9610 8.16000000 2691027261 2691027261 3.00000000
3.09993768 -0.33183500 -0.60600936 5 4 9611 3.17600000 2691027263 2691027263 -11.00000000
8.09450626 -0.86791110 0.71223670 76 5 9612 8.17200000 2691027265 2691027265 5.00000000
3.87513351 -0.41618460 -0.61729038 4 6 9613 3.94600000 2691027268 2691027268 -9.00000000
8.11784840 -0.87328017 1.00249720 90 7 9614 8.22600000 2691027270 2691027270 7.00000000
5.15522003 -0.55548471 -0.63664544 6 8 9615 5.22400000 2691027272 2691027272 -7.00000000
8.20154285 -0.88517982 1.30654061 5 9 9616 8.35200000 2691027275 2691027275 9.00000000
6.56663561 -0.70872676 -0.57784259 12 10 9616 6.63000000 2691027277 2691027277 -5.00000000
8.09947491 -0.87702411 -0.42695674 17 12 9618 8.15800000 2691027282 2691027282 -3.00000000
8.08916855 -0.87876487 -0.14202769 16 14 9620 8.13800000 2691027286 2691027286 -1.00000000
8.14506149 -0.88483685 2.19530320 47 15 9620 8.48200000 2691027288 2691027288 15.00000000
2.19485593 -0.24153890 -0.59166032 4 0 9628 2.28600000 2691027309 2691027309 -15.00000000
8.08181477 -0.89081299 0.14192297 12 1 9629 8.13200000 2691027311 2691027311 1.00000000
2.57423520 -0.28419822 -0.59791988 4 2 9630 2.65800000 2691027314 2691027314 -13.00000000
8.10739040 -0.89649653 0.42748010 13 3 9631 8.16800000 2691027316 2691027316 3.00000000
3.10071182 -0.34286958 -0.60639101 4 4 9631 3.17800000 2691027318 2691027318 -11.00000000
8.09538841 -0.89659953 0.71258533 79 5 9632 8.17600000 2691027321 2691027321 5.00000000
3.86187696 -0.42840204 -0.61541319 4 6 9633 3.93400000 2691027323 2691027323 -9.00000000
8.10093975 -0.90007699 1.00079107 87 7 9634 8.21200000 2691027325 2691027325 7.00000000
5.16114140 -0.57435459 -0.63762039 6 8 9635 5.23200000 2691027328 2691027328 -7.00000000
8.19659996 -0.91215378 1.30622780 7 9 9635 8.35000000 2691027330 2691027330 9.00000000
6.57204247 -0.73252714 -0.57853985 20 10 9636 6.63800000 2691027332 2691027332 -5.00000000
8.09636497 -0.90529120 -0.42695674 17 12 9638 8.15800000 2691027337 2691027337 -3.00000000
8.09598732 -0.90811050 -0.14220221 16 14 9640 8.14800000 2691027341 2691027341 -1.00000000
8.14944267 -0.91554677 2.19737363 49 15 9641 8.49000000 2691027344 2691027344 15.00000000
2.19591904 -0.24941693 -0.59217799 4 0 9648 2.28800000 2691027364 2691027364 -15.00000000
8.08263016 -0.91947043 0.14199278 12 1 9649 8.13600000 2691027367 2691027367 1.00000000
2.57516384 -0.29340285 -0.59836978 5 2 9650 2.66000000 2691027369 2691027369 -13.00000000
8.10040379 -0.92292446 0.42727074 10 3 9650 8.16400000 2691027371 2691027371 3.00000000
3.10534787 -0.35435873 -0.60753584 5 4 9651 3.18400000 2691027374 2691027374 -11.00000000
8.10012722 -0.92575717 0.71328259 76 5 9652 8.18400000 2691027376 2691027376 5.00000000
3.86035800 -0.44187990 -0.61541319 4 6 9653 3.93400000 2691027378 2691027378 -9.00000000
8.09774876 -0.92834902 1.00079107 87 7 9654 8.21200000 2691027381 2691027381 7.00000000
5.13938379 -0.59010243 -0.63518304 6 8 9655 5.21200000 2691027383 2691027383 -7.00000000
8.20890045 -0.94399506 1.30873072 7 9 9656 8.36600000 2691027385 2691027385 9.00000000
6.59319735 -0.75819480 -0.58063155 52 10 9656 6.66200000 2691027388 2691027388 -5.00000000
8.09315491 -0.93354726 -0.42695674 17 12 9658 8.15800000 2691027392 2691027392 -3.00000000
8.10071468 -0.93728465 -0.14234182 14 14 9660 8.15600000 2691027397 2691027397 -1.00000000
8.15387344 -0.94487756 2.19944429 47 15 9661 8.49800000 2691027399 2691027399 15.00000000
2.20279980 -0.25721058 -0.59424853 4 0 9666 2.29600000 2691027420 2691027420 -15.00000000
8.08367348 -0.94532269 0.14206259 12 1 9667 8.14000000 2691027422 2691027422 1.00000000
2.57035828 -0.30103815 -0.59746999 5 2 9668 2.65600000 2691027424 2691027424 -13.00000000
8.10143185 -0.94883269 0.42748010 13 3 9668 8.16800000 2691027427 2691027427 3.00000000
3.10031962 -0.36365530 -0.60677260 5 4 9669 3.18000000 2691027429 2691027429 -11.00000000
8.11103058 -0.95282704 0.71450275 83 5 9670 8.19800000 2691027431 2691027431 5.00000000
3.85502720 -0.45354375 -0.61478746 4 6 9671 3.93000000 2691027434 2691027434 -9.00000000
8.10070610 -0.95448112 1.00152230 90 7 9672 8.21800000 2691027436 2691027436 7.00000000
5.13553333 -0.60601270 -0.63493925 4 8 9673 5.21000000 2691027438 2691027438 -7.00000000
8.19821644 -0.96742123 1.30747926 7 9 9673 8.35800000 2691027441 2691027441 9.00000000
8.09414959 -0.95943820 -0.42716607 17 12 9676 8.16200000 2691027447 2691027447 -3.00000000
8.08581543 -0.96131265 -0.14213240 14 14 9678 8.14400000 2691027452 2691027452 -1.00000000
8.15853786 -0.97140265 2.20151472 49 15 9679 8.50600000 2691027454 2691027454 15.00000000
2.19421649 -0.26397523 -0.59217799 4 0 9686 2.28800000 2691027475 2691027475 -15.00000000
8.10017776 -0.97592616 0.14241163 12 1 9687 8.16000000 2691027477 2691027477 1.00000000
2.57703066 -0.31094229 -0.59926963 5 2 9688 2.66400000 2691027480 2691027480 -13.00000000
8.10600185 -0.97806323 0.42789876 13 3 9688 8.17600000 2691027482 2691027482 3.00000000
3.08538771 -0.37282658 -0.60410130 5 4 9689 3.16600000 2691027484 2691027484 -11.00000000
8.10172081 -0.98041594 0.71397984 79 5 9690 8.19200000 2691027487 2691027487 5.00000000
3.86518669 -0.46842349 -0.61666465 4 6 9691 3.94200000 2691027489 2691027489 -9.00000000
8.10914898 -0.98418707 1.00298464 90 7 9692 8.23000000 2691027491 2691027491 7.00000000
5.13732767 -0.62441444 -0.63542676 4 8 9693 5.21400000 2691027494 2691027494 -7.00000000
8.19086838 -0.99555576 1.30685353 7 9 9693 8.35400000 2691027496 2691027496 9.00000000
6.57615709 -0.80046111 -0.57958567 114 10 9694 6.65000000 2691027498 2691027498 -5.00000000
8.10066319 -0.98889631 -0.42768943 17 12 9696 8.17200000 2691027503 2691027503 -3.00000000
8.07844067 -0.98904550 -0.14206259 14 14 9698 8.14000000 2691027507 2691027507 -1.00000000
8.15126228 -0.99940515 2.20047951 49 15 9699 8.50200000 2691027510 2691027510 15.00000000
2.18561292 -0.27068311 -0.59010744 4 0 9706 2.28000000 2691027530 2691027530 -15.00000000
8.09275341 -1.00370288 0.14234182 12 1 9707 8.15600000 2691027533 2691027533 1.00000000
2.58366513 -0.32089669 -0.60106921 4 2 9708 2.67200000 2691027535 2691027535 -13.00000000
8.10055637 -1.00610626 0.42779410 13 3 9708 8.17400000 2691027537 2691027537 3.00000000
3.08406758 -0.38359430 -0.60410130 5 4 9709 3.16600000 2691027540 2691027540 -11.00000000
8.09429455 -1.00819778 0.71363121 76 5 9710 8.18800000 2691027542 2691027542 5.00000000
3.85176682 -0.48044562 -0.61478746 4 6 9711 3.93000000 2691027544 2691027544 -9.00000000
8.10369396 -1.01224124 1.00274098 90 7 9712 8.22800000 2691027546 2691027546 7.00000000
5.13511658 -0.64234322 -0.63542676 4 8 9713 5.21400000 2691027549 2691027549 -7.00000000
8.19518375 -1.02512193 1.30810499 7 9 9713 8.36200000 2691027551 2691027551 9.00000000
8.11103439 -1.01890945 -0.42842212 17 12 9716 8.18600000 2691027558 2691027558 -3.00000000
8.08684349 -1.01873815 -0.14227201 14 14 9718 8.15200000 2691027563 2691027563 -1.00000000
8.15173721 -1.02691305 2.20151472 51 15 9718 8.50600000 2691027565 2691027565 15.00000000
2.19232011 -0.27928719 -0.59217799 4 0 9726 2.28800000 2691027586 2691027586 -15.00000000
8.08523273 -1.03143966 0.14227201 12 1 9727 8.15200000 2691027588 2691027588 1.00000000
2.57479715 -0.32892564 -0.59926963 5 2 9728 2.66400000 2691027590 2691027590 -13.00000000
8.10888195 -1.03589487 0.42842212 13 3 9728 8.18600000 2691027593 2691027593 3.00000000
3.09049940 -0.39535385 -0.60562778 5 4 9729 3.17400000 2691027595 2691027595 -11.00000000
8.10060787 -1.03771174 0.71450275 83 5 9730 8.19800000 2691027597 2691027597 5.00000000
3.85006642 -0.49388787 -0.61478746 4 6 9731 3.93000000 2691027599 2691027599 -9.00000000
8.10011196 -1.04052222 1.00274098 90 7 9732 8.22800000 2691027602 2691027602 7.00000000
5.13284349 -0.66026425 -0.63542676 4 8 9733 5.21400000 2691027604 2691027604 -7.00000000
8.20331097 -1.05523431 1.30998218 7 9 9733 8.37400000 2691027606 2691027606 9.00000000
6.55657625 -0.84456968 -0.57836550 12 10 9734 6.63600000 2691027609 2691027609 -5.00000000
8.08960056 -1.04491329 -0.42748010 17 12 9736 8.16800000 2691027613 2691027613 -3.00000000
8.08323765 -1.04696023 -0.14227201 16 14 9738 8.15200000 2691027618 2691027618 -1.00000000
8.14600277 -1.05653536 2.20099711 47 15 9739 8.50400000 2691027620 2691027620 15.00000000
2.19521308 -0.28705662 -0.59321326 4 0 9745 2.29200000 2691027641 2691027641 -15.00000000
8.08176804 -1.05824554 0.14227201 12 1 9746 8.15200000 2691027643 2691027643 1.00000000
2.56596327 -0.33644876 -0.59746999 5 2 9747 2.65600000 2691027646 2691027646 -13.00000000
8.11511803 -1.06549394 0.42894551 13 3 9748 8.19600000 2691027648 2691027648 3.00000000
3.09695745 -0.40662247 -0.60715425 5 4 9748 3.18200000 2691027650 2691027650 -11.00000000
8.10107231 -1.06508803 0.71485138 83 5 9749 8.20200000 2691027652 2691027652 5.00000000
3.85232449 -0.50716811 -0.61541319 6 6 9750 3.93400000 2691027655 2691027655 -9.00000000
8.09071255 -1.06659913 1.00200975 92 7 9751 8.22200000 2691027657 2691027657 7.00000000
5.13062572 -0.67728174 -0.63542676 2 8 9752 5.21400000 2691027659 2691027659 -7.00000000
8.20368290 -1.08294868 1.31060791 7 9 9752 8.37800000 2691027662 2691027662 9.00000000
6.58139229 -0.86996269 -0.58080590 16 10 9753 6.66400000 2691027664 2691027664 -5.00000000
8.08411121 -1.07147121 -0.42737541 17 12 9755 8.16600000 2691027669 2691027669 -3.00000000
8.09161568 -1.07534015 -0.14248145 16 14 9757 8.16400000 2691027673 2691027673 -1.00000000
8.15413380 -1.08364844 2.20410299 47 15 9757 8.51600000 2691027676 2691027676 15.00000000
2.19036841 -0.29420325 -0.59217799 4 0 9765 2.28800000 2691027696 2691027696 -15.00000000
8.07802486 -1.08644974 0.14227201 15 1 9766 8.15200000 2691027699 2691027699 1.00000000
2.56477332 -0.34540358 -0.59746999 4 2 9767 2.65600000 2691027701 2691027701 -13.00000000
8.08759785 -1.09061146 0.42768943 13 3 9768 8.17200000 2691027703 2691027703 3.00000000
3.08189988 -0.41559380 -0.60448289 5 4 9768 3.16800000 2691027705 2691027705 -11.00000000
8.10915279 -1.09495926 0.71589726 83 5 9769 8.21400000 2691027708 2691027708 5.00000000
3.84270024 -0.51955348 -0.61416173 4 6 9770 3.92600000 2691027710 2691027710 -9.00000000
8.10464382 -1.09723127 1.00420344 87 7 9771 8.24000000 2691027712 2691027712 7.00000000
5.13216448 -0.69572014 -0.63591421 2 8 9772 5.21800000 2691027715 2691027715 -7.00000000
8.20748806 -1.11407220 1.31185937 7 9 9773 8.38600000 2691027717 2691027717 9.00000000
6.57831573 -0.89293075 -0.58080590 16 10 9773 6.66400000 2691027719 2691027719 -5.00000000
8.08625889 -1.10049152 -0.42768943 17 12 9775 8.17200000 2691027724 2691027724 -3.00000000
8.08583069 -1.10330820 -0.14244655 16 14 9777 8.16200000 2691027729 2691027729 -1.00000000
8.15776348 -1.11457372 2.20617366 47 15 9778 8.52400000 2691027731 2691027731 15.00000000
2.18167305 -0.30079186 -0.59010744 4 0 9785 2.28000000 2691027752 2691027752 -15.00000000
8.08408833 -1.11600804 0.14244655 12 1 9786 8.16200000 2691027754 2691027754 1.00000000
2.56741285 -0.35488787 -0.59836978 4 2 9787 2.66000000 2691027756 2691027756 -13.00000000
8.09759045 -1.12075257 0.42842212 10 3 9788 8.18600000 2691027758 2691027758 3.00000000
3.08431983 -0.42688742 -0.60524613 5 4 9788 3.17200000 2691027761 2691027761 -11.00000000
8.10133362 -1.12271178 0.71554863 76 5 9789 8.21000000 2691027763 2691027763 5.00000000
3.85260320 -0.53459287 -0.61603892 4 6 9790 3.93800000 2691027765 2691027765 -9.00000000
8.10666370 -1.12633467 1.00493455 92 7 9791 8.24600000 2691027768 2691027768 7.00000000
5.13363695 -0.71417755 -0.63640171 2 8 9792 5.22200000 2691027770 2691027770 -7.00000000
8.18809605 -1.13910568 1.30935645 7 9 9792 8.37000000 2691027772 2691027772 9.00000000
6.56331873 -0.91423869 -0.57976002 16 10 9793 6.65200000 2691027775 2691027775 -5.00000000
8.08632469 -1.12926364 -0.42789876 17 12 9795 8.17600000 2691027779 2691027779 -3.00000000
8.07400894 -1.13041723 -0.14230692 18 14 9797 8.15400000 2691027784 2691027784 -1.00000000
8.14636993 -1.14054823 2.20410299 49 15 9797 8.51600000 2691027786 2691027786 15.00000000
2.18060994 -0.30840549 -0.59010744 4 0 9805 2.28000000 2691027807 2691027807 -15.00000000
8.09004307 -1.14562190 0.14262107 12 1 9806 8.17200000 2691027809 2691027809 1.00000000
2.57001710 -0.36439481 -0.59926963 5 2 9807 2.66400000 2691027811 2691027811 -13.00000000
8.09956074 -1.14985383 0.42873615 13 3 9808 8.19200000 2691027814 2691027814 3.00000000
3.08281088 -0.43765110 -0.60524613 5 4 9808 3.17200000 2691027816 2691027816 -11.00000000
8.08947468 -1.14986241 0.71485138 83 5 9809 8.20200000 2691027818 2691027818 5.00000000
3.84289074 -0.54692435 -0.61478746 4 6 9810 3.93000000 2691027821 2691027821 -9.00000000
8.11447430 -1.15630567 1.00639701 92 7 9811 8.25800000 2691027823 2691027823 7.00000000
5.11932135 -0.73041064 -0.63493925 4 8 9812 5.21000000 2691027825 2691027825 -7.00000000
8.18777752 -1.16966760 1.30998218 7 9 9813 8.37400000 2691027828 2691027828 9.00000000
6.55614233 -0.93657982 -0.57941139 16 10 9813 6.64800000 2691027830 2691027830 -5.00000000
8.08431053 -1.15776646 -0.42800346 21 12 9815 8.17800000 2691027834 2691027834 -3.00000000
8.07199287 -1.15887809 -0.14234182 18 14 9817 8.15600000 2691027839 2691027839 -1.00000000
8.13831043 -1.16984880 2.20306778 47 15 9818 8.51200000 2691027841 2691027841 15.00000000
2.17946482 -0.31639576 -0.59010744 4 0 9826 2.28000000 2691027862 2691027862 -15.00000000
8.07787418 -1.17411518 0.14248145 12 1 9827 8.16400000 2691027864 2691027864 1.00000000
2.56287909 -0.37297001 -0.59791988 6 2 9828 2.65800000 2691027867 2691027867 -13.00000000
8.10912704 -1.18154824 0.42946887 13 3 9829 8.20600000 2691027869 2691027869 3.00000000
3.08507156 -0.44951338 -0.60600936 5 4 9829 3.17600000 2691027871 2691027871 -11.00000000
8.09112072 -1.18036687 0.71537435 76 5 9830 8.20800000 2691027874 2691027874 5.00000000
3.81935954 -0.55786508 -0.61134589 6 6 9831 3.90800000 2691027876 2691027876 -9.00000000
8.09643173 -1.18402815 1.00469089 90 7 9832 8.24400000 2691027878 2691027878 7.00000000
5.11268187 -0.74859375 -0.63445181 4 8 9833 5.20600000 2691027881 2691027881 -7.00000000
8.19146252 -1.19938588 1.31123364 7 9 9833 8.38200000 2691027883 2691027883 9.00000000
8.05875397 -1.18139148 -0.71258533 17 10 9834 8.17600000 2691027885 2691027885 -5.00000000
8.08791637 -1.18855071 -0.42842212 17 12 9836 8.18600000 2691027890 2691027890 -3.00000000
8.08945370 -1.19166136 -0.14272578 16 14 9838 8.17800000 2691027894 2691027894 -1.00000000
8.14182186 -1.19937575 2.20513821 49 15 9838 8.52000000 2691027897 2691027897 15.00000000
2.18216872 -0.32457000 -0.59114271 4 0 9846 2.28400000 2691027917 2691027917 -15.00000000
8.08163834 -1.20348322 0.14262107 12 1 9847 8.17200000 2691027920 2691027920 1.00000000
2.55577922 -0.38105175 -0.59657019 5 2 9848 2.65200000 2691027922 2691027922 -13.00000000
8.10495281 -1.20984721 0.42946887 13 3 9849 8.20600000 2691027924 2691027924 3.00000000
3.07960010 -0.45969984 -0.60524613 5 4 9849 3.17200000 2691027927 2691027927 -11.00000000
8.09877396 -1.21036994 0.71642023 79 5 9850 8.22000000 2691027929 2691027929 5.00000000
3.82911062 -0.57294768 -0.61322308 6 6 9851 3.92000000 2691027931 2691027931 -9.00000000
8.09813881 -1.21316504 1.00542212 92 7 9852 8.25000000 2691027934 2691027934 7.00000000
5.11592674 -0.76731914 -0.63518304 6 8 9853 5.21200000 2691027936 2691027936 -7.00000000
8.19873238 -1.23116112 1.31311095 10 9 9854 8.39400000 2691027938 2691027938 9.00000000
8.05458069 -1.20951450 -0.71258533 17 10 9854 8.17600000 2691027940 2691027940 -5.00000000
8.08174324 -1.21647823 -0.42831746 17 12 9856 8.18400000 2691027945 2691027945 -3.00000000
8.08722210 -1.22018993 -0.14276068 16 14 9858 8.18000000 2691027950 2691027950 -1.00000000
8.14119148 -1.22978616 2.20617366 47 15 9859 8.52400000 2691027952 2691027952 15.00000000
2.17726064 -0.33122346 -0.59010744 4 0 9865 2.28000000 2691027973 2691027973 -15.00000000
8.09341812 -1.23268497 0.14290030 12 1 9866 8.18800000 2691027975 2691027975 1.00000000
2.55835462 -0.39011246 -0.59746999 5 2 9867 2.65600000 2691027977 2691027977 -13.00000000
8.09694767 -1.23611474 0.42925951 15 3 9868 8.20200000 2691027980 2691027980 3.00000000
3.06641412 -0.46813193 -0.60295641 5 4 9868 3.16000000 2691027982 2691027982 -11.00000000
8.11441135 -1.24023008 0.71816331 79 5 9869 8.24000000 2691027984 2691027984 5.00000000
3.83109498 -0.58623993 -0.61384887 6 6 9870 3.92400000 2691027987 2691027987 -9.00000000
8.09603405 -1.24031341 1.00566578 90 7 9871 8.25200000 2691027989 2691027989 7.00000000
5.11335421 -0.78427994 -0.63518304 6 8 9872 5.21200000 2691027991 2691027991 -7.00000000
8.18701458 -1.25571406 1.31185937 10 9 9872 8.38600000 2691027993 2691027993 9.00000000
8.05446434 -1.23682261 -0.71293396 17 10 9873 8.18000000 2691027996 2691027996 -5.00000000
8.18872929 -1.25890291 1.61042798 6 11 9874 8.44000000 2691027998 2691027998 11.00000000
8.08950901 -1.24509454 -0.42894551 17 12 9875 8.19600000 2691028000 2691028000 -3.00000000
8.08115482 -1.24669647 -0.14272578 16 14 9877 8.17800000 2691028005 2691028005 -1.00000000
8.14874363 -1.25712359 2.20927930 47 15 9877 8.53600000 2691028007 2691028007 15.00000000
2.17227364 -0.33822706 -0.58907217 4 0 9885 2.27600000 2691028028 2691028028 -15.00000000
8.09104156 -1.26123679 0.14293520 12 1 9886 8.19000000 2691028030 2691028030 1.00000000
2.56467891 -0.40024233 -0.59926963 6 2 9887 2.66400000 2691028033 2691028033 -13.00000000
8.08271694 -1.26282930 0.42873615 15 3 9888 8.19200000 2691028035 2691028035 3.00000000
3.05894232 -0.47792369 -0.60181159 5 4 9888 3.15400000 2691028037 2691028037 -11.00000000
8.09428501 -1.26608384 0.71676880 76 5 9889 8.22400000 2691028040 2691028040 5.00000000
3.82121897 -0.59838688 -0.61259735 6 6 9890 3.91600000 2691028042 2691028042 -9.00000000
8.09753799 -1.26948869 1.00639701 92 7 9891 8.25800000 2691028044 2691028044 7.00000000
5.08901358 -0.79873830 -0.63250190 8 8 9892 5.19000000 2691028046 2691028046 -7.00000000
8.18235683 -1.28571260 1.31185937 10 9 9893 8.38600000 2691028049 2691028049 9.00000000
7.97530460 -1.25317800 -0.70631015 17 10 9893 8.10400000 2691028051 2691028051 -5.00000000
8.08314133 -1.27301395 -0.42884082 17 12 9895 8.19400000 2691028056 2691028056 -3.00000000
8.07872868 -1.27520919 -0.14276068 14 14 9897 8.18000000 2691028060 2691028060 -1.00000000
8.14026451 -1.28637874 2.20824409 47 15 9898 8.53200000 2691028063 2691028063 15.00000000
2.17495584 -0.34603581 -0.59010744 4 0 9904 2.28000000 2691028083 2691028083 -15.00000000
8.08286476 -1.28743160 0.14286540 12 1 9905 8.18600000 2691028086 2691028086 1.00000000
2.55948877 -0.40813118 -0.59836978 6 2 9906 2.66000000 2691028088 2691028088 -13.00000000
8.09623528 -1.29245925 0.42967820 10 3 9907 8.21000000 2691028090 2691028090 3.00000000
3.06315660 -0.48899335 -0.60295641 5 4 9907 3.16000000 2691028093 2691028093 -11.00000000
8.09004211 -1.29291856 0.71676880 79 5 9908 8.22400000 2691028095 2691028095 5.00000000
3.80165839 -0.60824651 -0.60978156 4 6 9909 3.89800000 2691028097 2691028097 -9.00000000
8.11288548 -1.29947364 1.00883448 92 7 9910 8.27800000 2691028099 2691028099 7.00000000
5.08633661 -0.81560969 -0.63250190 8 8 9911 5.19000000 2691028102 2691028102 -7.00000000
8.18217850 -1.31203735 1.31248522 10 9 9911 8.39000000 2691028104 2691028104 9.00000000
8.02618694 -1.28846061 -0.71119088 17 10 9912 8.16000000 2691028106 2691028106 -5.00000000
8.09859371 -1.30298424 -0.42988753 17 12 9914 8.21400000 2691028111 2691028111 -3.00000000
8.07840443 -1.30262887 -0.14283049 14 14 9916 8.18400000 2691028116 2691028116 -1.00000000
8.13618374 -1.31194568 2.20824409 47 15 9916 8.53200000 2691028118 2691028118 15.00000000
2.16992092 -0.35300532 -0.58907217 4 0 9924 2.27600000 2691028139 2691028139 -15.00000000
8.07042694 -1.31435251 0.14272578 12 1 9925 8.17800000 2691028141 2691028141 1.00000000
2.54843187 -0.41549507 -0.59612030 6 2 9926 2.65000000 2691028143 2691028143 -13.00000000
8.10153008 -1.32232118 0.43020156 13 3 9927 8.22000000 2691028146 2691028146 3.00000000
