# .PCD v0.7 - Point Cloud Data file format
VERSION 0.7
FIELDS x y z intensity laser_id azimuth distance_m adjustedtime timestamp vertical_angle
SIZE 4 4 4 1 1 2 8 8 4 8
TYPE F F F U U U F U U F
COUNT 1 1 1 1 1 1 1 1 1 1
WIDTH 529
HEIGHT 1
VIEWPOINT 0 0 0 1 0 0 0
POINTS 529
DATA ascii
-2.03443074 1.19980657 -0.54528135 3 2 30053 2.42400000 2684583995 2684583995 -13.00000000
-4.44714499 2.62270617 0.27057689 6 3 30053 5.17000000 2684583997 2684583997 3.00000000
-2.40615225 1.41959560 -0.54304242 3 4 30054 2.84600000 2684583999 2684583999 -11.00000000
-4.44053602 2.62089801 0.45111811 7 5 30055 5.17600000 2684584002 2684584002 5.00000000
-2.90699410 1.71645343 -0.53469300 3 6 30056 3.41800000 2684584004 2684584004 -9.00000000
-4.45754480 2.63303518 0.63567048 9 7 30057 5.21600000 2684584006 2684584006 7.00000000
-3.68974185 2.18036914 -0.52623183 6 8 30058 4.31800000 2684584008 2684584008 -7.00000000
-4.46418142 2.63800669 0.82128096 9 9 30058 5.25000000 2684584011 2684584011 9.00000000
-4.46443224 2.63920617 -0.45373279 9 10 30059 5.20600000 2684584013 2684584013 -5.00000000
-4.45783901 2.63635850 1.00670826 10 11 30060 5.27600000 2684584015 2684584015 11.00000000
-4.43488407 2.62382793 -0.27005354 7 12 30061 5.16000000 2684584018 2684584018 -3.00000000
-4.43738461 2.62635303 1.19044101 7 13 30062 5.29200000 2684584020 2684584020 13.00000000
-4.44109726 2.62959719 -0.09008932 8 14 30063 5.16200000 2684584022 2684584022 -1.00000000
-4.43670750 2.62699795 1.38157606 8 15 30063 5.33800000 2684584025 2684584025 15.00000000
-1.76557374 1.04873776 -0.55024928 4 0 30071 2.12600000 2684584045 2684584045 -15.00000000
-4.41977072 2.62635469 0.08974028 9 1 30072 5.14200000 2684584048 2684584048 1.00000000
-2.03693056 1.21088386 -0.54708099 4 2 30073 2.43200000 2684584050 2684584050 -13.00000000
-4.42033625 2.62877917 0.26953018 6 3 30074 5.15000000 2684584052 2684584052 3.00000000
-2.39780760 1.42597902 -0.54227918 3 4 30074 2.84200000 2684584055 2684584055 -11.00000000
-4.41423798 2.62619543 0.44937500 7 5 30075 5.15600000 2684584057 2684584057 5.00000000
-2.91626215 1.73568285 -0.53750885 3 6 30076 3.43600000 2684584059 2684584059 -9.00000000
-4.43127012 2.63842344 0.63323313 9 7 30077 5.19600000 2684584061 2684584061 7.00000000
-3.67358112 2.18815613 -0.52501315 6 8 30078 4.30800000 2684584064 2684584064 -7.00000000
-4.41884708 2.63311625 0.81471068 9 9 30079 5.20800000 2684584066 2684584066 9.00000000
-4.42096090 2.63437605 -0.45024657 9 10 30079 5.16600000 2684584068 2684584068 -5.00000000
-4.41994095 2.63481379 1.00022078 7 11 30080 5.24200000 2684584071 2684584071 11.00000000
-4.40511370 2.62701702 -0.26879746 7 12 30081 5.13600000 2684584073 2684584073 -3.00000000
-4.40308714 2.62685013 1.18369246 7 13 30082 5.26200000 2684584075 2684584075 13.00000000
-4.38381195 2.61638832 -0.08911198 8 14 30083 5.10600000 2684584078 2684584078 -1.00000000
-4.40382767 2.62937689 1.37432909 8 15 30084 5.31000000 2684584080 2684584080 15.00000000
-1.75214040 1.04863441 -0.54714346 4 0 30090 2.11400000 2684584101 2684584101 -15.00000000
-4.38358593 2.62456131 0.08918180 9 1 30091 5.11000000 2684584103 2684584103 1.00000000
-2.02956033 1.21562922 -0.54618114 4 2 30092 2.42800000 2684584105 2684584105 -13.00000000
-4.38121462 2.62418032 0.26764607 6 3 30092 5.11400000 2684584108 2684584108 3.00000000
-2.38632941 1.42988622 -0.54075271 3 4 30093 2.83400000 2684584110 2684584110 -11.00000000
-4.38158035 2.62647796 0.44693464 7 5 30094 5.12800000 2684584112 2684584112 5.00000000
-2.90201974 1.74026442 -0.53594446 1 6 30095 3.42600000 2684584114 2684584114 -9.00000000
-4.40547371 2.64289141 0.63079572 9 7 30096 5.17600000 2684584117 2684584117 7.00000000
-3.68332553 2.21054125 -0.52745050 6 8 30097 4.32800000 2684584119 2684584119 -7.00000000
-4.37452555 2.62640238 0.80814046 9 9 30098 5.16600000 2684584121 2684584121 9.00000000
-4.37120485 2.62440848 -0.44606310 9 10 30098 5.11800000 2684584124 2684584124 -5.00000000
-4.38425112 2.63328266 0.99411488 7 11 30099 5.21000000 2684584126 2684584126 11.00000000
-4.37069798 2.62618041 -0.26722738 7 12 30100 5.10600000 2684584128 2684584128 -3.00000000
-4.36929846 2.62637734 1.17694390 8 13 30101 5.23200000 2684584131 2684584131 13.00000000
-4.33226871 2.60514832 -0.08823936 6 14 30102 5.05600000 2684584133 2684584133 -1.00000000
-4.36740065 2.62627435 1.36552930 8 15 30102 5.27600000 2684584135 2684584135 15.00000000
-1.74185252 1.05075264 -0.54507291 4 0 30110 2.10600000 2684584156 2684584156 -15.00000000
-4.33159542 2.61401653 0.08830918 9 1 30111 5.06000000 2684584158 2684584158 1.00000000
-2.02864122 1.22472072 -0.54708099 3 2 30112 2.43200000 2684584160 2684584160 -13.00000000
-4.34125090 2.62087703 0.26576197 6 3 30112 5.07800000 2684584163 2684584163 3.00000000
-2.37124038 1.43211758 -0.53846300 3 4 30113 2.82200000 2684584165 2684584165 -11.00000000
-4.33657408 2.62011981 0.44327411 7 5 30114 5.08600000 2684584167 2684584167 5.00000000
-2.89254642 1.74834013 -0.53531873 1 6 30115 3.42200000 2684584170 2684584170 -9.00000000
-4.35885000 2.63565612 0.62543344 9 7 30116 5.13200000 2684584172 2684584172 7.00000000
-3.68577790 2.22954965 -0.52891296 6 8 30117 4.34000000 2684584174 2684584174 -7.00000000
-4.33322096 2.62222481 0.80219597 9 9 30118 5.12800000 2684584177 2684584177 9.00000000
-4.32792568 2.61902046 -0.44257686 9 10 30118 5.07800000 2684584179 2684584179 -5.00000000
-4.33304596 2.62315226 0.98457444 10 11 30119 5.16000000 2684584181 2684584181 11.00000000
-4.33075333 2.62279749 -0.26534331 7 12 30120 5.07000000 2684584184 2684584184 -3.00000000
-4.33510351 2.62646627 1.17019534 7 13 30121 5.20200000 2684584186 2684584186 13.00000000
-4.31972837 2.61818194 -0.08816956 6 14 30122 5.05200000 2684584188 2684584188 -1.00000000
-4.32846928 2.62347960 1.35621178 8 15 30122 5.24000000 2684584190 2684584190 15.00000000
-1.74166036 1.05852973 -0.54610819 4 0 30129 2.11000000 2684584211 2684584211 -15.00000000
-4.29727316 2.61278319 0.08778560 9 1 30130 5.03000000 2684584213 2684584213 1.00000000
-2.03122854 1.23549199 -0.54888058 4 2 30131 2.44000000 2684584216 2684584216 -13.00000000
-4.30477619 2.61940360 0.26408723 6 3 30132 5.04600000 2684584218 2684584218 3.00000000
-2.37318683 1.44405520 -0.53998947 2 4 30132 2.83000000 2684584220 2684584220 -11.00000000
-4.30573750 2.62101841 0.44100806 7 5 30133 5.06000000 2684584223 2684584223 5.00000000
-2.87998414 1.75381291 -0.53406727 1 6 30134 3.41400000 2684584225 2684584225 -9.00000000
-4.31278992 2.62737489 0.62007123 9 7 30135 5.08800000 2684584227 2684584227 7.00000000
-3.68853498 2.24795818 -0.53037536 6 8 30136 4.35200000 2684584230 2684584230 -7.00000000
-4.30978012 2.62657309 0.79938012 9 9 30136 5.11000000 2684584232 2684584232 9.00000000
-4.29540062 2.61883783 -0.44013649 12 10 30137 5.05000000 2684584234 2684584234 -5.00000000
-4.29247761 2.61808324 0.97732365 7 11 30138 5.12200000 2684584237 2684584237 11.00000000
-4.29304790 2.61945939 -0.26356387 7 12 30139 5.03600000 2684584239 2684584239 -3.00000000
-4.29809284 2.62356710 1.16254699 8 13 30140 5.16800000 2684584241 2684584241 13.00000000
-4.28883600 2.61894417 -0.08771580 8 14 30141 5.02600000 2684584243 2684584243 -1.00000000
-4.30279922 2.62850189 1.35103536 8 15 30142 5.22000000 2684584246 2684584246 15.00000000
-1.74783885 1.07065749 -0.54921401 4 0 30149 2.12200000 2684584266 2684584266 -15.00000000
-4.26766634 2.61522937 0.08736674 9 1 30150 5.00600000 2684584269 2684584269 1.00000000
-2.01028967 1.23238969 -0.54438156 3 2 30151 2.42000000 2684584271 2684584271 -13.00000000
-4.27222776 2.61905026 0.26262182 6 3 30151 5.01800000 2684584273 2684584273 3.00000000
-2.37482619 1.45643580 -0.54151595 3 4 30152 2.83800000 2684584276 2684584276 -11.00000000
-4.26939011 2.61936164 0.43821907 7 5 30153 5.02800000 2684584278 2684584278 5.00000000
-2.88731313 1.77212167 -0.53657019 1 6 30154 3.43000000 2684584280 2684584280 -9.00000000
-4.27145052 2.62267852 0.61544019 6 7 30155 5.05000000 2684584283 2684584283 7.00000000
-3.68743157 2.26497579 -0.53135031 6 8 30156 4.36000000 2684584285 2684584285 -7.00000000
-4.26646376 2.62166762 0.79312271 9 9 30157 5.07000000 2684584287 2684584287 9.00000000
-4.27265310 2.62547088 -0.43874201 12 10 30157 5.03400000 2684584290 2684584290 -5.00000000
-4.26993227 2.62482572 0.97427070 7 11 30158 5.10600000 2684584292 2684584292 11.00000000
-4.25155354 2.61455059 -0.26157510 7 12 30159 4.99800000 2684584294 2684584294 -3.00000000
-4.25571299 2.61813211 1.15354896 8 13 30160 5.12800000 2684584296 2684584296 13.00000000
-4.25582600 2.61922550 -0.08722713 6 14 30161 4.99800000 2684584299 2684584299 -1.00000000
-4.26069689 2.62324858 1.34068263 8 15 30162 5.18000000 2684584301 2684584301 15.00000000
-1.74061561 1.07502615 -0.54817873 4 0 30170 2.11800000 2684584322 2684584322 -15.00000000
-4.24444342 2.62244511 0.08708750 9 1 30171 4.99000000 2684584324 2684584324 1.00000000
-2.01902032 1.24794626 -0.54798079 3 2 30172 2.43600000 2684584326 2684584326 -13.00000000
-4.22862101 2.61368918 0.26052839 6 3 30172 4.97800000 2684584329 2684584329 3.00000000
-2.36279273 1.46100020 -0.53998947 3 4 30173 2.83000000 2684584331 2684584331 -11.00000000
-4.23434496 2.61927009 0.43560439 7 5 30174 4.99800000 2684584333 2684584333 5.00000000
-2.88415813 1.78477120 -0.53719598 1 6 30175 3.43400000 2684584336 2684584336 -9.00000000
-4.24661875 2.62891269 0.61324656 9 7 30176 5.03200000 2684584338 2684584338 7.00000000
-3.65379024 2.26279831 -0.52769428 6 8 30177 4.33000000 2684584340 2684584340 -7.00000000
-4.23545456 2.62302375 0.78905547 9 9 30177 5.04400000 2684584343 2684584343 9.00000000
-4.23928976 2.62642288 -0.43630165 9 10 30178 5.00600000 2684584345 2684584345 -5.00000000
-4.23692083 2.62597871 0.96892810 7 11 30179 5.07800000 2684584347 2684584347 11.00000000
-4.19611073 2.60169911 -0.25874898 15 12 30180 4.94400000 2684584349 2684584349 -3.00000000
-4.21627951 2.61522317 1.14545071 7 13 30181 5.09200000 2684584352 2684584352 13.00000000
-4.19352341 2.60212159 -0.08614508 14 14 30182 4.93600000 2684584354 2684584354 -1.00000000
-4.22807455 2.62458324 1.33343577 8 15 30183 5.15200000 2684584356 2684584356 15.00000000
-1.73685253 1.08109546 -0.54817873 4 0 30190 2.11800000 2684584377 2684584377 -15.00000000
-4.18603563 2.60659146 0.08607527 13 1 30191 4.93200000 2684584379 2684584379 1.00000000
-2.01796007 1.25704706 -0.54888058 3 2 30192 2.44000000 2684584382 2684584382 -13.00000000
-4.19743395 2.61470580 0.25916764 14 3 30192 4.95200000 2684584384 2684584384 3.00000000
-2.35434628 1.46716237 -0.53922623 2 4 30193 2.82600000 2684584386 2684584386 -11.00000000
-4.20150566 2.61927843 0.43316403 11 5 30194 4.97000000 2684584389 2684584389 5.00000000
-2.87958670 1.79587328 -0.53750885 1 6 30195 3.43600000 2684584391 2684584391 -9.00000000
-4.22225857 2.63426304 0.61105287 6 7 30196 5.01400000 2684584393 2684584393 7.00000000
-3.66776133 2.28920221 -0.53086287 6 8 30197 4.35600000 2684584396 2684584396 -7.00000000
-4.20281172 2.62314939 0.78467530 9 9 30197 5.01600000 2684584398 2684584398 9.00000000
-4.19629622 2.62010050 -0.43281543 9 10 30198 4.96600000 2684584400 2684584400 -5.00000000
-4.21107769 2.63035154 0.96511191 7 11 30199 5.05800000 2684584402 2684584402 11.00000000
-4.18869734 2.61738873 -0.25885364 2 12 30200 4.94600000 2684584405 2684584405 -3.00000000
-4.18399096 2.61546326 1.13915217 7 13 30201 5.06400000 2684584407 2684584407 13.00000000
-4.18611002 2.61780429 -0.08617999 2 14 30202 4.93800000 2684584409 2684584409 -1.00000000
-4.18613195 2.61883426 1.32308292 8 15 30203 5.11200000 2684584412 2684584412 15.00000000
-1.72671115 1.08274400 -0.54610819 4 0 30209 2.11000000 2684584432 2684584432 -15.00000000
-4.15534735 2.60664439 0.08562151 2 1 30210 4.90600000 2684584435 2684584435 1.00000000
-2.01378036 1.26373196 -0.54888058 4 2 30211 2.44000000 2684584437 2684584437 -13.00000000
-4.15321350 2.60631609 0.25696954 2 3 30211 4.91000000 2684584439 2684584439 3.00000000
-2.35611892 1.47913694 -0.54075271 3 4 30212 2.83400000 2684584442 2684584442 -11.00000000
-2.87528825 1.80646336 -0.53782171 1 6 30214 3.43800000 2684584446 2684584446 -9.00000000
-4.19333172 2.63557410 0.60812801 8 7 30215 4.99000000 2684584448 2684584448 7.00000000
-3.70384312 2.32882500 -0.53720009 6 8 30216 4.40800000 2684584451 2684584451 -7.00000000
-4.17067814 2.62235165 0.78029513 8 9 30216 4.98800000 2684584453 2684584453 9.00000000
-4.16565990 2.62021089 -0.43054938 12 10 30217 4.94000000 2684584455 2684584455 -5.00000000
-4.17242193 2.62548089 0.95824277 7 11 30218 5.02200000 2684584458 2684584458 11.00000000
-4.15802145 2.61743259 -0.25749290 7 12 30219 4.92000000 2684584460 2684584460 -3.00000000
-4.16704988 2.62413120 1.13690257 7 13 30220 5.05400000 2684584462 2684584462 13.00000000
-4.13003159 2.60182667 -0.08520265 8 14 30221 4.88200000 2684584465 2684584465 -1.00000000
-4.15990400 2.62064552 1.31738889 8 15 30221 5.09000000 2684584467 2684584467 15.00000000
-1.72618735 1.09082866 -0.54714346 4 0 30229 2.11400000 2684584488 2684584488 -15.00000000
-4.12255907 2.60617375 0.08513284 8 1 30230 4.87800000 2684584490 2684584490 1.00000000
-2.00441599 1.26762879 -0.54753089 4 2 30231 2.43400000 2684584492 2684584492 -13.00000000
-4.14746666 2.62293267 0.25717890 8 3 30231 4.91400000 2684584495 2684584495 3.00000000
-2.36089611 1.49365020 -0.54304242 3 4 30232 2.84600000 2684584497 2684584497 -11.00000000
-4.12970638 2.61371946 0.42758608 6 5 30233 4.90600000 2684584499 2684584499 5.00000000
-2.86395812 1.81331885 -0.53688306 3 6 30234 3.43200000 2684584501 2684584501 -9.00000000
-4.16062832 2.63532472 0.60471570 19 7 30235 4.96200000 2684584504 2684584504 7.00000000
-3.75270319 2.37786436 -0.54548717 8 8 30236 4.47600000 2684584506 2684584506 -7.00000000
-4.14481306 2.62632108 0.77716643 8 9 30236 4.96800000 2684584508 2684584508 9.00000000
-3.98147821 2.52379966 -0.41242099 13 10 30237 4.73200000 2684584511 2684584511 -5.00000000
-4.13670397 2.62320709 0.95213687 10 11 30238 4.99000000 2684584513 2684584513 11.00000000
-4.16066551 2.63942003 -0.25822562 2 12 30239 4.93400000 2684584515 2684584515 -3.00000000
-4.13976526 2.62717485 1.13195372 10 13 30240 5.03200000 2684584518 2684584518 13.00000000
-4.13443041 2.62480164 -0.08548189 2 14 30241 4.89800000 2684584520 2684584520 -1.00000000
-4.13070202 2.62344623 1.31117725 8 15 30242 5.06600000 2684584522 2684584522 15.00000000
-1.72217762 1.09714818 -0.54714346 4 0 30250 2.11400000 2684584543 2684584543 -15.00000000
-4.14670610 2.64276075 0.08583093 2 1 30251 4.91800000 2684584545 2684584545 1.00000000
-1.99646997 1.27287161 -0.54663104 4 2 30252 2.43000000 2684584548 2684584548 -13.00000000
-4.12726116 2.63239455 0.25655085 2 3 30253 4.90200000 2684584550 2684584550 3.00000000
-2.35871625 1.50440478 -0.54380566 2 4 30253 2.85000000 2684584552 2684584552 -11.00000000
-4.10666227 2.62026477 0.42619157 2 5 30254 4.89000000 2684584554 2684584554 5.00000000
-2.85396242 1.82167792 -0.53625733 1 6 30255 3.42800000 2684584557 2684584557 -9.00000000
-4.14090252 2.64414644 0.60325325 17 7 30256 4.95000000 2684584559 2684584559 7.00000000
-3.75399995 2.39801455 -0.54694963 8 8 30257 4.48800000 2684584561 2684584561 -7.00000000
-4.14348269 2.64681196 0.77873075 12 9 30257 4.97800000 2684584564 2684584564 9.00000000
-3.93526626 2.51477265 -0.40858611 24 10 30258 4.68800000 2684584566 2684584566 -5.00000000
-4.11879110 2.63306403 0.95022881 12 11 30259 4.98000000 2684584568 2684584568 11.00000000
-4.13582039 2.64496732 -0.25728357 22 12 30260 4.91600000 2684584571 2684584571 -3.00000000
-4.12846708 2.64128017 1.13150382 14 13 30261 5.03000000 2684584573 2684584573 13.00000000
-4.13825607 2.64856100 -0.08576112 20 14 30262 4.91400000 2684584575 2684584575 -1.00000000
-4.11826515 2.63576627 1.31014204 14 15 30262 5.06200000 2684584578 2684584578 15.00000000
-1.72484016 1.10732770 -0.54921401 4 0 30270 2.12200000 2684584598 2684584598 -15.00000000
-4.13577318 2.65613890 0.08579603 24 1 30271 4.91600000 2684584601 2684584601 1.00000000
-1.99693322 1.28299296 -0.54798079 3 2 30272 2.43600000 2684584603 2684584603 -13.00000000
-4.13652897 2.65866399 0.25770226 22 3 30273 4.92400000 2684584605 2684584605 3.00000000
-2.35014725 1.51050603 -0.54304242 2 4 30273 2.84600000 2684584607 2684584607 -11.00000000
-4.14944267 2.66798735 0.43159524 23 5 30274 4.95200000 2684584610 2684584610 5.00000000
-2.82931113 1.81987405 -0.53281581 1 6 30275 3.40600000 2684584612 2684584612 -9.00000000
-4.15334940 2.67254901 0.60642183 17 7 30276 4.97600000 2684584614 2684584614 7.00000000
-3.76897478 2.42614651 -0.55036193 8 8 30277 4.51600000 2684584617 2684584617 -7.00000000
-4.14039707 2.66625881 0.77998227 8 9 30278 4.98600000 2684584619 2684584619 9.00000000
-3.92478895 2.52741528 -0.40841180 27 10 30278 4.68600000 2684584621 2684584621 -5.00000000
-4.14167166 2.66912532 -0.25822562 20 12 30280 4.93400000 2684584626 2684584626 -3.00000000
-4.13402748 2.66624165 -0.08586584 18 14 30282 4.92000000 2684584631 2684584631 -1.00000000
-4.13130331 2.66550565 1.31738889 72 15 30283 5.09000000 2684584633 2684584633 15.00000000
-1.72115862 1.11304140 -0.54921401 4 0 30289 2.12200000 2684584654 2684584654 -15.00000000
-4.14709044 2.68287301 0.08621489 6 1 30290 4.94000000 2684584656 2684584656 1.00000000
-1.99593973 1.29172552 -0.54888058 3 2 30291 2.44000000 2684584658 2684584658 -13.00000000
-4.13439608 2.67670822 0.25812092 14 3 30292 4.93200000 2684584660 2684584660 3.00000000
-2.35171747 1.52255893 -0.54456890 2 4 30292 2.85400000 2684584663 2684584663 -11.00000000
-4.12552166 2.67198491 0.43002644 19 5 30293 4.93400000 2684584665 2684584665 5.00000000
-2.87962651 1.86576688 -0.54345334 1 6 30294 3.47400000 2684584667 2684584667 -9.00000000
-4.14779568 2.68846679 0.60690933 17 7 30295 4.98000000 2684584670 2684584670 7.00000000
-3.76590538 2.44187140 -0.55109316 8 8 30296 4.52200000 2684584672 2684584672 -7.00000000
-4.13034296 2.67817831 0.77966934 8 9 30296 4.98400000 2684584674 2684584674 9.00000000
-3.88797021 2.52198410 -0.40544853 33 10 30297 4.65200000 2684584677 2684584677 -5.00000000
-4.13041735 2.68027496 0.95709795 70 11 30298 5.01600000 2684584679 2684584679 11.00000000
-4.16127682 2.70133233 -0.26000503 10 12 30299 4.96800000 2684584681 2684584681 -3.00000000
-4.11366129 2.67144299 1.13240361 62 13 30300 5.03400000 2684584684 2684584684 13.00000000
-4.13690138 2.68756175 -0.08611017 8 14 30301 4.93400000 2684584686 2684584686 -1.00000000
-4.10994864 2.67005181 1.31324780 61 15 30301 5.07400000 2684584688 2684584688 15.00000000
-1.70755172 1.11271429 -0.54610819 4 0 30309 2.11000000 2684584709 2684584709 -15.00000000
-4.14775133 2.70388508 0.08642431 9 1 30310 4.95200000 2684584711 2684584711 1.00000000
-1.99631548 1.30187821 -0.55023026 4 2 30311 2.44600000 2684584713 2684584713 -13.00000000
-4.15011883 2.70749307 0.25969100 8 3 30312 4.96200000 2684584716 2684584716 3.00000000
-2.33981133 1.52646792 -0.54304242 3 4 30312 2.84600000 2684584718 2684584718 -11.00000000
-4.13118601 2.69616961 0.43159524 11 5 30313 4.95200000 2684584720 2684584720 5.00000000
-2.85655546 1.86500823 -0.54032463 1 6 30314 3.45400000 2684584723 2684584723 -9.00000000
-4.15168190 2.71161294 0.60885924 14 7 30315 4.99600000 2684584725 2684584725 7.00000000
-3.76899147 2.46260262 -0.55279934 8 8 30316 4.53600000 2684584727 2684584727 -7.00000000
-4.13042021 2.69978356 0.78154659 8 9 30317 4.99600000 2684584730 2684584730 9.00000000
-3.85913038 2.52245927 -0.40335679 30 10 30317 4.62800000 2684584732 2684584732 -5.00000000
-4.12103605 2.69467640 0.95709795 67 11 30318 5.01600000 2684584734 2684584734 11.00000000
-4.16185045 2.72240138 -0.26063305 15 12 30319 4.98000000 2684584736 2684584736 -3.00000000
-4.11409521 2.69218850 1.13510299 65 13 30320 5.04600000 2684584739 2684584739 13.00000000
-4.14589882 2.71403360 -0.08649413 14 14 30321 4.95600000 2684584741 2684584741 -1.00000000
-4.10336733 2.68721437 1.31428313 74 15 30322 5.07800000 2684584743 2684584743 15.00000000
-1.70688689 1.12078869 -0.54714346 4 0 30329 2.11400000 2684584764 2684584764 -15.00000000
-4.13828754 2.71834683 0.08642431 9 1 30330 4.95200000 2684584766 2684584766 1.00000000
-1.98361599 1.30348778 -0.54798079 3 2 30331 2.43600000 2684584769 2684584769 -13.00000000
-4.14564943 2.72525454 0.26000503 8 3 30332 4.96800000 2684584771 2684584771 3.00000000
-2.33446860 1.53462601 -0.54304242 2 4 30332 2.84600000 2684584773 2684584773 -11.00000000
-4.14339018 2.72480536 0.43386129 21 5 30333 4.97800000 2684584776 2684584776 5.00000000
-2.83847618 1.86736834 -0.53813457 1 6 30334 3.44000000 2684584778 2684584778 -9.00000000
-4.14053297 2.72499728 0.60861552 12 7 30335 4.99400000 2684584780 2684584780 7.00000000
-3.76037240 2.47574401 -0.55279934 8 8 30336 4.53600000 2684584783 2684584783 -7.00000000
-4.13629389 2.72324181 0.78436244 9 9 30336 5.01400000 2684584785 2684584785 9.00000000
-3.85695744 2.54029822 -0.40405402 30 10 30337 4.63600000 2684584787 2684584787 -5.00000000
-4.11160469 2.70904517 0.95709795 67 11 30338 5.01600000 2684584789 2684584789 11.00000000
-4.14898729 2.73471403 -0.26042372 15 12 30339 4.97600000 2684584792 2684584792 -3.00000000
-4.11118031 2.71082377 1.13690257 60 13 30340 5.05400000 2684584794 2684584794 13.00000000
-4.14641523 2.73509550 -0.08670355 14 14 30341 4.96800000 2684584796 2684584796 -1.00000000
-4.10733461 2.70931673 1.31842422 72 15 30341 5.09400000 2684584799 2684584799 15.00000000
-1.70940864 1.13100398 -0.54921401 4 0 30349 2.12200000 2684584819 2684584819 -15.00000000
-4.13544369 2.73719049 0.08656394 9 1 30350 4.96000000 2684584822 2684584822 1.00000000
-1.97580421 1.30825222 -0.54708099 3 2 30351 2.43200000 2684584824 2684584824 -13.00000000
-4.13777637 2.74081206 0.26010969 8 3 30352 4.97000000 2684584826 2684584826 3.00000000
-2.33564448 1.54710221 -0.54456890 3 4 30352 2.85400000 2684584829 2684584829 -11.00000000
-4.13717556 2.74145293 0.43420991 21 5 30353 4.98200000 2684584831 2684584831 5.00000000
-2.84675884 1.88708794 -0.54095036 1 6 30354 3.45800000 2684584833 2684584833 -9.00000000
-4.13761330 2.74382210 0.60959047 9 7 30355 5.00200000 2684584836 2684584836 7.00000000
-3.75005341 2.48775768 -0.55255562 8 8 30356 4.53400000 2684584838 2684584838 -7.00000000
-4.13286829 2.74275303 0.78561389 15 9 30357 5.02200000 2684584840 2684584840 9.00000000
-3.83644605 2.54603434 -0.40283385 33 10 30357 4.62200000 2684584842 2684584842 -5.00000000
-4.11193705 2.72989607 0.95938760 70 11 30358 5.02800000 2684584845 2684584845 11.00000000
-4.14440727 2.75249505 -0.26073775 17 12 30359 4.98200000 2684584847 2684584847 -3.00000000
-4.10818529 2.72947168 1.13870227 63 13 30360 5.06200000 2684584849 2684584849 13.00000000
-4.14516973 2.75508714 -0.08687808 16 14 30361 4.97800000 2684584852 2684584852 -1.00000000
-4.10381174 2.72863126 1.32049477 72 15 30362 5.10200000 2684584854 2684584854 15.00000000
-1.71509469 1.14339352 -0.55231982 4 0 30369 2.13400000 2684584875 2684584875 -15.00000000
-4.14749146 2.76603293 0.08701770 9 1 30370 4.98600000 2684584877 2684584877 1.00000000
-1.96798337 1.31297803 -0.54618114 3 2 30371 2.42800000 2684584879 2684584879 -13.00000000
-4.12486124 2.75302124 0.25990036 8 3 30372 4.96600000 2684584882 2684584882 3.00000000
-2.32369804 1.55088615 -0.54304242 2 4 30372 2.84600000 2684584884 2684584884 -11.00000000
-4.14249372 2.76583481 0.43577871 21 5 30373 5.00000000 2684584886 2684584886 5.00000000
-2.85658097 1.90798521 -0.54407907 3 6 30374 3.47800000 2684584889 2684584889 -9.00000000
-4.13791370 2.76486540 0.61105287 11 7 30375 5.01400000 2684584891 2684584891 7.00000000
-3.73144460 2.49421358 -0.55109316 8 8 30376 4.52200000 2684584893 2684584893 -7.00000000
-4.13360405 2.76302958 0.78749108 31 9 30376 5.03400000 2684584895 2684584895 9.00000000
-3.83084774 2.56162548 -0.40318248 33 10 30377 4.62600000 2684584898 2684584898 -5.00000000
-4.11706924 2.75405693 0.96282220 72 11 30378 5.04600000 2684584900 2684584900 11.00000000
-4.14473343 2.77360964 -0.26136577 17 12 30379 4.99400000 2684584902 2684584902 -3.00000000
-4.09539366 2.74162722 1.13780248 65 13 30380 5.05800000 2684584905 2684584905 13.00000000
-4.14715815 2.77732873 -0.08712241 14 14 30381 4.99200000 2684584907 2684584907 -1.00000000
-4.10437155 2.74867463 1.32360065 76 15 30381 5.11400000 2684584909 2684584909 15.00000000
-1.70467854 1.14506459 -0.55024928 4 0 30389 2.12600000 2684584930 2684584930 -15.00000000
-4.15108919 2.78941607 0.08729694 9 1 30390 5.00200000 2684584932 2684584932 1.00000000
-1.97309196 1.32636273 -0.54888058 3 2 30391 2.44000000 2684584935 2684584935 -13.00000000
-4.13511467 2.78077745 0.26115641 8 3 30392 4.99000000 2684584937 2684584937 3.00000000
-2.31501198 1.55679679 -0.54227918 3 4 30392 2.84200000 2684584939 2684584939 -11.00000000
-4.12289524 2.77360535 0.43473285 16 5 30393 4.98800000 2684584942 2684584942 5.00000000
-2.83351517 1.90691590 -0.54095036 3 6 30394 3.45800000 2684584944 2684584944 -9.00000000
-4.13811731 2.78594422 0.61251533 9 7 30395 5.02600000 2684584946 2684584946 7.00000000
-3.72436190 2.50833249 -0.55133688 14 8 30396 4.52400000 2684584948 2684584948 -7.00000000
-4.12508726 2.77926517 0.78780395 47 9 30397 5.03600000 2684584951 2684584951 9.00000000
-3.80535936 2.56384921 -0.40143934 34 10 30397 4.60600000 2684584953 2684584953 -5.00000000
-4.12045479 2.77718949 0.96587515 65 11 30398 5.06200000 2684584955 2684584955 11.00000000
-4.15821028 2.80369234 -0.26283118 10 12 30399 5.02200000 2684584958 2684584958 -3.00000000
-4.09872341 2.76462388 1.14140165 67 13 30400 5.07400000 2684584960 2684584960 13.00000000
-4.14075327 2.79402494 -0.08719222 16 14 30401 4.99600000 2684584962 2684584962 -1.00000000
-4.09747171 2.76586127 1.32463586 72 15 30402 5.11800000 2684584965 2684584965 15.00000000
-1.69747138 1.14884245 -0.54921401 4 0 30409 2.12200000 2684584985 2684584985 -15.00000000
-4.14795065 2.80837345 0.08743656 20 1 30410 5.01000000 2684584988 2684584988 1.00000000
-1.97813106 1.33979893 -0.55158001 3 2 30411 2.45200000 2684584990 2684584990 -13.00000000
-4.14026403 2.80527759 0.26209846 8 3 30412 5.00800000 2684584992 2684584992 3.00000000
-2.31281447 1.56707072 -0.54304242 3 4 30412 2.84600000 2684584995 2684584995 -11.00000000
-4.12638235 2.79692292 0.43612733 9 5 30413 5.00400000 2684584997 2684584997 5.00000000
-2.83174634 1.92012095 -0.54188901 1 6 30414 3.46400000 2684584999 2684584999 -9.00000000
-4.14808083 2.81374431 0.61544019 9 7 30415 5.05000000 2684585001 2684585001 7.00000000
-3.73857999 2.53692269 -0.55474925 14 8 30416 4.55200000 2684585004 2684585004 -7.00000000
-4.12565565 2.79958415 0.78968120 67 9 30416 5.04800000 2684585006 2684585006 9.00000000
-3.78319907 2.56816459 -0.40004486 39 10 30417 4.59000000 2684585008 2684585008 -5.00000000
-4.11560774 2.79486465 0.96701998 70 11 30418 5.06800000 2684585011 2684585011 11.00000000
-4.16161489 2.82716894 -0.26366854 10 12 30419 5.03800000 2684585013 2684585013 -3.00000000
-4.10033035 2.78658175 1.14455092 69 13 30420 5.08800000 2684585015 2684585015 13.00000000
-4.14089727 2.81520748 -0.08740165 14 14 30421 5.00800000 2684585018 2684585018 -1.00000000
-4.09466791 2.78377819 1.32670641 74 15 30421 5.12600000 2684585020 2684585020 15.00000000
-1.69345081 1.15476072 -0.54921401 4 0 30429 2.12200000 2684585041 2684585041 -15.00000000
-4.14142609 2.82508922 0.08750637 22 1 30430 5.01400000 2684585043 2684585043 1.00000000
-1.97022283 1.34449887 -0.55068016 3 2 30431 2.44800000 2684585045 2684585045 -13.00000000
-4.14364290 2.82872152 0.26293585 8 3 30432 5.02400000 2684585048 2684585048 3.00000000
-2.31381607 1.57956207 -0.54456890 3 4 30432 2.85400000 2684585050 2684585050 -11.00000000
-4.13469267 2.82366943 0.43804476 9 5 30433 5.02600000 2684585052 2684585052 5.00000000
-2.82339573 1.92887962 -0.54157615 1 6 30434 3.46200000 2684585054 2684585054 -9.00000000
-4.13003922 2.82260633 0.61422151 9 7 30435 5.04000000 2684585057 2684585057 7.00000000
-3.73625660 2.55443883 -0.55572420 16 8 30436 4.56000000 2684585059 2684585059 -7.00000000
-4.11911964 2.81619811 0.79030693 76 9 30436 5.05200000 2684585061 2684585061 9.00000000
-3.77256680 2.58023000 -0.39987054 44 10 30437 4.58800000 2684585064 2684585064 -5.00000000
-4.11068773 2.81253958 0.96816486 77 11 30438 5.07400000 2684585066 2684585066 11.00000000
-4.15007257 2.84055042 -0.26356387 10 12 30439 5.03600000 2684585068 2684585068 -3.00000000
-4.10504961 2.81078625 1.14860010 67 13 30440 5.10600000 2684585071 2684585071 13.00000000
-4.14754295 2.84094548 -0.08775070 14 14 30441 5.02800000 2684585073 2684585073 -1.00000000
-4.08492565 2.79805446 1.32670641 72 15 30441 5.12600000 2684585075 2684585075 15.00000000
-1.69577873 1.16504073 -0.55128455 4 0 30449 2.13000000 2684585096 2684585096 -15.00000000
-4.13648319 2.84292626 0.08761108 15 1 30450 5.02000000 2684585098 2684585098 1.00000000
-1.96551764 1.35136807 -0.55068016 4 2 30451 2.44800000 2684585101 2684585101 -13.00000000
-4.14361715 2.84995914 0.26356387 8 3 30452 5.03600000 2684585103 2684585103 3.00000000
-2.31475854 1.59207940 -0.54609537 3 4 30452 2.86200000 2684585105 2684585105 -11.00000000
-4.13794231 2.84712005 0.43943927 9 5 30453 5.04200000 2684585107 2684585107 5.00000000
-2.81339097 1.93648338 -0.54095036 3 6 30454 3.45800000 2684585110 2684585110 -9.00000000
-4.12343168 2.83925724 0.61470896 9 7 30455 5.04400000 2684585112 2684585112 7.00000000
-3.72568226 2.56633902 -0.55548048 18 8 30456 4.55800000 2684585114 2684585114 -7.00000000
-4.12340927 2.84136438 0.79312271 83 9 30457 5.07000000 2684585117 2684585117 9.00000000
-3.76517773 2.59451365 -0.40004486 44 10 30457 4.59000000 2684585119 2684585119 -5.00000000
-4.10892725 2.83244276 0.97007293 70 11 30458 5.08400000 2684585121 2684585121 11.00000000
-4.14670897 2.85955477 -0.26398256 10 12 30459 5.04400000 2684585124 2684585124 -3.00000000
-4.10162973 2.82952476 1.15039968 67 13 30460 5.11400000 2684585126 2684585126 13.00000000
-4.14418411 2.85994887 -0.08789032 14 14 30461 5.03600000 2684585128 2684585128 -1.00000000
-4.10057354 2.82985258 1.33498859 72 15 30461 5.15800000 2684585130 2684585130 15.00000000
-1.70282078 1.17864943 -0.55490804 5 0 30469 2.14400000 2684585151 2684585151 -15.00000000
-4.14297485 2.86873174 0.08796013 15 1 30470 5.04000000 2684585154 2684585154 1.00000000
-1.95117688 1.35156274 -0.54798079 3 2 30471 2.43600000 2684585156 2684585156 -13.00000000
-4.13200188 2.86326814 0.26345921 8 3 30472 5.03400000 2684585158 2684585158 3.00000000
-2.31080079 1.60126793 -0.54647696 2 4 30472 2.86400000 2684585160 2684585160 -11.00000000
-4.13780308 2.86835718 0.44048512 9 5 30473 5.05400000 2684585163 2684585163 5.00000000
-2.81148410 1.94966912 -0.54188901 1 6 30474 3.46400000 2684585165 2684585165 -9.00000000
-4.13306808 2.86721134 0.61763382 9 7 30475 5.06800000 2684585167 2684585167 7.00000000
-3.71180892 2.57593322 -0.55474925 8 8 30476 4.55200000 2684585170 2684585170 -7.00000000
-4.11671162 2.85799336 0.79374850 87 9 30477 5.07400000 2684585172 2684585172 9.00000000
-3.76264477 2.61218548 -0.40074211 44 10 30477 4.59800000 2684585174 2684585174 -5.00000000
-4.11514044 2.85796714 0.97388911 85 11 30478 5.10400000 2684585177 2684585177 11.00000000
-4.14490318 2.87970996 -0.26450592 10 12 30479 5.05400000 2684585179 2684585179 -3.00000000
-4.09332800 2.84493709 1.15084958 69 13 30480 5.11600000 2684585181 2684585181 13.00000000
-4.14238501 2.88010502 -0.08806484 12 14 30481 5.04600000 2684585183 2684585183 -1.00000000
-4.10286188 2.85368776 1.33912969 72 15 30482 5.17400000 2684585186 2684585186 15.00000000
-1.68739855 1.17714548 -0.55128455 5 0 30490 2.13000000 2684585207 2684585207 -15.00000000
-4.14227152 2.89076376 0.08816956 15 1 30491 5.05200000 2684585209 2684585209 1.00000000
-1.95579731 1.36539829 -0.55068016 3 2 30492 2.44800000 2684585211 2684585211 -13.00000000
-4.13457966 2.88754225 0.26429659 8 3 30493 5.05000000 2684585213 2684585213 3.00000000
-2.29525876 1.60298204 -0.54418725 3 4 30493 2.85200000 2684585216 2684585216 -11.00000000
-4.13542891 2.88920927 0.44135669 9 5 30494 5.06400000 2684585218 2684585218 5.00000000
-2.82698703 1.97580326 -0.54626918 3 6 30495 3.49200000 2684585220 2684585220 -9.00000000
-4.13066578 2.88802791 0.61885250 9 7 30496 5.07800000 2684585223 2684585223 7.00000000
-3.71047616 2.59520912 -0.55596793 18 8 30497 4.56200000 2684585225 2684585225 -7.00000000
-4.11268282 2.87759256 0.79499996 83 9 30498 5.08200000 2684585227 2684585227 9.00000000
-3.76937008 2.63738108 -0.40248522 22 10 30498 4.61800000 2684585230 2684585230 -5.00000000
-4.12072182 2.88428879 0.97770530 78 11 30499 5.12400000 2684585232 2684585232 11.00000000
-4.15231752 2.90748382 -0.26565731 10 12 30500 5.07600000 2684585234 2684585234 -3.00000000
-4.09245014 2.86662889 1.15354896 69 13 30501 5.12800000 2684585236 2684585236 13.00000000
-4.13671446 2.89871097 -0.08816956 8 14 30502 5.05200000 2684585239 2684585239 -1.00000000
-4.09603977 2.87020922 1.34016502 72 15 30502 5.17800000 2684585241 2684585241 15.00000000
-1.67695701 1.17858517 -0.54921401 4 0 30510 2.12200000 2684585262 2684585262 -15.00000000
-4.13869905 2.90980577 0.08830918 13 1 30511 5.06000000 2684585264 2684585264 1.00000000
-1.95739508 1.37670135 -0.55247980 4 2 30512 2.45600000 2684585266 2684585266 -13.00000000
-4.14734316 2.91804695 0.26576197 12 3 30513 5.07800000 2684585269 2684585269 3.00000000
-2.29928327 1.61776257 -0.54647696 3 4 30513 2.86400000 2684585271 2684585271 -11.00000000
-4.12857676 2.90592051 0.44170532 9 5 30514 5.06800000 2684585273 2684585273 5.00000000
-2.80069089 1.97201216 -0.54251474 1 6 30515 3.46800000 2684585276 2684585276 -9.00000000
-4.13678885 2.91386032 0.62128991 9 7 30516 5.09800000 2684585278 2684585278 7.00000000
-3.67705393 2.59099388 -0.55231184 20 8 30517 4.53200000 2684585280 2684585280 -7.00000000
-4.11552954 2.90103579 0.79750288 83 9 30518 5.09800000 2684585283 2684585283 9.00000000
-3.75851250 2.64937449 -0.40231091 27 10 30518 4.61600000 2684585285 2684585285 -5.00000000
-4.12025547 2.90544343 0.97999501 84 11 30519 5.13600000 2684585287 2684585287 11.00000000
-4.15193558 2.92886829 -0.26628536 10 12 30520 5.08800000 2684585289 2684585289 -3.00000000
-4.10152531 2.89437985 1.15894783 69 13 30521 5.15200000 2684585292 2684585292 13.00000000
-4.13637257 2.92005277 -0.08837899 8 14 30522 5.06400000 2684585294 2684585294 -1.00000000
-4.08915234 2.88671780 1.34120023 46 15 30522 5.18200000 2684585296 2684585296 15.00000000
-1.66988575 1.18190753 -0.54817873 4 0 30529 2.11800000 2684585317 2684585317 -15.00000000
-4.12902737 2.92351413 0.08830918 15 1 30530 5.06000000 2684585319 2684585319 1.00000000
-1.94645810 1.37867928 -0.55068016 3 2 30531 2.44800000 2684585322 2684585322 -13.00000000
-4.14304495 2.93452501 0.26607600 12 3 30531 5.08400000 2684585324 2684585324 3.00000000
-2.29070210 1.62310827 -0.54571372 3 4 30532 2.86000000 2684585326 2684585326 -11.00000000
-4.12541962 2.92420411 0.44240254 9 5 30533 5.07600000 2684585329 2684585329 5.00000000
-2.79091334 1.97900343 -0.54188901 1 6 30534 3.46400000 2684585331 2684585331 -9.00000000
-4.12548399 2.92641401 0.62104619 9 7 30535 5.09600000 2684585333 2684585333 7.00000000
-3.67167950 2.60547090 -0.55279934 32 8 30536 4.53600000 2684585335 2684585335 -7.00000000
-4.12250519 2.92538261 0.80063158 81 9 30536 5.11800000 2684585338 2684585338 9.00000000
-3.76107883 2.66989684 -0.40353107 27 10 30537 4.63000000 2684585340 2684585340 -5.00000000
-4.10739660 2.91681743 0.97923177 76 11 30538 5.13200000 2684585342 2684585342 11.00000000
-4.14708471 2.94609046 -0.26659936 10 12 30539 5.09400000 2684585345 2684585345 -3.00000000
-4.11255455 2.92264056 1.16479659 65 13 30540 5.17800000 2684585347 2684585347 13.00000000
-4.14133453 2.94418144 -0.08869313 8 14 30541 5.08200000 2684585349 2684585349 -1.00000000
-4.09687662 2.91257501 1.34689426 31 15 30541 5.20400000 2684585352 2684585352 15.00000000
-1.67518771 1.19445872 -0.55128455 4 0 30549 2.13000000 2684585372 2684585372 -15.00000000
-4.13670492 2.95068288 0.08869313 13 1 30550 5.08200000 2684585375 2684585375 1.00000000
-1.93528855 1.38093758 -0.54888058 3 2 30551 2.44000000 2684585377 2684585377 -13.00000000
-4.13063622 2.94852996 0.26597133 12 3 30552 5.08200000 2684585379 2684585379 3.00000000
-2.30100155 1.64250064 -0.54952991 2 4 30552 2.88000000 2684585382 2684585382 -11.00000000
-4.12815857 2.94784927 0.44379705 10 5 30553 5.09200000 2684585384 2684585384 5.00000000
-2.78720307 1.99102998 -0.54251474 1 6 30554 3.46800000 2684585386 2684585386 -9.00000000
-4.12331915 2.94656754 0.62226486 9 7 30555 5.10600000 2684585388 2684585388 7.00000000
-3.65933251 2.61596274 -0.55231184 40 8 30556 4.53200000 2684585391 2684585391 -7.00000000
-4.12300301 2.94851613 0.80282170 76 9 30557 5.13200000 2684585393 2684585393 9.00000000
-3.81169915 2.72589087 -0.40998062 8 10 30557 4.70400000 2684585395 2684585395 -5.00000000
-4.10677004 2.93799090 0.98152149 81 11 30558 5.14400000 2684585398 2684585398 11.00000000
-4.14164829 2.96403575 -0.26691338 10 12 30559 5.10000000 2684585400 2684585400 -3.00000000
-4.10549688 2.93924689 1.16569638 65 13 30560 5.18200000 2684585402 2684585402 13.00000000
-4.13916111 2.96444106 -0.08886766 8 14 30561 5.09200000 2684585405 2684585405 -1.00000000
-4.09873724 2.93657231 1.35103536 19 15 30562 5.22000000 2684585407 2684585407 15.00000000
-1.67749441 1.20451427 -0.55335510 4 0 30568 2.13800000 2684585428 2684585428 -15.00000000
-4.14313841 2.97605085 0.08904218 13 1 30569 5.10200000 2684585430 2684585430 1.00000000
-1.94019377 1.39417064 -0.55158001 4 2 30570 2.45200000 2684585432 2684585432 -13.00000000
-4.13108444 2.96848512 0.26659936 10 3 30570 5.09400000 2684585435 2684585435 3.00000000
-2.28278923 1.64095473 -0.54647696 3 4 30571 2.86400000 2684585437 2684585437 -11.00000000
-4.12968349 2.96966505 0.44501722 10 5 30572 5.10600000 2684585439 2684585439 5.00000000
-2.79501748 2.01064372 -0.54533052 3 6 30573 3.48600000 2684585441 2684585441 -9.00000000
-4.12319279 2.96718168 0.62372732 11 7 30574 5.11800000 2684585444 2684585444 7.00000000
-3.66030383 2.63504171 -0.55377430 28 8 30575 4.54400000 2684585446 2684585446 -7.00000000
-4.11961460 2.96678996 0.80407315 76 9 30576 5.14000000 2684585448 2684585448 9.00000000
-3.91904616 2.82234812 -0.42253104 23 10 30576 4.84800000 2684585451 2684585451 -5.00000000
-4.11452723 2.96421671 0.98571926 39 11 30577 5.16600000 2684585453 2684585453 11.00000000
-4.14151812 2.98476005 -0.26754141 10 12 30578 5.11200000 2684585455 2684585455 -3.00000000
-4.09572744 2.95284510 1.16569638 65 13 30579 5.18200000 2684585458 2684585458 13.00000000
-4.13255167 2.98049021 -0.08893746 8 14 30580 5.09600000 2684585460 2684585460 -1.00000000
-4.09575891 2.95395446 1.35310602 23 15 30580 5.22800000 2684585462 2684585462 15.00000000
-1.66858375 1.20696580 -0.55180222 4 0 30588 2.13200000 2684585483 2684585483 -15.00000000
-4.14892530 3.00221777 0.08939122 9 1 30589 5.12200000 2684585485 2684585485 1.00000000
-1.93215823 1.39864933 -0.55068016 4 2 30590 2.44800000 2684585487 2684585487 -13.00000000
-4.13040447 2.98991394 0.26722738 10 3 30590 5.10600000 2684585490 2684585490 3.00000000
-2.27704740 1.64891315 -0.54647696 3 4 30591 2.86400000 2684585492 2684585492 -11.00000000
-4.12251902 2.98639989 0.44536585 10 5 30592 5.11000000 2684585494 2684585494 5.00000000
-2.78318334 2.01691055 -0.54439193 1 6 30593 3.48000000 2684585497 2684585497 -9.00000000
-4.12888241 2.99320769 0.62616467 11 7 30594 5.13800000 2684585499 2684585499 7.00000000
-3.70411444 2.68626094 -0.56181765 64 8 30595 4.61000000 2684585501 2684585501 -7.00000000
-4.11243105 2.98347187 0.80469888 76 9 30596 5.14400000 2684585504 2684585504 9.00000000
-4.16075087 3.01852655 -0.44972363 12 10 30596 5.16000000 2684585506 2684585506 -5.00000000
-4.11686611 2.98778629 0.98877221 15 11 30597 5.18200000 2684585508 2684585508 11.00000000
-4.14077139 3.00623894 -0.26816943 10 12 30598 5.12400000 2684585511 2684585511 -3.00000000
-4.10116243 2.97857547 1.17019534 63 13 30599 5.20200000 2684585513 2684585513 13.00000000
-4.13344717 3.00312519 -0.08918180 8 14 30600 5.11000000 2684585515 2684585515 -1.00000000
-4.08698559 2.96936893 1.35362363 63 15 30600 5.23000000 2684585517 2684585517 15.00000000
-1.65967655 1.20936978 -0.55024928 4 0 30608 2.12600000 2684585538 2684585538 -15.00000000
-4.12387705 3.00608039 0.08907709 9 1 30609 5.10400000 2684585540 2684585540 1.00000000
-1.94300985 1.41686714 -0.55517918 3 2 30610 2.46800000 2684585543 2684585543 -13.00000000
-4.14039421 3.02033448 0.26858813 14 3 30611 5.13200000 2684585545 2684585545 3.00000000
-2.27762198 1.66147947 -0.54800344 3 4 30611 2.87200000 2684585547 2684585547 -11.00000000
-4.12655449 3.01134229 0.44693464 10 5 30612 5.12800000 2684585550 2684585550 5.00000000
-2.77772164 2.02777815 -0.54470479 3 6 30613 3.48200000 2684585552 2684585552 -9.00000000
-4.12963104 3.01579690 0.62787086 9 7 30614 5.15200000 2684585554 2684585554 7.00000000
-3.67868590 2.68746424 -0.55938029 38 8 30615 4.59000000 2684585557 2684585557 -7.00000000
-4.11527586 3.00641513 0.80720186 76 9 30615 5.16000000 2684585559 2684585559 9.00000000
-4.14858007 3.03185630 -0.44954932 12 10 30616 5.15800000 2684585561 2684585561 -5.00000000
-4.11116648 3.00561452 0.98991704 78 11 30617 5.18800000 2684585564 2684585564 11.00000000
-4.16249514 3.04425502 -0.27026287 10 12 30618 5.16400000 2684585566 2684585566 -3.00000000
-4.10017681 2.99977708 1.17289484 62 13 30619 5.21400000 2684585568 2684585568 13.00000000
-4.12616634 3.01989746 -0.08925161 8 14 30620 5.11400000 2684585570 2684585570 -1.00000000
-4.09010363 2.99459958 1.35828233 31 15 30621 5.24800000 2684585573 2684585573 15.00000000
-1.65855968 1.21744204 -0.55128455 4 0 30628 2.13000000 2684585593 2684585593 -15.00000000
-4.12947702 3.03229284 0.08942613 9 1 30629 5.12400000 2684585596 2684585596 1.00000000
-1.92234683 1.41210413 -0.55068016 3 2 30630 2.44800000 2684585598 2684585598 -13.00000000
-4.13679409 3.03877759 0.26900682 10 3 30630 5.14000000 2684585600 2684585600 3.00000000
-2.26548028 1.66476953 -0.54647696 3 4 30631 2.86400000 2684585603 2684585603 -11.00000000
-4.12886047 3.03516889 0.44832915 10 5 30632 5.14400000 2684585605 2684585605 5.00000000
-2.75789523 2.02809954 -0.54220188 3 6 30633 3.46600000 2684585607 2684585607 -9.00000000
-4.13027191 3.03842783 0.62957704 9 7 30634 5.16600000 2684585610 2684585610 7.00000000
-3.67248011 2.70264220 -0.55986774 32 8 30635 4.59400000 2684585612 2684585612 -7.00000000
-4.12331820 3.03553152 0.81095624 72 9 30636 5.18400000 2684585614 2684585614 9.00000000
-4.15722561 3.06049347 -0.45164105 12 10 30636 5.18200000 2684585617 2684585617 -5.00000000
-4.09432650 3.01529002 0.98839062 55 11 30637 5.18000000 2684585619 2684585619 11.00000000
-4.15023518 3.05758166 -0.27015820 10 12 30638 5.16200000 2684585621 2684585621 -3.00000000
-4.10223055 3.02332020 1.17649400 60 13 30639 5.23000000 2684585623 2684585623 13.00000000
-4.14779091 3.05801511 -0.08994970 8 14 30640 5.15400000 2684585626 2684585626 -1.00000000
-4.08895397 3.01573849 1.36138821 14 15 30641 5.26000000 2684585628 2684585628 15.00000000
-1.65719259 1.22581053 -0.55231982 4 0 30649 2.13400000 2684585649 2684585649 -15.00000000
-4.12798023 3.05454445 0.08963556 9 1 30650 5.13600000 2684585651 2684585651 1.00000000
-1.91402566 1.41682148 -0.54978037 4 2 30651 2.44400000 2684585653 2684585653 -13.00000000
-4.13526058 3.06104898 0.26963484 8 3 30651 5.15200000 2684585656 2684585656 3.00000000
-2.25620794 1.67072511 -0.54571372 3 4 30652 2.86000000 2684585658 2684585658 -11.00000000
-4.13051605 3.05976915 0.44972363 10 5 30653 5.16000000 2684585660 2684585660 5.00000000
-2.76790142 2.05113125 -0.54564339 3 6 30654 3.48800000 2684585663 2684585663 -9.00000000
-4.11910772 3.05354571 0.62957704 9 7 30655 5.16600000 2684585665 2684585665 7.00000000
-3.66254973 2.71608424 -0.55986774 10 8 30656 4.59400000 2684585667 2684585667 -7.00000000
-4.12221766 3.05696607 0.81283349 74 9 30656 5.19600000 2684585670 2684585670 9.00000000
-4.15238094 3.08045816 -0.45233831 12 10 30657 5.19000000 2684585672 2684585672 -5.00000000
-4.10216618 3.04431629 0.99296999 68 11 30658 5.20400000 2684585674 2684585674 11.00000000
-4.15182972 3.08229685 -0.27099559 10 12 30659 5.17800000 2684585676 2684585676 -3.00000000
-4.09425116 3.04065919 1.17739379 62 13 30660 5.23400000 2684585679 2684585679 13.00000000
-4.15100145 3.08393002 -0.09026384 10 14 30661 5.17200000 2684585681 2684585681 -1.00000000
-4.08872700 3.03877163 1.36501169 19 15 30662 5.27400000 2684585683 2684585683 15.00000000
-1.65600193 1.23389626 -0.55335510 4 0 30669 2.13800000 2684585704 2684585704 -15.00000000
-4.13653231 3.08327603 0.09005442 9 1 30670 5.16000000 2684585706 2684585706 1.00000000
-1.92156637 1.43281317 -0.55337960 3 2 30671 2.46000000 2684585709 2684585709 -13.00000000
-4.12615156 3.07665896 0.26973951 8 3 30671 5.15400000 2684585711 2684585711 3.00000000
-2.25980425 1.68563366 -0.54800344 3 4 30672 2.87200000 2684585713 2684585713 -11.00000000
-4.13258457 3.08370113 0.45111811 10 5 30673 5.17600000 2684585716 2684585716 5.00000000
-2.75914168 2.05959892 -0.54533052 3 6 30674 3.48600000 2684585718 2684585718 -9.00000000
-4.12432909 3.07978272 0.63201439 9 7 30675 5.18600000 2684585720 2684585720 7.00000000
-3.58943224 2.68133211 -0.55011821 6 8 30676 4.51400000 2684585723 2684585723 -7.00000000
-4.11468649 3.07370090 0.81345922 74 9 30676 5.20000000 2684585725 2684585725 9.00000000
-4.15437078 3.10447526 -0.45373279 12 10 30677 5.20600000 2684585727 2684585727 -5.00000000
-4.10723877 3.07037163 0.99678618 63 11 30678 5.22400000 2684585729 2684585729 11.00000000
-4.14424419 3.09916282 -0.27120492 10 12 30679 5.18200000 2684585732 2684585732 -3.00000000
-4.08985376 3.05960155 1.17919338 63 13 30680 5.24200000 2684585734 2684585734 13.00000000
-4.12740326 3.08881569 -0.08998461 14 14 30681 5.15600000 2684585736 2684585736 -1.00000000
-4.09665251 3.06691861 1.37122333 55 15 30682 5.29800000 2684585739 2684585739 15.00000000
-1.65190101 1.23938096 -0.55335510 4 0 30688 2.13800000 2684585759 2684585759 -15.00000000
-4.13907957 3.10657930 0.09033366 9 1 30689 5.17600000 2684585762 2684585762 1.00000000
-1.91680443 1.43917751 -0.55337960 3 2 30690 2.46000000 2684585764 2684585764 -13.00000000
-4.12870359 3.09991837 0.27057689 8 3 30690 5.17000000 2684585766 2684585766 3.00000000
-2.25106263 1.69076002 -0.54724020 3 4 30691 2.86800000 2684585769 2684585769 -11.00000000
-4.13030052 3.10337234 0.45198968 10 5 30692 5.18600000 2684585771 2684585771 5.00000000
-2.76177096 2.07585859 -0.54720777 1 6 30693 3.49800000 2684585773 2684585773 -9.00000000
-4.12044001 3.09821463 0.63298935 9 7 30694 5.19400000 2684585775 2684585775 7.00000000
-3.57258892 2.68725395 -0.54889953 12 8 30695 4.50400000 2684585778 2684585778 -7.00000000
-4.11078596 3.09207869 0.81471068 72 9 30695 5.20800000 2684585780 2684585780 9.00000000
-4.12017250 3.10026550 -0.45111811 9 10 30696 5.17600000 2684585782 2684585782 -5.00000000
-4.10958290 3.09342051 0.99983913 70 11 30697 5.24000000 2684585785 2684585785 11.00000000
-4.15149498 3.12610435 -0.27235630 10 12 30698 5.20400000 2684585787 2684585787 -3.00000000
-4.08902454 3.08018231 1.18189287 62 13 30699 5.25400000 2684585789 2684585789 13.00000000
-4.13151073 3.11331677 -0.09029875 14 14 30700 5.17400000 2684585792 2684585792 -1.00000000
-4.09008312 3.08209848 1.37225854 51 15 30700 5.30200000 2684585794 2684585794 15.00000000
-1.63831735 1.23815095 -0.55024928 4 0 30708 2.12600000 2684585815 2684585815 -15.00000000
-4.12980556 3.12221456 0.09036856 9 1 30709 5.17800000 2684585817 2684585817 1.00000000
-1.90866053 1.44350863 -0.55247980 3 2 30710 2.45600000 2684585819 2684585819 -13.00000000
-4.12582254 3.12033510 0.27110025 8 3 30710 5.18000000 2684585822 2684585822 3.00000000
-2.24827838 1.70097649 -0.54800344 3 4 30711 2.87200000 2684585824 2684585824 -11.00000000
-4.11626530 3.11536622 0.45164105 10 5 30712 5.18200000 2684585826 2684585826 5.00000000
