# .PCD v0.7 - Point Cloud Data file format
VERSION 0.7
FIELDS x y z intensity laser_id azimuth distance_m adjustedtime timestamp vertical_angle
SIZE 4 4 4 1 1 2 8 8 4 8
TYPE F F F U U U F U U F
COUNT 1 1 1 1 1 1 1 1 1 1
WIDTH 523
HEIGHT 1
VIEWPOINT 0 0 0 1 0 0 0
POINTS 523
DATA ascii
-7.14763498 6.48562717 2.58611989 45 15 31222 9.99200000 2691387266 2691387266 15.00000000
-1.53483665 1.39610434 -0.55594331 4 0 31229 2.14800000 2691387287 2691387287 -15.00000000
-1.79275310 1.63185191 -0.55967820 3 2 31231 2.48800000 2691387292 2691387292 -13.00000000
-2.11501431 1.92586482 -0.55601740 3 4 31232 2.91400000 2691387296 2691387296 -11.00000000
-2.59171581 2.36158943 -0.55534238 5 6 31234 3.55000000 2691387301 2691387301 -9.00000000
-3.41186094 3.11109185 -0.56693619 10 8 31236 4.65200000 2691387305 2691387305 -7.00000000
-4.54551697 4.14626503 -0.53827387 3 10 31237 6.17600000 2691387310 2691387310 -5.00000000
-7.26939964 6.63554764 -0.51582319 8 12 31239 9.85600000 2691387315 2691387315 -3.00000000
-8.30624008 7.58463955 2.59683490 41 13 31240 11.54400000 2691387317 2691387317 13.00000000
-7.12894106 6.51189995 2.58715510 45 15 31241 9.99600000 2691387322 2691387322 15.00000000
-1.53992581 1.41058767 -0.55956680 4 0 31249 2.16200000 2691387342 2691387342 -15.00000000
-1.77842677 1.63019896 -0.55697882 4 2 31251 2.47600000 2691387347 2691387347 -13.00000000
-2.10827875 1.93323588 -0.55601740 2 4 31252 2.91400000 2691387351 2691387351 -11.00000000
-2.58636737 2.37329292 -0.55596811 3 6 31254 3.55400000 2691387356 2691387356 -9.00000000
-3.38489652 3.10821342 -0.56425506 10 8 31256 4.63000000 2691387361 2691387361 -7.00000000
-4.53248358 4.16345453 -0.53844815 3 10 31257 6.17800000 2691387365 2691387365 -5.00000000
-7.25648594 6.67034388 -0.51655591 8 12 31259 9.87000000 2691387370 2691387370 -3.00000000
-8.27684498 7.61094952 2.59593511 41 13 31260 11.54000000 2691387372 2691387372 13.00000000
-7.09933996 6.53275251 2.58508468 45 15 31262 9.98800000 2691387377 2691387377 15.00000000
-1.53215265 1.41333473 -0.55853152 4 0 31269 2.15800000 2691387398 2691387398 -15.00000000
-1.78131700 1.64432776 -0.55967820 3 2 31271 2.48800000 2691387402 2691387402 -13.00000000
-2.10728717 1.94591105 -0.55754387 3 4 31272 2.92200000 2691387407 2691387407 -11.00000000
-2.58967376 2.39303160 -0.55847102 3 6 31274 3.57000000 2691387411 2691387411 -9.00000000
-3.36382413 3.11057591 -0.56254888 10 8 31276 4.61600000 2691387416 2691387416 -7.00000000
-4.50622177 4.16842651 -0.53705370 3 10 31277 6.16200000 2691387421 2691387421 -5.00000000
-7.25954008 6.72005463 -0.51844001 8 12 31279 9.90600000 2691387425 2691387425 -3.00000000
-8.23592949 7.62655401 2.59143615 42 13 31280 11.52000000 2691387428 2691387428 13.00000000
-7.08614063 6.56413603 2.58819056 45 15 31281 10.00000000 2691387432 2691387432 15.00000000
-1.52579439 1.41735947 -0.55801386 4 0 31289 2.15600000 2691387453 2691387453 -15.00000000
-1.76700258 1.64257491 -0.55697882 4 2 31291 2.47600000 2691387457 2691387457 -13.00000000
-2.07747865 1.93186402 -0.55143797 3 4 31292 2.89000000 2691387462 2691387462 -11.00000000
-2.57262802 2.39398265 -0.55659384 3 6 31294 3.55800000 2691387467 2691387467 -9.00000000
-3.34568191 3.11553478 -0.56133020 12 8 31296 4.60600000 2691387471 2691387471 -7.00000000
-4.53246403 4.22215605 -0.54193443 3 10 31297 6.21800000 2691387476 2691387476 -5.00000000
-7.23896027 6.74807787 -0.51864934 4 12 31299 9.91000000 2691387480 2691387480 -3.00000000
-8.20925713 7.65525627 2.59143615 41 13 31300 11.52000000 2691387483 2691387483 13.00000000
-7.04932261 6.57820177 2.58353162 38 15 31302 9.98200000 2691387487 2691387487 15.00000000
-1.51261973 1.41449451 -0.55490804 4 0 31308 2.14400000 2691387508 2691387508 -15.00000000
-1.77577484 1.66174078 -0.56147784 3 2 31310 2.49600000 2691387513 2691387513 -13.00000000
-2.08252692 1.94947612 -0.55449092 3 4 31311 2.90600000 2691387517 2691387517 -11.00000000
-2.56467509 2.40250063 -0.55659384 3 6 31313 3.55800000 2691387522 2691387522 -9.00000000
-3.32809067 3.11982417 -0.56011152 12 8 31315 4.59600000 2691387527 2691387527 -7.00000000
-4.49809074 4.21808290 -0.53949404 3 10 31316 6.19000000 2691387531 2691387531 -5.00000000
-7.23402023 6.78844643 -0.51990539 4 12 31318 9.93400000 2691387536 2691387536 -3.00000000
-8.18098450 7.67976952 2.59053636 43 13 31319 11.51600000 2691387538 2691387538 13.00000000
-7.01453924 6.58709097 2.57835531 42 15 31320 9.96200000 2691387543 2691387543 15.00000000
-1.51470506 1.42638791 -0.55749625 4 0 31328 2.15400000 2691387563 2691387563 -15.00000000
-1.76145411 1.65991032 -0.55877841 3 2 31330 2.48400000 2691387568 2691387568 -13.00000000
-2.08428073 1.96481371 -0.55678064 3 4 31331 2.91800000 2691387573 2691387573 -11.00000000
-2.56058383 2.41550469 -0.55753243 3 6 31333 3.56400000 2691387577 2691387577 -9.00000000
-3.30851912 3.12324643 -0.55864906 14 8 31335 4.58400000 2691387582 2691387582 -7.00000000
-4.48189116 4.23239040 -0.53931975 3 10 31336 6.18800000 2691387586 2691387586 -5.00000000
-7.23060274 6.83286190 -0.52137077 4 12 31338 9.96200000 2691387591 2691387591 -3.00000000
-8.15129566 7.70560265 2.58963656 45 13 31339 11.51200000 2691387593 2691387593 13.00000000
-6.99175262 6.61408377 2.57887292 45 15 31341 9.96400000 2691387598 2691387598 15.00000000
-1.51252043 1.43432510 -0.55853152 4 0 31348 2.15800000 2691387619 2691387619 -15.00000000
-1.75282204 1.66336596 -0.55787861 3 2 31350 2.48000000 2691387623 2691387623 -13.00000000
-2.08595276 1.98018730 -0.55907035 3 4 31351 2.93000000 2691387628 2691387628 -11.00000000
-2.55213666 2.42442822 -0.55753243 1 6 31353 3.56400000 2691387633 2691387633 -9.00000000
-3.28320932 3.12109923 -0.55621171 14 8 31355 4.56400000 2691387637 2691387637 -7.00000000
-4.47575283 4.25624752 -0.54036558 3 10 31356 6.20000000 2691387642 2691387642 -5.00000000
-7.21538877 6.86632061 -0.52199882 4 12 31358 9.97400000 2691387646 2691387646 -3.00000000
-8.11305618 7.72325993 2.58603740 43 13 31359 11.49600000 2691387649 2691387649 13.00000000
-6.97117996 6.63856506 2.57939053 45 15 31360 9.96600000 2691387653 2691387653 15.00000000
-1.50750446 1.43959606 -0.55853152 4 0 31368 2.15800000 2691387674 2691387674 -15.00000000
-1.75827610 1.68024516 -0.56147784 3 2 31370 2.49600000 2691387679 2691387679 -13.00000000
-2.07618952 1.98474324 -0.55830711 3 4 31371 2.92600000 2691387683 2691387683 -11.00000000
-2.55222273 2.44151497 -0.55940962 1 6 31373 3.57600000 2691387688 2691387688 -9.00000000
-3.26512504 3.12567711 -0.55499297 12 8 31375 4.55400000 2691387692 2691387692 -7.00000000
-4.48101425 4.29113722 -0.54280597 3 10 31376 6.22800000 2691387697 2691387697 -5.00000000
-7.20291281 6.90252018 -0.52283621 4 12 31378 9.99000000 2691387702 2691387702 -3.00000000
-8.07760715 7.74344110 2.58333802 43 13 31379 11.48400000 2691387704 2691387704 13.00000000
-6.94959021 6.66674614 2.58042598 45 15 31381 9.97000000 2691387709 2691387709 15.00000000
-1.49943352 1.44243312 -0.55749625 4 0 31389 2.15400000 2691387729 2691387729 -15.00000000
-1.74649012 1.68127227 -0.55967820 3 2 31391 2.48800000 2691387734 2691387734 -13.00000000
-2.05475974 1.97872138 -0.55449092 3 4 31392 2.90600000 2691387739 2691387739 -11.00000000
-2.54325700 2.45085311 -0.55940962 3 6 31394 3.57600000 2691387743 2691387743 -9.00000000
-3.18362975 3.07010317 -0.54304981 38 8 31396 4.45600000 2691387748 2691387748 -7.00000000
-4.45235109 4.29508257 -0.54123718 3 10 31397 6.21000000 2691387752 2691387752 -5.00000000
-7.20055676 6.95106840 -0.52451098 4 12 31399 10.02200000 2691387757 2691387757 -3.00000000
-8.04636860 7.77028751 2.58243799 42 13 31400 11.48000000 2691387759 2691387759 13.00000000
-6.91655016 6.68156815 2.57680249 45 15 31401 9.95600000 2691387764 2691387764 15.00000000
-1.48883915 1.44228172 -0.55542564 4 0 31409 2.14600000 2691387785 2691387785 -15.00000000
-1.75180447 1.69820952 -0.56327742 3 2 31411 2.50400000 2691387789 2691387789 -13.00000000
-2.05065894 1.98861527 -0.55525416 3 4 31412 2.91000000 2691387794 2691387794 -11.00000000
-2.52901602 2.45421290 -0.55815816 3 6 31414 3.56800000 2691387798 2691387798 -9.00000000
-3.15865278 3.06736803 -0.54061240 94 8 31416 4.43600000 2691387803 2691387803 -7.00000000
-4.43733120 4.31059790 -0.54123718 3 10 31417 6.21000000 2691387808 2691387808 -5.00000000
-7.18197775 6.98172951 -0.52492964 4 12 31419 10.03000000 2691387812 2691387812 -3.00000000
-8.01640224 7.79560995 2.58153820 42 13 31420 11.47600000 2691387815 2691387815 13.00000000
-6.88626146 6.69893551 2.57421422 45 15 31421 9.94600000 2691387819 2691387819 15.00000000
-1.48517835 1.44881892 -0.55594331 4 0 31429 2.14800000 2691387840 2691387840 -15.00000000
-1.74307704 1.70159161 -0.56237763 3 2 31431 2.50000000 2691387845 2691387845 -13.00000000
-2.04932332 2.00124788 -0.55678064 2 4 31432 2.91800000 2691387849 2691387849 -11.00000000
-2.51478267 2.45750356 -0.55690670 1 6 31434 3.56000000 2691387854 2691387854 -9.00000000
-3.14934564 3.07976294 -0.54085612 100 8 31436 4.43800000 2691387858 2691387858 -7.00000000
-4.43649960 4.33999348 -0.54298025 7 10 31437 6.23000000 2691387863 2691387863 -5.00000000
-7.21750689 7.06543732 -0.52932584 4 12 31439 10.11400000 2691387868 2691387868 -3.00000000
-7.99192572 7.82627201 2.58243799 44 13 31440 11.48000000 2691387870 2691387870 13.00000000
-6.86283588 6.72293234 2.57421422 45 15 31441 9.94600000 2691387874 2691387874 15.00000000
-1.48975897 1.46347106 -0.55956680 4 0 31449 2.16200000 2691387895 2691387895 -15.00000000
-1.73156786 1.70220125 -0.56057805 3 2 31451 2.49200000 2691387900 2691387900 -13.00000000
-2.04652452 2.01251888 -0.55792552 3 4 31452 2.92400000 2691387904 2691387904 -11.00000000
-2.51182079 2.47180891 -0.55815816 1 6 31454 3.56800000 2691387909 2691387909 -9.00000000
-3.12018871 3.07263041 -0.53768754 72 8 31456 4.41200000 2691387914 2691387914 -7.00000000
-4.43267822 4.36663914 -0.54437476 7 10 31457 6.24600000 2691387918 2691387918 -5.00000000
-7.16719770 7.06535006 -0.52744174 4 12 31459 10.07800000 2691387923 2691387923 -3.00000000
-7.95623302 7.84591150 2.57973862 42 13 31460 11.46800000 2691387925 2691387925 13.00000000
-6.83952427 6.74939775 2.57473183 45 15 31462 9.94800000 2691387930 2691387930 15.00000000
-1.48489773 1.46840322 -0.55956680 4 0 31468 2.16200000 2691387951 2691387951 -15.00000000
-1.73422468 1.71615827 -0.56327742 3 2 31470 2.50400000 2691387955 2691387955 -13.00000000
-2.04821110 2.02758145 -0.56021523 2 4 31471 2.93600000 2691387960 2691387960 -11.00000000
-2.50220680 2.47873449 -0.55784529 1 6 31473 3.56600000 2691387964 2691387964 -9.00000000
-3.07050848 3.04382944 -0.53086287 82 8 31475 4.35600000 2691387969 2691387969 -7.00000000
-4.41958857 4.38271713 -0.54454911 3 10 31476 6.24800000 2691387974 2691387974 -5.00000000
-7.16924715 7.11440134 -0.52932584 4 12 31478 10.11400000 2691387978 2691387978 -3.00000000
-7.92463923 7.86676073 2.57793903 42 13 31479 11.46000000 2691387980 2691387980 13.00000000
-6.82376957 6.77629614 2.57680249 45 15 31480 9.95600000 2691387985 2691387985 15.00000000
-1.47702515 1.47085118 -0.55853152 4 0 31488 2.15800000 2691388006 2691388006 -15.00000000
-1.72546279 1.71945035 -0.56237763 3 2 31490 2.50000000 2691388010 2691388010 -13.00000000
-2.02721691 2.02085829 -0.55639905 3 4 31491 2.91600000 2691388015 2691388015 -11.00000000
-2.50612593 2.50000978 -0.56066114 1 6 31493 3.58400000 2691388020 2691388020 -9.00000000
-3.04581594 3.04050446 -0.52842546 70 8 31495 4.33600000 2691388024 2691388024 -7.00000000
-4.40003347 4.39389420 -0.54402614 7 10 31496 6.24200000 2691388029 2691388029 -5.00000000
-7.16697359 7.16197205 -0.53100061 4 12 31498 10.14600000 2691388033 2691388033 -3.00000000
-7.89161825 7.88886404 2.57613945 43 13 31499 11.45200000 2691388036 2691388036 13.00000000
-6.79461050 6.79461050 2.57473183 42 15 31500 9.94800000 2691388040 2691388040 15.00000000
-1.47239709 1.47548413 -0.55853152 4 0 31506 2.15800000 2691388061 2691388061 -15.00000000
-1.73106086 1.73590159 -0.56597686 3 2 31508 2.51600000 2691388066 2691388066 -13.00000000
-2.03471875 2.04112101 -0.56021523 3 4 31509 2.93600000 2691388070 2691388070 -11.00000000
-2.48571229 2.49527526 -0.55784529 1 6 31511 3.56600000 2691388075 2691388075 -9.00000000
-3.02364445 3.03739667 -0.52623183 78 8 31513 4.31800000 2691388079 2691388079 -7.00000000
-4.38620806 4.40769529 -0.54402614 3 10 31514 6.24200000 2691388084 2691388084 -5.00000000
-7.19232130 7.23260355 -0.53455943 4 12 31516 10.21400000 2691388089 2691388089 -3.00000000
-7.86679554 7.91361713 2.57613945 50 13 31517 11.45200000 2691388091 2691388091 13.00000000
-6.76369905 6.80633068 2.57110834 45 15 31518 9.93400000 2691388096 2691388096 15.00000000
-1.46723771 1.48061478 -0.55853152 4 0 31526 2.15800000 2691388116 2691388116 -15.00000000
-1.71950603 1.73639488 -0.56417722 3 2 31528 2.50800000 2691388121 2691388121 -13.00000000
-2.03034377 2.05100155 -0.56097847 3 4 31529 2.94000000 2691388126 2691388126 -11.00000000
-2.48254395 2.50955415 -0.55909675 1 6 31531 3.57400000 2691388130 2691388130 -9.00000000
-3.00883698 3.04369736 -0.52550060 60 8 31533 4.31200000 2691388135 2691388135 -7.00000000
-3.50111771 3.54291844 -0.43577871 6 10 31534 5.00000000 2691388139 2691388139 -5.00000000
-7.19509840 7.28608799 -0.53665292 4 12 31536 10.25400000 2691388144 2691388144 -3.00000000
-7.84186220 7.94380283 2.57703924 47 13 31537 11.45600000 2691388146 2691388146 13.00000000
-6.74142027 6.83382559 2.57214355 45 15 31539 9.93800000 2691388151 2691388151 15.00000000
-1.46206045 1.48572731 -0.55853152 4 0 31546 2.15800000 2691388172 2691388172 -15.00000000
-1.71070158 1.73960757 -0.56327742 3 2 31548 2.50400000 2691388176 2691388176 -13.00000000
-2.02592468 2.06087637 -0.56174171 2 4 31549 2.94400000 2691388181 2691388181 -11.00000000
-2.47792196 2.52243209 -0.56003541 1 6 31551 3.58000000 2691388185 2691388185 -9.00000000
-2.99124098 3.04709864 -0.52428192 56 8 31553 4.30200000 2691388190 2691388190 -7.00000000
-4.36230707 4.44531965 -0.54489768 3 10 31554 6.25200000 2691388195 2691388195 -5.00000000
-7.16962147 7.31115913 -0.53665292 4 12 31556 10.25400000 2691388199 2691388199 -3.00000000
-7.80862856 7.96556139 2.57523966 55 13 31557 11.44800000 2691388202 2691388202 13.00000000
-6.72277784 6.86028290 2.57369661 45 15 31558 9.94400000 2691388206 2691388206 15.00000000
-1.46496665 1.49911189 -0.56163734 4 0 31566 2.17000000 2691388227 2691388227 -15.00000000
-1.69644976 1.73720312 -0.56057805 3 2 31568 2.49200000 2691388231 2691388231 -13.00000000
-2.01323295 2.06231618 -0.56021523 3 4 31569 2.93600000 2691388236 2691388236 -11.00000000
-2.48013687 2.54237819 -0.56253833 1 6 31571 3.59600000 2691388241 2691388241 -9.00000000
-2.96257257 3.03904271 -0.52111334 70 8 31573 4.27600000 2691388245 2691388245 -7.00000000
-4.37874556 4.49333858 -0.54890686 3 10 31574 6.29800000 2691388250 2691388250 -5.00000000
-7.13569689 7.32755566 -0.53602487 4 12 31576 10.24200000 2691388255 2691388255 -3.00000000
-7.77805710 7.98997736 2.57433987 52 13 31577 11.44400000 2691388257 2691388257 13.00000000
-6.70283222 6.88786125 2.57524943 45 15 31578 9.95000000 2691388261 2691388261 15.00000000
-1.45972478 1.50421643 -0.56163734 4 0 31586 2.17000000 2691388282 2691388282 -15.00000000
-1.70394182 1.75710392 -0.56507707 3 2 31588 2.51200000 2691388287 2691388287 -13.00000000
-2.00328875 2.06651187 -0.55945200 2 4 31589 2.93200000 2691388291 2691388291 -11.00000000
-2.47674513 2.55669546 -0.56378978 1 6 31591 3.60400000 2691388296 2691388296 -9.00000000
-2.95608830 3.05364442 -0.52184451 78 8 31593 4.28200000 2691388301 2691388301 -7.00000000
-4.36441946 4.51002789 -0.54908121 3 10 31594 6.30000000 2691388305 2691388305 -5.00000000
-7.11424065 7.35672665 -0.53633887 4 12 31596 10.24800000 2691388310 2691388310 -3.00000000
-7.74876499 8.01567745 2.57388997 49 13 31597 11.44200000 2691388312 2691388312 13.00000000
-6.67217302 6.90682459 2.57317901 45 15 31599 9.94200000 2691388317 2691388317 15.00000000
-1.44910312 1.50373840 -0.55956680 4 0 31606 2.16200000 2691388337 2691388337 -15.00000000
-1.69914985 1.76444471 -0.56552696 4 2 31608 2.51400000 2691388342 2691388342 -13.00000000
-2.00967884 2.08763599 -0.56326813 3 4 31609 2.95200000 2691388347 2691388347 -11.00000000
-2.45274115 2.54966569 -0.56034827 1 6 31611 3.58200000 2691388351 2691388351 -9.00000000
-2.96329546 3.08254838 -0.52501315 82 8 31613 4.30800000 2691388356 2691388356 -7.00000000
-4.34588909 4.52236176 -0.54873258 3 10 31614 6.29600000 2691388361 2691388361 -5.00000000
-7.11341858 7.40744543 -0.53822297 4 12 31616 10.28400000 2691388365 2691388365 -3.00000000
-7.71803904 8.03986549 2.57299018 53 13 31617 11.43800000 2691388367 2691388367 13.00000000
-6.64133596 6.92310190 2.57059073 42 15 31619 9.93200000 2691388372 2691388372 15.00000000
-1.43609321 1.50016248 -0.55646098 4 0 31625 2.15000000 2691388393 2691388393 -15.00000000
-1.67847133 1.75457978 -0.56057805 3 2 31627 2.49200000 2691388397 2691388397 -13.00000000
-1.99188995 2.08293772 -0.56021523 3 4 31628 2.93600000 2691388402 2691388402 -11.00000000
-2.44017839 2.55350089 -0.55940962 1 6 31630 3.57600000 2691388407 2691388407 -9.00000000
-2.94894433 3.08805132 -0.52428192 86 8 31632 4.30200000 2691388411 2691388411 -7.00000000
-4.33362007 4.53963089 -0.54908121 3 10 31633 6.30000000 2691388416 2691388416 -5.00000000
-7.28595686 7.63765097 -0.55319107 12 12 31635 10.57000000 2691388420 2691388420 -3.00000000
-7.69537020 8.06964588 2.57433987 52 13 31636 11.44400000 2691388423 2691388423 13.00000000
-6.62100697 6.94788456 2.57162595 42 15 31638 9.93600000 2691388427 2691388427 15.00000000
-1.44415808 1.51916778 -0.56163734 4 0 31645 2.17000000 2691388448 2691388448 -15.00000000
-1.67770517 1.76607943 -0.56237763 3 2 31647 2.50000000 2691388453 2691388453 -13.00000000
-2.00353384 2.10980868 -0.56555784 3 4 31648 2.96400000 2691388457 2691388457 -11.00000000
-2.45436597 2.58636212 -0.56472844 7 6 31650 3.61000000 2691388462 2691388462 -9.00000000
-2.92995119 3.08968377 -0.52281946 94 8 31652 4.29000000 2691388467 2691388467 -7.00000000
-4.33967876 4.57786560 -0.55187017 7 10 31653 6.33200000 2691388471 2691388471 -5.00000000
-7.28122902 7.68623686 -0.55486584 12 12 31655 10.60200000 2691388476 2691388476 -3.00000000
-7.65509510 8.08372402 2.57029080 51 13 31656 11.42600000 2691388478 2691388478 13.00000000
-6.59405851 6.96814728 2.57059073 45 15 31658 9.93200000 2691388483 2691388483 15.00000000
-1.44149864 1.52700925 -0.56267262 4 0 31665 2.17400000 2691388503 2691388503 -15.00000000
-1.67955351 1.78043020 -0.56507707 3 2 31667 2.51200000 2691388508 2691388508 -13.00000000
-1.98807538 2.10821939 -0.56326813 3 4 31668 2.95200000 2691388513 2691388513 -11.00000000
-2.44125867 2.59060097 -0.56378978 9 6 31670 3.60400000 2691388517 2691388517 -9.00000000
-2.92459202 3.10567307 -0.52379441 94 8 31672 4.29800000 2691388522 2691388522 -7.00000000
-4.32913542 4.59878874 -0.55256742 3 10 31673 6.34000000 2691388526 2691388526 -5.00000000
-7.11613750 7.56467676 -0.54429394 8 12 31675 10.40000000 2691388531 2691388531 -3.00000000
-7.61748648 8.10045910 2.56714153 47 13 31676 11.41200000 2691388533 2691388533 13.00000000
-6.57753086 6.99701357 2.57317901 42 15 31677 9.94200000 2691388538 2691388538 15.00000000
-1.43615961 1.53203166 -0.56267262 4 0 31685 2.17400000 2691388559 2691388559 -15.00000000
-1.67332840 1.78628218 -0.56507707 3 2 31687 2.51200000 2691388563 2691388563 -13.00000000
-1.96460092 2.09794998 -0.55868876 2 4 31688 2.92800000 2691388568 2691388568 -11.00000000
-2.90730357 3.10681224 -0.67391968 15 6 31690 4.30800000 2691388572 2691388572 -9.00000000
-2.92458034 3.12746215 -0.52574432 92 8 31692 4.31400000 2691388577 2691388577 -7.00000000
-4.30489254 4.60513926 -0.55152154 3 10 31693 6.32800000 2691388582 2691388582 -5.00000000
-7.88580322 8.43875408 2.24505854 3 11 31694 11.76600000 2691388584 2691388584 11.00000000
-7.08696127 7.58655167 -0.54408461 8 12 31695 10.39600000 2691388586 2691388586 -3.00000000
-7.58916378 8.12699986 2.56714153 48 13 31696 11.41200000 2691388589 2691388589 13.00000000
-6.54129744 7.00977516 2.56903791 40 15 31698 9.92600000 2691388593 2691388593 15.00000000
-1.42027283 1.52572334 -0.55853152 4 0 31705 2.15800000 2691388614 2691388614 -15.00000000
-1.66973758 1.79496598 -0.56597686 3 2 31707 2.51600000 2691388619 2691388619 -13.00000000
-1.96796119 2.11629653 -0.56174171 2 4 31708 2.94400000 2691388623 2691388623 -11.00000000
-2.43252635 2.61771011 -0.56597990 9 6 31710 3.61800000 2691388628 2691388628 -9.00000000
-2.92445183 3.14928889 -0.52769428 100 8 31712 4.33000000 2691388632 2691388632 -7.00000000
-4.30234623 4.63474035 -0.55326468 3 10 31713 6.34800000 2691388637 2691388637 -5.00000000
-7.84828615 8.45759487 2.24276900 3 11 31714 11.75400000 2691388639 2691388639 11.00000000
-7.04141998 7.59074354 -0.54261917 4 12 31715 10.36800000 2691388642 2691388642 -3.00000000
-7.56207418 8.15487003 2.56759143 51 13 31716 11.41400000 2691388644 2691388644 13.00000000
-6.51276302 7.02576160 2.56696725 42 15 31717 9.91800000 2691388649 2691388649 15.00000000
-1.42280638 1.53918338 -0.56163734 4 0 31725 2.17000000 2691388669 2691388669 -15.00000000
-1.66875100 1.80650938 -0.56777644 3 2 31727 2.52400000 2691388674 2691388674 -13.00000000
-1.96056199 2.12315321 -0.56174171 3 4 31728 2.94400000 2691388678 2691388678 -11.00000000
-2.86946774 3.10961246 -0.67016524 11 6 31730 4.28400000 2691388683 2691388683 -9.00000000
-2.94035506 3.18866467 -0.53256905 100 8 31732 4.37000000 2691388688 2691388688 -7.00000000
-4.28209066 4.64533520 -0.55274171 3 10 31733 6.34200000 2691388692 2691388692 -5.00000000
-6.99728918 7.59617949 -0.54125845 8 12 31735 10.34200000 2691388697 2691388697 -3.00000000
-7.53356218 8.18121719 2.56759143 51 13 31736 11.41400000 2691388699 2691388699 13.00000000
-6.49220085 7.05527115 2.56903791 42 15 31738 9.92600000 2691388704 2691388704 15.00000000
-1.42134416 1.54840994 -0.56319022 4 0 31745 2.17600000 2691388725 2691388725 -15.00000000
-1.65980029 1.80945122 -0.56687665 3 2 31747 2.52000000 2691388729 2691388729 -13.00000000
-1.96906114 2.14734793 -0.56632107 3 4 31748 2.96800000 2691388734 2691388734 -11.00000000
-2.39684296 2.61569524 -0.56191260 7 6 31750 3.59200000 2691388738 2691388738 -9.00000000
-2.92116284 3.19012499 -0.53110659 100 8 31752 4.35800000 2691388743 2691388743 -7.00000000
-4.28871918 4.68523836 -0.55570501 3 10 31753 6.37600000 2691388748 2691388748 -5.00000000
-6.98421144 7.63529587 -0.54230517 8 12 31755 10.36200000 2691388752 2691388752 -3.00000000
-7.50495863 8.20746422 2.56759143 55 13 31756 11.41400000 2691388755 2691388755 13.00000000
-6.46355534 7.07105732 2.56696725 45 15 31757 9.91800000 2691388759 2691388759 15.00000000
-1.41983473 1.55764520 -0.56474316 4 0 31765 2.18200000 2691388780 2691388780 -15.00000000
-1.64822495 1.80947137 -0.56507707 3 2 31767 2.51200000 2691388784 2691388784 -13.00000000
-1.95097911 2.14259505 -0.56326813 3 4 31768 2.95200000 2691388789 2691388789 -11.00000000
-2.38902736 2.62550688 -0.56222546 1 6 31770 3.59400000 2691388794 2691388794 -9.00000000
-2.90466762 3.19442749 -0.53013164 100 8 31772 4.35000000 2691388798 2691388798 -7.00000000
-4.26697779 4.69428301 -0.55500776 3 10 31773 6.36800000 2691388803 2691388803 -5.00000000
-6.96960258 7.67293406 -0.54324722 8 12 31775 10.38000000 2691388807 2691388807 -3.00000000
-7.47102356 8.22784042 2.56579161 56 13 31776 11.40600000 2691388810 2691388810 13.00000000
-6.44278812 7.10042286 2.56903791 40 15 31778 9.92600000 2691388814 2691388814 15.00000000
-1.41384339 1.56308544 -0.56474316 4 0 31787 2.18200000 2691388835 2691388835 -15.00000000
-1.65171885 1.82735217 -0.56867629 3 2 31789 2.52800000 2691388840 2691388840 -13.00000000
-1.94010532 2.14715719 -0.56250495 2 4 31790 2.94800000 2691388844 2691388844 -11.00000000
-2.39216685 2.64932203 -0.56535417 1 6 31792 3.61400000 2691388849 2691388849 -9.00000000
-2.88972092 3.20260930 -0.52964419 100 8 31794 4.34600000 2691388854 2691388854 -7.00000000
-4.25292492 4.71507072 -0.55553073 7 10 31795 6.37400000 2691388858 2691388858 -5.00000000
-6.96549654 7.72782660 -0.54523599 4 12 31797 10.41800000 2691388863 2691388863 -3.00000000
-7.43807125 8.25501823 2.56534171 54 13 31798 11.40400000 2691388865 2691388865 13.00000000
-6.41154861 7.11824751 2.56696725 42 15 31799 9.91800000 2691388870 2691388870 15.00000000
-1.40192401 1.56082499 -0.56215495 4 0 31807 2.17200000 2691388890 2691388890 -15.00000000
-1.64533019 1.83310664 -0.56867629 3 2 31809 2.52800000 2691388895 2691388895 -13.00000000
-1.93522072 2.15683889 -0.56326813 2 4 31810 2.95200000 2691388900 2691388900 -11.00000000
-2.38554192 2.66059780 -0.56597990 1 6 31812 3.61800000 2691388904 2691388904 -9.00000000
-2.87852407 3.21267676 -0.52964419 86 8 31814 4.34600000 2691388909 2691388909 -7.00000000
-4.24707460 4.74176025 -0.55692518 7 10 31815 6.39000000 2691388913 2691388913 -5.00000000
-6.96378708 7.78036976 -0.54722476 4 12 31817 10.45600000 2691388918 2691388918 -3.00000000
-7.40011501 8.27076626 2.56219244 24 13 31818 11.39000000 2691388920 2691388920 13.00000000
-6.37511492 7.13017797 2.56282616 40 15 31820 9.90200000 2691388925 2691388925 15.00000000
-1.40473199 1.57386923 -0.56526077 4 0 31825 2.18400000 2691388946 2691388946 -15.00000000
-1.62659192 1.82372332 -0.56417722 3 2 31827 2.50800000 2691388950 2691388950 -13.00000000
-1.94150054 2.17756176 -0.56708431 3 4 31828 2.97200000 2691388955 2691388955 -11.00000000
-2.36797309 2.65775466 -0.56378978 1 6 31830 3.60400000 2691388960 2691388960 -9.00000000
-2.86577702 3.21873879 -0.52915668 64 8 31832 4.34200000 2691388964 2691388964 -7.00000000
-4.22288465 4.74466133 -0.55570501 7 10 31833 6.37600000 2691388969 2691388969 -5.00000000
-6.93134594 7.79325438 -0.54659671 4 12 31835 10.44400000 2691388973 2691388973 -3.00000000
-6.34599447 7.13762283 2.20497012 15 13 31836 9.80200000 2691388976 2691388976 13.00000000
-6.36419821 7.16061354 2.56696725 42 15 31837 9.91800000 2691388980 2691388980 15.00000000
-1.39410424 1.57298005 -0.56319022 4 0 31845 2.17600000 2691389001 2691389001 -15.00000000
-1.61504793 1.82355475 -0.56237763 3 2 31847 2.50000000 2691389006 2691389006 -13.00000000
-1.93649042 2.18726540 -0.56784755 3 4 31848 2.97600000 2691389010 2691389010 -11.00000000
-2.35082793 2.65712762 -0.56191260 1 6 31850 3.59200000 2691389015 2691389015 -9.00000000
-2.90580273 3.28672361 -0.53866249 24 8 31852 4.42000000 2691389019 2691389019 -7.00000000
-4.22872734 4.78475237 -0.55866832 7 10 31853 6.41000000 2691389024 2691389024 -5.00000000
-6.90013409 7.81291056 -0.54628271 4 12 31855 10.43800000 2691389029 2691389029 -3.00000000
-6.28879738 7.12320948 2.19372272 16 13 31856 9.75200000 2691389031 2691389031 13.00000000
-6.33535433 7.18099403 2.56593204 45 15 31858 9.91400000 2691389036 2691389036 15.00000000
-1.39115763 1.58073723 -0.56422549 4 0 31865 2.18000000 2691389056 2691389056 -15.00000000
-1.61253345 1.83357120 -0.56372732 4 2 31867 2.50600000 2691389061 2691389061 -13.00000000
-1.92625117 2.19106269 -0.56708431 3 4 31868 2.97200000 2691389066 2691389066 -11.00000000
-2.35457587 2.68015766 -0.56504130 1 6 31870 3.61200000 2691389070 2691389070 -9.00000000
-2.89038348 3.29237151 -0.53793126 16 8 31872 4.41400000 2691389075 2691389075 -7.00000000
-4.22908401 4.81895161 -0.56093436 3 10 31873 6.43600000 2691389079 2691389079 -5.00000000
-6.90442514 7.87298775 -0.54879487 4 12 31875 10.48600000 2691389084 2691389084 -3.00000000
-6.22278595 7.09822607 2.17932582 18 13 31876 9.68800000 2691389086 2691389086 13.00000000
-6.28731441 7.17435837 2.55609679 40 15 31877 9.87600000 2691389091 2691389091 15.00000000
-1.38436007 1.58412898 -0.56370789 4 0 31885 2.17800000 2691389112 2691389112 -15.00000000
-1.61637783 1.85093141 -0.56732655 4 2 31887 2.52200000 2691389116 2691389116 -13.00000000
-1.90568006 2.18298340 -0.56326813 3 4 31888 2.95200000 2691389121 2691389121 -11.00000000
-2.34910178 2.69282603 -0.56597990 1 6 31890 3.61800000 2691389125 2691389125 -9.00000000
-2.89191747 3.31740427 -0.54036868 10 8 31892 4.43400000 2691389130 2691389130 -7.00000000
-4.19783831 4.81716204 -0.55901694 3 10 31893 6.41400000 2691389135 2691389135 -5.00000000
-6.90575695 7.93017721 -0.55109763 4 12 31895 10.53000000 2691389139 2691389139 -3.00000000
-6.08281422 6.98761892 2.13883471 49 13 31896 9.50800000 2691389142 2691389142 13.00000000
-6.26603746 7.20063353 2.55764985 38 15 31897 9.88200000 2691389146 2691389146 15.00000000
-1.37530017 1.58433437 -0.56215495 4 0 31904 2.17200000 2691389167 2691389167 -15.00000000
-1.61533880 1.86216962 -0.56912619 4 2 31906 2.53000000 2691389172 2691389172 -13.00000000
-1.91643739 2.21005654 -0.56861079 3 4 31907 2.98000000 2691389176 2691389176 -11.00000000
-2.33757186 2.69761539 -0.56535417 1 6 31909 3.61400000 2691389181 2691389181 -9.00000000
-2.89389539 3.34198260 -0.54280603 12 8 31911 4.45400000 2691389185 2691389185 -7.00000000
-4.20009661 4.85214567 -0.56145728 3 10 31912 6.44200000 2691389190 2691389190 -5.00000000
-6.90555429 7.98324490 -0.55319107 4 12 31914 10.57000000 2691389195 2691389195 -3.00000000
-6.15648127 7.11978149 2.17302728 18 13 31915 9.66000000 2691389197 2691389197 13.00000000
-6.15495491 7.12052822 2.52193284 60 15 31916 9.74400000 2691389201 2691389201 15.00000000
-1.37354529 1.59351528 -0.56370789 4 0 31924 2.17800000 2691389222 2691389222 -15.00000000
-1.59992623 1.85746121 -0.56597686 4 2 31926 2.51600000 2691389227 2691389227 -13.00000000
-1.89333892 2.19887972 -0.56403136 3 4 31927 2.95600000 2691389231 2691389231 -11.00000000
-2.32556438 2.70276380 -0.56472844 1 6 31929 3.61000000 2691389236 2691389236 -9.00000000
-2.88738894 3.35808468 -0.54378098 12 8 31931 4.46200000 2691389241 2691389241 -7.00000000
-4.19222498 4.87735367 -0.56267750 7 10 31932 6.45600000 2691389245 2691389245 -5.00000000
-6.86723471 7.99518061 -0.55235368 4 12 31934 10.55400000 2691389250 2691389250 -3.00000000
-6.12016582 7.12792158 2.16897798 19 13 31935 9.64200000 2691389252 2691389252 13.00000000
-6.22567892 7.25593233 2.56179094 42 15 31937 9.89800000 2691389257 2691389257 15.00000000
-1.37648690 1.60881412 -0.56733137 4 0 31945 2.19200000 2691389278 2691389278 -15.00000000
-1.59184110 1.86183167 -0.56552696 4 2 31947 2.51400000 2691389282 2691389282 -13.00000000
-1.89802253 2.22072864 -0.56784755 3 4 31948 2.97600000 2691389287 2691389287 -11.00000000
-2.32334018 2.72028184 -0.56660563 1 6 31950 3.62200000 2691389291 2691389291 -9.00000000
-2.87119532 3.36411500 -0.54304981 12 8 31952 4.45600000 2691389296 2691389296 -7.00000000
-4.20018339 4.92300034 -0.56616372 7 10 31953 6.49600000 2691389301 2691389301 -5.00000000
-6.03233862 7.07295418 1.80696118 12 11 31954 9.47000000 2691389303 2691389303 11.00000000
-6.84825087 8.03245544 -0.55319107 4 12 31955 10.57000000 2691389305 2691389305 -3.00000000
-6.07503891 7.12805796 2.16222954 20 13 31956 9.61200000 2691389307 2691389307 13.00000000
-6.20281887 7.28056049 2.56282616 45 15 31957 9.90200000 2691389312 2691389312 15.00000000
-1.36961198 1.61213684 -0.56681371 4 0 31965 2.19000000 2691389333 2691389333 -15.00000000
-1.58407128 1.86589122 -0.56507707 4 2 31967 2.51200000 2691389337 2691389337 -13.00000000
-1.88771844 2.22434664 -0.56708431 3 4 31968 2.97200000 2691389342 2691389342 -11.00000000
-2.30616450 2.71933579 -0.56472844 1 6 31970 3.61000000 2691389347 2691389347 -9.00000000
-2.86200166 3.37714577 -0.54353726 12 8 31972 4.46000000 2691389351 2691389351 -7.00000000
-4.17009497 4.92242956 -0.56442058 7 10 31973 6.47600000 2691389356 2691389356 -5.00000000
-6.03045082 7.12093544 1.81383026 18 11 31974 9.50600000 2691389358 2691389358 11.00000000
-6.83823729 8.07765198 -0.55465645 4 12 31975 10.59800000 2691389360 2691389360 -3.00000000
-6.03501368 7.13136959 2.15683079 14 13 31976 9.58800000 2691389363 2691389363 13.00000000
-6.18610096 7.31249237 2.56644964 45 15 31977 9.91600000 2691389367 2691389367 15.00000000
-1.35927474 1.61076415 -0.56474316 4 0 31984 2.18200000 2691389388 2691389388 -15.00000000
-1.58792520 1.88305199 -0.56867629 4 2 31986 2.52800000 2691389393 2691389393 -13.00000000
-1.88286257 2.23359656 -0.56784755 3 4 31987 2.97600000 2691389397 2691389397 -11.00000000
-2.30222464 2.73301148 -0.56597990 1 6 31989 3.61800000 2691389402 2691389402 -9.00000000
-2.85462213 3.39117384 -0.54426849 12 8 31991 4.46600000 2691389406 2691389406 -7.00000000
-4.14092064 4.92098665 -0.56267750 7 10 31992 6.45600000 2691389411 2691389411 -5.00000000
-6.02702427 7.16493225 1.81993616 18 11 31993 9.53800000 2691389413 2691389413 11.00000000
-6.81269884 8.10181332 -0.55476111 4 12 31994 10.60000000 2691389416 2691389416 -3.00000000
-5.99252319 7.12896729 2.15008211 13 13 31995 9.55800000 2691389418 2691389418 13.00000000
-6.15187550 7.32113409 2.56230855 45 15 31996 9.90000000 2691389423 2691389423 15.00000000
-1.35612535 1.61846066 -0.56577843 4 0 32004 2.18600000 2691389443 2691389443 -15.00000000
-1.58134246 1.88858342 -0.56867629 4 2 32006 2.52800000 2691389448 2691389448 -13.00000000
-1.87757468 2.24316621 -0.56861079 3 4 32007 2.98000000 2691389453 2691389453 -11.00000000
-2.27746224 2.72284842 -0.56222546 1 6 32009 3.59400000 2691389457 2691389457 -9.00000000
-2.84785962 3.40721011 -0.54524344 12 8 32011 4.47400000 2691389462 2691389462 -7.00000000
-4.13138247 4.94458485 -0.56372333 7 10 32012 6.46800000 2691389466 2691389466 -5.00000000
-6.01582146 7.20250177 1.82413399 6 11 32013 9.56000000 2691389469 2691389469 11.00000000
-6.79333735 8.13627625 -0.55549383 4 12 32014 10.61400000 2691389471 2691389471 -3.00000000
-5.97259665 7.15582609 2.15188169 11 13 32015 9.56600000 2691389473 2691389473 13.00000000
-6.10025358 7.31396103 2.55195570 38 15 32017 9.86000000 2691389478 2691389478 15.00000000
-1.34799647 1.62021434 -0.56474316 4 0 32024 2.18200000 2691389499 2691389499 -15.00000000
-1.57100284 1.88959634 -0.56732655 4 2 32026 2.52200000 2691389503 2691389503 -13.00000000
-1.86973310 2.24970651 -0.56861079 2 4 32027 2.98000000 2691389508 2691389508 -11.00000000
-2.29192328 2.75965476 -0.56816995 1 6 32029 3.63200000 2691389512 2691389512 -9.00000000
-2.84101987 3.42324042 -0.54621840 12 8 32031 4.48200000 2691389517 2691389517 -7.00000000
-4.12681913 4.97430944 -0.56546646 3 10 32032 6.48800000 2691389522 2691389522 -5.00000000
-6.01696205 7.25519180 1.83214796 12 11 32033 9.60200000 2691389524 2691389524 11.00000000
-6.76489496 8.15993977 -0.55549383 4 12 32034 10.61400000 2691389526 2691389526 -3.00000000
-5.99607754 7.23514843 2.16942787 9 13 32035 9.64400000 2691389529 2691389529 13.00000000
-6.05994415 7.31481075 2.54522657 42 15 32036 9.83400000 2691389533 2691389533 15.00000000
-1.34848452 1.63235676 -0.56733137 4 0 32044 2.19200000 2691389554 2691389554 -15.00000000
-1.56315684 1.89356589 -0.56687665 4 2 32046 2.52000000 2691389558 2691389558 -13.00000000
-1.85936964 2.25319099 -0.56784755 2 4 32047 2.97600000 2691389563 2691389563 -11.00000000
-2.28856015 2.77525854 -0.56973433 1 6 32049 3.64200000 2691389568 2691389568 -9.00000000
-2.83031559 3.43466854 -0.54646212 14 8 32051 4.48400000 2691389572 2691389572 -7.00000000
-4.12209797 5.00406265 -0.56720960 4 10 32052 6.50800000 2691389577 2691389577 -5.00000000
-6.75033283 8.20046616 -0.55664521 8 12 32054 10.63600000 2691389582 2691389582 -3.00000000
-7.02947950 8.54261875 2.55409431 37 13 32055 11.35400000 2691389584 2691389584 13.00000000
-6.06996393 7.37918568 2.56023788 40 15 32056 9.89200000 2691389588 2691389588 15.00000000
-1.34890413 1.64452219 -0.56991953 4 0 32064 2.20200000 2691389609 2691389609 -15.00000000
-1.56024349 1.90353227 -0.56822634 4 2 32066 2.52600000 2691389614 2691389614 -13.00000000
-1.84651613 2.25359321 -0.56632107 3 4 32067 2.96800000 2691389618 2691389618 -11.00000000
-2.26759577 2.76947451 -0.56691849 1 6 32069 3.62400000 2691389623 2691389623 -9.00000000
-2.81328106 3.43838191 -0.54548717 16 8 32071 4.47600000 2691389628 2691389628 -7.00000000
-4.10838985 5.02304792 -0.56773251 4 10 32072 6.51400000 2691389632 2691389632 -5.00000000
-6.74062586 8.24717617 -0.55821532 8 12 32074 10.66600000 2691389637 2691389637 -3.00000000
-6.98358870 8.54748631 2.54824543 43 13 32075 11.32800000 2691389639 2691389639 13.00000000
-6.04409885 7.40288019 2.56075573 42 15 32077 9.89400000 2691389644 2691389644 15.00000000
-1.34071565 1.64622486 -0.56888425 5 0 32084 2.19800000 2691389664 2691389664 -15.00000000
-1.55604959 1.91198981 -0.56912619 4 2 32086 2.53000000 2691389669 2691389669 -13.00000000
-1.84607220 2.26916265 -0.56861079 3 4 32087 2.98000000 2691389674 2691389674 -11.00000000
-2.26165295 2.78197122 -0.56785709 1 6 32089 3.63000000 2691389678 2691389678 -9.00000000
-2.80251336 3.44972181 -0.54573095 18 8 32091 4.47800000 2691389683 2691389683 -7.00000000
-4.09711123 5.04509115 -0.56860405 4 10 32092 6.52400000 2691389688 2691389688 -5.00000000
-6.72941637 8.29236698 -0.55968070 8 12 32094 10.69400000 2691389692 2691389692 -3.00000000
-6.96107626 8.58089161 2.55094504 57 13 32095 11.34000000 2691389694 2691389694 13.00000000
-6.01822138 7.42393303 2.56075573 42 15 32097 9.89400000 2691389699 2691389699 15.00000000
-1.32402873 1.63737524 -0.56422549 5 0 32104 2.18000000 2691389720 2691389720 -15.00000000
-1.55549002 1.92498851 -0.57137567 4 2 32106 2.54000000 2691389724 2691389724 -13.00000000
-1.83814001 2.27559280 -0.56861079 2 4 32107 2.98000000 2691389729 2691389729 -11.00000000
-2.25689125 2.79599738 -0.56910861 1 6 32109 3.63800000 2691389734 2691389734 -9.00000000
-2.79917860 3.47029924 -0.54743707 16 8 32111 4.49200000 2691389738 2691389738 -7.00000000
-4.07822514 5.05781126 -0.56842977 4 10 32112 6.52200000 2691389743 2691389743 -5.00000000
-6.70794868 8.32513809 -0.56030875 4 12 32114 10.70600000 2691389747 2691389747 -3.00000000
-6.93719292 8.61272621 2.55319452 57 13 32115 11.35000000 2691389750 2691389750 13.00000000
-5.98621368 7.43737030 2.55816746 40 15 32117 9.88400000 2691389754 2691389754 15.00000000
-1.32314289 1.64801264 -0.56629604 5 0 32124 2.18800000 2691389775 2691389775 -15.00000000
-1.54754162 1.92888641 -0.57092577 4 2 32126 2.53800000 2691389780 2691389780 -13.00000000
-1.84001207 2.29424763 -0.57166374 2 4 32127 2.99600000 2691389784 2691389784 -11.00000000
-2.24094081 2.79615116 -0.56754422 1 6 32129 3.62800000 2691389789 2691389789 -9.00000000
-2.79821587 3.49399400 -0.54963076 18 8 32131 4.51000000 2691389794 2691389794 -7.00000000
-4.07922268 5.09534645 -0.57104445 4 10 32132 6.55200000 2691389798 2691389798 -5.00000000
-6.70380116 8.37969398 -0.56240219 4 12 32134 10.74600000 2691389803 2691389803 -3.00000000
-6.90952110 8.63993263 2.55409431 59 13 32135 11.35400000 2691389805 2691389805 13.00000000
-5.96383429 7.46274853 2.55972028 42 15 32137 9.89000000 2691389810 2691389810 15.00000000
-1.32099485 1.65715301 -0.56784898 5 0 32144 2.19400000 2691389830 2691389830 -15.00000000
-1.53108561 1.92208254 -0.56732655 4 2 32146 2.52200000 2691389835 2691389835 -13.00000000
-1.82954657 2.29758477 -0.57090050 3 4 32147 2.99200000 2691389840 2691389840 -11.00000000
-2.23977661 2.81477666 -0.56973433 1 6 32149 3.64200000 2691389844 2691389844 -9.00000000
-2.78847361 3.50684786 -0.55011821 18 8 32151 4.51400000 2691389849 2691389849 -7.00000000
-4.07132959 5.12203217 -0.57243890 4 10 32152 6.56800000 2691389853 2691389853 -5.00000000
-6.66581392 8.39209557 -0.56166947 4 12 32154 10.73200000 2691389858 2691389858 -3.00000000
-6.86962557 8.65178967 2.55049515 57 13 32155 11.33800000 2691389860 2691389860 13.00000000
-5.94145584 7.48551035 2.56075573 42 15 32156 9.89400000 2691389865 2691389865 15.00000000
-1.31160545 1.65720963 -0.56629604 4 0 32164 2.18800000 2691389886 2691389886 -15.00000000
-1.53766441 1.94422865 -0.57227546 4 2 32166 2.54400000 2691389890 2691389890 -13.00000000
-1.82638562 2.31011748 -0.57242697 4 4 32167 3.00000000 2691389895 2691389895 -11.00000000
-2.24340773 2.83962798 -0.57317591 1 6 32169 3.66400000 2691389899 2691389899 -9.00000000
-2.78851581 3.53214073 -0.55255562 12 8 32171 4.53400000 2691389904 2691389904 -7.00000000
-4.04355145 5.12370014 -0.57104445 4 10 32172 6.55200000 2691389909 2691389909 -5.00000000
-6.65008402 8.43256378 -0.56282085 4 12 32174 10.75400000 2691389913 2691389913 -3.00000000
-6.82731867 8.66041279 2.54599595 57 13 32175 11.31800000 2691389916 2691389916 13.00000000
-5.91517591 7.50875425 2.56127334 45 15 32177 9.89600000 2691389920 2691389920 15.00000000
-1.29716921 1.65137136 -0.56267262 4 0 32185 2.17400000 2691389941 2691389941 -15.00000000
-1.53654432 1.95751595 -0.57452500 4 2 32187 2.55400000 2691389946 2691389946 -13.00000000
-1.80578697 2.30135059 -0.56861079 2 4 32188 2.98000000 2691389950 2691389950 -11.00000000
-2.23054719 2.84472227 -0.57255012 1 6 32190 3.66000000 2691389955 2691389955 -9.00000000
-2.76942945 3.53452468 -0.55133688 16 8 32192 4.52400000 2691389959 2691389959 -7.00000000
-4.02597332 5.14005470 -0.57121873 4 10 32193 6.55400000 2691389964 2691389964 -5.00000000
-6.63144255 8.47260857 -0.56386757 4 12 32195 10.77400000 2691389969 2691389969 -3.00000000
-6.80273581 8.69458675 2.54869556 59 13 32196 11.33000000 2691389971 2691389971 13.00000000
-5.88773918 7.52783442 2.56075573 40 15 32197 9.89400000 2691389976 2691389976 15.00000000
-1.29258502 1.65741265 -0.56319022 4 0 32205 2.17600000 2691389996 2691389996 -15.00000000
-1.52730620 1.95979333 -0.57362521 4 2 32207 2.55000000 2691390001 2691390001 -13.00000000
-1.80256891 2.31383514 -0.57013726 3 4 32208 2.98800000 2691390005 2691390005 -11.00000000
-2.21696329 2.84781480 -0.57161152 1 6 32210 3.65400000 2691390010 2691390010 -9.00000000
-2.76438808 3.55357122 -0.55279934 14 8 32212 4.53600000 2691390015 2691390015 -7.00000000
-4.00800705 5.15407658 -0.57121873 8 10 32213 6.55400000 2691390019 2691390019 -5.00000000
-6.61898422 8.51778412 -0.56533301 4 12 32215 10.80200000 2691390024 2691390024 -3.00000000
-6.77712679 8.72443581 2.55049515 59 13 32216 11.33800000 2691390026 2691390026 13.00000000
-5.85063219 7.53715515 2.55661464 42 15 32218 9.87800000 2691390031 2691390031 15.00000000
-1.28826475 1.66321719 -0.56370789 3 0 32224 2.17800000 2691390052 2691390052 -15.00000000
-1.51602769 1.95868301 -0.57182556 4 2 32226 2.54200000 2691390056 2691390056 -13.00000000
-1.79728889 2.32290530 -0.57090050 3 4 32227 2.99200000 2691390061 2691390061 -11.00000000
-2.20992398 2.85827637 -0.57223725 1 6 32229 3.65800000 2691390065 2691390065 -9.00000000
-2.75258875 3.56271863 -0.55279934 16 8 32231 4.53600000 2691390070 2691390070 -7.00000000
-3.99332905 5.17049313 -0.57156736 4 10 32232 6.55800000 2691390075 2691390075 -5.00000000
-6.60778570 8.56182289 -0.56679839 4 12 32234 10.83000000 2691390079 2691390079 -3.00000000
-6.74815798 8.74686146 2.55049515 59 13 32235 11.33800000 2691390082 2691390082 13.00000000
-5.82928419 7.55855799 2.55764985 40 15 32236 9.88200000 2691390086 2691390086 15.00000000
-1.28598404 1.67229819 -0.56526077 4 0 32244 2.18400000 2691390107 2691390107 -15.00000000
-1.50680661 1.96087265 -0.57092577 4 2 32246 2.53800000 2691390111 2691390111 -13.00000000
-1.79395330 2.33539271 -0.57242697 4 4 32247 3.00000000 2691390116 2691390116 -11.00000000
-2.18790531 2.85030341 -0.56910861 1 6 32249 3.63800000 2691390121 2691390121 -9.00000000
-2.73651123 3.56757998 -0.55206811 18 8 32251 4.53000000 2691390125 2691390125 -7.00000000
-3.98010564 5.19072533 -0.57226461 4 10 32252 6.56600000 2691390130 2691390130 -5.00000000
-6.55842304 8.55947018 -0.56512368 4 12 32254 10.79800000 2691390134 2691390134 -3.00000000
-6.71047497 8.76108074 2.54779553 60 13 32255 11.32600000 2691390137 2691390137 13.00000000
-5.80388975 7.58294058 2.55868506 42 15 32257 9.88600000 2691390141 2691390141 15.00000000
-1.28482795 1.68291891 -0.56733137 4 0 32264 2.19200000 2691390162 2691390162 -15.00000000
-1.50231671 1.96921909 -0.57182556 4 2 32266 2.54200000 2691390167 2691390167 -13.00000000
-1.78340936 2.33851838 -0.57166374 2 4 32267 2.99600000 2691390171 2691390171 -11.00000000
-2.18033719 2.86106563 -0.56973433 1 6 32269 3.64200000 2691390176 2691390176 -9.00000000
-2.72524405 3.57868981 -0.55231184 18 8 32271 4.53200000 2691390181 2691390181 -7.00000000
-3.97644401 5.22361040 -0.57435632 4 10 32272 6.59000000 2691390185 2691390185 -5.00000000
-6.56236315 8.62681961 -0.56805450 4 12 32274 10.85400000 2691390190 2691390190 -3.00000000
-6.67277479 8.77514458 2.54509616 59 13 32275 11.31400000 2691390192 2691390192 13.00000000
-5.77403545 7.59599352 2.55661464 42 15 32276 9.87800000 2691390197 2691390197 15.00000000
-1.27894568 1.68739355 -0.56733137 4 0 32284 2.19200000 2691390217 2691390217 -15.00000000
-1.49543369 1.97445118 -0.57182556 4 2 32286 2.54200000 2691390222 2691390222 -13.00000000
-1.77286541 2.34159875 -0.57090050 3 4 32287 2.99200000 2691390227 2691390227 -11.00000000
-2.18106341 2.88283682 -0.57255012 1 6 32289 3.66000000 2691390231 2691390231 -9.00000000
-2.72470689 3.60401559 -0.55474925 18 8 32291 4.55200000 2691390236 2691390236 -7.00000000
-3.96178985 5.24222755 -0.57487929 4 10 32292 6.59600000 2691390240 2691390240 -5.00000000
-6.53220987 8.64967442 -0.56805450 4 12 32294 10.85400000 2691390245 2691390245 -3.00000000
-6.64210320 8.79838276 2.54509616 59 13 32295 11.31400000 2691390247 2691390247 13.00000000
-5.74848318 7.62019014 2.55764985 45 15 32297 9.88200000 2691390252 2691390252 15.00000000
-1.27450490 1.69316888 -0.56784898 4 0 32303 2.19400000 2691390273 2691390273 -15.00000000
-1.49122083 1.98251414 -0.57272536 4 2 32305 2.54600000 2691390277 2691390277 -13.00000000
-1.76509058 2.34746504 -0.57090050 3 4 32306 2.99200000 2691390282 2691390282 -11.00000000
-2.17979789 2.90110850 -0.57474023 1 6 32308 3.67400000 2691390287 2691390287 -9.00000000
-2.72227573 3.62573099 -0.55669916 16 8 32310 4.56800000 2691390291 2691390291 -7.00000000
-3.94677615 5.25852346 -0.57522792 4 10 32311 6.60000000 2691390296 2691390296 -5.00000000
-6.53344965 8.71123314 -0.57067126 4 12 32313 10.90400000 2691390300 2691390300 -3.00000000
-6.61756611 8.82659721 2.54689574 57 13 32314 11.32200000 2691390303 2691390303 13.00000000
-5.71872234 7.63048220 2.55506158 42 15 32315 9.87200000 2691390307 2691390307 15.00000000
-1.27321255 1.70379746 -0.56991953 4 0 32323 2.20200000 2691390328 2691390328 -15.00000000
-1.48895538 1.99395311 -0.57452500 4 2 32325 2.55400000 2691390333 2691390333 -13.00000000
-1.75688565 2.35361195 -0.57090050 2 4 32326 2.99200000 2691390337 2691390337 -11.00000000
-2.15076041 2.88336539 -0.56973433 1 6 32328 3.64200000 2691390342 2691390342 -9.00000000
-2.71434832 3.64157772 -0.55767411 16 8 32330 4.57600000 2691390346 2691390346 -7.00000000
-3.92125392 5.26268244 -0.57418203 4 10 32331 6.58800000 2691390351 2691390351 -5.00000000
-6.51373672 8.74840450 -0.57161331 4 12 32333 10.92200000 2691390356 2691390356 -3.00000000
-6.59369612 8.85902309 2.54959536 57 13 32334 11.33400000 2691390358 2691390358 13.00000000
-5.68725824 7.64674091 2.55350876 40 15 32336 9.86600000 2691390363 2691390363 15.00000000
-1.26265335 1.70202529 -0.56784898 4 0 32343 2.19400000 2691390383 2691390383 -15.00000000
-1.46805990 1.98035240 -0.56912619 4 2 32345 2.53000000 2691390388 2691390388 -13.00000000
-1.76268601 2.37865853 -0.57547992 4 4 32346 3.01600000 2691390393 2691390393 -11.00000000
-2.14303374 2.89403057 -0.57036006 1 6 32348 3.64600000 2691390397 2691390397 -9.00000000
-2.69571638 3.64305162 -0.55645543 18 8 32350 4.56600000 2691390402 2691390402 -7.00000000
-3.90996885 5.28594875 -0.57522792 4 10 32351 6.60000000 2691390406 2691390406 -5.00000000
-6.49265671 8.78393745 -0.57245070 4 12 32353 10.93800000 2691390411 2691390411 -3.00000000
-6.56041622 8.87885094 2.54869556 56 13 32354 11.33000000 2691390413 2691390413 13.00000000
-5.66760826 7.67332792 2.55609679 40 15 32355 9.87600000 2691390418 2691390418 15.00000000
-1.25899565 1.70953345 -0.56888425 4 0 32363 2.19800000 2691390439 2691390439 -15.00000000
-1.46922350 1.99645162 -0.57227546 4 2 32365 2.54400000 2691390443 2691390443 -13.00000000
