# .PCD v0.7 - Point Cloud Data file format
VERSION 0.7
FIELDS x y z intensity laser_id azimuth distance_m adjustedtime timestamp vertical_angle
SIZE 4 4 4 1 1 2 8 8 4 8
TYPE F F F U U U F U U F
COUNT 1 1 1 1 1 1 1 1 1 1
WIDTH 534
HEIGHT 1
VIEWPOINT 0 0 0 1 0 0 0
POINTS 534
DATA ascii
1.15926099 3.94391322 -0.65108025 2 6 1638 4.16200000 2688104870 2688104870 -9.00000000
3.26450443 11.09898663 1.42050910 29 7 1639 11.65600000 2688104872 2688104872 7.00000000
1.55475450 5.28260231 -0.67613113 2 8 1640 5.54800000 2688104875 2688104875 -7.00000000
3.27526283 11.12122154 1.83622777 25 9 1641 11.73800000 2688104877 2688104877 9.00000000
2.32464361 7.89337492 -0.71990645 4 10 1641 8.26000000 2688104879 2688104879 -5.00000000
2.83198881 9.60988712 1.94739664 18 11 1642 10.20600000 2688104882 2688104882 11.00000000
3.20813632 10.87927723 -0.59443182 4 12 1643 11.35800000 2688104884 2688104884 -3.00000000
2.88828468 9.78831482 2.35613728 57 13 1644 10.47400000 2688104886 2688104886 13.00000000
3.21471906 10.88759041 -0.19815463 6 14 1645 11.35400000 2688104889 2688104889 -1.00000000
2.49879980 8.45748425 2.36301780 42 15 1646 9.13000000 2688104891 2688104891 15.00000000
0.64490408 2.17437220 -0.60770714 4 0 1652 2.34800000 2688104912 2688104912 -15.00000000
3.23503852 10.90034485 0.19846876 6 1 1653 11.37200000 2688104914 2688104914 1.00000000
0.76670098 2.58171916 -0.62176472 3 2 1654 2.76400000 2688104916 2688104916 -13.00000000
3.23868299 10.90564632 0.59621119 28 3 1654 11.39200000 2688104919 2688104919 3.00000000
0.92609626 3.11645913 -0.63195938 2 4 1655 3.31200000 2688104921 2688104921 -11.00000000
3.24310184 10.90657425 0.99549288 8 5 1656 11.42200000 2688104923 2688104923 5.00000000
1.16331959 3.90975380 -0.64607435 2 6 1657 4.13000000 2688104925 2688104925 -9.00000000
3.25710869 10.93970013 1.40149748 29 7 1658 11.50000000 2688104928 2688104928 7.00000000
1.56092799 5.23936844 -0.67125636 2 8 1659 5.50800000 2688104930 2688104930 -7.00000000
3.26359057 10.94749737 1.80932105 25 9 1660 11.56600000 2688104932 2688104932 9.00000000
2.35194468 7.88944149 -0.72025508 4 10 1660 8.26400000 2688104935 2688104935 -5.00000000
2.86271834 9.59667969 1.94663334 15 11 1661 10.20200000 2688104937 2688104937 11.00000000
3.19506717 10.70399094 -0.58543003 4 12 1662 11.18600000 2688104939 2688104939 -3.00000000
2.92072797 9.77868271 2.35613728 56 13 1663 10.47400000 2688104942 2688104942 13.00000000
3.20900416 10.73700619 -0.19560657 6 14 1664 11.20800000 2688104944 2688104944 -1.00000000
2.52757025 8.45699692 2.36508846 42 15 1664 9.13800000 2688104946 2688104946 15.00000000
0.65249014 2.17210793 -0.60770714 4 0 1672 2.34800000 2688104967 2688104967 -15.00000000
3.21895814 10.70897102 0.19518772 10 1 1673 11.18400000 2688104969 2688104969 1.00000000
0.77346307 2.57156253 -0.61996508 3 2 1674 2.75600000 2688104971 2688104971 -13.00000000
3.23588705 10.75847912 0.58877951 28 3 1674 11.25000000 2688104974 2688104974 3.00000000
0.93357426 3.10192776 -0.62966967 2 4 1675 3.30000000 2688104976 2688104976 -11.00000000
3.24208498 10.76546001 0.98363972 20 5 1676 11.28600000 2688104978 2688104978 5.00000000
1.17468023 3.89810395 -0.64482284 2 6 1677 4.12200000 2688104981 2688104981 -9.00000000
3.25172067 10.78382111 1.38297331 27 7 1678 11.34800000 2688104983 2688104983 7.00000000
1.58838201 5.26429558 -0.67515618 2 8 1679 5.54000000 2688104985 2688104985 -7.00000000
3.26524401 10.81501007 1.78929746 28 9 1680 11.43800000 2688104988 2688104988 9.00000000
2.37486267 7.86592484 -0.71886057 4 10 1680 8.24800000 2688104990 2688104990 -5.00000000
2.90301299 9.60918140 1.95121276 12 11 1681 10.22600000 2688104992 2688104992 11.00000000
3.19946909 10.58379936 -0.57946372 8 12 1682 11.07200000 2688104995 2688104995 -3.00000000
2.95258737 9.76096725 2.35433769 57 13 1683 10.46600000 2688104997 2688104997 13.00000000
3.20301533 10.58219337 -0.19298871 6 14 1684 11.05800000 2688104999 2688104999 -1.00000000
2.55483675 8.44072628 2.36301780 42 15 1684 9.13000000 2688105001 2688105001 15.00000000
0.66175497 2.17536163 -0.60926002 4 0 1692 2.35400000 2688105022 2688105022 -15.00000000
3.22778630 10.60393143 0.19347738 10 1 1693 11.08600000 2688105024 2688105024 1.00000000
0.78357035 2.57257533 -0.62086493 3 2 1694 2.76000000 2688105027 2688105027 -13.00000000
3.24327207 10.64146900 0.58302253 15 3 1695 11.14000000 2688105029 2688105029 3.00000000
0.93867272 3.07987022 -0.62585348 2 4 1695 3.28000000 2688105031 2688105031 -11.00000000
3.25232792 10.66450787 0.97544706 16 5 1696 11.19200000 2688105034 2688105034 5.00000000
1.19173932 3.90531588 -0.64670008 2 6 1697 4.13400000 2688105036 2688105036 -9.00000000
3.25745869 10.66798401 1.36956763 19 7 1698 11.23800000 2688105038 2688105038 7.00000000
3.23901868 10.60097027 -1.36103678 4 8 1699 11.16800000 2688105041 2688105041 -7.00000000
3.26472545 10.68510532 1.76958668 21 9 1699 11.31200000 2688105043 2688105043 9.00000000
3.24054933 10.59935856 -0.96969479 4 10 1700 11.12600000 2688105045 2688105045 -5.00000000
2.94170642 9.61588573 1.95464730 12 11 1701 10.24400000 2688105048 2688105048 11.00000000
3.23990154 10.58402538 -0.58009171 17 12 1702 11.08400000 2688105050 2688105050 -3.00000000
2.98549986 9.74687481 2.35343790 57 13 1703 10.46200000 2688105052 2688105052 13.00000000
3.24989653 10.60345078 -0.19358209 23 14 1704 11.09200000 2688105054 2688105054 -1.00000000
2.58802199 8.43869305 2.36508846 45 15 1705 9.13800000 2688105057 2688105057 15.00000000
0.66650093 2.16380715 -0.60667187 4 0 1712 2.34400000 2688105077 2688105077 -15.00000000
3.26831532 10.60406590 0.19368681 27 1 1713 11.09800000 2688105080 2688105080 1.00000000
0.79254556 2.56982446 -0.62086493 3 2 1714 2.76000000 2688105082 2688105082 -13.00000000
3.27677679 10.62493038 0.58270854 10 3 1714 11.13400000 2688105084 2688105084 3.00000000
0.95173341 3.08407879 -0.62737995 2 4 1715 3.28800000 2688105087 2688105087 -11.00000000
3.28248000 10.63024616 0.97335535 12 5 1716 11.16800000 2688105089 2688105089 5.00000000
1.20886302 3.91245627 -0.64857727 2 6 1717 4.14600000 2688105091 2688105091 -9.00000000
3.28998637 10.64137650 1.36761773 10 7 1718 11.22200000 2688105094 2688105094 7.00000000
1.61512125 5.22083902 -0.67101258 2 8 1719 5.50600000 2688105096 2688105096 -7.00000000
3.29101539 10.63155270 1.76270354 12 9 1720 11.26800000 2688105098 2688105098 9.00000000
2.42736220 7.84154034 -0.71816331 4 10 1720 8.24000000 2688105101 2688105101 -5.00000000
2.98687172 9.64306545 1.96227968 12 11 1721 10.28400000 2688105103 2688105103 11.00000000
3.29160857 10.62034416 -0.58270854 12 12 1722 11.13400000 2688105105 2688105105 -3.00000000
3.01950479 9.73639393 2.35343790 62 13 1723 10.46200000 2688105107 2688105107 13.00000000
3.29103827 10.60541058 -0.19382642 8 14 1724 11.10600000 2688105110 2688105110 -1.00000000
2.61631703 8.42591763 2.36405325 42 15 1725 9.13400000 2688105112 2688105112 15.00000000
0.67329544 2.16170263 -0.60667187 4 0 1730 2.34400000 2688105133 2688105133 -15.00000000
3.31113267 10.62429142 0.19424528 10 1 1731 11.13000000 2688105135 2688105135 1.00000000
0.80525625 2.58220506 -0.62446415 3 2 1732 2.77600000 2688105137 2688105137 -13.00000000
3.31489658 10.62983704 0.58354592 10 3 1732 11.15000000 2688105140 2688105140 3.00000000
0.96726567 3.09981489 -0.63119614 2 4 1733 3.30800000 2688105142 2688105142 -11.00000000
3.31467223 10.61607742 0.97300673 12 5 1734 11.16400000 2688105144 2688105144 5.00000000
1.21997023 3.90486813 -0.64795154 2 6 1735 4.14200000 2688105147 2688105147 -9.00000000
3.32873154 10.64804077 1.36981142 12 7 1736 11.24000000 2688105149 2688105149 7.00000000
1.63447809 5.22521210 -0.67223132 2 8 1737 5.51600000 2688105151 2688105151 -7.00000000
3.32549405 10.63116837 1.76426792 12 9 1737 11.27800000 2688105154 2688105154 9.00000000
2.44722390 7.81866455 -0.71676880 4 10 1738 8.22400000 2688105156 2688105156 -5.00000000
3.03710175 9.69733429 1.97525477 12 11 1739 10.35200000 2688105158 2688105158 11.00000000
3.32854080 10.62138653 -0.58333659 12 12 1740 11.14600000 2688105160 2688105160 -3.00000000
3.05124378 9.73057842 2.35433769 56 13 1741 10.46600000 2688105163 2688105163 13.00000000
3.32853031 10.60837555 -0.19407076 10 14 1742 11.12000000 2688105165 2688105165 -1.00000000
2.63814569 8.40291214 2.35991216 42 15 1743 9.11800000 2688105167 2688105167 15.00000000
0.68199891 2.16302419 -0.60770714 4 0 1750 2.34800000 2688105188 2688105188 -15.00000000
3.34218168 10.59359837 0.19389623 13 1 1751 11.11000000 2688105190 2688105190 1.00000000
0.80957174 2.56451178 -0.62086493 3 2 1752 2.76000000 2688105193 2688105193 -13.00000000
3.35558891 10.62962914 0.58417392 13 3 1752 11.16200000 2688105195 2688105195 3.00000000
0.97571474 3.08893132 -0.62966967 2 4 1753 3.30000000 2688105197 2688105197 -11.00000000
3.35471129 10.61394119 0.97387826 12 5 1754 11.17400000 2688105200 2688105200 5.00000000
1.23001945 3.88928533 -0.64607435 2 6 1755 4.13000000 2688105202 2688105202 -9.00000000
3.36587977 10.63635635 1.36981142 12 7 1756 11.24000000 2688105204 2688105204 7.00000000
1.65210831 5.21758270 -0.67198753 2 8 1757 5.51400000 2688105207 2688105207 -7.00000000
3.37033534 10.64397717 1.76833522 12 9 1757 11.30400000 2688105209 2688105209 9.00000000
2.47690845 7.81767178 -0.71746606 4 10 1758 8.23200000 2688105211 2688105211 -5.00000000
3.15162230 9.94119167 2.02715468 43 11 1759 10.62400000 2688105213 2688105213 11.00000000
3.36499214 10.60779953 -0.58323193 12 12 1760 11.14400000 2688105216 2688105216 -3.00000000
3.08637023 9.72358322 2.35523748 60 13 1761 10.47000000 2688105218 2688105218 13.00000000
3.37159348 10.61575031 -0.19441980 10 14 1762 11.14000000 2688105220 2688105220 -1.00000000
2.66863132 8.39733410 2.36094737 40 15 1763 9.12200000 2688105223 2688105223 15.00000000
0.69382721 2.17143083 -0.61081296 4 0 1772 2.36000000 2688105243 2688105243 -15.00000000
3.39257693 10.61116314 0.19445471 13 1 1773 11.14200000 2688105246 2688105246 1.00000000
0.81941277 2.56138420 -0.62086493 3 2 1774 2.76000000 2688105248 2688105248 -13.00000000
3.40063882 10.62998199 0.58490664 13 3 1774 11.17600000 2688105250 2688105250 3.00000000
0.98756820 3.08516216 -0.62966967 2 4 1775 3.30000000 2688105253 2688105253 -11.00000000
3.39847970 10.61046886 0.97474980 12 5 1776 11.18400000 2688105255 2688105255 5.00000000
1.24554694 3.88641477 -0.64638722 2 6 1777 4.13200000 2688105257 2688105257 -9.00000000
3.40912032 10.63091469 1.37078643 10 7 1778 11.24800000 2688105259 2688105259 7.00000000
1.67213023 5.21120024 -0.67198753 2 8 1779 5.51400000 2688105262 2688105262 -7.00000000
3.41540504 10.64412403 1.77052522 12 9 1779 11.31800000 2688105264 2688105264 9.00000000
3.41563129 10.63844585 -0.97753882 4 10 1780 11.21600000 2688105266 2688105266 -5.00000000
3.20057917 9.96266270 2.03402400 40 11 1781 10.66000000 2688105269 2688105269 11.00000000
3.40630937 10.59670162 -0.58333659 12 12 1782 11.14600000 2688105271 2688105271 -3.00000000
3.11890984 9.69682026 2.35163832 57 13 1783 10.45400000 2688105273 2688105273 13.00000000
3.41906881 10.62366486 -0.19480376 8 14 1784 11.16200000 2688105276 2688105276 -1.00000000
2.69879937 8.38565731 2.36042976 40 15 1784 9.12000000 2688105278 2688105278 15.00000000
0.70021385 2.16531920 -0.60977769 4 0 1792 2.35600000 2688105299 2688105299 -15.00000000
3.43390536 10.61257362 0.19469905 13 1 1793 11.15600000 2688105301 2688105301 1.00000000
0.82834864 2.55850840 -0.62086493 3 2 1794 2.76000000 2688105303 2688105303 -13.00000000
3.43895411 10.62184715 0.58511597 13 3 1794 11.18000000 2688105306 2688105306 3.00000000
0.99833137 3.08169603 -0.62966967 2 4 1795 3.30000000 2688105308 2688105308 -11.00000000
3.44225430 10.61938953 0.97666723 16 5 1796 11.20600000 2688105310 2688105310 5.00000000
1.25362051 3.86513233 -0.64357138 2 6 1797 4.11400000 2688105312 2688105312 -9.00000000
3.44865942 10.62650204 1.37176132 14 7 1798 11.25600000 2688105315 2688105315 7.00000000
1.69460213 5.21854830 -0.67369372 2 8 1799 5.52800000 2688105317 2688105317 -7.00000000
3.45558977 10.64153099 1.77208960 12 9 1799 11.32800000 2688105319 2688105319 9.00000000
2.54276752 7.82583332 -0.71990645 4 10 1800 8.26000000 2688105322 2688105322 -5.00000000
3.23776388 9.95889759 2.03555036 43 11 1801 10.66800000 2688105324 2688105324 11.00000000
3.44760299 10.59804249 -0.58406925 12 12 1802 11.16000000 2688105326 2688105326 -3.00000000
3.12861252 9.61175156 2.33364224 64 13 1803 10.37400000 2688105329 2688105329 13.00000000
3.45798945 10.61736965 -0.19490847 10 14 1804 11.16800000 2688105331 2688105331 -1.00000000
2.73430490 8.39040375 2.36457086 45 15 1805 9.13600000 2688105333 2688105333 15.00000000
0.70461226 2.15576386 -0.60770714 4 0 1810 2.34800000 2688105354 2688105354 -15.00000000
3.47282314 10.61883926 0.19501320 13 1 1811 11.17400000 2688105356 2688105356 1.00000000
0.83880663 2.56330180 -0.62266451 3 2 1812 2.76800000 2688105359 2688105359 -13.00000000
3.47788739 10.62177372 0.58574402 13 3 1813 11.19200000 2688105361 2688105361 3.00000000
1.00434244 3.06734967 -0.62737995 2 4 1813 3.28800000 2688105363 2688105363 -11.00000000
3.47870064 10.61799049 0.97753882 12 5 1814 11.21600000 2688105365 2688105365 5.00000000
1.27191043 3.87994576 -0.64670008 2 6 1815 4.13400000 2688105368 2688105368 -9.00000000
3.48821354 10.63447762 1.37419868 14 7 1816 11.27600000 2688105370 2688105370 7.00000000
3.47892714 10.59991932 -1.36981142 2 8 1817 11.24000000 2688105372 2688105372 -7.00000000
3.48715591 10.62499142 1.77115107 12 9 1817 11.32200000 2688105375 2688105375 9.00000000
2.56236744 7.80266285 -0.71851194 4 10 1818 8.24400000 2688105377 2688105377 -5.00000000
3.26964736 9.95054245 2.03593206 40 11 1819 10.67000000 2688105379 2688105379 11.00000000
3.48524737 10.60044003 -0.58480197 12 12 1820 11.17400000 2688105382 2688105382 -3.00000000
3.11981821 9.48340225 2.30484843 60 13 1821 10.24600000 2688105384 2688105384 13.00000000
3.49007726 10.60265541 -0.19483867 10 14 1822 11.16400000 2688105386 2688105386 -1.00000000
2.75254321 8.36206913 2.35887671 42 15 1822 9.11400000 2688105389 2688105389 15.00000000
0.71213293 2.15329123 -0.60770714 4 0 1830 2.34800000 2688105409 2688105409 -15.00000000
3.51112509 10.61044884 0.19508299 13 1 1831 11.17800000 2688105412 2688105412 1.00000000
0.84652406 2.55665827 -0.62176472 3 2 1832 2.76400000 2688105414 2688105414 -13.00000000
3.52059627 10.62663174 0.58668607 13 3 1833 11.21000000 2688105416 2688105416 3.00000000
1.02121758 3.08246160 -0.63119614 2 4 1833 3.30800000 2688105418 2688105418 -11.00000000
3.52013159 10.61902046 0.97875899 12 5 1834 11.23000000 2688105421 2688105421 5.00000000
1.28482437 3.87360740 -0.64638722 2 6 1835 4.13200000 2688105423 2688105423 -9.00000000
3.53281689 10.64484596 1.37712359 12 7 1836 11.30000000 2688105425 2688105425 7.00000000
3.52216244 10.60655022 -1.37224877 2 8 1837 11.26000000 2688105428 2688105428 -7.00000000
3.53354955 10.63463497 1.77490544 12 9 1838 11.34600000 2688105430 2688105430 9.00000000
2.58895993 7.79178047 -0.71833766 4 10 1838 8.24200000 2688105432 2688105432 -5.00000000
3.30436134 9.93906784 2.03593206 46 11 1839 10.67000000 2688105435 2688105435 11.00000000
3.52979374 10.61095142 -0.58605802 12 12 1840 11.19800000 2688105437 2688105437 -3.00000000
3.11843777 9.36890984 2.27965403 66 13 1841 10.13400000 2688105439 2688105439 13.00000000
3.53591228 10.61696911 -0.19532733 10 14 1842 11.19200000 2688105442 2688105442 -1.00000000
2.78256249 8.35009193 2.35835910 45 15 1843 9.11200000 2688105444 2688105444 15.00000000
0.71804428 2.14725351 -0.60667187 4 0 1849 2.34400000 2688105465 2688105465 -15.00000000
3.54756021 10.60254002 0.19515280 13 1 1850 11.18200000 2688105467 2688105467 1.00000000
0.85623491 2.55753303 -0.62266451 3 2 1851 2.76800000 2688105469 2688105469 -13.00000000
3.56089115 10.63004875 0.58752346 13 3 1852 11.22600000 2688105471 2688105471 3.00000000
1.02644491 3.06416559 -0.62814319 2 4 1852 3.29200000 2688105474 2688105474 -11.00000000
3.55975842 10.62051296 0.97997916 12 5 1853 11.24400000 2688105476 2688105476 5.00000000
1.29829073 3.87119818 -0.64670008 2 6 1854 4.13400000 2688105478 2688105478 -9.00000000
3.56809688 10.63307190 1.37712359 14 7 1855 11.30000000 2688105481 2688105481 7.00000000
3.56110692 10.60610294 -1.37371123 2 8 1856 11.27200000 2688105483 2688105483 -7.00000000
3.57197189 10.63846207 1.77740836 12 9 1856 11.36200000 2688105485 2688105485 9.00000000
2.61288071 7.77748632 -0.71781468 4 10 1857 8.23600000 2688105488 2688105488 -5.00000000
3.33292341 9.91502953 2.03326058 43 11 1858 10.65600000 2688105490 2688105490 11.00000000
3.56496167 10.59918785 -0.58605802 12 12 1859 11.19800000 2688105492 2688105492 -3.00000000
3.11841059 9.26616955 2.25715899 57 13 1860 10.03400000 2688105495 2688105495 13.00000000
3.57492876 10.61655617 -0.19553676 10 14 1861 11.20400000 2688105497 2688105497 -1.00000000
2.81309700 8.35412502 2.36198258 42 15 1861 9.12600000 2688105499 2688105499 15.00000000
0.72924954 2.15571380 -0.60977769 4 0 1869 2.35600000 2688105520 2688105520 -15.00000000
3.58839512 10.60145664 0.19536224 13 1 1870 11.19400000 2688105522 2688105522 1.00000000
0.86515719 2.55452847 -0.62266451 3 2 1871 2.76800000 2688105524 2688105524 -13.00000000
3.60053945 10.62512112 0.58794212 10 3 1872 11.23400000 2688105527 2688105527 3.00000000
1.04217541 3.07543921 -0.63119614 2 4 1872 3.30800000 2688105529 2688105529 -11.00000000
3.60448670 10.63066483 0.98207092 12 5 1873 11.26800000 2688105531 2688105531 5.00000000
1.31179583 3.86664271 -0.64670008 2 6 1874 4.13400000 2688105534 2688105534 -9.00000000
3.60519171 10.62055206 1.37712359 12 7 1875 11.30000000 2688105536 2688105536 7.00000000
3.60449147 10.61240387 -1.37614858 2 8 1876 11.29200000 2688105538 2688105538 -7.00000000
3.61411786 10.63465023 1.77897274 12 9 1877 11.37200000 2688105541 2688105541 9.00000000
2.64257765 7.77586412 -0.71851194 4 10 1877 8.24400000 2688105543 2688105543 -5.00000000
3.37004137 9.91076946 2.03478718 43 11 1878 10.66400000 2688105545 2688105545 11.00000000
3.60579777 10.59802437 -0.58668607 12 12 1879 11.21000000 2688105547 2688105547 -3.00000000
3.10614777 9.12424946 2.22521591 31 13 1880 9.89200000 2688105550 2688105550 13.00000000
3.61389995 10.60969162 -0.19564147 10 14 1881 11.21000000 2688105552 2688105552 -1.00000000
2.84369731 8.34375763 2.36198258 40 15 1882 9.12600000 2688105554 2688105554 15.00000000
0.73802084 2.15681076 -0.61081296 4 0 1889 2.36000000 2688105575 2688105575 -15.00000000
3.63185668 10.60778522 0.19571128 13 1 1890 11.21400000 2688105577 2688105577 1.00000000
0.87027955 2.54043150 -0.61996508 3 2 1891 2.75600000 2688105580 2688105580 -13.00000000
3.63501549 10.60493088 0.58752346 13 3 1892 11.22600000 2688105582 2688105582 3.00000000
1.04653847 3.05321074 -0.62737995 2 4 1892 3.28800000 2688105584 2688105584 -11.00000000
3.64609718 10.63121033 0.98329109 12 5 1893 11.28200000 2688105587 2688105587 5.00000000
1.32784951 3.86951399 -0.64795154 4 6 1894 4.14200000 2688105589 2688105589 -9.00000000
3.65126729 10.63418770 1.38053596 12 7 1895 11.32800000 2688105591 2688105591 7.00000000
3.63764381 10.58849335 -1.37468624 2 8 1896 11.28000000 2688105594 2688105594 -7.00000000
3.65193105 10.63008022 1.78022420 12 9 1896 11.38000000 2688105596 2688105596 9.00000000
2.65998912 7.73832941 -0.71589726 4 10 1897 8.21400000 2688105598 2688105598 -5.00000000
3.40589285 9.90265846 2.03555036 43 11 1898 10.66800000 2688105600 2688105600 11.00000000
3.64666939 10.59670448 -0.58731413 12 12 1899 11.22200000 2688105603 2688105603 -3.00000000
3.10118055 9.00648212 2.19912148 51 13 1900 9.77600000 2688105605 2688105605 13.00000000
3.65416956 10.60646534 -0.19581600 12 14 1901 11.22000000 2688105607 2688105607 -1.00000000
2.87512636 8.34524155 2.36508846 18 15 1901 9.13800000 2688105610 2688105610 15.00000000
0.74554503 2.15422153 -0.61081296 4 0 1909 2.36000000 2688105630 2688105630 -15.00000000
3.67540598 10.61393929 0.19606033 13 1 1910 11.23400000 2688105633 2688105633 1.00000000
0.87977999 2.53921962 -0.62041503 3 2 1911 2.75800000 2688105635 2688105635 -13.00000000
3.68117023 10.61859703 0.58898884 10 3 1912 11.25400000 2688105637 2688105637 3.00000000
1.05590367 3.04582906 -0.62661672 2 4 1912 3.28400000 2688105640 2688105640 -11.00000000
3.68514347 10.62406540 0.98381400 12 5 1913 11.28800000 2688105642 2688105642 5.00000000
1.34458697 3.87418628 -0.64951593 2 6 1914 4.15200000 2688105644 2688105644 -9.00000000
3.69227242 10.63262939 1.38199830 12 7 1915 11.34000000 2688105647 2688105647 7.00000000
3.68044615 10.59260654 -1.37687981 2 8 1916 11.29800000 2688105649 2688105649 -7.00000000
3.69605684 10.63155079 1.78272712 12 9 1917 11.39600000 2688105651 2688105651 9.00000000
2.69352722 7.74781656 -0.71764040 4 10 1917 8.23400000 2688105653 2688105653 -5.00000000
3.44172883 9.89441872 2.03631353 46 11 1918 10.67200000 2688105656 2688105656 11.00000000
3.68232346 10.58013821 -0.58710474 12 12 1919 11.21800000 2688105658 2688105658 -3.00000000
3.10504246 8.91646767 2.17977571 60 13 1920 9.69000000 2688105660 2688105660 13.00000000
3.69117069 10.59364510 -0.19581600 10 14 1921 11.22000000 2688105663 2688105663 -1.00000000
2.40455866 6.89719868 1.95718956 9 15 1922 7.56200000 2688105665 2688105665 15.00000000
0.74859279 2.13884211 -0.60718948 4 0 1929 2.34600000 2688105686 2688105686 -15.00000000
3.71111131 10.59727001 0.19599052 13 1 1930 11.23000000 2688105688 2688105688 1.00000000
0.89572662 2.55636334 -0.62536395 3 2 1931 2.78000000 2688105690 2688105690 -13.00000000
3.72350001 10.62076092 0.58982623 10 3 1932 11.27000000 2688105693 2688105693 3.00000000
1.06782830 3.04583001 -0.62737995 2 4 1932 3.28800000 2688105695 2688105695 -11.00000000
3.72286534 10.61301708 0.98398834 12 5 1933 11.29000000 2688105697 2688105697 5.00000000
1.35352290 3.85642171 -0.64732581 2 6 1934 4.13800000 2688105700 2688105700 -9.00000000
3.73791528 10.64402485 1.38516700 12 7 1935 11.36600000 2688105702 2688105702 7.00000000
3.72463751 10.60029697 -1.37956095 2 8 1936 11.32000000 2688105704 2688105704 -7.00000000
3.73522115 10.63041782 1.78460443 12 9 1936 11.40800000 2688105706 2688105706 9.00000000
2.72650313 7.75528336 -0.71920919 4 10 1937 8.25200000 2688105709 2688105709 -5.00000000
3.47624588 9.88234425 2.03631353 46 11 1938 10.67200000 2688105711 2688105711 11.00000000
3.72652650 10.58794403 -0.58825612 12 12 1939 11.24000000 2688105713 2688105713 -3.00000000
3.10960865 8.83021259 2.16132975 53 13 1940 9.60800000 2688105716 2688105716 13.00000000
3.73410797 10.59767056 -0.19613014 10 14 1941 11.23800000 2688105718 2688105718 -1.00000000
2.43191123 6.90194130 1.96081305 9 15 1941 7.57600000 2688105720 2688105720 15.00000000
0.75798786 2.14167953 -0.60874242 4 0 1949 2.35200000 2688105741 2688105741 -15.00000000
3.75208521 10.59556198 0.19619995 13 1 1950 11.24200000 2688105743 2688105743 1.00000000
0.89943796 2.53852630 -0.62176472 3 2 1951 2.76400000 2688105746 2688105746 -13.00000000
3.76588941 10.62275791 0.59066361 10 3 1952 11.28600000 2688105748 2688105748 3.00000000
1.08238971 3.05318666 -0.62966967 2 4 1952 3.30000000 2688105750 2688105750 -11.00000000
3.76521754 10.61497974 0.98538285 12 5 1953 11.30600000 2688105753 2688105753 5.00000000
1.36697614 3.85167360 -0.64732581 4 6 1954 4.13800000 2688105755 2688105755 -9.00000000
3.77637577 10.63465309 1.38565445 10 7 1955 11.37000000 2688105757 2688105757 7.00000000
3.77225041 10.61715889 -1.38346076 2 8 1956 11.35200000 2688105759 2688105759 -7.00000000
3.77614355 10.62223911 1.78554296 12 9 1957 11.41400000 2688105762 2688105762 9.00000000
2.74755120 7.72882318 -0.71764040 4 10 1957 8.23400000 2688105764 2688105764 -5.00000000
3.50808883 9.86275101 2.03478718 43 11 1958 10.66400000 2688105766 2688105766 11.00000000
3.76681089 10.58428001 -0.58877951 12 12 1959 11.25000000 2688105769 2688105769 -3.00000000
3.77711821 10.60152435 -0.19644429 10 14 1961 11.25600000 2688105773 2688105773 -1.00000000
2.46238136 6.90753937 1.96495414 6 15 1962 7.59200000 2688105776 2688105776 15.00000000
0.77029043 2.15370631 -0.61288351 4 0 1968 2.36800000 2688105796 2688105796 -15.00000000
3.79056954 10.59247494 0.19637448 13 1 1969 11.25200000 2688105799 2688105799 1.00000000
0.90653723 2.53186035 -0.62086493 3 2 1970 2.76000000 2688105801 2688105801 -13.00000000
3.79907441 10.60457039 0.59034961 10 3 1971 11.28000000 2688105803 2688105803 3.00000000
1.09780550 3.06436634 -0.63272262 2 4 1971 3.31600000 2688105806 2688105806 -11.00000000
3.80308652 10.60993767 0.98608005 12 5 1972 11.31400000 2688105808 2688105808 5.00000000
1.37974119 3.84711933 -0.64732581 4 6 1973 4.13800000 2688105810 2688105810 -9.00000000
3.81162071 10.62207222 1.38565445 10 7 1974 11.37000000 2688105812 2688105812 7.00000000
3.80072951 10.58590794 -1.38102341 2 8 1975 11.33200000 2688105815 2688105815 -7.00000000
3.81683826 10.63077450 1.78898454 12 9 1975 11.43600000 2688105817 2688105817 9.00000000
2.77451301 7.72341967 -0.71798903 4 10 1976 8.23800000 2688105819 2688105819 -5.00000000
3.54077554 9.85106277 2.03478718 43 11 1977 10.66400000 2688105822 2688105822 11.00000000
3.80188894 10.57173061 -0.58877951 12 12 1978 11.25000000 2688105824 2688105824 -3.00000000
3.00139451 8.34126186 2.04660463 7 13 1979 9.09800000 2688105826 2688105826 13.00000000
3.81699491 10.60211086 -0.19668862 10 14 1980 11.27000000 2688105829 2688105829 -1.00000000
2.48930502 6.91431046 1.96909535 9 15 1980 7.60800000 2688105831 2688105831 15.00000000
0.77780354 2.15100431 -0.61288351 4 0 1988 2.36800000 2688105852 2688105852 -15.00000000
3.83432436 10.59798241 0.19672352 13 1 1989 11.27200000 2688105854 2688105854 1.00000000
0.91404295 2.52501583 -0.61996508 3 2 1990 2.75600000 2688105856 2688105856 -13.00000000
3.84150934 10.60626793 0.59118694 10 3 1991 11.29600000 2688105859 2688105859 3.00000000
1.10314679 3.04574847 -0.62966967 2 4 1991 3.30000000 2688105861 2688105861 -11.00000000
3.84756589 10.61720276 0.98799747 12 5 1992 11.33600000 2688105863 2688105863 5.00000000
1.39046836 3.83485150 -0.64607435 4 6 1993 4.13000000 2688105865 2688105865 -9.00000000
3.85544538 10.62736320 1.38809180 10 7 1994 11.39000000 2688105868 2688105868 7.00000000
3.84443116 10.59123611 -1.38346076 2 8 1995 11.35200000 2688105870 2688105870 -7.00000000
3.85998917 10.63409805 1.79180038 12 9 1995 11.45400000 2688105872 2688105872 9.00000000
2.80485654 7.72305155 -0.71886057 8 10 1996 8.24800000 2688105875 2688105875 -5.00000000
3.57648158 9.84233379 2.03555036 43 11 1997 10.66800000 2688105877 2688105877 11.00000000
3.84695745 10.58091927 -0.59003556 12 12 1998 11.27400000 2688105879 2688105879 -3.00000000
3.05181074 8.38933659 2.06100154 10 13 1999 9.16200000 2688105882 2688105882 13.00000000
3.85466385 10.59060192 -0.19672352 12 14 2000 11.27200000 2688105884 2688105884 -1.00000000
2.51540732 6.91102505 1.97064817 15 15 2000 7.61400000 2688105886 2688105886 15.00000000
0.78132761 2.13738966 -0.60977769 4 0 2008 2.35600000 2688105907 2688105907 -15.00000000
3.87885046 10.60519218 0.19710748 13 1 2009 11.29400000 2688105909 2688105909 1.00000000
0.92820895 2.53645015 -0.62356430 3 2 2010 2.77200000 2688105912 2688105912 -13.00000000
3.88262892 10.60404682 0.59181499 10 3 2011 11.30800000 2688105914 2688105914 3.00000000
1.11242175 3.03819203 -0.62890643 2 4 2011 3.29600000 2688105916 2688105916 -11.00000000
3.88734484 10.61119080 0.98869473 12 5 2012 11.34400000 2688105918 2688105918 5.00000000
1.41200387 3.85223103 -0.64982879 4 6 2013 4.15400000 2688105921 2688105921 -9.00000000
3.89798617 10.62874985 1.39004171 12 7 2014 11.40600000 2688105923 2688105923 7.00000000
1.89145374 5.15469742 -0.67418122 2 8 2015 5.53200000 2688105925 2688105925 -7.00000000
3.90030098 10.62358856 1.79242611 12 9 2016 11.45800000 2688105928 2688105928 9.00000000
2.82973790 7.70760250 -0.71833766 4 10 2016 8.24200000 2688105930 2688105930 -5.00000000
3.61284685 9.83531857 2.03669524 50 11 2017 10.67400000 2688105932 2688105932 11.00000000
3.88662434 10.57492542 -0.59045428 12 12 2018 11.28200000 2688105935 2688105935 -3.00000000
3.89367986 10.58271217 -0.19682825 8 14 2020 11.27800000 2688105939 2688105939 -1.00000000
2.53884888 6.90038967 1.97013056 15 15 2020 7.61200000 2688105941 2688105941 15.00000000
0.78476620 2.12377667 -0.60667187 4 0 2028 2.34400000 2688105962 2688105962 -15.00000000
3.91653943 10.59346390 0.19714238 13 1 2029 11.29600000 2688105965 2688105965 1.00000000
0.93840933 2.53685021 -0.62446415 3 2 2030 2.77600000 2688105967 2688105967 -13.00000000
3.92724586 10.61103344 0.59296638 10 3 2031 11.33000000 2688105969 2688105969 3.00000000
1.12165725 3.03060794 -0.62814319 2 4 2031 3.29200000 2688105971 2688105971 -11.00000000
3.92712879 10.60503006 0.98939198 12 5 2032 11.35200000 2688105974 2688105974 5.00000000
1.42269695 3.83986950 -0.64857727 4 6 2033 4.14600000 2688105976 2688105976 -9.00000000
3.94058371 10.62996864 1.39199162 14 7 2034 11.42200000 2688105978 2688105978 7.00000000
1.90943551 5.14806366 -0.67418122 2 8 2035 5.53200000 2688105981 2688105981 -7.00000000
3.94217134 10.62287235 1.79461622 12 9 2036 11.47200000 2688105983 2688105983 9.00000000
2.85593200 7.69581032 -0.71816331 4 10 2036 8.24000000 2688105985 2688105985 -5.00000000
3.64373946 9.81344509 2.03478718 43 11 2037 10.66400000 2688105988 2688105988 11.00000000
3.93325162 10.58750534 -0.59191966 12 12 2038 11.31000000 2688105990 2688105990 -3.00000000
3.12388372 8.40435982 2.06999969 53 13 2039 9.20200000 2688105992 2688105992 13.00000000
3.93547606 10.58217621 -0.19707258 10 14 2040 11.29200000 2688105994 2688105994 -1.00000000
2.56479692 6.89284849 1.97064817 18 15 2041 7.61400000 2688105997 2688105997 15.00000000
0.79487842 2.12826347 -0.60874242 4 0 2048 2.35200000 2688106018 2688106018 -15.00000000
3.95559359 10.58534718 0.19724710 13 1 2049 11.30200000 2688106020 2688106020 1.00000000
0.94794136 2.53538442 -0.62491405 3 2 2050 2.77800000 2688106022 2688106022 -13.00000000
3.97125936 10.61596680 0.59401309 13 3 2051 11.35000000 2688106024 2688106024 3.00000000
1.13635647 3.03770709 -0.63043290 4 4 2051 3.30400000 2688106027 2688106027 -11.00000000
3.96901202 10.60431957 0.99061215 12 5 2052 11.36600000 2688106029 2688106029 5.00000000
1.43470633 3.83118010 -0.64795154 4 6 2053 4.14200000 2688106031 2688106031 -9.00000000
3.98045111 10.62358475 1.39296663 12 7 2054 11.43000000 2688106034 2688106034 7.00000000
1.93645263 5.16553116 -0.67734981 4 8 2055 5.55800000 2688106036 2688106036 -7.00000000
3.98755264 10.63124180 1.79837060 12 9 2056 11.49600000 2688106038 2688106038 9.00000000
2.88557673 7.69325638 -0.71886057 4 10 2056 8.24800000 2688106041 2688106041 -5.00000000
3.67659307 9.79698944 2.03402400 46 11 2057 10.66000000 2688106043 2688106043 11.00000000
3.97229099 10.57931995 -0.59223366 12 12 2058 11.31600000 2688106045 2688106045 -3.00000000
3.15594268 8.40070057 2.07179928 59 13 2059 9.21000000 2688106047 2688106047 13.00000000
3.98224092 10.59457970 -0.19756123 12 14 2060 11.32000000 2688106050 2688106050 -1.00000000
2.58967948 6.88973045 1.97220111 20 15 2060 7.62000000 2688106052 2688106052 15.00000000
0.80503154 2.13270521 -0.61081296 4 0 2068 2.36000000 2688106073 2688106073 -15.00000000
4.00382328 10.60140705 0.19780557 10 1 2069 11.33400000 2688106075 2688106075 1.00000000
0.95196390 2.51929927 -0.62176472 3 2 2070 2.76400000 2688106077 2688106077 -13.00000000
4.01111698 10.60951233 0.59443182 10 3 2071 11.35800000 2688106080 2688106080 3.00000000
1.15250742 3.04841304 -0.63348585 2 4 2071 3.32000000 2688106082 2688106082 -11.00000000
4.01023340 10.60158157 0.99165803 12 5 2072 11.37800000 2688106084 2688106084 5.00000000
1.44317651 3.81321621 -0.64576149 4 6 2073 4.12800000 2688106087 2688106087 -9.00000000
4.02102518 10.61890793 1.39418530 8 7 2074 11.44000000 2688106089 2688106089 7.00000000
1.94814217 5.14203310 -0.67515618 4 8 2075 5.54000000 2688106091 2688106091 -7.00000000
4.03023958 10.63203526 1.80087352 12 9 2076 11.51200000 2688106094 2688106094 9.00000000
2.92018199 7.70362997 -0.72077799 4 10 2076 8.27000000 2688106096 2688106096 -5.00000000
3.71076870 9.78409672 2.03402400 43 11 2077 10.66000000 2688106098 2688106098 11.00000000
3.18109703 8.37870216 2.06909990 59 13 2079 9.19800000 2688106103 2688106103 13.00000000
2.61782932 6.89148426 1.97530699 20 15 2080 7.63200000 2688106107 2688106107 15.00000000
0.81384820 2.13349223 -0.61184824 4 0 2088 2.36400000 2688106128 2688106128 -15.00000000
0.96283770 2.52142262 -0.62311441 3 2 2090 2.77000000 2688106133 2688106133 -13.00000000
1.15613449 3.02603197 -0.62966967 2 4 2091 3.30000000 2688106137 2688106137 -11.00000000
1.46847451 3.83952093 -0.65108025 4 6 2093 4.16200000 2688106142 2688106142 -9.00000000
1.96891844 5.14261723 -0.67613113 2 8 2095 5.54800000 2688106146 2688106146 -7.00000000
2.94491673 7.68780804 -0.72025508 4 10 2096 8.26400000 2688106151 2688106151 -5.00000000
3.74630404 9.77475071 2.03478718 43 11 2097 10.66400000 2688106153 2688106153 11.00000000
3.20334435 8.34935284 2.06460071 60 13 2099 9.17800000 2688106158 2688106158 13.00000000
2.65017700 6.90394688 1.98151863 20 15 2100 7.65600000 2688106163 2688106163 15.00000000
0.81851125 2.12342811 -0.60977769 4 0 2108 2.35600000 2688106183 2688106183 -15.00000000
0.97233474 2.51986432 -0.62356430 3 2 2110 2.77200000 2688106188 2688106188 -13.00000000
1.16103351 3.00732589 -0.62661672 4 4 2111 3.28400000 2688106193 2688106193 -11.00000000
1.48044372 3.83068657 -0.65045452 2 6 2113 4.15800000 2688106197 2688106197 -9.00000000
1.97826254 5.11349630 -0.67320627 2 8 2115 5.52400000 2688106202 2688106202 -7.00000000
2.95878863 7.64403677 -0.71711743 4 10 2116 8.22800000 2688106206 2688106206 -5.00000000
3.78181958 9.76527500 2.03555036 50 11 2117 10.66800000 2688106209 2688106209 11.00000000
3.23246956 8.33812046 2.06460071 59 13 2119 9.17800000 2688106213 2688106213 13.00000000
2.67406559 6.89058495 1.98048329 18 15 2121 7.65200000 2688106218 2688106218 15.00000000
0.82274503 2.11350107 -0.60770714 4 0 2127 2.34800000 2688106239 2688106239 -15.00000000
0.97927046 2.51299477 -0.62266451 3 2 2129 2.76800000 2688106243 2688106243 -13.00000000
1.17242610 3.00711751 -0.62737995 2 4 2130 3.28800000 2688106248 2688106248 -11.00000000
1.48811126 3.81287479 -0.64826441 4 6 2132 4.14400000 2688106252 2688106252 -9.00000000
1.99665344 5.11060619 -0.67369372 2 8 2134 5.52800000 2688106257 2688106257 -7.00000000
2.98847318 7.64531708 -0.71816331 4 10 2135 8.24000000 2688106262 2688106262 -5.00000000
3.80989099 9.74170971 2.03326058 43 11 2136 10.65600000 2688106264 2688106264 11.00000000
3.26436448 8.33824253 2.06730008 59 13 2138 9.19000000 2688106269 2688106269 13.00000000
2.69781351 6.88754654 1.98203623 15 15 2139 7.65800000 2688106273 2688106273 15.00000000
0.83011752 2.11061621 -0.60770714 4 0 2147 2.34800000 2688106294 2688106294 -15.00000000
0.98803645 2.50956106 -0.62266451 3 2 2149 2.76800000 2688106298 2688106298 -13.00000000
1.19586742 3.03588629 -0.63424909 2 4 2150 3.32400000 2688106303 2688106303 -11.00000000
1.49706388 3.79663110 -0.64638722 4 6 2152 4.13200000 2688106308 2688106308 -9.00000000
2.03197241 5.14792061 -0.67954344 2 8 2154 5.57600000 2688106312 2688106312 -7.00000000
3.02099657 7.64966345 -0.71955782 4 10 2155 8.25600000 2688106317 2688106317 -5.00000000
3.84098697 9.72104836 2.03173423 43 11 2156 10.64800000 2688106319 2688106319 11.00000000
3.29488397 8.33042145 2.06820011 59 13 2158 9.19400000 2688106324 2688106324 13.00000000
2.72681499 6.89066172 1.98565972 13 15 2159 7.67200000 2688106328 2688106328 15.00000000
0.83853811 2.11144280 -0.60874242 4 0 2166 2.35200000 2688106349 2688106349 -15.00000000
0.99635303 2.50627089 -0.62266451 3 2 2168 2.76800000 2688106354 2688106354 -13.00000000
1.19867229 3.01366138 -0.63043290 2 4 2169 3.30400000 2688106358 2688106358 -11.00000000
1.52133703 3.82100987 -0.65139312 2 6 2171 4.16400000 2688106363 2688106363 -9.00000000
2.03874326 5.11533737 -0.67613113 2 8 2173 5.54800000 2688106368 2688106368 -7.00000000
3.04782319 7.64330482 -0.71990645 4 10 2174 8.26000000 2688106372 2688106372 -5.00000000
3.87465715 9.71190453 2.03249741 43 11 2175 10.65200000 2688106375 2688106375 11.00000000
3.32104516 8.31583023 2.06730008 57 13 2177 9.19000000 2688106379 2688106379 13.00000000
2.75658822 6.89545202 1.98980081 9 15 2179 7.68800000 2688106384 2688106384 15.00000000
0.85021913 2.11926055 -0.61184824 4 0 2186 2.36400000 2688106404 2688106404 -15.00000000
1.00509548 2.50277758 -0.62266451 3 2 2188 2.76800000 2688106409 2688106409 -13.00000000
1.20625687 3.00217199 -0.62890643 2 4 2189 3.29600000 2688106414 2688106414 -11.00000000
1.53171718 3.80834532 -0.65014166 2 6 2191 4.15600000 2688106418 2688106418 -9.00000000
2.04769015 5.08609247 -0.67320627 2 8 2193 5.52400000 2688106423 2688106423 -7.00000000
3.08341789 7.65479660 -0.72199816 4 10 2194 8.28400000 2688106428 2688106428 -5.00000000
3.90853429 9.69832039 2.03249741 46 11 2195 10.65200000 2688106430 2688106430 11.00000000
3.34859443 8.30057240 2.06640029 59 13 2197 9.18600000 2688106434 2688106434 13.00000000
2.78208780 6.88937044 1.99083614 9 15 2199 7.69200000 2688106439 2688106439 15.00000000
0.85434121 2.10926723 -0.60977769 4 0 2205 2.35600000 2688106460 2688106460 -15.00000000
1.01338947 2.49943089 -0.62266451 3 2 2207 2.76800000 2688106464 2688106464 -13.00000000
1.21472979 2.99451685 -0.62814319 4 4 2208 3.29200000 2688106469 2688106469 -11.00000000
1.54136491 3.79592419 -0.64889014 2 6 2210 4.14800000 2688106474 2688106474 -9.00000000
2.07650471 5.10869789 -0.67710608 2 8 2212 5.55600000 2688106478 2688106478 -7.00000000
3.10127950 7.62607336 -0.72025508 4 10 2213 8.26400000 2688106483 2688106483 -5.00000000
3.94215345 9.68894291 2.03326058 46 11 2214 10.65600000 2688106485 2688106485 11.00000000
3.37904191 8.29664135 2.06820011 59 13 2216 9.19400000 2688106490 2688106490 13.00000000
3.04850721 7.47759914 2.16372728 29 15 2218 8.36000000 2688106494 2688106494 15.00000000
0.85730976 2.09554410 -0.60667187 4 0 2225 2.34400000 2688106515 2688106515 -15.00000000
1.02358496 2.49948502 -0.62356430 3 2 2227 2.77200000 2688106520 2688106520 -13.00000000
1.22666383 2.99389195 -0.62890643 2 4 2228 3.29600000 2688106524 2688106524 -11.00000000
1.55535531 3.79234815 -0.64920300 2 6 2230 4.15000000 2688106529 2688106529 -9.00000000
2.08829355 5.08672714 -0.67515618 2 8 2232 5.54000000 2688106534 2688106534 -7.00000000
3.13242269 7.62625933 -0.72130090 4 10 2233 8.27600000 2688106538 2688106538 -5.00000000
3.97296524 9.66785908 2.03173423 43 11 2234 10.64800000 2688106540 2688106540 11.00000000
3.40501666 8.27758694 2.06640029 62 13 2236 9.18600000 2688106545 2688106545 13.00000000
3.06429267 7.44190359 2.15648031 33 15 2238 8.33200000 2688106550 2688106550 15.00000000
0.86757028 2.09968066 -0.60874242 4 0 2245 2.35200000 2688106570 2688106570 -15.00000000
1.03230357 2.49589682 -0.62356430 3 2 2247 2.77200000 2688106575 2688106575 -13.00000000
1.24461377 3.00773239 -0.63272262 4 4 2248 3.31600000 2688106580 2688106580 -11.00000000
1.56178021 3.77047086 -0.64638722 2 6 2250 4.13200000 2688106584 2688106584 -9.00000000
2.11363983 5.09774399 -0.67759353 2 8 2252 5.56000000 2688106589 2688106589 -7.00000000
3.15291691 7.60055590 -0.71990645 4 10 2253 8.26000000 2688106593 2688106593 -5.00000000
4.00518274 9.65030575 2.03097105 43 11 2254 10.64400000 2688106596 2688106596 11.00000000
3.43538523 8.26924992 2.06730008 56 13 2256 9.19000000 2688106600 2688106600 13.00000000
2.97254372 7.15162945 2.07521105 6 15 2257 8.01800000 2688106605 2688106605 15.00000000
0.87787008 2.10377073 -0.61081296 4 0 2265 2.36000000 2688106626 2688106626 -15.00000000
1.03950739 2.48868179 -0.62266451 3 2 2267 2.76800000 2688106630 2688106630 -13.00000000
1.25661910 3.00699258 -0.63348585 4 4 2268 3.32000000 2688106635 2688106635 -11.00000000
1.58484209 3.78868699 -0.65045452 2 6 2270 4.15800000 2688106639 2688106639 -9.00000000
2.13142133 5.09033489 -0.67759353 2 8 2272 5.56000000 2688106644 2688106644 -7.00000000
3.18404746 7.60052967 -0.72095233 4 10 2273 8.27200000 2688106649 2688106649 -5.00000000
3.46121383 8.25002003 2.06550050 62 13 2276 9.18200000 2688106656 2688106656 13.00000000
2.99723983 7.13712454 2.07417583 9 15 2278 8.01400000 2688106660 2688106660 15.00000000
0.88670862 2.10425425 -0.61184824 4 0 2285 2.36400000 2688106681 2688106681 -15.00000000
1.04970288 2.48862910 -0.62356430 3 2 2287 2.77200000 2688106686 2688106686 -13.00000000
1.26558113 2.99897027 -0.63272262 4 4 2288 3.31600000 2688106690 2688106690 -11.00000000
1.59344542 3.77221346 -0.64857727 2 6 2290 4.14600000 2688106695 2688106695 -9.00000000
2.14144611 5.06458044 -0.67515618 2 8 2292 5.54000000 2688106699 2688106699 -7.00000000
3.21754503 7.60588360 -0.72252113 4 10 2293 8.29000000 2688106704 2688106704 -5.00000000
3.48542953 8.22712135 2.06280112 57 13 2296 9.17000000 2688106711 2688106711 13.00000000
3.04576969 7.18584204 2.09125781 13 15 2297 8.08000000 2688106716 2688106716 15.00000000
0.89102286 2.09403563 -0.60977769 4 0 2305 2.35600000 2688106736 2688106736 -15.00000000
1.05838346 2.48494983 -0.62356430 3 2 2307 2.77200000 2688106741 2688106741 -13.00000000
1.26988482 2.98008537 -0.62966967 2 4 2308 3.30000000 2688106745 2688106745 -11.00000000
1.61745334 3.79206634 -0.65295744 2 6 2310 4.17400000 2688106750 2688106750 -9.00000000
2.16222954 5.06437683 -0.67613113 2 8 2312 5.54800000 2688106755 2688106755 -7.00000000
3.24172711 7.58910942 -0.72199816 4 10 2313 8.28400000 2688106759 2688106759 -5.00000000
4.46786118 10.45452309 2.20994973 56 11 2314 11.58200000 2688106762 2688106762 11.00000000
3.51412630 8.21490479 2.06280112 59 13 2316 9.17000000 2688106766 2688106766 13.00000000
3.05763865 7.14088869 2.08142281 20 15 2318 8.04200000 2688106771 2688106771 15.00000000
0.89527661 2.08381271 -0.60770714 4 0 2325 2.34800000 2688106792 2688106792 -15.00000000
1.06551135 2.47765994 -0.62266451 3 2 2327 2.76800000 2688106796 2688106796 -13.00000000
1.28183138 2.97924137 -0.63043290 4 4 2328 3.30400000 2688106801 2688106801 -11.00000000
1.61817873 3.75736880 -0.64795154 2 6 2330 4.14200000 2688106805 2688106805 -9.00000000
2.17989445 5.05679846 -0.67613113 2 8 2332 5.54800000 2688106810 2688106810 -7.00000000
3.25557375 7.54847527 -0.71920919 4 10 2333 8.25200000 2688106815 2688106815 -5.00000000
4.51054955 10.45328522 2.21300268 56 11 2334 11.59800000 2688106817 2688106817 11.00000000
3.54432559 8.20616627 2.06370091 60 13 2336 9.17400000 2688106822 2688106822 13.00000000
3.07670403 7.12006950 2.07831693 33 15 2337 8.03000000 2688106826 2688106826 15.00000000
0.90254503 2.08067513 -0.60770714 4 0 2345 2.34800000 2688106847 2688106847 -15.00000000
1.07260132 2.47035050 -0.62176472 3 2 2347 2.76400000 2688106851 2688106851 -13.00000000
1.29691637 2.98555279 -0.63272262 4 4 2348 3.31600000 2688106856 2688106856 -11.00000000
1.63285983 3.75532055 -0.64857727 2 6 2350 4.14600000 2688106861 2688106861 -9.00000000
2.20862317 5.07464075 -0.67954344 2 8 2352 5.57600000 2688106865 2688106865 -7.00000000
3.29622054 7.56994629 -0.72234678 4 10 2353 8.28800000 2688106870 2688106870 -5.00000000
4.55014753 10.44467640 2.21452928 53 11 2354 11.60600000 2688106872 2688106872 11.00000000
3.57450676 8.19731712 2.06460071 59 13 2356 9.17800000 2688106877 2688106877 13.00000000
3.10355258 7.11051559 2.07883453 36 15 2358 8.03200000 2688106881 2688106881 15.00000000
0.91098917 2.08121014 -0.60874242 4 0 2364 2.35200000 2688106902 2688106902 -15.00000000
1.08078730 2.46677995 -0.62176472 3 2 2366 2.76400000 2688106907 2688106907 -13.00000000
1.30680966 2.98123574 -0.63272262 4 4 2367 3.31600000 2688106911 2688106911 -11.00000000
1.65006602 3.76073861 -0.65045452 2 6 2369 4.15800000 2688106916 2688106916 -9.00000000
2.21825528 5.05093098 -0.67734981 2 8 2371 5.55800000 2688106921 2688106921 -7.00000000
3.31890082 7.55350208 -0.72182387 4 10 2372 8.28200000 2688106925 2688106925 -5.00000000
4.58791828 10.43671894 2.21605563 59 11 2373 11.61400000 2688106927 2688106927 11.00000000
3.59853101 8.17828369 2.06280112 60 13 2375 9.17000000 2688106932 2688106932 13.00000000
3.12354040 7.09542608 2.07728171 40 15 2376 8.02600000 2688106937 2688106937 15.00000000
0.92449498 2.09215355 -0.61288351 4 0 2384 2.36800000 2688106957 2688106957 -15.00000000
1.08781493 2.45942783 -0.62086493 3 2 2386 2.76000000 2688106962 2688106962 -13.00000000
1.31561923 2.97306538 -0.63195938 4 4 2387 3.31200000 2688106967 2688106967 -11.00000000
1.66318345 3.75495601 -0.65045452 2 6 2389 4.15800000 2688106971 2688106971 -9.00000000
2.23828650 5.04860115 -0.67808104 2 8 2391 5.56400000 2688106976 2688106976 -7.00000000
3.35009432 7.55279827 -0.72286975 4 10 2392 8.29400000 2688106980 2688106980 -5.00000000
4.63387728 10.44217396 2.22063518 56 11 2393 11.63800000 2688106983 2688106983 11.00000000
3.62231016 8.15498734 2.06010175 57 13 2395 9.15800000 2688106987 2688106987 13.00000000
3.15894341 7.10511303 2.08349323 42 15 2397 8.05000000 2688106992 2688106992 15.00000000
0.92900771 2.08169460 -0.61081296 4 0 2405 2.36000000 2688107013 2688107013 -15.00000000
1.10476983 2.47321725 -0.62536395 3 2 2407 2.78000000 2688107017 2688107017 -13.00000000
1.32490516 2.96463847 -0.63119614 4 4 2408 3.30800000 2688107022 2688107022 -11.00000000
1.68177450 3.75965405 -0.65233171 2 6 2410 4.17000000 2688107027 2688107027 -9.00000000
2.24947453 5.02405787 -0.67588741 2 8 2412 5.54600000 2688107031 2688107031 -7.00000000
3.37123799 7.52592278 -0.72147524 4 10 2413 8.27800000 2688107036 2688107036 -5.00000000
4.68576813 10.45557690 2.22712255 59 11 2414 11.67200000 2688107038 2688107038 11.00000000
3.65377069 8.14521217 2.06100154 62 13 2416 9.16200000 2688107043 2688107043 13.00000000
3.17897987 7.08346796 2.08038759 40 15 2417 8.03800000 2688107047 2688107047 15.00000000
0.93309474 2.07139349 -0.60874242 4 0 2425 2.35200000 2688107068 2688107068 -15.00000000
1.11179423 2.46579289 -0.62446415 3 2 2427 2.77600000 2688107073 2688107073 -13.00000000
1.33282375 2.95462680 -0.63005131 4 4 2428 3.30200000 2688107077 2688107077 -11.00000000
2.27190328 5.02702856 -0.67734981 2 8 2432 5.55800000 2688107086 2688107086 -7.00000000
3.39502525 7.50866270 -0.72095233 4 10 2433 8.27200000 2688107091 2688107091 -5.00000000
4.72547293 10.44631195 2.22864914 59 11 2434 11.68000000 2688107093 2688107093 11.00000000
3.68539548 8.13950920 2.06280112 62 13 2436 9.17000000 2688107098 2688107098 13.00000000
3.20332575 7.06824970 2.07935214 45 15 2438 8.03400000 2688107103 2688107103 15.00000000
0.94475430 2.07884026 -0.61184824 4 0 2444 2.36400000 2688107123 2688107123 -15.00000000
1.11835122 2.45854473 -0.62356430 3 2 2446 2.77200000 2688107128 2688107128 -13.00000000
1.34180117 2.94840384 -0.62966967 4 4 2447 3.30000000 2688107133 2688107133 -11.00000000
1.69586241 3.72295213 -0.64795154 2 6 2449 4.14200000 2688107137 2688107137 -9.00000000
2.28938460 5.02127314 -0.67759353 2 8 2451 5.56000000 2688107142 2688107142 -7.00000000
3.43313622 7.52636623 -0.72374129 4 10 2452 8.30400000 2688107146 2688107146 -5.00000000
4.76416349 10.43951416 2.23055720 59 11 2453 11.69000000 2688107149 2688107149 11.00000000
3.71236682 8.12724304 2.06280112 55 13 2455 9.17000000 2688107153 2688107153 13.00000000
3.22872734 7.06517982 2.08142281 40 15 2456 8.04200000 2688107158 2688107158 15.00000000
0.95200503 2.07552981 -0.61184824 4 0 2464 2.36400000 2688107179 2688107179 -15.00000000
1.12692630 2.45462608 -0.62356430 3 2 2466 2.77200000 2688107183 2688107183 -13.00000000
1.35536253 2.95083857 -0.63119614 4 4 2467 3.30800000 2688107188 2688107188 -11.00000000
1.70884764 3.71700978 -0.64795154 2 6 2469 4.14200000 2688107192 2688107192 -9.00000000
2.30689812 5.01325130 -0.67759353 2 8 2471 5.56000000 2688107197 2688107197 -7.00000000
3.46105337 7.51795626 -0.72408992 4 10 2472 8.30800000 2688107202 2688107202 -5.00000000
3.73908186 8.11069584 2.06190133 62 13 2475 9.16600000 2688107209 2688107209 13.00000000
3.25336981 7.05386639 2.08142281 42 15 2476 8.04200000 2688107213 2688107213 15.00000000
