# .PCD v0.7 - Point Cloud Data file format
VERSION 0.7
FIELDS x y z intensity laser_id azimuth distance_m adjustedtime timestamp vertical_angle
SIZE 4 4 4 1 1 2 8 8 4 8
TYPE F F F U U U F U U F
COUNT 1 1 1 1 1 1 1 1 1 1
WIDTH 535
HEIGHT 1
VIEWPOINT 0 0 0 1 0 0 0
POINTS 535
DATA ascii
3.33971596 10.61159611 -0.58302253 12 12 1747 11.14000000 2689305362 2689305362 -3.00000000
3.06312966 9.72684383 2.35433769 56 13 1748 10.46600000 2689305364 2689305364 13.00000000
3.33848357 10.59476471 -0.19389623 10 14 1749 11.11000000 2689305367 2689305367 -1.00000000
2.64899063 8.40152454 2.36042976 40 15 1750 9.12000000 2689305369 2689305369 15.00000000
0.68309796 2.15862513 -0.60667187 4 0 1756 2.34400000 2689305390 2689305390 -15.00000000
3.35810256 10.60534382 0.19417547 13 1 1757 11.12600000 2689305392 2689305392 1.00000000
0.81107962 2.55994701 -0.61996508 3 2 1758 2.75600000 2689305394 2689305394 -13.00000000
3.37159085 10.63504028 0.58469731 10 3 1759 11.17200000 2689305397 2689305397 3.00000000
0.97776234 3.08416486 -0.62890643 2 4 1759 3.29600000 2689305399 2689305399 -11.00000000
3.37004137 10.62371635 0.97509843 12 5 1760 11.18800000 2689305401 2689305401 5.00000000
1.23170114 3.88046384 -0.64482284 2 6 1761 4.12200000 2689305404 2689305404 -9.00000000
3.37942004 10.64039326 1.37078643 12 7 1762 11.24800000 2689305406 2689305406 7.00000000
1.65937495 5.22152519 -0.67271876 2 8 1763 5.52000000 2689305408 2689305408 -7.00000000
3.38327479 10.64608955 1.76927376 12 9 1763 11.31000000 2689305410 2689305410 9.00000000
3.37866473 10.62515831 -0.97544706 4 10 1764 11.19200000 2689305413 2689305413 -5.00000000
3.37670469 10.60617256 -0.58333659 12 12 1766 11.14600000 2689305417 2689305417 -3.00000000
3.09655118 9.72034645 2.35523748 59 13 1767 10.47000000 2689305420 2689305420 13.00000000
3.38149357 10.60840321 -0.19435000 10 14 1768 11.13600000 2689305422 2689305422 -1.00000000
2.67595840 8.39500237 2.36094737 42 15 1768 9.12200000 2689305424 2689305424 15.00000000
0.69534296 2.17094588 -0.61081296 4 0 1776 2.36000000 2689305445 2689305445 -15.00000000
3.39998412 10.60879135 0.19445471 13 1 1777 11.14200000 2689305447 2689305447 1.00000000
0.81763029 2.54967761 -0.61816549 3 2 1778 2.74800000 2689305450 2689305450 -13.00000000
3.40869355 10.62320709 0.58469731 10 3 1779 11.17200000 2689305452 2689305452 3.00000000
0.98852211 3.08073306 -0.62890643 2 4 1779 3.29600000 2689305454 2689305454 -11.00000000
3.40710449 10.61188793 0.97509843 12 5 1780 11.18800000 2689305457 2689305457 5.00000000
1.24765575 3.88366365 -0.64607435 2 6 1781 4.13000000 2689305459 2689305459 -9.00000000
3.41532636 10.62475204 1.37029886 10 7 1782 11.24400000 2689305461 2689305461 7.00000000
1.67029750 5.19302416 -0.66979390 2 8 1783 5.49600000 2689305463 2689305463 -7.00000000
3.42529774 10.64301968 1.77083814 12 9 1784 11.32000000 2689305466 2689305466 9.00000000
3.41939521 10.62467957 -0.97649294 4 10 1784 11.20400000 2689305468 2689305468 -5.00000000
3.20933890 9.96603203 2.03516865 40 11 1785 10.66600000 2689305470 2689305470 11.00000000
3.41676927 10.60382652 -0.58385992 12 12 1786 11.15600000 2689305473 2689305473 -3.00000000
3.12089491 9.67980194 2.34803915 59 13 1787 10.43800000 2689305475 2689305475 13.00000000
3.42648482 10.62127590 -0.19480376 10 14 1788 11.16200000 2689305477 2689305477 -1.00000000
2.70670962 8.38513756 2.36094737 40 15 1789 9.12200000 2689305480 2689305480 15.00000000
0.70215976 2.16875052 -0.61081296 4 0 1794 2.36000000 2689305500 2689305500 -15.00000000
3.43945861 10.61708164 0.19480376 13 1 1795 11.16200000 2689305503 2689305503 1.00000000
0.82924169 2.55821919 -0.62086493 3 2 1796 2.76000000 2689305505 2689305505 -13.00000000
3.44451523 10.62004471 0.58511597 13 3 1797 11.18000000 2689305507 2689305507 3.00000000
0.99698424 3.07387733 -0.62814319 2 4 1797 3.29200000 2689305510 2689305510 -11.00000000
3.44780612 10.62387276 0.97719020 12 5 1798 11.21200000 2689305512 2689305512 5.00000000
1.26046050 3.88160372 -0.64638722 2 6 1799 4.13200000 2689305514 2689305514 -9.00000000
3.45604920 10.63662529 1.37322378 12 7 1800 11.26800000 2689305516 2689305516 7.00000000
1.69519615 5.21418047 -0.67320627 2 8 1801 5.52400000 2689305519 2689305519 -7.00000000
3.46052575 10.64408112 1.77271533 12 9 1801 11.33200000 2689305521 2689305521 9.00000000
2.54549909 7.82494545 -0.71990645 4 10 1802 8.26000000 2689305523 2689305523 -5.00000000
3.24245524 9.96150017 2.03631353 46 11 1803 10.67200000 2689305526 2689305526 11.00000000
3.45006514 10.59303951 -0.58385992 12 12 1804 11.15600000 2689305528 2689305528 -3.00000000
3.11989117 9.57360268 2.32464409 64 13 1805 10.33400000 2689305530 2689305530 13.00000000
3.45859551 10.60665607 -0.19473395 10 14 1806 11.15800000 2689305533 2689305533 -1.00000000
2.73277473 8.38074303 2.36198258 42 15 1806 9.12600000 2689305535 2689305535 15.00000000
0.70611709 2.15527129 -0.60770714 4 0 1814 2.34800000 2689305556 2689305556 -15.00000000
3.48210430 10.62211227 0.19511791 13 1 1815 11.18000000 2689305558 2689305558 1.00000000
0.83816648 2.55530882 -0.62086493 3 2 1816 2.76000000 2689305560 2689305560 -13.00000000
3.48467922 10.61744499 0.58563936 13 3 1817 11.19000000 2689305563 2689305563 3.00000000
1.00403464 3.05918646 -0.62585348 2 4 1817 3.28000000 2689305565 2689305565 -11.00000000
3.48611259 10.61555862 0.97753882 12 5 1818 11.21600000 2689305567 2689305567 5.00000000
1.27461886 3.87905693 -0.64670008 2 6 1819 4.13400000 2689305569 2689305569 -9.00000000
3.49935699 10.64335442 1.37566113 10 7 1820 11.28800000 2689305572 2689305572 7.00000000
1.71710873 5.21954536 -0.67466867 2 8 1821 5.53600000 2689305574 2689305574 -7.00000000
3.49704194 10.63006020 1.77240252 12 9 1821 11.33000000 2689305576 2689305576 9.00000000
2.56532216 7.79330206 -0.71781468 4 10 1822 8.23600000 2689305579 2689305579 -5.00000000
3.27720761 9.95012188 2.03631353 43 11 1823 10.67200000 2689305581 2689305581 11.00000000
3.49514771 10.60559177 -0.58522063 12 12 1824 11.18200000 2689305583 2689305583 -3.00000000
3.11911488 9.45901394 2.29944968 60 13 1825 10.22200000 2689305586 2689305586 13.00000000
3.50061131 10.60971069 -0.19501320 8 14 1826 11.17400000 2689305588 2689305588 -1.00000000
2.75838041 8.36014557 2.35887671 40 15 1826 9.11400000 2689305590 2689305590 15.00000000
0.71120459 2.14545846 -0.60563654 4 0 1834 2.34000000 2689305611 2689305611 -15.00000000
3.51853156 10.60799503 0.19508299 13 1 1835 11.17800000 2689305613 2689305613 1.00000000
0.84953642 2.55976582 -0.62266451 3 2 1836 2.76800000 2689305616 2689305616 -13.00000000
3.52738476 10.62227535 0.58658141 13 3 1837 11.20800000 2689305618 2689305618 3.00000000
1.01470709 3.05566311 -0.62585348 2 4 1837 3.28000000 2689305620 2689305620 -11.00000000
3.52628779 10.61277962 0.97841036 12 5 1838 11.22600000 2689305622 2689305622 5.00000000
1.28628194 3.86896038 -0.64576149 2 6 1839 4.12800000 2689305625 2689305625 -9.00000000
3.53899431 10.63860893 1.37663615 12 7 1840 11.29600000 2689305627 2689305627 7.00000000
3.53332806 10.61538982 -1.37371123 2 8 1841 11.27200000 2689305629 2689305629 -7.00000000
3.54409409 10.64153576 1.77646983 12 9 1842 11.35600000 2689305632 2689305632 9.00000000
2.58747387 7.76917744 -0.71642023 4 10 1842 8.22000000 2689305634 2689305634 -5.00000000
3.31067872 9.93489647 2.03555036 43 11 1843 10.66800000 2689305636 2689305636 11.00000000
3.53972793 10.61606407 -0.58647674 12 12 1844 11.20600000 2689305639 2689305639 -3.00000000
3.11511016 9.33715343 2.27245545 62 13 1845 10.10200000 2689305641 2689305641 13.00000000
3.54205704 10.61070442 -0.19525753 10 14 1846 11.18800000 2689305643 2689305643 -1.00000000
2.78754592 8.35046577 2.35887671 45 15 1846 9.11400000 2689305645 2689305645 15.00000000
0.72114635 2.15028930 -0.60770714 4 0 1854 2.34800000 2689305666 2689305666 -15.00000000
3.55681133 10.59944057 0.19515280 13 1 1855 11.18200000 2689305669 2689305669 1.00000000
0.85474479 2.54570031 -0.61996508 3 2 1856 2.75600000 2689305671 2689305671 -13.00000000
3.57271051 10.63451099 0.58794212 13 3 1857 11.23400000 2689305673 2689305673 3.00000000
1.03286994 3.07443500 -0.63043290 2 4 1857 3.30400000 2689305675 2689305675 -11.00000000
3.56902528 10.61740208 0.97997916 12 5 1858 11.24400000 2689305678 2689305678 5.00000000
1.30166852 3.87006378 -0.64670008 2 6 1859 4.13400000 2689305680 2689305680 -9.00000000
3.57737470 10.62995434 1.37712359 12 7 1860 11.30000000 2689305682 2689305682 7.00000000
3.57289505 10.61051655 -1.37468624 2 8 1861 11.28000000 2689305685 2689305685 -7.00000000
3.58374119 10.63658810 1.77772129 12 9 1862 11.36400000 2689305687 2689305687 9.00000000
2.61076069 7.74876976 -0.71537435 4 10 1862 8.20800000 2689305689 2689305689 -5.00000000
3.34533787 9.92327976 2.03555036 43 11 1863 10.66800000 2689305692 2689305692 11.00000000
3.57420969 10.59607315 -0.58605802 12 12 1864 11.19800000 2689305694 2689305694 -3.00000000
3.12026405 9.24498081 2.25265980 62 13 1865 10.01400000 2689305696 2689305696 13.00000000
3.58419204 10.61343288 -0.19553676 10 14 1866 11.20400000 2689305698 2689305698 -1.00000000
2.81813335 8.34019279 2.35887671 42 15 1867 9.11400000 2689305701 2689305701 15.00000000
0.73150665 2.15494895 -0.60977769 4 0 1875 2.35600000 2689305722 2689305722 -15.00000000
3.60078120 10.60148048 0.19543205 13 1 1876 11.19800000 2689305724 2689305724 1.00000000
0.86406952 2.54255056 -0.61996508 3 2 1877 2.75600000 2689305726 2689305726 -13.00000000
3.61102104 10.61945343 0.58783746 10 3 1878 11.23200000 2689305728 2689305728 3.00000000
1.04413128 3.07062864 -0.63043290 2 4 1878 3.30400000 2689305731 2689305731 -11.00000000
3.61304998 10.61933994 0.98137367 12 5 1879 11.26000000 2689305733 2689305733 5.00000000
1.31648088 3.86713696 -0.64701295 2 6 1880 4.13600000 2689305735 2689305735 -9.00000000
3.62015176 10.62804508 1.37858605 12 7 1881 11.31200000 2689305738 2689305738 7.00000000
3.61304140 10.60110760 -1.37517369 2 8 1882 11.28400000 2689305740 2689305740 -7.00000000
3.62907791 10.64207840 1.78084993 12 9 1883 11.38400000 2689305742 2689305742 9.00000000
2.64364529 7.75234890 -0.71659452 4 10 1883 8.22200000 2689305745 2689305745 -5.00000000
3.37914991 9.90351963 2.03402400 43 11 1884 10.66000000 2689305747 2689305747 11.00000000
3.61947536 10.60180283 -0.58710474 12 12 1885 11.21800000 2689305749 2689305749 -3.00000000
3.10751176 9.09701824 2.21936703 42 13 1886 9.86600000 2689305751 2689305751 13.00000000
3.62630200 10.60968590 -0.19571128 8 14 1887 11.21400000 2689305754 2689305754 -1.00000000
2.85222721 8.34492970 2.36301780 42 15 1887 9.13000000 2689305756 2689305756 15.00000000
0.74027908 2.15603685 -0.61081296 4 0 1895 2.36000000 2689305777 2689305777 -15.00000000
3.64556193 10.61154079 0.19585091 13 1 1896 11.22200000 2689305779 2689305779 1.00000000
0.87293941 2.53951883 -0.61996508 3 2 1897 2.75600000 2689305781 2689305781 -13.00000000
3.65066600 10.61433887 0.58825612 13 3 1898 11.24000000 2689305784 2689305784 3.00000000
1.05228937 3.05953908 -0.62890643 2 4 1898 3.29600000 2689305786 2689305786 -11.00000000
3.65657973 10.62550259 0.98311681 12 5 1899 11.28000000 2689305788 2689305788 5.00000000
1.32675600 3.85317922 -0.64544863 4 6 1900 4.12600000 2689305791 2689305791 -9.00000000
3.66498780 10.63786602 1.38151085 12 7 1901 11.33600000 2689305793 2689305793 7.00000000
3.65519953 10.60344505 -1.37712359 2 8 1902 11.30000000 2689305795 2689305795 -7.00000000
3.66684771 10.63121223 1.78116286 12 9 1903 11.38600000 2689305798 2689305798 9.00000000
2.67393804 7.75249147 -0.71746606 4 10 1903 8.23200000 2689305800 2689305800 -5.00000000
3.41626096 9.89908695 2.03555036 46 11 1904 10.66800000 2689305802 2689305802 11.00000000
3.65646052 10.58910465 -0.58710474 12 12 1905 11.21800000 2689305804 2689305804 -3.00000000
3.10806489 8.99586201 2.19732189 55 13 1906 9.76800000 2689305807 2689305807 13.00000000
3.66658139 10.60641289 -0.19588581 10 14 1907 11.22400000 2689305809 2689305809 -1.00000000
0.74362421 2.14261961 -0.60770714 4 0 1914 2.34800000 2689305832 2689305832 -15.00000000
3.68466711 10.61072826 0.19606033 13 1 1915 11.23400000 2689305834 2689305834 1.00000000
0.88775188 2.55501795 -0.62446415 3 2 1916 2.77600000 2689305837 2689305837 -13.00000000
3.68792701 10.61413765 0.58888417 10 3 1916 11.25200000 2689305839 2689305839 3.00000000
1.05856133 3.04490638 -0.62661672 2 4 1917 3.28400000 2689305841 2689305841 -11.00000000
3.69506788 10.62272739 0.98398834 12 5 1918 11.29000000 2689305844 2689305844 5.00000000
1.34796739 3.87301135 -0.64951593 2 6 1919 4.15200000 2689305846 2689305846 -9.00000000
3.70285535 10.63315201 1.38248587 12 7 1920 11.34400000 2689305848 2689305848 7.00000000
3.69034171 10.59126568 -1.37712359 2 8 1921 11.30000000 2689305850 2689305850 -7.00000000
3.70347834 10.62896729 1.78272712 12 9 1921 11.39600000 2689305853 2689305853 9.00000000
2.70028758 7.74546289 -0.71764040 4 10 1922 8.23400000 2689305855 2689305855 -5.00000000
3.45165515 9.89511871 2.03707695 46 11 1923 10.67600000 2689305857 2689305857 11.00000000
3.69682026 10.59200668 -0.58794212 12 12 1924 11.23400000 2689305860 2689305860 -3.00000000
3.10382771 8.88799763 2.17347717 57 13 1925 9.66200000 2689305862 2689305862 13.00000000
3.70041418 10.59041977 -0.19581600 12 14 1926 11.22000000 2689305864 2689305864 -1.00000000
2.41192198 6.90281343 1.95926023 11 15 1926 7.57000000 2689305867 2689305867 15.00000000
0.75109881 2.14001083 -0.60770714 4 0 1934 2.34800000 2689305887 2689305887 -15.00000000
3.72168303 10.59780121 0.19606033 13 1 1935 11.23400000 2689305890 2689305890 1.00000000
0.89472711 2.54638791 -0.62311441 3 2 1936 2.77000000 2689305892 2689305892 -13.00000000
3.73342919 10.61939144 0.58993089 10 3 1937 11.27200000 2689305894 2689305894 3.00000000
1.06788123 3.03748870 -0.62585348 2 4 1937 3.28000000 2689305897 2689305897 -11.00000000
3.73212576 10.60976505 0.98398834 12 5 1938 11.29000000 2689305899 2689305899 5.00000000
1.35492027 3.84964919 -0.64638722 2 6 1939 4.13200000 2689305901 2689305901 -9.00000000
3.74918079 10.64637566 1.38589823 10 7 1940 11.37200000 2689305903 2689305903 7.00000000
3.73652554 10.60453129 -1.38053596 2 8 1941 11.32800000 2689305906 2689305906 -7.00000000
3.74766493 10.63022614 1.78523016 12 9 1942 11.41200000 2689305908 2689305908 9.00000000
2.72664523 7.73411083 -0.71746606 4 10 1942 8.23200000 2689305910 2689305910 -5.00000000
3.48356223 9.87560368 2.03555036 46 11 1943 10.66800000 2689305913 2689305913 11.00000000
3.73709440 10.58845425 -0.58846551 12 12 1944 11.24400000 2689305915 2689305915 -3.00000000
3.10498428 8.79258251 2.15278149 43 13 1945 9.57000000 2689305917 2689305917 13.00000000
3.74135613 10.58875084 -0.19602543 10 14 1946 11.23200000 2689305920 2689305920 -1.00000000
2.43656206 6.89210558 1.95874250 9 15 1947 7.56800000 2689305922 2689305922 15.00000000
0.75819123 2.13750839 -0.60770714 4 0 1953 2.34800000 2689305943 2689305943 -15.00000000
3.76081896 10.59670830 0.19626977 13 1 1954 11.24600000 2689305945 2689305945 1.00000000
0.90251416 2.54157066 -0.62266451 3 2 1955 2.76800000 2689305947 2689305947 -13.00000000
3.77078271 10.61890221 0.59055895 13 3 1955 11.28400000 2689305950 2689305950 3.00000000
1.08189178 3.04503036 -0.62814319 2 4 1956 3.29200000 2689305952 2689305952 -11.00000000
3.77462935 10.61798000 0.98590577 12 5 1957 11.31200000 2689305954 2689305954 5.00000000
1.36966467 3.85071826 -0.64732581 4 6 1958 4.13800000 2689305956 2689305956 -9.00000000
3.78446484 10.63388443 1.38589823 10 7 1959 11.37200000 2689305959 2689305959 7.00000000
3.76967311 10.58647156 -1.37980473 2 8 1960 11.32200000 2689305961 2689305961 -7.00000000
3.78687310 10.62890434 1.78710735 12 9 1961 11.42400000 2689305963 2689305963 9.00000000
2.75094008 7.72127295 -0.71711743 4 10 1961 8.22800000 2689305966 2689305966 -5.00000000
3.51497340 9.86029911 2.03478718 43 11 1962 10.66400000 2689305968 2689305968 11.00000000
3.77755427 10.59105301 -0.58930284 12 12 1963 11.26000000 2689305970 2689305970 -3.00000000
3.78317356 10.59511852 -0.19637448 10 14 1965 11.25200000 2689305975 2689305975 -1.00000000
2.46145034 6.89351368 1.96133077 6 15 1965 7.57800000 2689305977 2689305977 15.00000000
0.76564789 2.13484883 -0.60770714 4 0 1973 2.34800000 2689305998 2689305998 -15.00000000
3.80116248 10.59292698 0.19644429 13 1 1974 11.25600000 2689306000 2689306000 1.00000000
0.91072190 2.53657055 -0.62221462 3 2 1975 2.76600000 2689306002 2689306002 -13.00000000
3.81255102 10.61883354 0.59129161 10 3 1975 11.29800000 2689306005 2689306005 3.00000000
1.09251428 3.04123545 -0.62814319 2 4 1976 3.29200000 2689306007 2689306007 -11.00000000
3.81503963 10.61411476 0.98677731 12 5 1977 11.32200000 2689306009 2689306009 5.00000000
1.38109243 3.84033728 -0.64638722 2 6 1978 4.13200000 2689306012 2689306012 -9.00000000
3.82424927 10.62808037 1.38687313 10 7 1979 11.38000000 2689306014 2689306014 7.00000000
1.85858560 5.16241980 -0.67369372 2 8 1980 5.52800000 2689306016 2689306016 -7.00000000
3.83064651 10.63420582 1.79023600 12 9 1981 11.44400000 2689306019 2689306019 9.00000000
2.78732896 7.73786592 -0.71955782 8 10 1981 8.25600000 2689306021 2689306021 -5.00000000
3.54803944 9.84427547 2.03402400 46 11 1982 10.66000000 2689306023 2689306023 11.00000000
3.81382322 10.57592392 -0.58919817 12 12 1983 11.25800000 2689306026 2689306026 -3.00000000
3.01330233 8.35147095 2.04975390 9 13 1984 9.11200000 2689306028 2689306028 13.00000000
3.82624555 10.59877586 -0.19668862 10 14 1985 11.27000000 2689306030 2689306030 -1.00000000
2.49730587 6.91758680 1.97064817 11 15 1985 7.61400000 2689306032 2689306032 15.00000000
0.77704632 2.14306021 -0.61081296 4 0 1993 2.36000000 2689306053 2689306053 -15.00000000
3.84629917 10.60215187 0.19686314 13 1 1994 11.28000000 2689306055 2689306055 1.00000000
0.91757590 2.52788067 -0.62086493 3 2 1995 2.76000000 2689306058 2689306058 -13.00000000
3.85280895 10.60854340 0.59150100 10 3 1996 11.30200000 2689306060 2689306060 3.00000000
1.10044277 3.03002191 -0.62661672 2 4 1996 3.28400000 2689306062 2689306062 -11.00000000
3.85614944 10.61196804 0.98782319 12 5 1997 11.33400000 2689306065 2689306065 5.00000000
1.39516425 3.83734965 -0.64670008 4 6 1998 4.13400000 2689306067 2689306067 -9.00000000
3.86675382 10.62959099 1.38882303 10 7 1999 11.39600000 2689306069 2689306069 7.00000000
1.88474178 5.17828560 -0.67661858 2 8 2000 5.55200000 2689306072 2689306072 -7.00000000
3.86791658 10.62701321 1.79117465 12 9 2000 11.45000000 2689306074 2689306074 9.00000000
2.80750442 7.70936823 -0.71781468 4 10 2001 8.23600000 2689306076 2689306076 -5.00000000
3.58506918 9.83920956 2.03555036 50 11 2002 10.66800000 2689306079 2689306079 11.00000000
3.85892582 10.58506393 -0.59045428 12 12 2003 11.28200000 2689306081 2689306081 -3.00000000
3.05245280 8.36836243 2.05650258 9 13 2004 9.14200000 2689306083 2689306083 13.00000000
3.86664677 10.59474850 -0.19686314 10 14 2005 11.28000000 2689306085 2689306085 -1.00000000
2.52198052 6.90657234 1.97013056 15 15 2006 7.61200000 2689306088 2689306088 15.00000000
0.78186285 2.13307929 -0.60874242 4 0 2013 2.35200000 2689306108 2689306108 -15.00000000
3.88879228 10.60368061 0.19714238 13 1 2014 11.29600000 2689306111 2689306111 1.00000000
0.92639428 2.52466249 -0.62086493 3 2 2015 2.76000000 2689306113 2689306113 -13.00000000
3.89140701 10.60508347 0.59202433 10 3 2015 11.31200000 2689306115 2689306115 3.00000000
1.11101282 3.02616215 -0.62661672 2 4 2016 3.28400000 2689306118 2689306118 -11.00000000
3.89660358 10.60779476 0.98869473 12 5 2017 11.34400000 2689306120 2689306120 5.00000000
1.41536510 3.85099721 -0.64982879 4 6 2018 4.15400000 2689306122 2689306122 -9.00000000
3.91068578 10.63465977 1.39126039 12 7 2019 11.41600000 2689306125 2689306125 7.00000000
1.89595139 5.15304470 -0.67418122 2 8 2020 5.53200000 2689306127 2689306127 -7.00000000
3.90752292 10.61461926 1.79148746 12 9 2021 11.45200000 2689306129 2689306129 9.00000000
2.84059262 7.71634865 -0.71938348 8 10 2021 8.25400000 2689306132 2689306132 -5.00000000
3.62142825 9.83216190 2.03669524 50 11 2022 10.67400000 2689306134 2689306134 11.00000000
3.89999509 10.58277321 -0.59108227 12 12 2023 11.29400000 2689306136 2689306136 -3.00000000
3.90152931 10.57555771 -0.19675843 8 14 2025 11.27400000 2689306141 2689306141 -1.00000000
2.54540467 6.89591455 1.96961296 15 15 2026 7.61000000 2689306143 2689306143 15.00000000
0.78587806 2.12336540 -0.60667187 4 0 2031 2.34400000 2689306164 2689306164 -15.00000000
3.92208552 10.59141159 0.19714238 13 1 2032 11.29600000 2689306166 2689306166 1.00000000
0.93838340 2.53270364 -0.62356430 3 2 2033 2.77200000 2689306168 2689306168 -13.00000000
3.93233752 10.61340714 0.59317571 10 3 2033 11.33400000 2689306171 2689306171 3.00000000
1.12870324 3.04474711 -0.63119614 2 4 2034 3.30800000 2689306173 2689306173 -11.00000000
3.93545246 10.61044502 0.99008924 12 5 2035 11.36000000 2689306175 2689306175 5.00000000
1.42058372 3.82801223 -0.64670008 4 6 2036 4.13400000 2689306178 2689306178 -9.00000000
3.94960380 10.63720894 1.39321029 12 7 2037 11.43200000 2689306180 2689306180 7.00000000
1.91005683 5.14148092 -0.67344999 2 8 2038 5.52600000 2689306182 2689306182 -7.00000000
3.94725490 10.62519932 1.79524195 12 9 2038 11.47600000 2689306185 2689306185 9.00000000
2.85163116 7.67190313 -0.71607161 4 10 2039 8.21600000 2689306187 2689306187 -5.00000000
3.65161467 9.81889629 2.03631353 43 11 2040 10.67200000 2689306189 2689306189 11.00000000
3.94018769 10.58918762 -0.59212899 12 12 2041 11.31400000 2689306191 2689306191 -3.00000000
3.12692380 8.39906979 2.06909990 53 13 2042 9.19800000 2689306194 2689306194 13.00000000
3.94590259 10.59323120 -0.19731690 12 14 2043 11.30600000 2689306196 2689306196 -1.00000000
2.56908011 6.89331484 1.97116590 18 15 2044 7.61600000 2689306198 2689306198 15.00000000
0.79599267 2.12784696 -0.60874242 4 0 2051 2.35200000 2689306219 2689306219 -15.00000000
3.96253753 10.58701992 0.19731690 13 1 2052 11.30600000 2689306221 2689306221 1.00000000
0.94311798 2.51846290 -0.62086493 3 2 2053 2.76000000 2689306224 2689306224 -13.00000000
3.97846699 10.62393188 0.59453648 13 3 2053 11.36000000 2689306226 2689306226 3.00000000
1.13519156 3.02975798 -0.62890643 4 4 2054 3.29600000 2689306228 2689306228 -11.00000000
3.97386456 10.60037422 0.99043787 12 5 2055 11.36400000 2689306231 2689306231 5.00000000
1.43393731 3.82302999 -0.64670008 4 6 2056 4.13400000 2689306233 2689306233 -9.00000000
3.99089551 10.63450909 1.39467275 10 7 2057 11.44400000 2689306235 2689306235 7.00000000
1.94125032 5.17009163 -0.67808104 2 8 2058 5.56400000 2689306238 2689306238 -7.00000000
3.98987460 10.62615108 1.79774487 12 9 2058 11.49200000 2689306240 2689306240 9.00000000
2.88820314 7.68801403 -0.71851194 4 10 2059 8.24400000 2689306242 2689306242 -5.00000000
3.68034077 9.79138756 2.03326058 46 11 2060 10.65600000 2689306244 2689306244 11.00000000
3.97782969 10.57723904 -0.59223366 12 12 2061 11.31600000 2689306247 2689306247 -3.00000000
3.16034079 8.39904690 2.07179928 57 13 2062 9.21000000 2689306249 2689306249 13.00000000
3.98778772 10.59249401 -0.19756123 10 14 2063 11.32000000 2689306251 2689306251 -1.00000000
2.59653163 6.89334440 1.97375405 18 15 2064 7.62600000 2689306254 2689306254 15.00000000
0.80614811 2.13228345 -0.61081296 4 0 2071 2.36000000 2689306274 2689306274 -15.00000000
0.95052373 2.51151037 -0.61996508 3 2 2073 2.75600000 2689306279 2689306279 -13.00000000
4.01482010 10.60811138 0.59443182 7 3 2073 11.35800000 2689306281 2689306281 3.00000000
1.15132236 3.04046512 -0.63195938 2 4 2074 3.31200000 2689306284 2689306284 -11.00000000
4.01860714 10.60693264 0.99235529 12 5 2075 11.38600000 2689306286 2689306286 5.00000000
1.44447267 3.81061292 -0.64544863 4 6 2076 4.12600000 2689306288 2689306288 -9.00000000
4.03010416 10.62608147 1.39540398 8 7 2077 11.45000000 2689306290 2689306290 7.00000000
1.94308722 5.12059689 -0.67247504 2 8 2078 5.51800000 2689306293 2689306293 -7.00000000
4.03675413 10.63801479 1.80212510 12 9 2078 11.52000000 2689306295 2689306295 9.00000000
2.91855764 7.68719864 -0.71938348 4 10 2079 8.25400000 2689306297 2689306297 -5.00000000
3.71728539 9.78582287 2.03478718 46 11 2080 10.66400000 2689306300 2689306300 11.00000000
3.18409848 8.37339211 2.06820011 59 13 2082 9.19400000 2689306304 2689306304 13.00000000
2.62143731 6.89011288 1.97530699 20 15 2083 7.63200000 2689306309 2689306309 15.00000000
0.81220728 2.12584734 -0.60977769 4 0 2091 2.35600000 2689306330 2689306330 -15.00000000
0.96485388 2.52273822 -0.62356430 3 2 2093 2.77200000 2689306334 2689306334 -13.00000000
1.15491211 3.01809192 -0.62814319 2 4 2094 3.29200000 2689306339 2689306339 -11.00000000
1.46412504 3.82214952 -0.64826441 4 6 2096 4.14400000 2689306343 2689306343 -9.00000000
1.97587526 5.15270662 -0.67759353 2 8 2098 5.56000000 2689306348 2689306348 -7.00000000
2.95465112 7.70114660 -0.72164953 4 10 2099 8.28000000 2689306353 2689306353 -5.00000000
3.74860740 9.76545620 2.03326058 46 11 2100 10.65600000 2689306355 2689306355 11.00000000
3.20771575 8.34767437 2.06460071 59 13 2102 9.17800000 2689306360 2689306360 13.00000000
2.65568972 6.90389824 1.98203623 20 15 2104 7.65800000 2689306364 2689306364 15.00000000
0.82138562 2.12646031 -0.61081296 4 0 2112 2.36000000 2689306385 2689306385 -15.00000000
0.97198528 2.51373219 -0.62221462 3 2 2114 2.76600000 2689306390 2689306390 -13.00000000
1.16454947 3.01017666 -0.62737995 4 4 2115 3.28800000 2689306394 2689306394 -11.00000000
1.48097754 3.82412577 -0.64951593 2 6 2117 4.15200000 2689306399 2689306399 -9.00000000
1.98757231 5.12692118 -0.67515618 2 8 2119 5.54000000 2689306403 2689306403 -7.00000000
2.97277045 7.66425991 -0.71920919 4 10 2120 8.25200000 2689306408 2689306408 -5.00000000
3.78863597 9.76263237 2.03555036 43 11 2121 10.66800000 2689306410 2689306410 11.00000000
3.23828983 8.33586121 2.06460071 59 13 2123 9.17800000 2689306415 2689306415 13.00000000
2.68117237 6.89818716 1.98307157 18 15 2124 7.66200000 2689306420 2689306420 15.00000000
0.82318437 2.10918307 -0.60667187 4 0 2132 2.34400000 2689306440 2689306440 -15.00000000
0.98288137 2.51576948 -0.62356430 3 2 2134 2.77200000 2689306445 2689306445 -13.00000000
1.17933834 3.01706433 -0.62966967 2 4 2135 3.30000000 2689306449 2689306449 -11.00000000
1.49503708 3.82077265 -0.64982879 4 6 2137 4.15400000 2689306454 2689306454 -9.00000000
2.00111246 5.10886192 -0.67369372 2 8 2139 5.52800000 2689306459 2689306459 -7.00000000
3.00095963 7.65754604 -0.71955782 4 10 2140 8.25600000 2689306463 2689306463 -5.00000000
3.81839085 9.73838139 2.03326058 46 11 2141 10.65600000 2689306466 2689306466 11.00000000
3.27306366 8.33901882 2.06820011 56 13 2143 9.19400000 2689306470 2689306470 13.00000000
2.70502448 6.88471794 1.98203623 15 15 2145 7.65800000 2689306475 2689306475 15.00000000
0.83300751 2.11363077 -0.60874242 4 0 2151 2.35200000 2689306496 2689306496 -15.00000000
0.98692757 2.50161958 -0.62086493 3 2 2153 2.76000000 2689306500 2689306500 -13.00000000
1.18645358 3.00583243 -0.62814319 2 4 2154 3.29200000 2689306505 2689306505 -11.00000000
1.50552130 3.81028223 -0.64889014 2 6 2156 4.14800000 2689306509 2689306509 -9.00000000
2.03118515 5.13542509 -0.67808104 2 8 2158 5.56400000 2689306514 2689306514 -7.00000000
3.02560329 7.64569998 -0.71938348 4 10 2159 8.25400000 2689306519 2689306519 -5.00000000
3.85066342 9.72566605 2.03326058 43 11 2160 10.65600000 2689306521 2689306521 11.00000000
3.30213499 8.33174229 2.06909990 60 13 2162 9.19800000 2689306526 2689306526 13.00000000
2.73304915 6.89234829 1.98669493 11 15 2163 7.67600000 2689306530 2689306530 15.00000000
0.84323877 2.11788940 -0.61081296 4 0 2171 2.36000000 2689306551 2689306551 -15.00000000
0.99565387 2.49815941 -0.62086493 3 2 2173 2.76000000 2689306555 2689306555 -13.00000000
1.19984734 3.00896692 -0.62966967 2 4 2174 3.30000000 2689306560 2689306560 -11.00000000
1.51954472 3.80683851 -0.64920300 4 6 2176 4.15000000 2689306565 2689306565 -9.00000000
2.05057192 5.13199043 -0.67856848 2 8 2178 5.56800000 2689306569 2689306569 -7.00000000
3.05301285 7.63694191 -0.71955782 4 10 2179 8.25600000 2689306574 2689306574 -5.00000000
3.88167262 9.70487404 2.03173423 43 11 2180 10.64800000 2689306576 2689306576 11.00000000
3.32685208 8.30931091 2.06640029 60 13 2182 9.18600000 2689306581 2689306581 13.00000000
2.76260448 6.89304399 1.98980081 9 15 2184 7.68800000 2689306585 2689306585 15.00000000
0.85099560 2.11478472 -0.61081296 4 0 2192 2.36000000 2689306606 2689306606 -15.00000000
1.00625956 2.49810863 -0.62176472 3 2 2194 2.76400000 2689306611 2689306611 -13.00000000
1.20793235 2.99726534 -0.62814319 2 4 2195 3.29200000 2689306615 2689306615 -11.00000000
1.53274834 3.79941154 -0.64889014 2 6 2197 4.14800000 2689306620 2689306620 -9.00000000
2.06788135 5.12075853 -0.67808104 2 8 2199 5.56400000 2689306625 2689306625 -7.00000000
3.08098316 7.62570095 -0.71955782 4 10 2200 8.25600000 2689306629 2689306629 -5.00000000
3.91868830 9.69422245 2.03249741 43 11 2201 10.65200000 2689306631 2689306631 11.00000000
3.35582304 8.29344845 2.06550050 60 13 2203 9.18200000 2689306636 2689306636 13.00000000
2.79027367 6.89231205 1.99238896 6 15 2204 7.69800000 2689306641 2689306641 15.00000000
0.85691750 2.10822201 -0.60977769 4 0 2212 2.35600000 2689306661 2689306661 -15.00000000
1.01644230 2.49819088 -0.62266451 3 2 2214 2.76800000 2689306666 2689306666 -13.00000000
1.21986783 2.99666739 -0.62890643 4 4 2215 3.29600000 2689306671 2689306671 -11.00000000
1.55494642 3.81599021 -0.65264457 2 6 2217 4.17200000 2689306675 2689306675 -9.00000000
2.07824612 5.09512854 -0.67564362 2 8 2219 5.54400000 2689306680 2689306680 -7.00000000
3.10758305 7.61489964 -0.71955782 4 10 2220 8.25600000 2689306684 2689306684 -5.00000000
3.95398784 9.68411922 2.03326058 46 11 2221 10.65600000 2689306687 2689306687 11.00000000
3.38770103 8.28889942 2.06730008 57 13 2223 9.19000000 2689306691 2689306691 13.00000000
3.05910349 7.47744513 2.16476250 29 15 2225 8.36400000 2689306696 2689306696 15.00000000
0.86243719 2.10179424 -0.60874242 4 0 2231 2.35200000 2689306717 2689306717 -15.00000000
1.02916348 2.50562215 -0.62536395 3 2 2233 2.78000000 2689306721 2689306721 -13.00000000
1.23129082 2.99623752 -0.62966967 2 4 2234 3.30000000 2689306726 2689306726 -11.00000000
1.56458628 3.80350542 -0.65139312 2 6 2236 4.16400000 2689306731 2689306731 -9.00000000
2.10117722 5.10289335 -0.67759353 2 8 2238 5.56000000 2689306735 2689306735 -7.00000000
3.14344287 7.63034344 -0.72199816 4 10 2239 8.28400000 2689306740 2689306740 -5.00000000
3.98458338 9.66732407 2.03249741 46 11 2240 10.65200000 2689306742 2689306742 11.00000000
3.41219640 8.27041435 2.06550050 59 13 2242 9.18200000 2689306747 2689306747 13.00000000
3.06341481 7.42136955 2.15130401 24 15 2243 8.31200000 2689306751 2689306751 15.00000000
0.87124777 2.10234022 -0.60977769 4 0 2251 2.35600000 2689306772 2689306772 -15.00000000
1.03342330 2.49121428 -0.62266451 3 2 2253 2.76800000 2689306777 2689306777 -13.00000000
1.24174213 2.99192119 -0.62966967 4 4 2254 3.30000000 2689306781 2689306781 -11.00000000
1.57027483 3.77977848 -0.64826441 2 6 2256 4.14400000 2689306786 2689306786 -9.00000000
2.12355018 5.10652542 -0.67905599 2 8 2258 5.57200000 2689306790 2689306790 -7.00000000
3.16317034 7.60276842 -0.72042936 4 10 2259 8.26600000 2689306795 2689306795 -5.00000000
4.01604080 9.64791870 2.03135252 37 11 2260 10.64600000 2689306797 2689306797 11.00000000
3.44254398 8.26205063 2.06640029 56 13 2262 9.18600000 2689306802 2689306802 13.00000000
2.96714950 7.11411619 2.06537604 6 15 2264 7.98000000 2689306807 2689306807 15.00000000
0.87672353 2.09587502 -0.60874242 4 0 2270 2.35200000 2689306827 2689306827 -15.00000000
1.04017353 2.48417878 -0.62176472 3 2 2272 2.76400000 2689306832 2689306832 -13.00000000
1.25469124 2.99503016 -0.63119614 4 4 2273 3.30800000 2689306837 2689306837 -11.00000000
1.58509207 3.78001571 -0.64920300 2 6 2275 4.15000000 2689306841 2689306841 -9.00000000
2.13509440 5.08664274 -0.67734981 2 8 2277 5.55800000 2689306846 2689306846 -7.00000000
3.20302200 7.62714005 -0.72374129 4 10 2278 8.30400000 2689306850 2689306850 -5.00000000
3.46841192 8.24699688 2.06550050 59 13 2281 9.18200000 2689306857 2689306857 13.00000000
3.02919436 7.19913340 2.09281087 18 15 2282 8.08600000 2689306862 2689306862 15.00000000
0.89004803 2.10703874 -0.61288351 4 0 2290 2.36800000 2689306883 2689306883 -15.00000000
1.05035639 2.48412251 -0.62266451 3 2 2292 2.76800000 2689306887 2689306887 -13.00000000
1.27125740 3.00509715 -0.63424909 4 4 2293 3.32400000 2689306892 2689306892 -11.00000000
1.59211516 3.75990748 -0.64670008 2 6 2295 4.13400000 2689306896 2689306896 -9.00000000
2.13811803 5.04443264 -0.67271876 2 8 2297 5.52000000 2689306901 2689306901 -7.00000000
3.22884846 7.61407852 -0.72356695 4 10 2298 8.30200000 2689306906 2689306906 -5.00000000
3.48956060 8.21690178 2.06100154 59 13 2301 9.16200000 2689306913 2689306913 13.00000000
3.03315282 7.13873100 2.07831693 9 15 2302 8.03000000 2689306917 2689306917 15.00000000
0.89624822 2.10020876 -0.61184824 4 0 2311 2.36400000 2689306938 2689306938 -15.00000000
1.06251609 2.48742437 -0.62446415 3 2 2313 2.77600000 2689306943 2689306943 -13.00000000
1.26991880 2.97153258 -0.62814319 4 4 2314 3.29200000 2689306947 2689306947 -11.00000000
1.61676204 3.77947330 -0.65108025 2 6 2316 4.16200000 2689306952 2689306952 -9.00000000
2.16049933 5.04568624 -0.67393744 2 8 2318 5.53000000 2689306956 2689306956 -7.00000000
3.24496531 7.57472181 -0.72095233 4 10 2319 8.27200000 2689306961 2689306961 -5.00000000
4.48499393 10.46427536 2.21300268 56 11 2320 11.59800000 2689306963 2689306963 11.00000000
3.52119040 8.20763874 2.06190133 59 13 2322 9.16600000 2689306968 2689306968 13.00000000
3.06386900 7.13821745 2.08142281 27 15 2323 8.04200000 2689306972 2689306972 15.00000000
0.89440054 2.07577753 -0.60563654 4 0 2331 2.34000000 2689306993 2689306993 -15.00000000
1.06964886 2.48012161 -0.62356430 3 2 2333 2.77200000 2689306998 2689306998 -13.00000000
1.28261709 2.97248960 -0.62928808 4 4 2334 3.29800000 2689307002 2689307002 -11.00000000
1.62446225 3.76111269 -0.64889014 2 6 2336 4.14800000 2689307007 2689307007 -9.00000000
2.19306612 5.07273388 -0.67856848 2 8 2338 5.56800000 2689307012 2689307012 -7.00000000
3.26347661 7.54506207 -0.71920919 4 10 2339 8.25200000 2689307016 2689307016 -5.00000000
4.52149391 10.44855595 2.21300268 56 11 2340 11.59800000 2689307019 2689307019 11.00000000
3.55291724 8.20245075 2.06370091 59 13 2342 9.17400000 2689307023 2689307023 13.00000000
3.08232665 7.10921574 2.07624626 38 15 2344 8.02200000 2689307028 2689307028 15.00000000
0.90590107 2.08342981 -0.60874242 4 0 2350 2.35200000 2689307049 2689307049 -15.00000000
1.07786739 2.47656083 -0.62356430 3 2 2352 2.77200000 2689307053 2689307053 -13.00000000
1.29089952 2.96461987 -0.62852484 2 4 2353 3.29400000 2689307058 2689307058 -11.00000000
1.63771486 3.75751591 -0.64920300 2 6 2355 4.15000000 2689307062 2689307062 -9.00000000
2.20987582 5.06543350 -0.67856848 2 8 2357 5.56800000 2689307067 2689307067 -7.00000000
3.30441928 7.57071924 -0.72269541 4 10 2358 8.29200000 2689307072 2689307072 -5.00000000
4.56083155 10.44429970 2.21529245 56 11 2359 11.61000000 2689307074 2689307074 11.00000000
3.58009791 8.19062328 2.06370091 60 13 2361 9.17400000 2689307078 2689307078 13.00000000
3.10928988 7.11011744 2.07935214 38 15 2362 8.03400000 2689307083 2689307083 15.00000000
0.91472107 2.08379292 -0.60977769 4 0 2370 2.35600000 2689307104 2689307104 -15.00000000
1.08650565 2.47278333 -0.62356430 3 2 2372 2.77200000 2689307108 2689307108 -13.00000000
1.31072092 2.98166299 -0.63310426 4 4 2373 3.31800000 2689307113 2689307113 -11.00000000
1.65241218 3.75539255 -0.64982879 2 6 2375 4.15400000 2689307118 2689307118 -9.00000000
2.22434354 5.05042219 -0.67759353 2 8 2377 5.56000000 2689307122 2689307122 -7.00000000
3.33644962 7.57190132 -0.72391558 4 10 2378 8.30600000 2689307127 2689307127 -5.00000000
4.60359669 10.44268703 2.21834540 56 11 2379 11.62600000 2689307129 2689307129 11.00000000
3.60866666 8.17807674 2.06370091 60 13 2381 9.17400000 2689307134 2689307134 13.00000000
3.13799095 7.10805702 2.08194041 40 15 2382 8.04400000 2689307138 2689307138 15.00000000
0.92632037 2.09134603 -0.61288351 4 0 2389 2.36800000 2689307159 2689307159 -15.00000000
1.09311998 2.46560359 -0.62266451 3 2 2391 2.76800000 2689307164 2689307164 -13.00000000
1.31582522 2.96653223 -0.63081455 4 4 2392 3.30600000 2689307168 2689307168 -11.00000000
1.66325331 3.74628139 -0.64920300 2 6 2394 4.15000000 2689307173 2689307173 -9.00000000
2.24430370 5.05027437 -0.67856848 2 8 2396 5.56800000 2689307177 2689307177 -7.00000000
3.35992169 7.55715418 -0.72356695 8 10 2397 8.30200000 2689307182 2689307182 -5.00000000
4.64857340 10.45068264 2.22330642 59 11 2398 11.65200000 2689307184 2689307184 11.00000000
3.62942529 8.15182304 2.06010175 62 13 2400 9.15800000 2689307189 2689307189 13.00000000
3.16154480 7.09761190 2.08194041 42 15 2401 8.04400000 2689307194 2689307194 15.00000000
0.93046075 2.08104539 -0.61081296 4 0 2409 2.36000000 2689307214 2689307214 -15.00000000
1.10490406 2.46888781 -0.62446415 3 2 2411 2.77600000 2689307219 2689307219 -13.00000000
1.31654489 2.94041896 -0.62623513 4 4 2412 3.28200000 2689307224 2689307224 -11.00000000
2.25785637 5.03335333 -0.67734981 2 8 2416 5.55800000 2689307233 2689307233 -7.00000000
3.38220167 7.53629112 -0.72269541 4 10 2417 8.29200000 2689307237 2689307237 -5.00000000
4.69306660 10.45230293 2.22712255 59 11 2418 11.67200000 2689307240 2689307240 11.00000000
3.65945601 8.14265919 2.06100154 60 13 2420 9.16200000 2689307244 2689307244 13.00000000
3.18436766 7.07892942 2.07986975 40 15 2422 8.03600000 2689307249 2689307249 15.00000000
0.93259043 2.06738257 -0.60770714 4 0 2428 2.34800000 2689307270 2689307270 -15.00000000
1.11468899 2.46876240 -0.62536395 3 2 2430 2.78000000 2689307274 2689307274 -13.00000000
1.34002817 2.96645284 -0.63272262 4 4 2431 3.31600000 2689307279 2689307279 -11.00000000
2.27207971 5.02041292 -0.67661858 2 8 2435 5.55200000 2689307288 2689307288 -7.00000000
3.39977813 7.50869894 -0.72112662 4 10 2436 8.27400000 2689307293 2689307293 -5.00000000
4.73175240 10.44562435 2.22903061 59 11 2437 11.68200000 2689307295 2689307295 11.00000000
3.68643808 8.13047886 2.06100154 62 13 2439 9.16200000 2689307300 2689307300 13.00000000
3.20659089 7.06889057 2.07986975 40 15 2440 8.03600000 2689307304 2689307304 15.00000000
0.94140232 2.06763101 -0.60874242 4 0 2448 2.35200000 2689307325 2689307325 -15.00000000
1.11683476 2.45067024 -0.62176472 3 2 2450 2.76400000 2689307329 2689307329 -13.00000000
1.34711707 2.95461178 -0.63119614 4 4 2451 3.30800000 2689307334 2689307334 -11.00000000
1.69846117 3.72176743 -0.64795154 2 6 2453 4.14200000 2689307339 2689307339 -9.00000000
2.29453897 5.02328491 -0.67808104 2 8 2455 5.56400000 2689307343 2689307343 -7.00000000
3.43507719 7.51671934 -0.72304404 4 10 2456 8.29600000 2689307348 2689307348 -5.00000000
4.77145052 10.43618584 2.23055720 59 11 2457 11.69000000 2689307350 2689307350 11.00000000
3.71803999 8.12465000 2.06280112 59 13 2459 9.17000000 2689307355 2689307355 13.00000000
3.23124647 7.05765438 2.07986975 42 15 2460 8.03600000 2689307359 2689307359 15.00000000
0.95506710 2.07837558 -0.61288351 4 0 2468 2.36800000 2689307380 2689307380 -15.00000000
1.12375379 2.44321585 -0.62086493 3 2 2470 2.76000000 2689307385 2689307385 -13.00000000
1.35660160 2.94810796 -0.63081455 4 4 2471 3.30600000 2689307389 2689307389 -11.00000000
1.72135878 3.73734665 -0.65170598 2 6 2473 4.16600000 2689307394 2689307394 -9.00000000
2.31039739 5.01163960 -0.67759353 2 8 2475 5.56000000 2689307399 2689307399 -7.00000000
3.46212888 7.50649214 -0.72321838 4 10 2476 8.29800000 2689307403 2689307403 -5.00000000
3.74474335 8.10808372 2.06190133 64 13 2479 9.16600000 2689307410 2689307410 13.00000000
3.25709224 7.04576397 2.07986975 42 15 2481 8.03600000 2689307415 2689307415 15.00000000
0.95906508 2.06801867 -0.61081296 4 0 2488 2.36000000 2689307435 2689307435 -15.00000000
1.13391638 2.44281363 -0.62176472 3 2 2490 2.76400000 2689307440 2689307440 -13.00000000
1.36853802 2.94691586 -0.63157779 4 4 2491 3.31000000 2689307445 2689307445 -11.00000000
1.73272884 3.72773242 -0.65108025 2 6 2493 4.16200000 2689307449 2689307449 -9.00000000
2.32620263 4.99994469 -0.67710608 2 8 2495 5.55600000 2689307454 2689307454 -7.00000000
3.48074365 7.47810459 -0.72164953 4 10 2496 8.28000000 2689307459 2689307459 -5.00000000
4.85910988 10.43465614 2.23742628 46 11 2497 11.72600000 2689307461 2689307461 11.00000000
3.76808333 8.08436489 2.05920196 59 13 2499 9.15400000 2689307465 2689307465 13.00000000
3.28411698 7.03960371 2.08142281 40 15 2501 8.04200000 2689307470 2689307470 15.00000000
0.96464020 2.06115890 -0.60977769 4 0 2508 2.35600000 2689307491 2689307491 -15.00000000
1.14574301 2.44589949 -0.62356430 3 2 2510 2.77200000 2689307495 2689307495 -13.00000000
1.38214886 2.94923162 -0.63310426 4 4 2511 3.31800000 2689307500 2689307500 -11.00000000
1.74573040 3.72166133 -0.65108025 2 6 2513 4.16200000 2689307505 2689307505 -9.00000000
2.34195423 4.98820019 -0.67661858 2 8 2515 5.55200000 2689307509 2689307509 -7.00000000
3.51190805 7.47672892 -0.72269541 4 10 2516 8.29200000 2689307514 2689307514 -5.00000000
4.90719414 10.44250679 2.24276900 53 11 2517 11.75400000 2689307516 2689307516 11.00000000
3.79628015 8.07116222 2.05920196 60 13 2519 9.15400000 2689307521 2689307521 13.00000000
3.30784702 7.02634907 2.08090520 40 15 2521 8.04000000 2689307525 2689307525 15.00000000
0.96687925 2.04729819 -0.60667187 4 0 2528 2.34400000 2689307546 2689307546 -15.00000000
1.15427387 2.44188523 -0.62356430 3 2 2530 2.77200000 2689307551 2689307551 -13.00000000
1.38572061 2.93019080 -0.63005131 2 4 2531 3.30200000 2689307555 2689307555 -11.00000000
1.75364006 3.70483232 -0.64920300 2 6 2533 4.15000000 2689307560 2689307560 -9.00000000
2.36785102 4.99793434 -0.67905599 2 8 2535 5.57200000 2689307565 2689307565 -7.00000000
3.53713202 7.46262407 -0.72252113 8 10 2536 8.29000000 2689307569 2689307569 -5.00000000
4.95539188 10.45014858 2.24811149 56 11 2537 11.78200000 2689307571 2689307571 11.00000000
3.82777309 8.06490326 2.06100154 57 13 2539 9.16200000 2689307576 2689307576 13.00000000
3.32903767 7.00778008 2.07883453 42 15 2541 8.03200000 2689307581 2689307581 15.00000000
0.97994995 2.05820441 -0.61081296 4 0 2546 2.36000000 2689307601 2689307601 -15.00000000
1.16193950 2.43824697 -0.62356430 3 2 2548 2.77200000 2689307606 2689307606 -13.00000000
1.40336812 2.94354439 -0.63386750 2 4 2549 3.32200000 2689307611 2689307611 -11.00000000
1.77037489 3.71000147 -0.65108025 2 6 2551 4.16200000 2689307615 2689307615 -9.00000000
2.38439631 4.99226236 -0.67929971 2 8 2553 5.57400000 2689307620 2689307620 -7.00000000
3.56914902 7.46945238 -0.72426420 8 10 2554 8.31000000 2689307624 2689307624 -5.00000000
4.98650408 10.43098736 2.24734831 56 11 2555 11.77800000 2689307627 2689307627 11.00000000
3.84972620 8.04580688 2.05920196 59 13 2557 9.15400000 2689307631 2689307631 13.00000000
3.35148358 7.00135660 2.07986975 42 15 2558 8.03600000 2689307636 2689307636 15.00000000
0.98796499 2.05651259 -0.61133057 4 0 2566 2.36200000 2689307657 2689307657 -15.00000000
1.16706562 2.42715120 -0.62176472 3 2 2568 2.76400000 2689307661 2689307661 -13.00000000
1.42214525 2.95631981 -0.63768369 2 4 2569 3.34200000 2689307666 2689307666 -11.00000000
1.77988660 3.69667983 -0.64982879 2 6 2571 4.15400000 2689307670 2689307670 -9.00000000
2.39405203 4.96781445 -0.67710608 2 8 2573 5.55600000 2689307675 2689307675 -7.00000000
3.59606576 7.45874262 -0.72443855 8 10 2574 8.31200000 2689307680 2689307680 -5.00000000
5.03311968 10.43473721 2.25192785 56 11 2575 11.80200000 2689307682 2689307682 11.00000000
3.87270451 8.02179050 2.05650258 60 13 2577 9.14200000 2689307687 2689307687 13.00000000
3.37880325 6.99250460 2.08090520 42 15 2579 8.04000000 2689307691 2689307691 15.00000000
0.99598020 2.05478978 -0.61184824 4 0 2586 2.36400000 2689307712 2689307712 -15.00000000
1.17893326 2.43007565 -0.62356430 3 2 2588 2.77200000 2689307717 2689307717 -13.00000000
1.41702557 2.91954565 -0.63081455 4 4 2589 3.30600000 2689307721 2689307721 -11.00000000
1.79623222 3.69755173 -0.65108025 2 6 2591 4.16200000 2689307726 2689307726 -9.00000000
2.41485047 4.96656799 -0.67808104 2 8 2593 5.56400000 2689307730 2689307730 -7.00000000
3.62469435 7.45151949 -0.72496146 8 10 2594 8.31800000 2689307735 2689307735 -5.00000000
5.07982206 10.43828773 2.25650716 56 11 2595 11.82600000 2689307737 2689307737 11.00000000
3.89214873 7.99070358 2.05200362 59 13 2597 9.12200000 2689307742 2689307742 13.00000000
3.40366530 6.98473501 2.08194041 42 15 2598 8.04400000 2689307747 2689307747 15.00000000
1.00144935 2.04782987 -0.61081296 4 0 2606 2.36000000 2689307767 2689307767 -15.00000000
1.19169223 2.43469715 -0.62581384 4 2 2608 2.78200000 2689307772 2689307772 -13.00000000
1.42720807 2.91458154 -0.63081455 2 4 2609 3.30600000 2689307776 2689307776 -11.00000000
1.80391204 3.68061638 -0.64920300 2 6 2611 4.15000000 2689307781 2689307781 -9.00000000
2.43741775 4.96880198 -0.67954344 2 8 2613 5.57600000 2689307786 2689307786 -7.00000000
3.65068293 7.43882179 -0.72496146 8 10 2614 8.31800000 2689307790 2689307790 -5.00000000
5.12661076 10.44163990 2.26108670 59 11 2615 11.85000000 2689307793 2689307793 11.00000000
3.92001772 7.97706890 2.05200362 62 13 2617 9.12200000 2689307797 2689307797 13.00000000
3.42668486 6.96701241 2.08038759 45 15 2619 8.03800000 2689307802 2689307802 15.00000000
1.00381804 2.03375149 -0.60770714 4 0 2627 2.34800000 2689307823 2689307823 -15.00000000
1.19801843 2.42507172 -0.62446415 3 2 2629 2.77600000 2689307827 2689307827 -13.00000000
1.43788099 2.90933108 -0.63081455 4 4 2630 3.30600000 2689307832 2689307832 -11.00000000
1.82614851 3.69168591 -0.65233171 2 6 2632 4.17000000 2689307836 2689307836 -9.00000000
2.45649385 4.96161366 -0.67978722 2 8 2634 5.57800000 2689307841 2689307841 -7.00000000
3.68057609 7.43074751 -0.72548443 8 10 2635 8.32400000 2689307846 2689307846 -5.00000000
5.17007685 10.43333530 2.26337624 59 11 2636 11.86200000 2689307848 2689307848 11.00000000
3.95615578 7.97661400 2.05560279 56 13 2638 9.13800000 2689307853 2689307853 13.00000000
3.44754863 6.94808674 2.07831693 45 15 2639 8.03000000 2689307857 2689307857 15.00000000
1.01435530 2.03715253 -0.60977769 4 0 2647 2.35600000 2689307878 2689307878 -15.00000000
1.20473778 2.41738677 -0.62356430 3 2 2649 2.77200000 2689307882 2689307882 -13.00000000
1.45328367 2.91483617 -0.63310426 4 4 2650 3.31800000 2689307887 2689307887 -11.00000000
1.82843947 3.66407871 -0.64857727 2 6 2652 4.14600000 2689307892 2689307892 -9.00000000
2.47912002 4.96366453 -0.68124962 2 8 2654 5.59000000 2689307896 2689307896 -7.00000000
3.70382023 7.41250753 -0.72496146 8 10 2655 8.31800000 2689307901 2689307901 -5.00000000
5.20909786 10.42049217 2.26452112 59 11 2656 11.86800000 2689307903 2689307903 11.00000000
3.97525573 7.94532824 2.05110383 15 13 2658 9.11800000 2689307908 2689307908 13.00000000
3.47558665 6.94058609 2.07986975 45 15 2660 8.03600000 2689307912 2689307912 15.00000000
1.02768230 2.04776883 -0.61391878 4 0 2665 2.37200000 2689307933 2689307933 -15.00000000
1.20882750 2.40662432 -0.62176472 3 2 2667 2.76400000 2689307938 2689307938 -13.00000000
1.46772277 2.92078137 -0.63539398 4 4 2668 3.33000000 2689307942 2689307942 -11.00000000
1.84881723 3.67596388 -0.65170598 2 6 2670 4.16600000 2689307947 2689307947 -9.00000000
2.48934603 4.94521284 -0.67978722 4 8 2672 5.57800000 2689307952 2689307952 -7.00000000
3.73873878 7.42396832 -0.72722751 8 10 2673 8.34400000 2689307956 2689307956 -5.00000000
5.25329256 10.42686939 2.26948214 62 11 2674 11.89400000 2689307958 2689307958 11.00000000
4.55736399 9.03771973 2.33679152 49 13 2676 10.38800000 2689307963 2689307963 13.00000000
3.49790478 6.93369293 2.08090520 42 15 2677 8.04000000 2689307968 2689307968 15.00000000
1.03133392 2.03727460 -0.61184824 4 0 2685 2.36400000 2689307988 2689307988 -15.00000000
