# .PCD v0.7 - Point Cloud Data file format
VERSION 0.7
FIELDS x y z intensity laser_id azimuth distance_m adjustedtime timestamp vertical_angle
SIZE 4 4 4 1 1 2 8 8 4 8
TYPE F F F U U U F U U F
COUNT 1 1 1 1 1 1 1 1 1 1
WIDTH 516
HEIGHT 1
VIEWPOINT 0 0 0 1 0 0 0
POINTS 516
DATA ascii
-0.11202067 -1.58212793 -0.19474721 100 8 18405 1.59800000 2685451659 2685451659 -7.00000000
-0.10946514 -1.54221416 -0.13526571 100 10 18406 1.55200000 2685451664 2685451664 -5.00000000
-0.83396381 -11.72044468 2.28398371 9 11 18407 11.97000000 2685451666 2685451666 11.00000000
-0.09520936 -1.33477223 -0.07013018 47 12 18408 1.34000000 2685451668 2685451668 -3.00000000
-0.82991338 -11.60629368 2.68636560 64 13 18409 11.94200000 2685451671 2685451671 13.00000000
-0.72320920 -10.08928871 2.71035314 47 15 18410 10.47200000 2685451675 2685451675 15.00000000
-0.10729935 -1.46815526 -0.39444023 82 0 18418 1.52400000 2685451696 2685451696 -15.00000000
-0.09413216 -1.27878046 0.06719936 9 3 18421 1.28400000 2685451703 2685451703 3.00000000
-0.12971425 -1.76216114 -0.34345618 61 4 18421 1.80000000 2685451705 2685451705 -11.00000000
-0.09632448 -1.30545092 0.11452264 10 5 18422 1.31400000 2685451707 2685451707 5.00000000
-0.12384886 -1.67449641 -0.26593858 100 6 18423 1.70000000 2685451710 2685451710 -9.00000000
-0.11710130 -1.57578838 -0.19401599 96 8 18425 1.59200000 2685451714 2685451714 -7.00000000
-0.11765980 -1.57957351 -0.13857763 100 10 18426 1.59000000 2685451719 2685451719 -5.00000000
-0.79725063 -10.67786789 2.08134460 6 11 18427 10.90800000 2685451721 2685451721 11.00000000
-0.10076234 -1.34638190 -0.07075822 47 12 18428 1.35200000 2685451724 2685451724 -3.00000000
-0.75871265 -10.09055519 2.71138835 47 15 18430 10.47600000 2685451730 2685451730 15.00000000
-0.11404642 -1.48896003 -0.40013424 48 0 18438 1.54600000 2685451751 2685451751 -15.00000000
-0.09951682 -1.29039216 0.06782740 11 3 18441 1.29600000 2685451758 2685451758 3.00000000
-0.13571359 -1.75974023 -0.34307456 51 4 18441 1.79800000 2685451760 2685451760 -11.00000000
-0.13320252 -1.71935177 -0.27313459 100 6 18443 1.74600000 2685451765 2685451765 -9.00000000
-0.12337123 -1.58526564 -0.19523469 77 8 18445 1.60200000 2685451770 2685451770 -7.00000000
-0.12255309 -1.57120776 -0.13788038 100 10 18446 1.58200000 2685451774 2685451774 -5.00000000
-0.82885706 -10.60260010 2.06722474 12 11 18447 10.83400000 2685451777 2685451777 11.00000000
-0.10624152 -1.35597777 -0.07128157 47 12 18448 1.36200000 2685451779 2685451779 -3.00000000
-0.79508364 -10.08000278 2.70931768 45 15 18451 10.46800000 2685451786 2685451786 15.00000000
-0.12155707 -1.51743817 -0.40789881 37 0 18458 1.57600000 2685451807 2685451807 -15.00000000
-0.10498367 -1.30198169 0.06845543 18 3 18461 1.30800000 2685451813 2685451813 3.00000000
-0.14311774 -1.77491105 -0.34612751 22 4 18461 1.81400000 2685451816 2685451816 -11.00000000
-0.13920337 -1.71887636 -0.27313459 61 6 18463 1.74600000 2685451820 2685451820 -9.00000000
-0.13131802 -1.61450362 -0.19889078 87 8 18465 1.63200000 2685451825 2685451825 -7.00000000
-0.12593260 -1.54495490 -0.13561434 100 10 18466 1.55600000 2685451830 2685451830 -5.00000000
-0.86506283 -10.58985901 2.06531668 12 11 18467 10.82400000 2685451832 2685451832 11.00000000
-0.11032229 -1.34763622 -0.07086288 73 12 18468 1.35400000 2685451834 2685451834 -3.00000000
-0.82359868 -10.01762486 2.69327092 47 15 18470 10.40600000 2685451841 2685451841 15.00000000
-0.12685318 -1.51700461 -0.40789881 52 0 18478 1.57600000 2685451862 2685451862 -15.00000000
-0.10885790 -1.29364634 0.06803674 11 3 18481 1.30000000 2685451869 2685451869 3.00000000
-0.14651388 -1.74114287 -0.33964002 11 4 18481 1.78000000 2685451871 2685451871 -11.00000000
-0.14370559 -1.70066476 -0.27031875 55 6 18483 1.72800000 2685451876 2685451876 -9.00000000
-0.13376403 -1.57645369 -0.19425973 91 8 18485 1.59400000 2685451880 2685451880 -7.00000000
-0.13081834 -1.53855026 -0.13509139 80 10 18486 1.55000000 2685451885 2685451885 -5.00000000
-0.11417622 -1.33729279 -0.07033952 80 12 18488 1.34400000 2685451889 2685451889 -3.00000000
-0.76380372 -8.92769337 2.06865001 3 13 18489 9.19600000 2685451892 2685451892 13.00000000
-0.86516225 -10.09168053 2.71397662 47 15 18490 10.48600000 2685451896 2685451896 15.00000000
-0.13198005 -1.51462793 -0.40738118 71 0 18498 1.57400000 2685451917 2685451917 -15.00000000
-0.11227682 -1.28332996 0.06751338 9 3 18500 1.29000000 2685451924 2685451924 3.00000000
-0.14912155 -1.69424939 -0.26938015 49 6 18503 1.72200000 2685451931 2685451931 -9.00000000
-0.13891660 -1.57202244 -0.19377226 72 8 18505 1.59000000 2685451935 2685451935 -7.00000000
-0.13636382 -1.54006886 -0.13526571 100 10 18506 1.55200000 2685451940 2685451940 -5.00000000
-0.12025835 -1.35280144 -0.07117690 83 12 18508 1.36000000 2685451945 2685451945 -3.00000000
-0.78268713 -8.78715801 2.03670692 3 13 18509 9.05400000 2685451947 2685451947 13.00000000
-0.90021175 -10.08667469 2.71345878 42 15 18510 10.48400000 2685451952 2685451952 15.00000000
-0.13639419 -1.50453818 -0.40479299 42 0 18518 1.56400000 2685451972 2685451972 -15.00000000
-0.11752380 -1.28887689 0.06782740 9 3 18521 1.29600000 2685451979 2685451979 3.00000000
-0.13941187 -1.52892208 -0.29842526 1 4 18521 1.56400000 2685451982 2685451982 -11.00000000
-0.11963688 -1.30952334 0.11504558 7 5 18522 1.32000000 2685451984 2685451984 5.00000000
-0.15179354 -1.65830982 -0.26374850 51 6 18523 1.68600000 2685451986 2685451986 -9.00000000
-0.14349493 -1.56164408 -0.19255356 87 8 18525 1.58000000 2685451991 2685451991 -7.00000000
-0.14082557 -1.52966344 -0.13439415 100 10 18526 1.54200000 2685451995 2685451995 -5.00000000
-0.12534736 -1.35635102 -0.07138625 76 12 18528 1.36400000 2685452000 2685452000 -3.00000000
-0.81317556 -8.78243160 2.03625703 2 13 18529 9.05200000 2685452002 2685452002 13.00000000
-0.74444824 -8.00970936 2.15544510 11 15 18531 8.32800000 2685452007 2685452007 15.00000000
-0.13947159 -1.48097289 -0.39858133 21 0 18538 1.54000000 2685452028 2685452028 -15.00000000
-0.12179723 -1.28848004 0.06782740 6 3 18540 1.29600000 2685452035 2685452035 3.00000000
-0.13956517 -1.47369981 -0.28773996 1 4 18541 1.50800000 2685452037 2685452037 -11.00000000
-0.15384261 -1.61843956 -0.25749114 54 6 18543 1.64600000 2685452041 2685452041 -9.00000000
-0.14875668 -1.55915761 -0.19230983 78 8 18545 1.57800000 2685452046 2685452046 -7.00000000
-0.14578508 -1.52519584 -0.13404553 100 10 18546 1.53800000 2685452051 2685452051 -5.00000000
-0.13160703 -1.37181020 -0.07222362 61 12 18548 1.38000000 2685452055 2685452055 -3.00000000
-0.73601013 -7.64375734 2.05761147 4 15 18550 7.95000000 2685452062 2685452062 15.00000000
-0.14633091 -1.49778128 -0.40324008 24 0 18558 1.55800000 2685452083 2685452083 -15.00000000
-0.12863290 -1.31189978 0.06908346 6 3 18560 1.32000000 2685452090 2685452090 3.00000000
-0.14586002 -1.48492682 -0.29002967 3 4 18561 1.52000000 2685452092 2685452092 -11.00000000
-0.15929729 -1.61592686 -0.25717825 61 6 18563 1.64400000 2685452097 2685452097 -9.00000000
-0.15517542 -1.56850612 -0.19352852 97 8 18565 1.58800000 2685452101 2685452101 -7.00000000
-0.14953612 -1.50881636 -0.13265105 100 10 18566 1.52200000 2685452106 2685452106 -5.00000000
-0.13560404 -1.36339271 -0.07180493 54 12 18568 1.37200000 2685452111 2685452111 -3.00000000
-0.74254084 -7.43930006 2.00325942 6 15 18570 7.74000000 2685452117 2685452117 15.00000000
-0.15136369 -1.49533927 -0.40272245 24 0 18578 1.55600000 2685452138 2685452138 -15.00000000
-0.13344039 -1.31141949 0.06908346 6 3 18581 1.32000000 2685452145 2685452145 3.00000000
-0.15302989 -1.50394034 -0.29384586 1 4 18581 1.54000000 2685452147 2685452147 -11.00000000
-0.16614088 -1.62715197 -0.25905547 58 6 18583 1.65600000 2685452152 2685452152 -9.00000000
-0.15923327 -1.55413163 -0.19182235 82 8 18585 1.57400000 2685452157 2685452157 -7.00000000
-0.15500538 -1.51026714 -0.13282534 100 10 18586 1.52400000 2685452161 2685452161 -5.00000000
-0.13933930 -1.35297728 -0.07128157 49 12 18588 1.36200000 2685452166 2685452166 -3.00000000
-0.76602286 -7.40001822 1.99342430 9 15 18591 7.70200000 2685452173 2685452173 15.00000000
-0.15557617 -1.48519516 -0.40013424 26 0 18598 1.54600000 2685452193 2685452193 -15.00000000
-0.13674463 -1.30103827 0.06856010 6 3 18600 1.31000000 2685452200 2685452200 3.00000000
-0.15827869 -1.50339699 -0.29384586 1 4 18601 1.54000000 2685452203 2685452203 -11.00000000
-0.13811797 -1.30970681 0.11521989 2 5 18602 1.32200000 2685452205 2685452205 5.00000000
-0.17306475 -1.63834882 -0.26093268 63 6 18603 1.66800000 2685452207 2685452207 -9.00000000
-0.16528490 -1.55948842 -0.19255356 90 8 18605 1.58000000 2685452212 2685452212 -7.00000000
-0.16069692 -1.51367939 -0.13317397 100 10 18606 1.52800000 2685452217 2685452217 -5.00000000
-0.14533047 -1.36439884 -0.07190961 42 12 18608 1.37400000 2685452221 2685452221 -3.00000000
-1.08033633 -10.09229088 2.71967053 7 15 18611 10.50800000 2685452228 2685452228 15.00000000
-0.15867983 -1.46543682 -0.39495787 29 0 18618 1.52600000 2685452249 2685452249 -15.00000000
-0.14042245 -1.29261065 0.06814142 6 3 18620 1.30200000 2685452256 2685452256 3.00000000
-0.16352555 -1.50283527 -0.29384586 1 4 18621 1.54000000 2685452258 2685452258 -11.00000000
-0.14419994 -1.32308125 0.11644007 2 5 18622 1.33600000 2685452260 2685452260 5.00000000
-0.17921135 -1.64166212 -0.26155841 76 6 18623 1.67200000 2685452263 2685452263 -9.00000000
-0.17224030 -1.57271504 -0.19425973 100 8 18625 1.59400000 2685452267 2685452267 -7.00000000
-0.16532792 -1.50716770 -0.13265105 100 10 18626 1.52200000 2685452272 2685452272 -5.00000000
-0.15162157 -1.37778008 -0.07264230 40 12 18628 1.38800000 2685452276 2685452276 -3.00000000
-1.01470375 -9.17638779 2.47379231 2 15 18631 9.55800000 2685452283 2685452283 15.00000000
-0.16250616 -1.45335460 -0.39185202 29 0 18638 1.51400000 2685452304 2685452304 -15.00000000
-0.14604682 -1.30203664 0.06866477 6 3 18640 1.31200000 2685452311 2685452311 3.00000000
-0.17446917 -1.55298090 -0.30376792 1 4 18641 1.59200000 2685452313 2685452313 -11.00000000
-0.18095875 -1.60569346 -0.25592679 68 6 18643 1.63600000 2685452318 2685452318 -9.00000000
-0.17772906 -1.57210422 -0.19425973 60 8 18645 1.59400000 2685452323 2685452323 -7.00000000
-0.17036374 -1.50460160 -0.13247673 100 10 18646 1.52000000 2685452327 2685452327 -5.00000000
-0.15710619 -1.38319600 -0.07295632 33 12 18648 1.39400000 2685452332 2685452332 -3.00000000
-1.04344380 -9.14399910 2.46602798 6 15 18651 9.52800000 2685452339 2685452339 15.00000000
-0.16669284 -1.44510198 -0.38978148 31 0 18658 1.50600000 2685452359 2685452359 -15.00000000
-0.15105000 -1.30548704 0.06887412 4 3 18660 1.31600000 2685452366 2685452366 3.00000000
-0.17988902 -1.55236244 -0.30376792 1 4 18661 1.59200000 2685452369 2685452369 -11.00000000
-0.18017656 -1.55011129 -0.24716645 91 6 18663 1.58000000 2685452373 2685452373 -9.00000000
-0.18459493 -1.58330464 -0.19572216 47 8 18665 1.60600000 2685452378 2685452378 -7.00000000
-0.17884976 -1.53170300 -0.13491710 100 10 18666 1.54800000 2685452382 2685452382 -5.00000000
-0.16727707 -1.42826426 -0.07536378 36 12 18668 1.44000000 2685452387 2685452387 -3.00000000
-1.18442738 -10.08255005 2.72018814 35 15 18670 10.51000000 2685452394 2685452394 15.00000000
-0.17150810 -1.44259298 -0.38926384 31 0 18678 1.50400000 2685452415 2685452415 -15.00000000
-0.15726146 -1.31883419 0.06960682 4 3 18680 1.33000000 2685452422 2685452422 3.00000000
-0.18558635 -1.54947293 -0.24716645 100 6 18683 1.58000000 2685452428 2685452428 -9.00000000
-0.18538532 -1.54323220 -0.19084740 85 8 18685 1.56600000 2685452433 2685452433 -7.00000000
-0.18467127 -1.53502560 -0.13526571 100 10 18686 1.55200000 2685452438 2685452438 -5.00000000
-0.17872143 -1.48120928 -0.07818992 42 12 18688 1.49400000 2685452442 2685452442 -3.00000000
-1.22346556 -10.09540081 2.72484684 47 15 18691 10.52800000 2685452449 2685452449 15.00000000
-0.17701218 -1.44582057 -0.39029911 33 0 18698 1.50800000 2685452470 2685452470 -15.00000000
-0.16160667 -1.31428432 0.06939748 6 3 18701 1.32600000 2685452477 2685452477 3.00000000
-0.19244447 -1.56057882 -0.24904367 100 6 18703 1.59200000 2685452484 2685452484 -9.00000000
-0.19028379 -1.53863549 -0.19035992 100 8 18705 1.56200000 2685452488 2685452488 -7.00000000
-0.19051814 -1.53832626 -0.13561434 100 10 18706 1.55600000 2685452493 2685452493 -5.00000000
-0.18487541 -1.48850453 -0.07860861 50 12 18708 1.50200000 2685452498 2685452498 -3.00000000
-1.25693643 -10.09128857 2.72484684 49 15 18710 10.52800000 2685452505 2685452505 15.00000000
-0.18036777 -1.43177700 -0.38667566 33 0 18718 1.49400000 2685452525 2685452525 -15.00000000
-0.16494006 -1.30380487 0.06887412 4 3 18721 1.31600000 2685452532 2685452532 3.00000000
-0.20087402 -1.58341360 -0.25279811 100 6 18723 1.61600000 2685452539 2685452539 -9.00000000
-0.19389986 -1.52417731 -0.18865374 96 8 18725 1.54800000 2685452544 2685452544 -7.00000000
-0.19311713 -1.51591122 -0.13369691 100 10 18726 1.53400000 2685452548 2685452548 -5.00000000
-0.18855160 -1.47596323 -0.07798058 93 12 18728 1.49000000 2685452553 2685452553 -3.00000000
-1.29391444 -10.08661366 2.72484684 49 15 18731 10.52800000 2685452560 2685452560 15.00000000
-0.18337934 -1.41581190 -0.38253456 33 0 18738 1.47800000 2685452581 2685452581 -15.00000000
-0.17206602 -1.32302701 0.06992084 4 3 18741 1.33600000 2685452587 2685452587 3.00000000
-0.20537816 -1.57486761 -0.25154662 100 6 18743 1.60800000 2685452594 2685452594 -9.00000000
-0.19844687 -1.51758623 -0.18792252 70 8 18745 1.54200000 2685452599 2685452599 -7.00000000
-0.19194047 -1.46583974 -0.12933913 100 10 18746 1.48400000 2685452604 2685452604 -5.00000000
-0.19396253 -1.47727633 -0.07808524 85 12 18748 1.49200000 2685452608 2685452608 -3.00000000
-1.32685137 -10.07843685 2.72381163 49 15 18750 10.52400000 2685452615 2685452615 15.00000000
-0.18832032 -1.41516316 -0.38253456 35 0 18758 1.47800000 2685452636 2685452636 -15.00000000
-0.17774117 -1.33033693 0.07033952 4 3 18761 1.34400000 2685452643 2685452643 3.00000000
-0.19343448 -1.44779634 -0.28392377 1 4 18761 1.48800000 2685452645 2685452645 -11.00000000
-0.20982510 -1.56630957 -0.25029513 100 6 18763 1.60000000 2685452650 2685452650 -9.00000000
-0.19766510 -1.47163355 -0.18231654 73 8 18765 1.49600000 2685452654 2685452654 -7.00000000
-0.19546260 -1.45331323 -0.12829325 76 10 18766 1.47200000 2685452659 2685452659 -5.00000000
-0.19538121 -1.44887948 -0.07661984 100 12 18768 1.46400000 2685452663 2685452663 -3.00000000
-1.36481845 -10.08116341 2.72588229 49 15 18771 10.53200000 2685452670 2685452670 15.00000000
-0.19325902 -1.41449714 -0.38253456 33 0 18778 1.47800000 2685452691 2685452691 -15.00000000
-0.18754052 -1.36730433 0.07232829 2 3 18781 1.38200000 2685452698 2685452698 3.00000000
-0.21529126 -1.56556761 -0.25029513 100 6 18783 1.60000000 2685452705 2685452705 -9.00000000
-0.20415647 -1.48076701 -0.18353523 78 8 18785 1.50600000 2685452710 2685452710 -7.00000000
-0.20325907 -1.47235870 -0.13003637 76 10 18786 1.49200000 2685452714 2685452714 -5.00000000
-0.19934227 -1.44027495 -0.07620116 100 12 18788 1.45600000 2685452719 2685452719 -3.00000000
-1.40036547 -10.09189034 2.73002338 49 15 18790 10.54800000 2685452726 2685452726 15.00000000
-0.19765897 -1.40998769 -0.38149926 35 0 18798 1.47400000 2685452746 2685452746 -15.00000000
-0.20845413 -1.48135221 0.07839926 7 3 18801 1.49800000 2685452753 2685452753 3.00000000
-0.20134863 -1.43085790 -0.28087085 1 4 18801 1.47200000 2685452756 2685452756 -11.00000000
-0.21992697 -1.55893862 -0.24935654 63 6 18803 1.59400000 2685452760 2685452760 -9.00000000
-0.21738568 -1.53704572 -0.19060366 100 8 18805 1.56400000 2685452765 2685452765 -7.00000000
-0.21454309 -1.51503980 -0.13387123 90 10 18806 1.53600000 2685452769 2685452769 -5.00000000
-0.20970234 -1.47714162 -0.07818992 99 12 18808 1.49400000 2685452774 2685452774 -3.00000000
-1.43788981 -10.09051514 2.73105860 49 15 18811 10.55200000 2685452781 2685452781 15.00000000
-0.20010571 -1.39207935 -0.37684053 35 0 18818 1.45600000 2685452802 2685452802 -15.00000000
-0.21932799 -1.52015138 0.08049270 12 3 18821 1.53800000 2685452809 2685452809 3.00000000
-0.20606168 -1.42820323 -0.28048924 1 4 18821 1.47000000 2685452811 2685452811 -11.00000000
-0.22084303 -1.52688086 -0.24435063 50 6 18823 1.56200000 2685452816 2685452816 -9.00000000
-0.22018604 -1.51859665 -0.18841000 68 8 18825 1.54600000 2685452820 2685452820 -7.00000000
-0.22068897 -1.52019691 -0.13439415 98 10 18826 1.54200000 2685452825 2685452825 -5.00000000
-0.21715826 -1.49221206 -0.07902730 99 12 18828 1.51000000 2685452829 2685452829 -3.00000000
-0.21361464 -1.46427512 -0.02582956 88 14 18830 1.48000000 2685452834 2685452834 -1.00000000
-1.47245872 -10.09333801 2.73312902 49 15 18830 10.56000000 2685452836 2685452836 15.00000000
-0.20468220 -1.38946116 -0.37632290 35 0 18838 1.45400000 2685452857 2685452857 -15.00000000
-0.22580141 -1.52727962 0.08091139 10 3 18841 1.54600000 2685452864 2685452864 3.00000000
-0.21133292 -1.42941737 -0.28087085 1 4 18841 1.47200000 2685452866 2685452866 -11.00000000
-0.21980046 -1.48311186 -0.23746751 94 6 18843 1.51800000 2685452871 2685452871 -9.00000000
-0.22490218 -1.51389170 -0.18792252 28 8 18845 1.54200000 2685452875 2685452875 -7.00000000
-0.22306292 -1.49971020 -0.13265105 100 10 18846 1.52200000 2685452880 2685452880 -5.00000000
-0.22354384 -1.49934673 -0.07944598 95 12 18848 1.51800000 2685452885 2685452885 -3.00000000
-0.21961133 -1.46945369 -0.02593428 100 14 18850 1.48600000 2685452889 2685452889 -1.00000000
-1.50658405 -10.06876755 2.72795272 49 15 18851 10.54000000 2685452892 2685452892 15.00000000
-0.21010751 -1.39255869 -0.37735817 35 0 18858 1.45800000 2685452912 2685452912 -15.00000000
-0.23143025 -1.52845693 0.08101606 7 3 18861 1.54800000 2685452919 2685452919 3.00000000
-0.21867254 -1.44420004 -0.28392377 1 4 18861 1.48800000 2685452922 2685452922 -11.00000000
-0.23238643 -1.53116095 -0.24528924 100 6 18863 1.56800000 2685452926 2685452926 -9.00000000
-0.22499658 -1.47725594 -0.13073361 100 10 18866 1.50000000 2685452935 2685452935 -5.00000000
-0.22757049 -1.49065971 -0.07902730 92 12 18868 1.51000000 2685452940 2685452940 -3.00000000
-0.22534430 -1.47263157 -0.02600409 100 14 18870 1.49000000 2685452945 2685452945 -1.00000000
-1.54113376 -10.07135487 2.73002338 49 15 18870 10.54800000 2685452947 2685452947 15.00000000
-0.21496716 -1.39181674 -0.37735817 35 0 18878 1.45800000 2685452968 2685452968 -15.00000000
-0.23768184 -1.53356075 0.08133008 5 3 18881 1.55400000 2685452975 2685452975 3.00000000
-0.22371241 -1.44342792 -0.28392377 1 4 18881 1.48800000 2685452977 2685452977 -11.00000000
-0.24076204 -1.54986000 -0.24841793 100 6 18883 1.58800000 2685452981 2685452981 -9.00000000
-0.23485477 -1.50836182 -0.18743505 3 8 18885 1.53800000 2685452986 2685452986 -7.00000000
-0.22892432 -1.46858716 -0.13003637 100 10 18886 1.49200000 2685452991 2685452991 -5.00000000
-0.22999771 -1.47209632 -0.07808524 100 12 18888 1.49200000 2685452995 2685452995 -3.00000000
-0.23110211 -1.47578728 -0.02607390 100 14 18890 1.49400000 2685453000 2685453000 -1.00000000
-1.57956767 -10.08690834 2.73571730 47 15 18890 10.57000000 2685453002 2685453002 15.00000000
-0.21861804 -1.38342524 -0.37528762 37 0 18898 1.45000000 2685453023 2685453023 -15.00000000
-0.24115680 -1.52088606 0.08070204 1 3 18901 1.54200000 2685453030 2685453030 3.00000000
-0.22751972 -1.43488204 -0.28239730 1 4 18901 1.48000000 2685453032 2685453032 -11.00000000
-0.24493043 -1.54120660 -0.24716645 81 6 18903 1.58000000 2685453037 2685453037 -9.00000000
-0.23404925 -1.46777916 -0.13003637 100 10 18906 1.49200000 2685453046 2685453046 -5.00000000
-0.23576528 -1.47522902 -0.07829459 100 12 18908 1.49600000 2685453051 2685453051 -3.00000000
-0.23498709 -1.46707344 -0.02593428 100 14 18910 1.48600000 2685453055 2685453055 -1.00000000
-1.61507344 -10.08324051 2.73623490 49 15 18910 10.57200000 2685453057 2685453057 15.00000000
-0.22221296 -1.37502527 -0.37321708 37 0 18918 1.44200000 2685453078 2685453078 -15.00000000
-0.23566926 -1.45345855 -0.28621349 1 4 18921 1.50000000 2685453087 2685453087 -11.00000000
-0.24999191 -1.53839242 -0.24685359 100 6 18923 1.57800000 2685453092 2685453092 -9.00000000
-0.24155024 -1.48317409 -0.18451019 63 8 18925 1.51400000 2685453097 2685453097 -7.00000000
-0.23949192 -1.46891963 -0.13021068 69 10 18926 1.49400000 2685453101 2685453101 -5.00000000
-0.24026920 -1.47045481 -0.07808524 100 12 18928 1.49200000 2685453106 2685453106 -3.00000000
-0.23881407 -1.45835066 -0.02579466 100 14 18930 1.47800000 2685453110 2685453110 -1.00000000
-1.65014434 -10.06581497 2.73312902 52 15 18931 10.56000000 2685453113 2685453113 15.00000000
-0.22606677 -1.36852312 -0.37166414 39 0 18938 1.43600000 2685453134 2685453134 -15.00000000
-0.24266727 -1.46424806 -0.28850320 1 4 18941 1.51200000 2685453143 2685453143 -11.00000000
-0.25277117 -1.52192104 -0.24435063 100 6 18943 1.56200000 2685453147 2685453147 -9.00000000
-0.24265316 -1.45628285 -0.12916481 69 10 18946 1.48200000 2685453157 2685453157 -5.00000000
-0.24671640 -1.47748709 -0.07850394 100 12 18948 1.50000000 2685453161 2685453161 -3.00000000
-0.24390320 -1.45750809 -0.02579466 100 14 18950 1.47800000 2685453166 2685453166 -1.00000000
-1.68160164 -10.04885483 2.73002338 49 15 18950 10.54800000 2685453168 2685453168 15.00000000
-0.23084243 -1.36772573 -0.37166414 39 0 18958 1.43600000 2685453189 2685453189 -15.00000000
-0.24253301 -1.43242085 -0.28239730 1 4 18961 1.48000000 2685453198 2685453198 -11.00000000
-0.25742123 -1.51713431 -0.24372490 98 6 18963 1.55800000 2685453203 2685453203 -9.00000000
-0.25955224 -1.52646267 -0.19011618 5 8 18965 1.56000000 2685453207 2685453207 -7.00000000
-0.24907236 -1.46328354 -0.12986206 100 10 18966 1.49000000 2685453212 2685453212 -5.00000000
-0.24616317 -1.44314694 -0.07672451 100 12 18968 1.46600000 2685453216 2685453216 -3.00000000
-0.25033709 -1.46453226 -0.02593428 100 14 18970 1.48600000 2685453221 2685453221 -1.00000000
-1.71764493 -10.04863644 2.73157620 47 15 18970 10.55400000 2685453223 2685453223 15.00000000
-0.23463081 -1.36120021 -0.37011123 43 0 18978 1.43000000 2685453244 2685453244 -15.00000000
-0.26406443 -1.52401197 -0.24497637 84 6 18983 1.56600000 2685453258 2685453258 -9.00000000
-0.26250190 -1.51185656 -0.18841000 21 8 18985 1.54600000 2685453262 2685453262 -7.00000000
-0.25520217 -1.46829414 -0.13038500 100 10 18986 1.49600000 2685453267 2685453267 -5.00000000
-0.24982840 -1.43440831 -0.07630582 100 12 18988 1.45800000 2685453272 2685453272 -3.00000000
-0.25957340 -1.48728848 -0.02635313 68 14 18990 1.51000000 2685453276 2685453276 -1.00000000
-1.75503576 -10.05590153 2.73519969 52 15 18990 10.56800000 2685453279 2685453279 15.00000000
-0.24105485 -1.36988604 -0.37269944 46 0 18998 1.44000000 2685453299 2685453299 -15.00000000
-0.26972666 -1.52502608 -0.24528924 78 6 19003 1.56800000 2685453313 2685453313 -9.00000000
-0.26500636 -1.49529409 -0.18646009 16 8 19005 1.53000000 2685453318 2685453318 -7.00000000
-0.26311016 -1.48308837 -0.13177948 76 10 19006 1.51200000 2685453322 2685453322 -5.00000000
-0.25763044 -1.44925892 -0.07714320 100 12 19008 1.47400000 2685453327 2685453327 -3.00000000
-0.26055527 -1.46274889 -0.02593428 81 14 19010 1.48600000 2685453332 2685453332 -1.00000000
-1.79323721 -10.05700874 2.73727012 49 15 19011 10.57600000 2685453334 2685453334 15.00000000
-0.24276224 -1.35192323 -0.36804068 46 0 19018 1.42200000 2685453355 2685453355 -15.00000000
-0.25125572 -1.39502358 -0.27552819 3 4 19021 1.44400000 2685453364 2685453364 -11.00000000
-0.27750415 -1.53768313 -0.24747932 53 6 19023 1.58200000 2685453368 2685453368 -9.00000000
-0.27128398 -1.50022018 -0.18719131 8 8 19025 1.53600000 2685453373 2685453373 -7.00000000
-0.26864040 -1.48412144 -0.13195379 57 10 19026 1.51400000 2685453378 2685453378 -5.00000000
-0.26625201 -1.46800280 -0.07818992 100 12 19028 1.49400000 2685453382 2685453382 -3.00000000
-0.26279923 -1.44609070 -0.02565504 100 14 19030 1.47000000 2685453387 2685453387 -1.00000000
-1.82726836 -10.05480862 2.73830557 49 15 19030 10.58000000 2685453389 2685453389 15.00000000
-0.24678370 -1.34726715 -0.36700541 48 0 19038 1.41800000 2685453410 2685453410 -15.00000000
-0.25612375 -1.39413798 -0.27552819 7 4 19041 1.44400000 2685453419 2685453419 -11.00000000
-0.28251237 -1.53476238 -0.24716645 29 6 19043 1.58000000 2685453424 2685453424 -9.00000000
-0.27687913 -1.50121617 -0.18743505 3 8 19045 1.53800000 2685453428 2685453428 -7.00000000
-0.27173796 -1.46902835 -0.07829459 89 12 19048 1.49600000 2685453438 2685453438 -3.00000000
-0.26748100 -1.44319832 -0.02562013 100 14 19050 1.46800000 2685453442 2685453442 -1.00000000
-1.86059487 -10.03887177 2.73571730 49 15 19050 10.57000000 2685453444 2685453444 15.00000000
-0.25219443 -1.35019553 -0.36804068 48 0 19058 1.42200000 2685453465 2685453465 -15.00000000
-0.26315752 -1.40481365 -0.27781790 5 4 19061 1.45600000 2685453474 2685453474 -11.00000000
-0.28713918 -1.52988386 -0.24654071 24 6 19063 1.57600000 2685453479 2685453479 -9.00000000
-0.28615317 -1.52170038 -0.19011618 1 8 19065 1.56000000 2685453484 2685453484 -7.00000000
-0.27660114 -1.46387005 -0.02600409 100 14 19070 1.49000000 2685453497 2685453497 -1.00000000
-1.89773560 -10.03388309 2.73623490 49 15 19071 10.57200000 2685453500 2685453500 15.00000000
-0.25798997 -1.35500026 -0.36959359 50 0 19078 1.42800000 2685453520 2685453520 -15.00000000
-0.26842782 -1.40581489 -0.27819952 1 4 19081 1.45800000 2685453530 2685453530 -11.00000000
-0.29284889 -1.53081250 -0.24685359 4 6 19083 1.57800000 2685453534 2685453534 -9.00000000
-0.27801099 -1.45050645 -0.18134159 1 8 19085 1.48800000 2685453539 2685453539 -7.00000000
-0.27928704 -1.45578980 -0.12968774 7 10 19086 1.48800000 2685453544 2685453544 -5.00000000
-0.28019676 -1.45504117 -0.02586447 100 14 19090 1.48200000 2685453553 2685453553 -1.00000000
-1.93457699 -10.03668213 2.73882318 47 15 19091 10.58200000 2685453555 2685453555 15.00000000
-0.26308617 -1.35598791 -0.37011123 48 0 19098 1.43000000 2685453576 2685453576 -15.00000000
-0.27220857 -1.39908803 -0.27705467 3 4 19101 1.45200000 2685453585 2685453585 -11.00000000
-0.28307253 -1.44952726 -0.18134159 1 8 19105 1.48800000 2685453594 2685453594 -7.00000000
-0.28513142 -1.45871675 -0.13003637 5 10 19106 1.49200000 2685453599 2685453599 -5.00000000
-0.29363155 -1.49942279 -0.08007401 2 12 19108 1.53000000 2685453603 2685453603 -3.00000000
-0.28296420 -1.44228053 -0.02565504 100 14 19110 1.47000000 2685453608 2685453608 -1.00000000
-1.97071660 -10.03555489 2.74037600 49 15 19111 10.58800000 2685453610 2685453610 15.00000000
-0.26557043 -1.34369016 -0.36700541 48 0 19118 1.41800000 2685453631 2685453631 -15.00000000
-0.27938065 -1.40968406 -0.27934438 5 4 19121 1.46400000 2685453640 2685453640 -11.00000000
-0.29044893 -1.46285391 -0.23621604 1 6 19123 1.51000000 2685453645 2685453645 -9.00000000
-0.28813058 -1.44853032 -0.18134159 1 8 19125 1.48800000 2685453650 2685453650 -7.00000000
-0.28866541 -1.44989645 -0.12933913 5 10 19126 1.48400000 2685453654 2685453654 -5.00000000
-0.29417565 -1.47488451 -0.07881795 2 12 19128 1.50600000 2685453659 2685453659 -3.00000000
-0.28564596 -1.42951846 -0.02544561 100 14 19130 1.45800000 2685453663 2685453663 -1.00000000
-2.00497746 -10.02482605 2.73934078 49 15 19131 10.58400000 2685453666 2685453666 15.00000000
-0.26949680 -1.33896732 -0.36597013 48 0 19138 1.41400000 2685453686 2685453686 -15.00000000
-0.29555348 -1.46183109 -0.23621604 1 6 19143 1.51000000 2685453700 2685453700 -9.00000000
-0.29318514 -1.44751573 -0.18134159 1 8 19145 1.48800000 2685453705 2685453705 -7.00000000
-0.29055789 -1.43325865 -0.12794463 8 10 19146 1.46800000 2685453709 2685453709 -5.00000000
-0.28938451 -1.42491615 -0.07620116 4 12 19148 1.45600000 2685453714 2685453714 -3.00000000
-0.29183021 -1.43439126 -0.02555032 100 14 19150 1.46400000 2685453719 2685453719 -1.00000000
-2.03743958 -10.01433563 2.73830557 49 15 19150 10.58000000 2685453721 2685453721 15.00000000
-0.27572021 -1.34558856 -0.36804068 48 0 19158 1.42200000 2685453742 2685453742 -15.00000000
-0.30065441 -1.46079051 -0.23621604 1 6 19163 1.51000000 2685453755 2685453755 -9.00000000
-0.29903784 -1.45037186 -0.18182907 1 8 19165 1.49200000 2685453760 2685453760 -7.00000000
-0.29757246 -1.44199204 -0.12881619 30 10 19166 1.47800000 2685453765 2685453765 -5.00000000
-0.29597399 -1.43172097 -0.07661984 4 12 19168 1.46400000 2685453769 2685453769 -3.00000000
-0.29886293 -1.44315457 -0.02572485 100 14 19170 1.47400000 2685453774 2685453774 -1.00000000
-2.07726693 -10.02193451 2.74244666 49 15 19171 10.59600000 2685453776 2685453776 15.00000000
-0.28199309 -1.35218251 -0.37011123 48 0 19178 1.43000000 2685453797 2685453797 -15.00000000
-0.29412726 -1.40668118 -0.27934438 1 4 19181 1.46400000 2685453806 2685453806 -11.00000000
-0.30575168 -1.45973217 -0.23621604 1 6 19183 1.51000000 2685453811 2685453811 -9.00000000
-0.29920709 -1.42600572 -0.17890419 3 8 19185 1.46800000 2685453815 2685453815 -7.00000000
-0.29891884 -1.42339575 -0.12724738 13 10 19186 1.46000000 2685453820 2685453820 -5.00000000
-0.29891402 -1.42090666 -0.07609648 6 12 19188 1.45400000 2685453825 2685453825 -3.00000000
-0.30389866 -1.44210255 -0.02572485 100 14 19190 1.47400000 2685453829 2685453829 -1.00000000
-2.11248136 -10.02444267 2.74503469 49 15 19190 10.60600000 2685453832 2685453832 15.00000000
-0.28671136 -1.35118997 -0.37011123 46 0 19198 1.43000000 2685453852 2685453852 -15.00000000
-0.29903570 -1.40564585 -0.27934438 1 4 19201 1.46400000 2685453861 2685453861 -11.00000000
-0.31084526 -1.45865595 -0.23621604 1 6 19203 1.51000000 2685453866 2685453866 -9.00000000
-0.30501181 -1.42883539 -0.17939167 5 8 19205 1.47200000 2685453871 2685453871 -7.00000000
-0.30846471 -1.44377625 -0.12916481 26 10 19206 1.48200000 2685453875 2685453875 -5.00000000
-0.30387208 -1.41985464 -0.07609648 8 12 19208 1.45400000 2685453880 2685453880 -3.00000000
-0.30599648 -1.42734611 -0.02548051 88 14 19210 1.46000000 2685453885 2685453885 -1.00000000
-2.14920855 -10.01663208 2.74503469 49 15 19211 10.60600000 2685453887 2685453887 15.00000000
-0.28979579 -1.34262741 -0.36804068 48 0 19218 1.42200000 2685453908 2685453908 -15.00000000
-0.30809268 -1.42378199 -0.28316054 1 4 19221 1.48400000 2685453917 2685453917 -11.00000000
-0.30756587 -1.41895115 -0.22995867 1 6 19223 1.47000000 2685453921 2685453921 -9.00000000
-0.30915514 -1.42388213 -0.17890419 5 8 19225 1.46800000 2685453926 2685453926 -7.00000000
-0.31096408 -1.43100905 -0.12811895 46 10 19226 1.47000000 2685453931 2685453931 -5.00000000
-0.31095043 -1.42854309 -0.07661984 4 12 19228 1.46400000 2685453935 2685453935 -3.00000000
-0.31097698 -1.42626929 -0.02548051 37 14 19230 1.46000000 2685453940 2685453940 -1.00000000
-2.18200159 -10.00756264 2.74451709 49 15 19230 10.60400000 2685453942 2685453942 15.00000000
-0.29406649 -1.33972073 -0.36752304 52 0 19238 1.42000000 2685453963 2685453963 -15.00000000
-0.30546626 -1.38818491 -0.27629143 1 4 19241 1.44800000 2685453972 2685453972 -11.00000000
-0.30571395 -1.38700366 -0.22495276 5 6 19243 1.43800000 2685453977 2685453977 -9.00000000
-0.31326759 -1.41891754 -0.17841671 3 8 19245 1.46400000 2685453981 2685453981 -7.00000000
-0.31294820 -1.41629660 -0.12689877 30 10 19246 1.45600000 2685453986 2685453986 -5.00000000
-0.31766149 -1.43524921 -0.07703853 4 12 19248 1.47200000 2685453990 2685453990 -3.00000000
-0.31898341 -1.43884110 -0.02572485 7 14 19250 1.47400000 2685453995 2685453995 -1.00000000
-2.21699262 -9.99195385 2.74244666 49 15 19251 10.59600000 2685453997 2685453997 15.00000000
-0.30000350 -1.34434259 -0.36907595 45 0 19258 1.42600000 2685454018 2685454018 -15.00000000
-0.31502473 -1.40818512 -0.28048924 3 4 19261 1.47000000 2685454027 2685454027 -11.00000000
-0.31098557 -1.38785565 -0.22526564 9 6 19263 1.44000000 2685454032 2685454032 -9.00000000
-0.32387006 -1.44299519 -0.18158533 2 8 19265 1.49000000 2685454037 2685454037 -7.00000000
-0.31876343 -1.41908348 -0.12724738 49 10 19266 1.46000000 2685454041 2685454041 -5.00000000
-0.32135430 -1.42828596 -0.07672451 6 12 19268 1.46600000 2685454046 2685454046 -3.00000000
-2.25096440 -9.98831654 2.74348187 49 15 19270 10.60000000 2685454053 2685454053 15.00000000
-0.30683100 -1.35270715 -0.37166414 43 0 19278 1.43600000 2685454073 2685454073 -15.00000000
-0.31451225 -1.38098347 -0.22432703 3 6 19283 1.43400000 2685454087 2685454087 -9.00000000
-0.32802209 -1.43798506 -0.18109785 2 8 19285 1.48600000 2685454092 2685454092 -7.00000000
-0.32903636 -1.44127119 -0.12933913 10 10 19286 1.48400000 2685454096 2685454096 -5.00000000
-0.32455716 -1.41936743 -0.07630582 6 12 19288 1.45800000 2685454101 2685454101 -3.00000000
-0.32723483 -1.42878222 -0.02558523 1 14 19290 1.46600000 2685454106 2685454106 -1.00000000
-2.28798985 -9.98188210 2.74399948 49 15 19291 10.60200000 2685454108 2685454108 15.00000000
-0.31372052 -1.36104023 -0.37425235 39 0 19298 1.44600000 2685454129 2685454129 -15.00000000
-0.32734755 -1.41451848 -0.22995867 1 6 19303 1.47000000 2685454143 2685454143 -9.00000000
-0.32631606 -1.40782392 -0.17744176 1 8 19305 1.45600000 2685454147 2685454147 -7.00000000
-0.33406532 -1.44011378 -0.12933913 23 10 19306 1.48400000 2685454152 2685454152 -5.00000000
-0.33222172 -1.42989862 -0.07693385 4 12 19308 1.47000000 2685454156 2685454156 -3.00000000
-0.34400427 -1.47827029 -0.02649275 1 14 19310 1.51800000 2685454161 2685454161 -1.00000000
-2.32414341 -9.98741150 2.74762297 49 15 19310 10.61600000 2685454163 2685454163 15.00000000
-0.31802905 -1.35805595 -0.37373471 35 0 19318 1.44400000 2685454184 2685454184 -15.00000000
-0.34132487 -1.45182621 -0.23621604 1 6 19323 1.51000000 2685454198 2685454198 -9.00000000
-0.33850804 -1.43759227 -0.18134159 1 8 19325 1.48800000 2685454202 2685454202 -7.00000000
-0.33634824 -1.42730331 -0.12829325 22 10 19326 1.47200000 2685454207 2685454207 -5.00000000
-0.33904612 -1.43650556 -0.07735255 4 12 19328 1.47800000 2685454212 2685454212 -3.00000000
-2.36073351 -9.97882557 2.74762297 49 15 19331 10.61600000 2685454219 2685454219 15.00000000
-0.32366171 -1.36069632 -0.37476999 33 0 19338 1.44800000 2685454239 2685454239 -15.00000000
-0.33146816 -1.39028132 -0.27781790 5 4 19341 1.45600000 2685454249 2685454249 -11.00000000
-0.33904988 -1.41988420 -0.23121014 1 6 19343 1.47800000 2685454253 2685454253 -9.00000000
-0.34352413 -1.43640184 -0.18134159 1 8 19345 1.48800000 2685454258 2685454258 -7.00000000
-0.33993712 -1.42030752 -0.12777032 11 10 19346 1.46600000 2685454262 2685454262 -5.00000000
-0.35616329 -1.48581147 -0.08007401 2 12 19348 1.53000000 2685454267 2685454267 -3.00000000
-2.39200759 -9.96342850 2.74555254 49 15 19350 10.60800000 2685454274 2685454274 15.00000000
-0.32795584 -1.35768044 -0.37425235 26 0 19358 1.44600000 2685454295 2685454295 -15.00000000
-0.33816704 -1.39674830 -0.27934438 5 4 19361 1.46400000 2685454304 2685454304 -11.00000000
-0.35145211 -1.44940794 -0.23621604 1 6 19363 1.51000000 2685454308 2685454308 -9.00000000
-0.35040987 -1.44291008 -0.18231654 1 8 19365 1.49600000 2685454313 2685454313 -7.00000000
-0.34818652 -1.43266451 -0.12899050 11 10 19366 1.48000000 2685454318 2685454318 -5.00000000
-0.35993916 -1.47652972 -0.02652766 12 14 19370 1.52000000 2685454327 2685454327 -1.00000000
-2.42905951 -9.96440220 2.74814057 49 15 19370 10.61800000 2685454329 2685454329 15.00000000
-0.33683446 -1.37341356 -0.37891108 21 0 19378 1.46400000 2685454350 2685454350 -15.00000000
-0.34632099 -1.40890491 -0.28201568 5 4 19381 1.47800000 2685454359 2685454359 -11.00000000
-0.36595330 -1.48653448 -0.24247342 1 6 19383 1.55000000 2685454364 2685454364 -9.00000000
-0.35639480 -1.44553292 -0.18280402 1 8 19385 1.50000000 2685454368 2685454368 -7.00000000
-0.35938993 -1.45658731 -0.13125655 2 10 19386 1.50600000 2685454373 2685454373 -5.00000000
-0.36220872 -1.46361756 -0.02631823 4 14 19390 1.50800000 2685454382 2685454382 -1.00000000
-2.46336293 -9.95398712 2.74762297 49 15 19390 10.61600000 2685454384 2685454384 15.00000000
-0.34676024 -1.39285040 -0.38460511 21 0 19398 1.48600000 2685454405 2685454405 -15.00000000
-0.36929774 -1.48007190 -0.29651719 1 4 19401 1.55400000 2685454414 2685454414 -11.00000000
-0.37114006 -1.48524797 -0.24247342 1 6 19403 1.55000000 2685454419 2685454419 -9.00000000
-0.35854697 -1.43272579 -0.18134159 1 8 19405 1.48800000 2685454424 2685454424 -7.00000000
-0.36398816 -1.45339119 -0.13108224 2 10 19406 1.50400000 2685454428 2685454428 -5.00000000
-2.50218439 -9.95425987 2.75021124 47 15 19411 10.62600000 2685454440 2685454440 15.00000000
-0.35729900 -1.41410732 -0.39081675 19 0 19418 1.51000000 2685454461 2685454461 -15.00000000
-0.40824646 -1.61337423 -0.38421640 100 2 19420 1.70800000 2685454465 2685454465 -13.00000000
-0.42506489 -1.67860806 -0.33658707 1 4 19421 1.76400000 2685454470 2685454470 -11.00000000
-0.37923574 -1.49543202 -0.24435063 1 6 19423 1.56200000 2685454474 2685454474 -9.00000000
-0.36354592 -1.43146551 -0.18134159 1 8 19425 1.48800000 2685454479 2685454479 -7.00000000
-0.36954999 -1.45404279 -0.13125655 5 10 19426 1.50600000 2685454484 2685454484 -5.00000000
-0.37687373 -1.48069382 -0.08007401 2 12 19428 1.53000000 2685454488 2685454488 -3.00000000
-2.53470278 -9.94403553 2.74969363 49 15 19430 10.62400000 2685454495 2685454495 15.00000000
-0.37230834 -1.45214939 -0.40168715 24 0 19438 1.55200000 2685454516 2685454516 -15.00000000
-0.41436031 -1.61382687 -0.38466629 82 2 19440 1.71000000 2685454520 2685454520 -13.00000000
-0.44557893 -1.73415875 -0.34803560 5 4 19441 1.82400000 2685454525 2685454525 -11.00000000
-0.37756184 -1.46731639 -0.23997048 1 6 19443 1.53400000 2685454530 2685454530 -9.00000000
-0.37114075 -1.43923903 -0.13003637 2 10 19446 1.49200000 2685454539 2685454539 -5.00000000
-2.56843114 -9.93138695 2.74865818 49 15 19450 10.62000000 2685454550 2685454550 15.00000000
-0.40217671 -1.54619265 -0.42808670 36 0 19458 1.65400000 2685454571 2685454571 -15.00000000
-0.41900867 -1.60859907 -0.38376650 79 2 19460 1.70600000 2685454576 2685454576 -13.00000000
-0.45707685 -1.75349033 -0.35223341 27 4 19461 1.84600000 2685454580 2685454580 -11.00000000
-0.41411421 -1.58640325 -0.25968122 1 6 19463 1.66000000 2685454585 2685454585 -9.00000000
-0.42373621 -1.62094808 -0.20571545 1 8 19465 1.68800000 2685454589 2685454589 -7.00000000
-0.38725561 -1.48034036 -0.13387123 2 10 19466 1.53600000 2685454594 2685454594 -5.00000000
-2.60553360 -9.93170357 2.75124645 47 15 19470 10.63000000 2685454606 2685454606 15.00000000
-0.42482060 -1.61015701 -0.44620404 71 0 19478 1.72400000 2685454626 2685454626 -15.00000000
-0.42511898 -1.60901070 -0.38421640 72 2 19480 1.70800000 2685454631 2685454631 -13.00000000
-0.46369672 -1.75378215 -0.35261503 60 4 19481 1.84800000 2685454636 2685454636 -11.00000000
-0.43987331 -1.66133106 -0.27219597 11 6 19483 1.74000000 2685454640 2685454640 -9.00000000
-2.64241481 -9.92395401 2.75176406 49 15 19491 10.63200000 2685454661 2685454661 15.00000000
-0.43992612 -1.64412200 -0.45603916 90 0 19498 1.76200000 2685454682 2685454682 -15.00000000
-0.43577659 -1.62634039 -0.38871542 48 2 19500 1.72800000 2685454686 2685454686 -13.00000000
-0.47286648 -1.76353049 -0.35490474 70 4 19501 1.86000000 2685454691 2685454691 -11.00000000
-1.03451371 -3.84742475 -0.48918355 2 8 19505 4.01400000 2685454700 2685454700 -7.00000000
-1.38635612 -5.15236282 -0.46680614 3 10 19506 5.35600000 2685454705 2685454705 -5.00000000
-2.67631578 -9.91886711 2.75279927 49 15 19510 10.63600000 2685454716 2685454716 15.00000000
-0.44212148 -1.62952530 -0.45241570 100 0 19518 1.74800000 2685454737 2685454737 -15.00000000
-0.45013687 -1.65677893 -0.39636377 30 2 19520 1.76200000 2685454741 2685454741 -13.00000000
-0.47592902 -1.75050223 -0.35261503 61 4 19521 1.84800000 2685454746 2685454746 -11.00000000
-0.45976350 -1.68871570 -0.27720186 28 6 19523 1.77200000 2685454751 2685454751 -9.00000000
-1.04689324 -3.83995986 -0.48869607 2 8 19525 4.01000000 2685454755 2685454755 -7.00000000
-1.40433276 -5.14749241 -0.46680614 3 10 19526 5.35600000 2685454760 2685454760 -5.00000000
-2.71143246 -9.91132832 2.75331712 49 15 19530 10.63800000 2685454771 2685454771 15.00000000
-0.44291440 -1.61128533 -0.44775695 100 0 19537 1.73000000 2685454792 2685454792 -15.00000000
-0.46597192 -1.69285440 -0.40536180 50 2 19539 1.80200000 2685454797 2685454797 -13.00000000
-0.48173130 -1.74891436 -0.35261503 56 4 19540 1.84800000 2685454801 2685454801 -11.00000000
-1.06014967 -3.83838034 -0.48893979 4 8 19544 4.01200000 2685454811 2685454811 -7.00000000
-1.41821015 -5.13128471 -0.46576029 3 10 19545 5.34400000 2685454815 2685454815 -5.00000000
-2.74549675 -9.89994144 2.75279927 49 15 19550 10.63600000 2685454827 2685454827 15.00000000
-0.45009175 -1.61531234 -0.44930986 82 0 19557 1.73600000 2685454847 2685454847 -15.00000000
-0.47397316 -1.69872570 -0.40716141 47 2 19559 1.81000000 2685454852 2685454852 -13.00000000
-0.49047300 -1.75667691 -0.35452312 48 4 19560 1.85800000 2685454857 2685454857 -11.00000000
-0.84835184 -3.03436518 -0.49902594 3 6 19562 3.19000000 2685454861 2685454861 -9.00000000
-1.07461202 -3.83847976 -0.48942727 4 8 19564 4.01600000 2685454866 2685454866 -7.00000000
-1.43396306 -5.11862898 -0.46506304 3 10 19565 5.33600000 2685454871 2685454871 -5.00000000
-2.78003716 -9.89029789 2.75279927 49 15 19570 10.63600000 2685454882 2685454882 15.00000000
-0.46021199 -1.62852418 -0.45345098 77 0 19578 1.75200000 2685454903 2685454903 -15.00000000
-0.50195086 -1.77385676 -0.42560738 49 2 19580 1.89200000 2685454907 2685454907 -13.00000000
-0.49797800 -1.75864542 -0.35528636 46 4 19581 1.86200000 2685454912 2685454912 -11.00000000
-0.86162305 -3.03883719 -0.50027740 3 6 19583 3.19800000 2685454917 2685454917 -9.00000000
-1.08975780 -3.83833456 -0.48991477 6 8 19585 4.02000000 2685454921 2685454921 -7.00000000
-1.44944727 -5.10183954 -0.46401718 3 10 19586 5.32400000 2685454926 2685454926 -5.00000000
-2.81838655 -9.88747311 2.75486994 49 15 19591 10.64400000 2685454937 2685454937 15.00000000
-0.46908486 -1.63805103 -0.45655680 60 0 19598 1.76400000 2685454958 2685454958 -15.00000000
-0.51136261 -1.78333330 -0.42830682 47 2 19600 1.90400000 2685454963 2685454963 -13.00000000
-0.50411379 -1.75689638 -0.35528636 47 4 19601 1.86200000 2685454967 2685454967 -11.00000000
-0.87113440 -3.03201413 -0.49965167 3 6 19603 3.19400000 2685454972 2685454972 -9.00000000
-1.09272170 -3.79826045 -0.48528373 3 8 19605 3.98200000 2685454977 2685454977 -7.00000000
-1.46945190 -5.10440731 -0.46471441 3 10 19606 5.33200000 2685454981 2685454981 -5.00000000
-2.85288310 -9.87757492 2.75486994 52 15 19611 10.64400000 2685454993 2685454993 15.00000000
-0.47802979 -1.64753568 -0.45966262 47 0 19618 1.77600000 2685455013 2685455013 -15.00000000
-0.52519602 -1.80773652 -0.43460545 52 2 19620 1.93200000 2685455018 2685455018 -13.00000000
-0.51133955 -1.75889635 -0.35604960 43 4 19621 1.86600000 2685455023 2685455023 -11.00000000
-0.88281697 -3.03274798 -0.50027740 3 6 19623 3.19800000 2685455027 2685455027 -9.00000000
-1.10652900 -3.79632878 -0.48552746 1 8 19625 3.98400000 2685455032 2685455032 -7.00000000
-1.48502922 -5.09159613 -0.46401718 3 10 19626 5.32400000 2685455036 2685455036 -5.00000000
-2.88562274 -9.86806011 2.75486994 49 15 19630 10.64400000 2685455048 2685455048 15.00000000
-0.50230086 -1.70887411 -0.47726232 57 0 19638 1.84400000 2685455069 2685455069 -15.00000000
-0.53590465 -1.82084787 -0.43820465 57 2 19640 1.94800000 2685455073 2685455073 -13.00000000
-0.51914006 -1.76275063 -0.35719445 38 4 19641 1.87200000 2685455078 2685455078 -11.00000000
-0.88892812 -3.01449013 -0.49777448 3 6 19643 3.18200000 2685455082 2685455082 -9.00000000
-1.12764382 -3.81909704 -0.48893979 2 8 19645 4.01200000 2685455087 2685455087 -7.00000000
-1.50505126 -5.09402466 -0.46471441 3 10 19646 5.33200000 2685455092 2685455092 -5.00000000
-2.91957569 -9.85000896 2.75279927 49 15 19651 10.63600000 2685455103 2685455103 15.00000000
-0.51567805 -1.73312175 -0.48450926 68 0 19657 1.87200000 2685455124 2685455124 -15.00000000
-0.54416549 -1.82653117 -0.44000426 28 2 19659 1.95600000 2685455129 2685455129 -13.00000000
-0.53451765 -1.79300368 -0.36368194 5 4 19660 1.90600000 2685455133 2685455133 -11.00000000
-0.90004963 -3.01531148 -0.49840021 3 6 19662 3.18600000 2685455138 2685455138 -9.00000000
-1.14030218 -3.81533647 -0.48893979 2 8 19664 4.01200000 2685455142 2685455142 -7.00000000
-1.51965189 -5.08136988 -0.46401718 3 10 19665 5.32400000 2685455147 2685455147 -5.00000000
-2.95383477 -9.85189056 2.75590515 49 15 19669 10.64800000 2685455159 2685455159 15.00000000
-0.52451164 -1.74055958 -0.48709744 32 0 19677 1.88200000 2685455179 2685455179 -15.00000000
-0.75583398 -2.50344300 -0.50831515 3 4 19680 2.66400000 2685455188 2685455188 -11.00000000
-0.90942633 -3.00836968 -0.49777448 3 6 19682 3.18200000 2685455193 2685455193 -9.00000000
-1.14326179 -3.77713346 -0.48455250 1 8 19684 3.97600000 2685455198 2685455198 -7.00000000
-1.53853500 -5.07984829 -0.46436581 3 10 19685 5.32800000 2685455202 2685455202 -5.00000000
-2.99273181 -9.85024071 2.75849342 59 15 19690 10.65800000 2685455214 2685455214 15.00000000
-0.55934054 -1.83295250 -0.51349699 7 0 19697 1.98400000 2685455235 2685455235 -15.00000000
-0.65256816 -2.13578749 -0.51558781 4 2 19699 2.29200000 2685455239 2685455239 -13.00000000
-0.76399404 -2.49891186 -0.50793356 3 4 19700 2.66200000 2685455244 2685455244 -11.00000000
-0.91992193 -3.00517678 -0.49777448 3 6 19702 3.18200000 2685455248 2685455248 -9.00000000
-1.15992975 -3.78450751 -0.48601493 1 8 19704 3.98800000 2685455253 2685455253 -7.00000000
-1.56209946 -5.09349489 -0.46610892 3 10 19705 5.34800000 2685455258 2685455258 -5.00000000
-3.02878618 -9.85134125 2.76159930 59 15 19709 10.67000000 2685455269 2685455269 15.00000000
-0.57314920 -1.85498369 -0.52022630 6 0 19717 2.01000000 2685455290 2685455290 -15.00000000
-0.66117132 -2.13721991 -0.51648760 4 2 19719 2.29600000 2685455294 2685455294 -13.00000000
-0.77213168 -2.49435449 -0.50755191 4 4 19720 2.66000000 2685455299 2685455299 -11.00000000
-0.93274558 -3.00949478 -0.49902594 3 6 19722 3.19000000 2685455304 2685455304 -9.00000000
-1.17666304 -3.79181099 -0.48747736 2 8 19724 4.00000000 2685455308 2685455308 -7.00000000
-1.58814108 -5.11465025 -0.46854928 3 10 19725 5.37600000 2685455313 2685455313 -5.00000000
-3.06487298 -9.84017372 2.76159930 52 15 19730 10.67000000 2685455324 2685455324 15.00000000
-0.57904410 -1.85112798 -0.51970863 6 0 19737 2.00800000 2685455345 2685455345 -15.00000000
-0.67095733 -2.14233756 -0.51828724 4 2 19739 2.30400000 2685455350 2685455350 -13.00000000
-0.78200805 -2.49539065 -0.50831515 6 4 19740 2.66400000 2685455354 2685455354 -11.00000000
-0.94087946 -2.99868155 -0.49777448 3 6 19742 3.18200000 2685455359 2685455359 -9.00000000
-1.18989170 -3.78768039 -0.48747736 2 8 19744 4.00000000 2685455364 2685455364 -7.00000000
-1.58567107 -5.04445171 -0.46262267 3 10 19745 5.30800000 2685455368 2685455368 -5.00000000
-3.09458423 -9.82074356 2.75901103 52 15 19749 10.66000000 2685455380 2685455380 15.00000000
-0.58666855 -1.85277891 -0.52074391 6 0 19757 2.01200000 2685455400 2685455400 -15.00000000
-0.67725354 -2.13626719 -0.51738745 4 2 19759 2.30000000 2685455405 2685455405 -13.00000000
-0.79308838 -2.50013137 -0.50984162 5 4 19760 2.67200000 2685455410 2685455410 -11.00000000
-0.94775337 -2.98408270 -0.49589726 3 6 19762 3.17000000 2685455414 2685455414 -9.00000000
-1.19949663 -3.77215338 -0.48601493 1 8 19764 3.98800000 2685455419 2685455419 -7.00000000
-1.60931075 -5.05787182 -0.46436581 3 10 19765 5.32800000 2685455423 2685455423 -5.00000000
-3.13466978 -9.82221794 2.76263452 59 15 19770 10.67400000 2685455435 2685455435 15.00000000
-0.59516644 -1.85818243 -0.52281445 6 0 19776 2.02000000 2685455456 2685455456 -15.00000000
-0.68076348 -2.12287569 -0.51468801 4 2 19778 2.28800000 2685455460 2685455460 -13.00000000
