# .PCD v0.7 - Point Cloud Data file format
VERSION 0.7
FIELDS x y z intensity laser_id azimuth distance_m adjustedtime timestamp vertical_angle
SIZE 4 4 4 1 1 2 8 8 4 8
TYPE F F F U U U F U U F
COUNT 1 1 1 1 1 1 1 1 1 1
WIDTH 539
HEIGHT 1
VIEWPOINT 0 0 0 1 0 0 0
POINTS 539
DATA ascii
8.19943905 3.90215230 -0.15850276 16 14 6455 9.08200000 2683018314 2683018314 -1.00000000
7.95680523 3.78497863 2.36094737 45 15 6456 9.12200000 2683018316 2683018316 15.00000000
2.05625010 0.97506028 -0.60977769 4 0 6463 2.35600000 2683018337 2683018337 -15.00000000
8.20194530 3.88755488 0.15843295 18 1 6464 9.07800000 2683018339 2683018339 1.00000000
8.18028355 3.87553978 -2.08979535 8 2 6465 9.29000000 2683018341 2683018341 -13.00000000
8.20526409 3.88737464 0.47583851 10 3 6465 9.09200000 2683018344 2683018344 3.00000000
2.91704440 1.38137281 -0.62737995 5 4 6466 3.28800000 2683018346 2683018346 -11.00000000
8.22442913 3.89293957 0.79608053 82 5 6467 9.13400000 2683018348 2683018348 5.00000000
3.67656851 1.73947632 -0.64419711 6 6 6468 4.11800000 2683018351 2683018351 -9.00000000
8.22257900 3.88855100 1.11681068 90 7 6469 9.16400000 2683018353 2683018353 7.00000000
4.94615841 2.33803821 -0.67174381 6 8 6470 5.51200000 2683018355 2683018355 -7.00000000
7.59844446 3.59014606 -0.73524582 13 10 6471 8.43600000 2683018360 2683018360 -5.00000000
8.19081688 3.86653543 -0.47468713 17 12 6473 9.07000000 2683018364 2683018364 -3.00000000
8.25509548 3.89511704 2.10734153 74 13 6474 9.36800000 2683018367 2683018367 13.00000000
8.20034981 3.86753631 -0.15825842 18 14 6475 9.06800000 2683018369 2683018369 -1.00000000
7.98045349 3.76212358 2.36405325 45 15 6476 9.13400000 2683018371 2683018371 15.00000000
2.05964112 0.96787667 -0.60977769 4 0 6483 2.35600000 2683018392 2683018392 -15.00000000
8.20641518 3.85465026 0.15825842 18 1 6484 9.06800000 2683018394 2683018394 1.00000000
8.18670654 3.84364891 -2.08799577 8 2 6485 9.28200000 2683018397 2683018397 -13.00000000
8.21155167 3.85531402 0.47541982 10 3 6485 9.08400000 2683018399 2683018399 3.00000000
2.91118479 1.36617780 -0.62509024 5 4 6486 3.27600000 2683018401 2683018401 -11.00000000
8.21271420 3.85236168 0.79364020 78 5 6487 9.10600000 2683018404 2683018404 5.00000000
3.68977213 1.72998643 -0.64544863 6 6 6488 4.12600000 2683018406 2683018406 -9.00000000
8.22891235 3.85645556 1.11583567 90 7 6489 9.15600000 2683018408 2683018408 7.00000000
4.97046804 2.32833743 -0.67393744 9 8 6490 5.53000000 2683018411 2683018411 -7.00000000
8.36103535 3.91659546 1.46234941 2 9 6490 9.34800000 2683018413 2683018413 9.00000000
7.60732174 3.56191087 -0.73489720 13 10 6491 8.43200000 2683018415 2683018415 -5.00000000
8.20245457 3.83707452 -0.47458246 17 12 6493 9.06800000 2683018420 2683018420 -3.00000000
8.26158047 3.86297607 2.10554194 74 13 6494 9.36000000 2683018422 2683018422 13.00000000
8.19024944 3.82788110 -0.15780465 16 14 6495 9.04200000 2683018424 2683018424 -1.00000000
7.98653603 3.73097301 2.36198258 47 15 6496 9.12600000 2683018427 2683018427 15.00000000
2.04899693 0.95415717 -0.60563654 4 0 6503 2.34000000 2683018447 2683018447 -15.00000000
8.20169067 3.81754279 0.15790938 15 1 6504 9.04800000 2683018450 2683018450 1.00000000
8.18770504 3.80929446 -2.08484626 8 2 6505 9.26800000 2683018452 2683018452 -13.00000000
8.21409416 3.82157183 0.47479180 13 3 6505 9.07200000 2683018454 2683018454 3.00000000
2.91771603 1.35683537 -0.62547189 5 4 6506 3.27800000 2683018457 2683018457 -11.00000000
8.20262432 3.81275296 0.79137415 71 5 6507 9.08000000 2683018459 2683018459 5.00000000
3.68503976 1.71210217 -0.64357138 6 6 6508 4.11400000 2683018461 2683018461 -9.00000000
8.23692226 3.82519960 1.11510444 90 7 6509 9.15000000 2683018463 2683018463 7.00000000
4.97856522 2.31097293 -0.67393744 9 8 6510 5.53000000 2683018466 2683018466 -7.00000000
7.61247921 3.53198051 -0.73420000 13 10 6511 8.42400000 2683018470 2683018470 -5.00000000
8.20130157 3.80169940 -0.47374508 17 12 6513 9.05200000 2683018475 2683018475 -3.00000000
8.26086903 3.82756019 2.10194254 74 13 6514 9.34400000 2683018477 2683018477 13.00000000
8.19267464 3.79422641 -0.15759523 16 14 6515 9.03000000 2683018480 2683018480 -1.00000000
7.99886417 3.70446825 2.36198258 45 15 6515 9.12600000 2683018482 2683018482 15.00000000
2.05933166 0.95023662 -0.60770714 4 0 6523 2.34800000 2683018503 2683018503 -15.00000000
8.19136047 3.77800250 0.15745561 12 1 6524 9.02200000 2683018505 2683018505 1.00000000
8.17617607 3.76926875 -2.07854772 8 2 6525 9.24000000 2683018507 2683018507 -13.00000000
8.22375679 3.79120374 0.47458246 13 3 6525 9.06800000 2683018510 2683018510 3.00000000
2.92778373 1.34910727 -0.62661672 5 4 6526 3.28400000 2683018512 2683018512 -11.00000000
8.19959641 3.77659559 0.78980535 75 5 6527 9.06200000 2683018514 2683018514 5.00000000
3.68740487 1.69757652 -0.64294565 4 6 6528 4.11000000 2683018516 2683018516 -9.00000000
8.22137165 3.78314686 1.11120462 95 7 6529 9.11800000 2683018519 2683018519 7.00000000
4.98840523 2.29440999 -0.67418122 9 8 6530 5.53200000 2683018521 2683018521 -7.00000000
7.62838221 3.50705099 -0.73454863 13 10 6531 8.42800000 2683018526 2683018526 -5.00000000
8.19637299 3.76471186 -0.47269836 17 12 6533 9.03200000 2683018530 2683018530 -3.00000000
8.26532459 3.79463553 2.09969306 75 13 6534 9.33400000 2683018533 2683018533 13.00000000
8.19859886 3.76226926 -0.15745561 16 14 6535 9.02200000 2683018535 2683018535 -1.00000000
8.01589966 3.67673683 2.36301780 45 15 6536 9.13000000 2683018537 2683018537 15.00000000
2.06439281 0.94384569 -0.60822475 4 0 6543 2.35000000 2683018558 2683018558 -15.00000000
8.19540405 3.74523067 0.15728109 12 1 6544 9.01200000 2683018560 2683018560 1.00000000
8.17333031 3.73341846 -2.07449865 8 2 6545 9.22200000 2683018563 2683018563 -13.00000000
8.21761131 3.75191188 0.47343105 13 3 6546 9.04600000 2683018565 2683018565 3.00000000
2.93783283 1.34132528 -0.62776160 5 4 6546 3.29000000 2683018567 2683018567 -11.00000000
8.21454144 3.74877787 0.78997964 78 5 6547 9.06400000 2683018569 2683018569 5.00000000
3.69690251 1.68633425 -0.64357138 4 6 6548 4.11400000 2683018572 2683018572 -9.00000000
8.21646500 3.74619079 1.10876727 95 7 6549 9.09800000 2683018574 2683018574 7.00000000
4.98554564 2.27204394 -0.67271876 9 8 6550 5.52000000 2683018576 2683018576 -7.00000000
8.30452538 3.78459024 1.44545448 2 9 6550 9.24000000 2683018579 2683018579 9.00000000
7.63332510 3.47709775 -0.73385137 13 10 6551 8.42000000 2683018581 2683018581 -5.00000000
8.19673920 3.73028731 -0.47196564 17 12 6553 9.01800000 2683018586 2683018586 -3.00000000
8.25368595 3.75446463 2.09339452 72 13 6554 9.30600000 2683018588 2683018588 13.00000000
8.20440006 3.73031735 -0.15731598 16 14 6555 9.01400000 2683018590 2683018590 -1.00000000
8.02804852 3.65013504 2.36301780 47 15 6555 9.13000000 2683018593 2683018593 15.00000000
2.07647347 0.94061953 -0.61081296 4 0 6563 2.36000000 2683018613 2683018613 -15.00000000
8.20296288 3.71412611 0.15717638 12 1 6564 9.00600000 2683018616 2683018616 1.00000000
8.16855812 3.69683075 -2.06999969 8 2 6565 9.20200000 2683018618 2683018618 -13.00000000
8.21428013 3.71579576 0.47248900 13 3 6566 9.02800000 2683018620 2683018620 3.00000000
2.92818713 1.32458889 -0.62470865 5 4 6566 3.27400000 2683018622 2683018622 -11.00000000
8.21850014 3.71597672 0.78910810 75 5 6567 9.05400000 2683018625 2683018625 5.00000000
3.70636654 1.67504644 -0.64419711 6 6 6568 4.11800000 2683018627 2683018627 -9.00000000
8.21501923 3.71094942 1.10681736 95 7 6569 9.08200000 2683018629 2683018629 7.00000000
4.98982763 2.25299358 -0.67223132 6 8 6570 5.51600000 2683018632 2683018632 -7.00000000
7.65994406 3.45698810 -0.73524582 13 10 6571 8.43600000 2683018636 2683018636 -5.00000000
8.19514465 3.69508505 -0.47112828 17 12 6573 9.00200000 2683018641 2683018641 -3.00000000
8.24897480 3.71762419 2.08889556 72 13 6574 9.28600000 2683018643 2683018643 13.00000000
8.20460892 3.69590664 -0.15707166 14 14 6575 9.00000000 2683018646 2683018646 -1.00000000
8.04137325 3.62068629 2.36301780 45 15 6576 9.13000000 2683018648 2683018648 15.00000000
2.06884503 0.92934185 -0.60770714 4 0 6581 2.34800000 2683018669 2683018669 -15.00000000
8.20546913 3.68424201 0.15700185 12 1 6582 8.99600000 2683018671 2683018671 1.00000000
8.17835426 3.67035222 -2.06954980 8 2 6583 9.20000000 2683018673 2683018673 -13.00000000
8.20951271 3.68261433 0.47154698 13 3 6584 9.01000000 2683018675 2683018675 3.00000000
2.93591642 1.31699026 -0.62547189 5 4 6584 3.27800000 2683018678 2683018678 -11.00000000
8.21195316 3.68198776 0.78736496 82 5 6585 9.03400000 2683018680 2683018680 5.00000000
3.70800543 1.66177857 -0.64357138 6 6 6586 4.11400000 2683018682 2683018682 -9.00000000
8.22301292 3.68349981 1.10632992 95 7 6587 9.07800000 2683018685 2683018685 7.00000000
5.00050449 2.23892903 -0.67271876 9 8 6588 5.52000000 2683018687 2683018687 -7.00000000
7.65985537 3.42802334 -0.73420000 13 10 6589 8.42400000 2683018692 2683018692 -5.00000000
8.20853519 3.67013621 -0.47123295 12 12 6591 9.00400000 2683018696 2683018696 -3.00000000
8.24637985 3.68532991 2.08529639 70 13 6592 9.27000000 2683018699 2683018699 13.00000000
8.19426918 3.66032600 -0.15665279 14 14 6593 8.97600000 2683018701 2683018701 -1.00000000
7.11017227 3.17606688 2.08659911 40 15 6593 8.06200000 2683018703 2683018703 15.00000000
2.06854653 0.92054367 -0.60667187 4 0 6601 2.34400000 2683018724 2683018724 -15.00000000
8.18721962 3.64176106 0.15640847 12 1 6602 8.96200000 2683018726 2683018726 1.00000000
8.18399334 3.63861537 -2.06774998 8 2 6603 9.19200000 2683018728 2683018728 -13.00000000
8.20954132 3.64825797 0.47081426 13 3 6604 8.99600000 2683018731 2683018731 3.00000000
2.94049573 1.30673397 -0.62547189 5 4 6604 3.27800000 2683018733 2683018733 -11.00000000
8.19926357 3.64197731 0.78492463 82 5 6605 9.00600000 2683018735 2683018735 5.00000000
3.71017265 1.64722192 -0.64294565 4 6 6606 4.11000000 2683018738 2683018738 -9.00000000
8.23037720 3.65235829 1.10559869 99 7 6607 9.07200000 2683018740 2683018740 7.00000000
5.01554775 2.22467971 -0.67369372 9 8 6608 5.52800000 2683018742 2683018742 -7.00000000
7.66266775 3.39722705 -0.73332840 13 10 6609 8.41400000 2683018747 2683018747 -5.00000000
8.20851326 3.63579869 -0.47050026 17 12 6611 8.99000000 2683018751 2683018751 -3.00000000
8.25206661 3.65336680 2.08349657 68 13 6612 9.26200000 2683018754 2683018754 13.00000000
8.18871021 3.62360835 -0.15630375 18 14 6613 8.95600000 2683018756 2683018756 -1.00000000
7.11823177 3.14842272 2.08556390 45 15 6614 8.05800000 2683018758 2683018758 15.00000000
2.07881808 0.91643465 -0.60874242 4 0 6621 2.35200000 2683018779 2683018779 -15.00000000
8.18707180 3.60751581 0.15616414 12 1 6622 8.94800000 2683018781 2683018781 1.00000000
8.17524338 3.60060000 -2.06235123 8 2 6623 9.16800000 2683018784 2683018784 -13.00000000
8.21491432 3.61636019 0.47039557 13 3 6624 8.98800000 2683018786 2683018786 3.00000000
2.95402336 1.30041683 -0.62737995 5 4 6624 3.28800000 2683018788 2683018788 -11.00000000
8.20280838 3.60932231 0.78405309 86 5 6625 8.99600000 2683018791 2683018791 5.00000000
3.70505047 1.62948942 -0.64106846 6 6 6626 4.09800000 2683018793 2683018793 -9.00000000
8.20854855 3.60842824 1.10096765 95 7 6627 9.03400000 2683018795 2683018795 7.00000000
5.02691793 2.20875573 -0.67418122 9 8 6628 5.53200000 2683018798 2683018798 -7.00000000
7.66353416 3.36565161 -0.73228258 13 10 6629 8.40200000 2683018802 2683018802 -5.00000000
8.20286560 3.59909868 -0.46945351 17 12 6631 8.97000000 2683018807 2683018807 -3.00000000
8.25763035 3.62140870 2.08169699 66 13 6632 9.25400000 2683018809 2683018809 13.00000000
8.18848801 3.58938265 -0.15605941 20 14 6633 8.94200000 2683018811 2683018811 -1.00000000
7.13040257 3.12557602 2.08608150 45 15 6633 8.06000000 2683018814 2683018814 15.00000000
2.08377481 0.90994573 -0.60926002 4 0 6641 2.35400000 2683018834 2683018834 -15.00000000
8.18311977 3.57171607 0.15584999 15 1 6642 8.93000000 2683018837 2683018837 1.00000000
8.18061733 3.56892419 -2.06055164 8 2 6643 9.16000000 2683018839 2683018839 -13.00000000
8.20551777 3.57808280 0.46913952 13 3 6644 8.96400000 2683018841 2683018841 3.00000000
2.95674515 1.28931272 -0.62699836 5 4 6644 3.28600000 2683018844 2683018844 -11.00000000
8.21170425 3.57907486 0.78370446 86 5 6645 8.99200000 2683018846 2683018846 5.00000000
3.71071601 1.61654651 -0.64106846 6 6 6646 4.09800000 2683018848 2683018848 -9.00000000
8.20653439 3.57341313 1.09901774 92 7 6647 9.01800000 2683018851 2683018851 7.00000000
5.02185583 2.18564987 -0.67247504 9 8 6648 5.51800000 2683018853 2683018853 -7.00000000
7.68254375 3.34205961 -0.73297977 13 10 6649 8.41000000 2683018857 2683018857 -5.00000000
8.18973446 3.55929828 -0.46798813 17 12 6651 8.94200000 2683018862 2683018862 -3.00000000
8.25234699 3.58479786 2.07719803 62 13 6652 9.23400000 2683018864 2683018864 13.00000000
8.19546509 3.55838823 -0.15595470 18 14 6653 8.93600000 2683018867 2683018867 -1.00000000
7.14181042 3.09942079 2.08608150 45 15 6654 8.06000000 2683018869 2683018869 15.00000000
2.08000278 0.89923573 -0.60718948 4 0 6662 2.34600000 2683018890 2683018890 -15.00000000
8.19064903 3.53931975 0.15574527 15 1 6663 8.92400000 2683018892 2683018892 1.00000000
8.17575359 3.53118992 -2.05605268 8 2 6664 9.14000000 2683018894 2683018894 -13.00000000
8.20207405 3.54085970 0.46819746 13 3 6665 8.94600000 2683018897 2683018897 3.00000000
2.96325326 1.27924514 -0.62737995 6 4 6665 3.28800000 2683018899 2683018899 -11.00000000
8.21196175 3.54342794 0.78248423 93 5 6666 8.97800000 2683018901 2683018901 5.00000000
3.73112679 1.60919356 -0.64357138 6 6 6667 4.11400000 2683018904 2683018904 -9.00000000
8.21228409 3.54016733 1.09804273 95 7 6668 9.01000000 2683018906 2683018906 7.00000000
5.03530216 2.16958570 -0.67320627 9 8 6669 5.52400000 2683018908 2683018908 -7.00000000
7.70938063 3.32018375 -0.73437428 13 10 6670 8.42600000 2683018913 2683018913 -5.00000000
8.19355106 3.52531075 -0.46746477 17 12 6672 8.93200000 2683018917 2683018917 -3.00000000
8.25110817 3.54836845 2.07359886 64 13 6673 9.21800000 2683018920 2683018920 13.00000000
8.19375515 3.52200913 -0.15567547 18 14 6674 8.92000000 2683018922 2683018922 -1.00000000
7.15791035 3.07676101 2.08763433 45 15 6674 8.06600000 2683018924 2683018924 15.00000000
2.09378457 0.89653218 -0.61029530 4 0 6682 2.35800000 2683018945 2683018945 -15.00000000
8.19560051 3.50756049 0.15560566 18 1 6683 8.91600000 2683018947 2683018947 1.00000000
8.18265438 3.50033045 -2.05470300 8 2 6684 9.13400000 2683018950 2683018950 -13.00000000
8.19785595 3.50514054 0.46725541 13 3 6685 8.92800000 2683018952 2683018952 3.00000000
2.94964886 1.26117539 -0.62356383 6 4 6685 3.26800000 2683018954 2683018954 -11.00000000
8.19679928 3.50299668 0.77986956 75 5 6686 8.94800000 2683018957 2683018957 5.00000000
3.72582173 1.59150398 -0.64169419 6 6 6687 4.10200000 2683018959 2683018959 -9.00000000
8.21728897 3.50836158 1.09706783 95 7 6688 9.00200000 2683018961 2683018961 7.00000000
5.04284477 2.15199590 -0.67320627 6 8 6689 5.52400000 2683018963 2683018963 -7.00000000
7.71542549 3.29090786 -0.73385137 13 10 6690 8.42000000 2683018968 2683018968 -5.00000000
8.19294548 3.49120760 -0.46673205 21 12 6692 8.91800000 2683018973 2683018973 -3.00000000
8.25268745 3.51496315 2.07089949 66 13 6693 9.20600000 2683018975 2683018975 13.00000000
8.18760014 3.48555326 -0.15532641 20 14 6694 8.90000000 2683018977 2683018977 -1.00000000
7.16380644 3.04823613 2.08608150 40 15 6695 8.06000000 2683018980 2683018980 15.00000000
2.07911587 0.88167590 -0.60511893 4 0 6702 2.33800000 2683019000 2683019000 -15.00000000
8.18754101 3.47034693 0.15522170 12 1 6703 8.89400000 2683019003 2683019003 1.00000000
8.18764591 3.46870542 -2.05290341 8 2 6704 9.12600000 2683019005 2683019005 -13.00000000
8.20084572 3.47260952 0.46673205 10 3 6705 8.91800000 2683019007 2683019007 3.00000000
2.95584106 1.25163698 -0.62394542 6 4 6705 3.27000000 2683019010 2683019010 -11.00000000
8.18145466 3.46271467 0.77725494 75 5 6706 8.91800000 2683019012 2683019012 5.00000000
3.73499298 1.58002794 -0.64231992 6 6 6707 4.10600000 2683019014 2683019014 -9.00000000
8.21851540 3.47501802 1.09560537 90 7 6708 8.99000000 2683019016 2683019016 7.00000000
5.05764008 2.13747096 -0.67418122 6 8 6709 5.53200000 2683019019 2683019019 -7.00000000
7.71034765 3.25697827 -0.73228258 13 10 6710 8.40200000 2683019023 2683019023 -5.00000000
8.19404125 3.45792842 -0.46610403 17 12 6712 8.90600000 2683019028 2683019028 -3.00000000
8.26490593 3.48613453 2.07089949 68 13 6713 9.20600000 2683019030 2683019030 13.00000000
8.18497562 3.45073724 -0.15504718 18 14 6714 8.88400000 2683019033 2683019033 -1.00000000
7.17031479 3.02296233 2.08504629 42 15 6714 8.05600000 2683019035 2683019035 15.00000000
2.08039951 0.87366509 -0.60460126 4 0 6722 2.33600000 2683019056 2683019056 -15.00000000
8.18485451 3.43555427 0.15494247 15 1 6723 8.87800000 2683019058 2683019058 1.00000000
2.48165488 1.04115355 -0.62131482 4 2 6724 2.76200000 2683019060 2683019060 -13.00000000
8.21475887 3.44473433 0.46683672 10 3 6725 8.92000000 2683019063 2683019063 3.00000000
2.96924472 1.24510765 -0.62585348 6 4 6725 3.28000000 2683019065 2683019065 -11.00000000
8.20084190 3.43721581 0.77795213 82 5 6726 8.92600000 2683019067 2683019067 5.00000000
3.72590995 1.56087458 -0.63981694 6 6 6727 4.09000000 2683019069 2683019069 -9.00000000
8.21045399 3.43787527 1.09292424 90 7 6728 8.96800000 2683019072 2683019072 7.00000000
5.06507015 2.11980367 -0.67418122 6 8 6729 5.53200000 2683019074 2683019074 -7.00000000
7.74924040 3.24157739 -0.73489720 13 10 6730 8.43200000 2683019079 2683019079 -5.00000000
8.18947697 3.42237377 -0.46516198 17 12 6732 8.88800000 2683019083 2683019083 -3.00000000
8.27342892 3.45576119 2.06999969 66 13 6733 9.20200000 2683019086 2683019086 13.00000000
8.18589878 3.41752291 -0.15483776 18 14 6734 8.87200000 2683019088 2683019088 -1.00000000
7.18082333 2.99791479 2.08504629 40 15 6734 8.05600000 2683019090 2683019090 15.00000000
2.09383512 0.87157941 -0.60770714 4 0 6740 2.34800000 2683019111 2683019111 -15.00000000
8.18637562 3.40598321 0.15476795 12 1 6741 8.86800000 2683019113 2683019113 1.00000000
2.47051859 1.02736604 -0.61771560 4 2 6742 2.74600000 2683019116 2683019116 -13.00000000
8.19972038 3.40817809 0.46537131 10 3 6743 8.89200000 2683019118 2683019118 3.00000000
2.97676754 1.23728037 -0.62661672 6 4 6743 3.28400000 2683019120 2683019120 -11.00000000
8.19504070 3.40455556 0.77638334 78 5 6744 8.90800000 2683019122 2683019122 5.00000000
3.73626828 1.55143428 -0.64075559 6 6 6745 4.09600000 2683019125 2683019125 -9.00000000
8.21204662 3.40825963 1.09170556 90 7 6746 8.95800000 2683019127 2683019127 7.00000000
5.06070328 2.09931707 -0.67271876 6 8 6747 5.52000000 2683019129 2683019129 -7.00000000
7.75386429 3.21492720 -0.73437428 13 10 6748 8.42600000 2683019134 2683019134 -5.00000000
8.17250919 3.38516426 -0.46359190 17 12 6750 8.85800000 2683019139 2683019139 -3.00000000
8.26263809 3.42080736 2.06460071 68 13 6751 9.17800000 2683019141 2683019141 13.00000000
8.19844341 3.39255404 -0.15487266 16 14 6752 8.87400000 2683019143 2683019143 -1.00000000
7.19377613 2.97681808 2.08608150 40 15 6752 8.06000000 2683019145 2683019145 15.00000000
2.10400915 0.86720997 -0.60977769 4 0 6760 2.35600000 2683019166 2683019166 -15.00000000
8.18712139 3.37281632 0.15455851 12 1 6761 8.85600000 2683019169 2683019169 1.00000000
2.48670340 1.02392983 -0.62086493 4 2 6762 2.76000000 2683019171 2683019171 -13.00000000
8.19309807 3.37193370 0.46432459 10 3 6763 8.87200000 2683019173 2683019173 3.00000000
2.97925282 1.22613478 -0.62623513 5 4 6763 3.28200000 2683019175 2683019175 -11.00000000
8.20134735 3.37365508 0.77586043 75 5 6764 8.90200000 2683019178 2683019178 5.00000000
3.74531484 1.53988516 -0.64138132 6 6 6765 4.10000000 2683019180 2683019180 -9.00000000
8.20920467 3.37353730 1.08975565 92 7 6766 8.94200000 2683019182 2683019182 7.00000000
5.07167292 2.08314753 -0.67320627 6 8 6767 5.52400000 2683019185 2683019185 -7.00000000
7.76319647 3.18708491 -0.73420000 13 10 6768 8.42400000 2683019189 2683019189 -5.00000000
8.18427563 3.35661626 -0.46359190 17 12 6770 8.85800000 2683019194 2683019194 -3.00000000
8.25649738 3.38455296 2.06010175 68 13 6771 9.15800000 2683019196 2683019196 13.00000000
8.18432999 3.35330129 -0.15438399 16 14 6772 8.84600000 2683019198 2683019198 -1.00000000
7.20642614 2.95116377 2.08659911 40 15 6773 8.06200000 2683019201 2683019201 15.00000000
2.10344601 0.85840046 -0.60874242 4 0 6780 2.35200000 2683019222 2683019222 -15.00000000
8.19328976 3.34195161 0.15445380 12 1 6781 8.85000000 2683019224 2683019224 1.00000000
2.49206710 1.01597917 -0.62131482 4 2 6782 2.76200000 2683019226 2683019226 -13.00000000
8.19372082 3.33879185 0.46369657 10 3 6783 8.86000000 2683019228 2683019228 3.00000000
2.96715164 1.20906019 -0.62280059 8 4 6783 3.26400000 2683019231 2683019231 -11.00000000
8.20015717 3.33974576 0.77464026 78 5 6784 8.88800000 2683019233 2683019233 5.00000000
3.76530409 1.53276038 -0.64388424 6 6 6785 4.11600000 2683019235 2683019235 -9.00000000
8.21725273 3.34336495 1.08926821 92 7 6786 8.93800000 2683019238 2683019238 7.00000000
5.06420279 2.05944896 -0.67125636 6 8 6787 5.50800000 2683019240 2683019240 -7.00000000
7.77796555 3.16146731 -0.73454863 13 10 6788 8.42800000 2683019245 2683019245 -5.00000000
8.18669033 3.32427025 -0.46306854 17 12 6790 8.84800000 2683019249 2683019249 -3.00000000
8.26464939 3.35424614 2.05920196 68 13 6791 9.15400000 2683019251 2683019251 13.00000000
8.17745495 3.31719542 -0.15403494 16 14 6792 8.82600000 2683019254 2683019254 -1.00000000
7.21796322 2.92797637 2.08711672 42 15 6792 8.06400000 2683019256 2683019256 15.00000000
2.09568262 0.84671068 -0.60563654 4 0 6800 2.34000000 2683019277 2683019277 -15.00000000
8.18821812 3.30659246 0.15413965 12 1 6801 8.83200000 2683019279 2683019279 1.00000000
2.49740553 1.00800335 -0.62176472 4 2 6802 2.76400000 2683019281 2683019281 -13.00000000
8.20162106 3.30867553 0.46348724 13 3 6803 8.85600000 2683019284 2683019284 3.00000000
2.98774004 1.20530605 -0.62623513 6 4 6803 3.28200000 2683019286 2683019286 -11.00000000
8.18959141 3.30216074 0.77254850 78 5 6804 8.86400000 2683019288 2683019288 5.00000000
3.75780606 1.51443899 -0.64169419 4 6 6805 4.10200000 2683019291 2683019291 -9.00000000
8.22150803 3.31169438 1.08829319 90 7 6806 8.93000000 2683019293 2683019293 7.00000000
5.06951904 2.04101777 -0.67101258 6 8 6807 5.50600000 2683019295 2683019295 -7.00000000
7.77786350 3.12983537 -0.73350275 13 10 6808 8.41600000 2683019300 2683019300 -5.00000000
8.18527222 3.29045844 -0.46233582 17 12 6810 8.83400000 2683019304 2683019304 -3.00000000
8.26907539 3.32247043 2.05740237 64 13 6811 9.14600000 2683019307 2683019307 13.00000000
8.17599487 3.28341389 -0.15379061 18 14 6812 8.81200000 2683019309 2683019309 -1.00000000
7.21738386 2.89844346 2.08401084 40 15 6812 8.05200000 2683019311 2683019311 15.00000000
2.10235953 0.84045821 -0.60667187 4 0 6821 2.34400000 2683019332 2683019332 -15.00000000
8.18356991 3.26988125 0.15382551 12 1 6822 8.81400000 2683019334 2683019334 1.00000000
2.49565387 0.99667490 -0.62041503 4 2 6823 2.75800000 2683019337 2683019337 -13.00000000
8.21126556 3.27928567 0.46338254 10 3 6823 8.85400000 2683019339 2683019339 3.00000000
2.98849106 1.19289172 -0.62547189 5 4 6824 3.27800000 2683019341 2683019341 -11.00000000
8.19608688 3.26990724 0.77202559 78 5 6825 8.85800000 2683019344 2683019344 5.00000000
3.76333165 1.50065577 -0.64169419 6 6 6826 4.10200000 2683019346 2683019346 -9.00000000
8.20408630 3.26977944 1.08439338 95 7 6827 8.89800000 2683019348 2683019348 7.00000000
5.10093975 2.03197336 -0.67418122 6 8 6828 5.53200000 2683019350 2683019350 -7.00000000
7.79668713 3.10425496 -0.73420000 13 10 6829 8.42400000 2683019355 2683019355 -5.00000000
8.19171047 3.25822139 -0.46202183 12 12 6831 8.82800000 2683019360 2683019360 -3.00000000
8.27757549 3.29070067 2.05650258 66 13 6832 9.14200000 2683019362 2683019362 13.00000000
8.18239880 3.25121021 -0.15368590 16 14 6833 8.80600000 2683019364 2683019364 -1.00000000
7.22436810 2.87054443 2.08297563 45 15 6833 8.04800000 2683019367 2683019367 15.00000000
2.11246562 0.83595788 -0.60874242 4 0 6841 2.35200000 2683019387 2683019387 -15.00000000
8.18191719 3.23614693 0.15358117 12 1 6842 8.80000000 2683019390 2683019390 1.00000000
2.49549317 0.98652452 -0.61951518 4 2 6843 2.75400000 2683019392 2683019392 -13.00000000
8.20465374 3.24182844 0.46233582 10 3 6844 8.83400000 2683019394 2683019394 3.00000000
3.01089573 1.18966711 -0.62928808 6 4 6844 3.29800000 2683019397 2683019397 -11.00000000
8.20003891 3.23835039 0.77132833 78 5 6845 8.85000000 2683019399 2683019399 5.00000000
3.76670957 1.48678482 -0.64138132 6 6 6846 4.10000000 2683019401 2683019401 -9.00000000
8.20437050 3.23675108 1.08293104 97 7 6847 8.88600000 2683019403 2683019403 7.00000000
5.08953476 2.00687361 -0.67174381 6 8 6848 5.51200000 2683019406 2683019406 -7.00000000
7.80747557 3.07702065 -0.73420000 13 10 6849 8.42400000 2683019410 2683019410 -5.00000000
8.18259048 3.22155857 -0.46087044 17 12 6851 8.80600000 2683019415 2683019415 -3.00000000
8.27450466 3.25607777 2.05290341 60 13 6852 9.12600000 2683019417 2683019417 13.00000000
8.18625355 3.21970081 -0.15354627 16 14 6853 8.79800000 2683019420 2683019420 -1.00000000
7.23304272 2.84333968 2.08245802 40 15 6854 8.04600000 2683019422 2683019422 15.00000000
2.11867857 0.83072764 -0.60977769 4 0 6859 2.35600000 2683019443 2683019443 -15.00000000
8.18273449 3.20677853 0.15340665 15 1 6860 8.79000000 2683019445 2683019445 1.00000000
2.49132204 0.97583687 -0.61771560 4 2 6861 2.74600000 2683019447 2683019447 -13.00000000
8.19192028 3.20872927 0.46107978 13 3 6861 8.81000000 2683019450 2683019450 3.00000000
2.99999309 1.17447662 -0.62623513 5 4 6862 3.28200000 2683019452 2683019452 -11.00000000
8.19903946 3.20821714 0.77028245 78 5 6863 8.83800000 2683019454 2683019454 5.00000000
3.77136183 1.47494411 -0.64138132 6 6 6864 4.10000000 2683019456 2683019456 -9.00000000
8.19970798 3.20517874 1.08098114 95 7 6865 8.87000000 2683019459 2683019459 7.00000000
5.08841848 1.98798490 -0.67076886 6 8 6866 5.50400000 2683019461 2683019461 -7.00000000
7.81524754 3.05175281 -0.73402566 13 10 6867 8.42200000 2683019466 2683019466 -5.00000000
8.18894958 3.19438481 -0.46066108 17 12 6869 8.80200000 2683019470 2683019470 -3.00000000
8.27743053 3.22723508 2.05110383 62 13 6870 9.11800000 2683019473 2683019473 13.00000000
8.18701267 3.19033670 -0.15337175 14 14 6871 8.78800000 2683019475 2683019475 -1.00000000
7.24864721 2.82467198 2.08452868 40 15 6871 8.05400000 2683019477 2683019477 15.00000000
2.10895848 0.81843460 -0.60615420 4 0 6879 2.34200000 2683019498 2683019498 -15.00000000
8.18455601 3.17458010 0.15323213 18 1 6880 8.78000000 2683019500 2683019500 1.00000000
2.50924897 0.97276980 -0.62131482 4 2 6881 2.76200000 2683019502 2683019502 -13.00000000
8.19748497 3.17794871 0.46076575 10 3 6881 8.80400000 2683019505 2683019505 3.00000000
2.99675202 1.16116023 -0.62470865 5 4 6882 3.27400000 2683019507 2683019507 -11.00000000
8.19904137 3.17526054 0.76923656 93 5 6883 8.82600000 2683019509 2683019509 5.00000000
3.79306698 1.46818817 -0.64419711 6 6 6884 4.11800000 2683019512 2683019512 -9.00000000
8.20344067 3.17367172 1.08000612 95 7 6885 8.86200000 2683019514 2683019514 7.00000000
5.08792067 1.96734726 -0.66979390 9 8 6886 5.49600000 2683019516 2683019516 -7.00000000
7.82399416 3.02373576 -0.73385137 13 10 6887 8.42000000 2683019521 2683019521 -5.00000000
8.18700790 3.16074514 -0.45992839 17 12 6889 8.78800000 2683019526 2683019526 -3.00000000
8.29955387 3.20253110 2.05380321 57 13 6890 9.13000000 2683019528 2683019528 13.00000000
8.17384434 3.15238500 -0.15291798 16 14 6891 8.76200000 2683019530 2683019530 -1.00000000
7.25305557 2.79726696 2.08297563 42 15 6891 8.04800000 2683019532 2683019532 15.00000000
2.11014056 0.81000704 -0.60563654 4 0 6900 2.34000000 2683019553 2683019553 -15.00000000
8.17560005 3.13668156 0.15284817 15 1 6901 8.75800000 2683019555 2683019555 1.00000000
2.51279759 0.96356636 -0.62131482 4 2 6902 2.76200000 2683019558 2683019558 -13.00000000
8.19657135 3.14144588 0.46003306 13 3 6903 8.79000000 2683019560 2683019560 3.00000000
3.00648737 1.15227652 -0.62585348 6 4 6903 3.28000000 2683019562 2683019562 -11.00000000
8.16783142 3.12879586 0.76522744 78 5 6904 8.78000000 2683019565 2683019565 5.00000000
3.78366446 1.44862556 -0.64169419 4 6 6905 4.10200000 2683019567 2683019567 -9.00000000
8.21130943 3.14216447 1.07951868 95 7 6906 8.85800000 2683019569 2683019569 7.00000000
5.12105465 1.95861363 -0.67320627 6 8 6907 5.52400000 2683019572 2683019572 -7.00000000
8.29528427 3.17263865 1.40665877 2 9 6907 8.99200000 2683019574 2683019574 9.00000000
7.82571888 2.99148202 -0.73297977 13 10 6908 8.41000000 2683019576 2683019576 -5.00000000
8.19480610 3.12929201 -0.45971903 17 12 6910 8.78400000 2683019581 2683019581 -3.00000000
8.31851768 3.17486978 2.05560279 55 13 6911 9.13800000 2683019583 2683019583 13.00000000
8.17413330 3.11812901 -0.15270856 16 14 6912 8.75000000 2683019585 2683019585 -1.00000000
7.25652218 2.76664376 2.08090520 40 15 6913 8.04000000 2683019588 2683019588 15.00000000
2.11656690 0.80400836 -0.60667187 4 0 6920 2.34400000 2683019608 2683019608 -15.00000000
8.16593456 3.10031676 0.15246423 15 1 6921 8.73600000 2683019611 2683019611 1.00000000
2.51614571 0.95478922 -0.62131482 4 2 6922 2.76200000 2683019613 2683019613 -13.00000000
8.19760704 3.11070490 0.45950970 10 3 6922 8.78000000 2683019615 2683019615 3.00000000
3.01049113 1.14177489 -0.62585348 5 4 6923 3.28000000 2683019618 2683019618 -11.00000000
8.18242931 3.10167813 0.76557606 75 5 6924 8.78400000 2683019620 2683019620 5.00000000
3.77392006 1.42981040 -0.63919121 4 6 6925 4.08600000 2683019622 2683019622 -9.00000000
8.19623756 3.10364079 1.07610631 97 7 6926 8.83000000 2683019625 2683019625 7.00000000
5.13157368 1.94213116 -0.67369372 6 8 6927 5.52800000 2683019627 2683019627 -7.00000000
7.84543085 2.96767139 -0.73385137 13 10 6928 8.42000000 2683019632 2683019632 -5.00000000
8.18886471 3.09431410 -0.45877698 17 12 6930 8.76600000 2683019636 2683019636 -3.00000000
8.34231091 3.15063286 2.05875206 54 13 6931 9.15200000 2683019638 2683019638 13.00000000
8.18683815 3.09028316 -0.15274346 14 14 6932 8.75200000 2683019641 2683019641 -1.00000000
7.26975060 2.74266076 2.08194041 40 15 6933 8.04400000 2683019643 2683019643 15.00000000
2.11198878 0.79426509 -0.60460126 4 0 6939 2.33600000 2683019664 2683019664 -15.00000000
8.17617035 3.07322049 0.15246423 18 1 6940 8.73600000 2683019666 2683019666 1.00000000
2.51382542 0.94438416 -0.61996508 4 2 6941 2.75600000 2683019668 2683019668 -13.00000000
8.18918133 3.07647967 0.45846298 10 3 6941 8.76000000 2683019671 2683019671 3.00000000
3.01609898 1.13247561 -0.62623513 5 4 6942 3.28200000 2683019673 2683019673 -11.00000000
8.17774677 3.06892705 0.76418155 75 5 6943 8.76800000 2683019675 2683019675 5.00000000
3.78603888 1.42006266 -0.64044273 4 6 6944 4.09400000 2683019678 2683019678 -9.00000000
8.18789673 3.06947589 1.07366896 92 7 6945 8.81000000 2683019680 2683019680 7.00000000
5.11196136 1.91535270 -0.67028141 9 8 6946 5.50000000 2683019682 2683019682 -7.00000000
7.84963131 2.93954253 -0.73332840 13 10 6947 8.41400000 2683019687 2683019687 -5.00000000
8.17476177 3.05804467 -0.45741627 17 12 6949 8.74000000 2683019691 2683019691 -3.00000000
8.34723759 3.12090421 2.05740237 55 13 6950 9.14600000 2683019694 2683019694 13.00000000
8.18392849 3.05821776 -0.15249912 14 14 6951 8.73800000 2683019696 2683019696 -1.00000000
7.27880573 2.71853828 2.08194041 42 15 6952 8.04400000 2683019698 2683019698 15.00000000
2.12561178 0.79093027 -0.60770714 4 0 6959 2.34800000 2683019719 2683019719 -15.00000000
8.18872261 3.04535866 0.15249912 12 1 6960 8.73800000 2683019721 2683019721 1.00000000
2.50432014 0.93085080 -0.61681581 6 2 6961 2.74200000 2683019724 2683019724 -13.00000000
8.18863773 3.04370022 0.45783496 13 3 6961 8.74800000 2683019726 2683019726 3.00000000
3.02187395 1.12262428 -0.62661672 5 4 6962 3.28400000 2683019728 2683019728 -11.00000000
8.18093777 3.03758860 0.76348430 75 5 6963 8.76000000 2683019731 2683019731 5.00000000
3.78726888 1.40546381 -0.63981694 4 6 6964 4.09000000 2683019733 2683019733 -9.00000000
8.19856167 3.04087615 1.07366896 92 7 6965 8.81000000 2683019735 2683019735 7.00000000
5.11117077 1.89473701 -0.66930646 6 8 6966 5.49200000 2683019738 2683019738 -7.00000000
8.24231243 3.05546713 1.39226675 7 9 6966 8.90000000 2683019740 2683019740 9.00000000
7.86171293 2.91281652 -0.73350275 13 10 6967 8.41600000 2683019742 2683019742 -5.00000000
8.22040749 3.04408360 1.70392430 18 11 6968 8.93000000 2683019744 2683019744 11.00000000
8.18164062 3.02810431 -0.45720690 12 12 6969 8.73600000 2683019747 2683019747 -3.00000000
8.23014164 3.04442167 2.02590919 59 13 6970 9.00600000 2683019749 2683019749 13.00000000
8.17204666 3.02131057 -0.15208027 12 14 6971 8.71400000 2683019751 2683019751 -1.00000000
7.28825045 2.69311404 2.08194041 42 15 6972 8.04400000 2683019754 2683019754 15.00000000
2.12110806 0.78083616 -0.60563654 4 0 6979 2.34000000 2683019774 2683019774 -15.00000000
8.19367313 3.01468468 0.15239441 12 1 6980 8.73200000 2683019777 2683019777 1.00000000
2.52035713 0.92681146 -0.61996508 10 2 6981 2.75600000 2683019779 2683019779 -13.00000000
8.18421555 3.00958347 0.45699757 10 3 6981 8.73200000 2683019781 2683019781 3.00000000
3.00734687 1.10529649 -0.62280059 5 4 6982 3.26400000 2683019784 2683019784 -11.00000000
8.17840004 3.00420427 0.76226413 78 5 6983 8.74600000 2683019786 2683019786 5.00000000
3.79586053 1.39359677 -0.64044273 6 6 6984 4.09400000 2683019788 2683019788 -9.00000000
8.20167160 3.00950408 1.07269394 92 7 6985 8.80200000 2683019790 2683019790 7.00000000
5.12520838 1.87961817 -0.67028141 6 8 6986 5.50000000 2683019793 2683019793 -7.00000000
7.88492727 2.89015603 -0.73472291 13 10 6987 8.43000000 2683019797 2683019797 -5.00000000
8.17528152 2.99334621 -0.45626485 12 12 6989 8.71800000 2683019802 2683019802 -3.00000000
8.20594692 3.00295019 2.01736116 87 13 6990 8.96800000 2683019804 2683019804 13.00000000
8.17315292 2.98933196 -0.15190575 10 14 6991 8.70400000 2683019807 2683019807 -1.00000000
7.28625536 2.66494894 2.07883453 42 15 6991 8.03200000 2683019809 2683019809 15.00000000
2.12563586 0.77408838 -0.60615420 4 0 6999 2.34200000 2683019830 2683019830 -15.00000000
8.17783928 2.97649002 0.15190575 12 1 7000 8.70400000 2683019832 2683019832 1.00000000
2.52723956 0.91934049 -0.62086493 11 2 7001 2.76000000 2683019834 2683019834 -13.00000000
8.18716335 2.97826576 0.45657888 13 3 7001 8.72400000 2683019837 2683019837 3.00000000
3.01487684 1.09613383 -0.62356383 5 4 7002 3.26800000 2683019839 2683019839 -11.00000000
8.17385578 2.97019434 0.76086962 78 5 7003 8.73000000 2683019841 2683019841 5.00000000
3.79327512 1.37764096 -0.63919121 4 6 7004 4.08600000 2683019843 2683019843 -9.00000000
8.19719887 2.97543788 1.07074404 90 7 7005 8.78600000 2683019846 2683019846 7.00000000
5.12800598 1.86036241 -0.66979390 6 8 7006 5.49600000 2683019848 2683019848 -7.00000000
8.21516132 2.98033547 1.38413215 100 9 7006 8.84800000 2683019850 2683019850 9.00000000
7.90807915 2.86736894 -0.73594308 13 10 7007 8.44400000 2683019853 2683019853 -5.00000000
8.21377182 2.97658706 1.69820011 87 11 7008 8.90000000 2683019855 2683019855 11.00000000
8.16690159 2.95798945 -0.45521814 12 12 7009 8.69800000 2683019857 2683019857 -3.00000000
8.21454716 2.97362447 2.01691127 101 13 7010 8.96600000 2683019860 2683019860 13.00000000
8.16849518 2.95534158 -0.15162651 14 14 7011 8.68800000 2683019862 2683019862 -1.00000000
7.29597378 2.63822556 2.07883453 42 15 7012 8.03200000 2683019864 2683019864 15.00000000
2.12637377 0.76638025 -0.60563654 4 0 7018 2.34000000 2683019885 2683019885 -15.00000000
8.17261314 2.94393325 0.15162651 12 1 7019 8.68800000 2683019887 2683019887 1.00000000
2.51927304 0.90699410 -0.61816549 6 2 7020 2.74800000 2683019890 2683019890 -13.00000000
8.18247509 2.94425917 0.45574149 10 3 7021 8.70800000 2683019892 2683019892 3.00000000
3.02218986 1.08745944 -0.62432700 5 4 7021 3.27200000 2683019894 2683019894 -11.00000000
8.17428684 2.93970132 0.75999808 78 5 7022 8.72000000 2683019896 2683019896 5.00000000
3.78666902 1.36104548 -0.63731402 4 6 7023 4.07400000 2683019899 2683019899 -9.00000000
8.19767952 2.94488311 1.06952536 87 7 7024 8.77600000 2683019901 2683019901 7.00000000
5.15283012 1.85005498 -0.67223132 6 8 7025 5.51600000 2683019903 2683019903 -7.00000000
8.20268917 2.94506645 1.38037777 89 9 7025 8.82400000 2683019906 2683019906 9.00000000
7.92504549 2.84382081 -0.73664033 13 10 7026 8.45200000 2683019908 2683019908 -5.00000000
8.20326900 2.94204235 1.69400227 90 11 7027 8.87800000 2683019910 2683019910 11.00000000
8.16726494 2.92752099 -0.45469478 12 12 7028 8.68800000 2683019913 2683019913 -3.00000000
8.21702480 2.94373870 2.01511145 106 13 7029 8.95800000 2683019915 2683019915 13.00000000
8.17072010 2.92554116 -0.15148689 14 14 7030 8.68000000 2683019917 2683019917 -1.00000000
7.30240726 2.61464047 2.07831693 45 15 7030 8.03000000 2683019920 2683019920 15.00000000
2.14177394 0.76349390 -0.60926002 4 0 7038 2.35400000 2683019940 2683019940 -15.00000000
8.16400242 2.90867639 0.15127745 12 1 7039 8.66800000 2683019943 2683019943 1.00000000
2.50957298 0.89361876 -0.61501616 4 2 7040 2.73400000 2683019945 2683019945 -13.00000000
8.18141270 2.91166115 0.45511347 13 3 7041 8.69600000 2683019947 2683019947 3.00000000
3.02596736 1.07690346 -0.62432700 5 4 7041 3.27200000 2683019949 2683019949 -11.00000000
8.17511177 2.90781140 0.75912654 75 5 7042 8.71000000 2683019952 2683019952 5.00000000
3.79139686 1.34781921 -0.63731402 4 6 7043 4.07400000 2683019954 2683019954 -9.00000000
8.19294548 2.91093326 1.06757545 90 7 7044 8.76000000 2683019956 2683019956 7.00000000
5.14055014 1.82541430 -0.66979390 6 8 7045 5.49600000 2683019959 2683019959 -7.00000000
8.20970535 2.91366100 1.37975204 86 9 7046 8.82000000 2683019961 2683019961 9.00000000
7.94806767 2.82080460 -0.73786050 13 10 7046 8.46600000 2683019963 2683019963 -5.00000000
8.19313526 2.90617037 1.68980443 81 11 7047 8.85600000 2683019966 2683019966 11.00000000
8.14731503 2.88831639 -0.45302004 12 12 7048 8.65600000 2683019968 2683019968 -3.00000000
8.20888138 2.90852976 2.01061249 108 13 7049 8.93800000 2683019970 2683019970 13.00000000
8.18465233 2.89833736 -0.15155670 16 14 7050 8.68400000 2683019973 2683019973 -1.00000000
7.31012058 2.58721352 2.07779932 45 15 7051 8.02800000 2683019975 2683019975 15.00000000
2.14806986 0.75729769 -0.61029530 4 0 7058 2.35800000 2683019996 2683019996 -15.00000000
8.17787838 2.88148999 0.15134726 12 1 7059 8.67200000 2683019998 2683019998 1.00000000
2.51635313 0.88614786 -0.61591601 4 2 7060 2.73800000 2683020000 2683020000 -13.00000000
8.17457104 2.87711716 0.45417142 13 3 7061 8.67800000 2683020002 2683020002 3.00000000
3.02785611 1.06568253 -0.62394542 5 4 7061 3.27000000 2683020005 2683020005 -11.00000000
8.19085121 2.88124061 0.75964946 86 5 7062 8.71600000 2683020007 2683020007 5.00000000
3.81098700 1.33981788 -0.63981694 4 6 7063 4.09000000 2683020009 2683020009 -9.00000000
8.19556522 2.87968445 1.06660044 90 7 7064 8.75200000 2683020012 2683020012 7.00000000
5.13378000 1.80285513 -0.66808772 6 8 7065 5.48200000 2683020014 2683020014 -7.00000000
8.20068455 2.87987542 1.37662327 86 9 7065 8.80000000 2683020016 2683020016 9.00000000
7.98418522 2.80228090 -0.74030089 13 10 7066 8.49400000 2683020019 2683020019 -5.00000000
8.20322990 2.87755322 1.68980443 84 11 7067 8.85600000 2683020021 2683020021 11.00000000
8.16300106 2.86184168 -0.45333406 12 12 7068 8.66200000 2683020023 2683020023 -3.00000000
8.19691467 2.87212491 2.00521374 106 13 7069 8.91400000 2683020026 2683020026 13.00000000
8.17018414 2.86115789 -0.15110293 12 14 7070 8.65800000 2683020028 2683020028 -1.00000000
7.32048273 2.56359673 2.07831693 45 15 7070 8.03000000 2683020030 2683020030 15.00000000
2.13610673 0.74470723 -0.60615420 4 0 7078 2.34200000 2683020051 2683020051 -15.00000000
8.17655659 2.84897852 0.15113784 12 1 7079 8.66000000 2683020053 2683020053 1.00000000
2.52127147 0.87799960 -0.61636591 3 2 7080 2.74000000 2683020055 2683020055 -13.00000000
8.17701912 2.84593916 0.45375273 13 3 7081 8.67000000 2683020058 2683020058 3.00000000
3.02599525 1.05317080 -0.62280059 5 4 7081 3.26400000 2683020060 2683020060 -11.00000000
8.17074966 2.84215856 0.75686049 75 5 7082 8.68400000 2683020062 2683020062 5.00000000
3.83429909 1.33299351 -0.64294565 4 6 7083 4.11000000 2683020065 2683020065 -9.00000000
8.19994164 2.84910440 1.06586933 90 7 7084 8.74600000 2683020067 2683020067 7.00000000
5.13441610 1.78297043 -0.66735655 6 8 7085 5.47600000 2683020069 2683020069 -7.00000000
8.19812107 2.84526539 1.37443316 81 9 7086 8.78600000 2683020072 2683020072 9.00000000
8.03344536 2.78811240 -0.74396139 13 10 7086 8.53600000 2683020074 2683020074 -5.00000000
8.21322441 2.84890103 1.68980443 84 11 7087 8.85600000 2683020076 2683020076 11.00000000
8.15973186 2.82875085 -0.45260134 12 12 7088 8.64800000 2683020078 2683020078 -3.00000000
8.18847656 2.83711505 2.00071478 104 13 7089 8.89400000 2683020081 2683020081 13.00000000
8.16500473 2.82738638 -0.15082370 12 14 7090 8.64200000 2683020083 2683020083 -1.00000000
7.32617855 2.53548479 2.07728171 45 15 7091 8.02600000 2683020085 2683020085 15.00000000
2.12786293 0.73309743 -0.60304838 4 0 7099 2.33000000 2683020106 2683020106 -15.00000000
8.16047287 2.80987620 0.15064918 12 1 7100 8.63200000 2683020108 2683020108 1.00000000
2.53184319 0.87128931 -0.61816549 3 2 7101 2.74800000 2683020111 2683020111 -13.00000000
8.17984009 2.81335139 0.45333406 13 3 7102 8.66200000 2683020113 2683020113 3.00000000
3.02612185 1.04079592 -0.62203735 5 4 7102 3.26000000 2683020115 2683020115 -11.00000000
8.16980648 2.80830622 0.75581461 78 5 7103 8.67200000 2683020118 2683020118 5.00000000
3.82421327 1.31379664 -0.64044273 4 6 7104 4.09400000 2683020120 2683020120 -9.00000000
8.21032906 2.81903100 1.06586933 90 7 7105 8.74600000 2683020122 2683020122 7.00000000
5.17095852 1.77444887 -0.67125636 6 8 7106 5.50800000 2683020125 2683020125 -7.00000000
8.19866085 2.81342530 1.37286890 86 9 7106 8.77600000 2683020127 2683020127 9.00000000
8.02476406 2.75218606 -0.74221832 13 10 7107 8.51600000 2683020129 2683020129 -5.00000000
8.21246815 2.81495953 1.68751478 75 11 7108 8.84400000 2683020131 2683020131 11.00000000
8.17760277 2.80141401 -0.45302004 12 12 7109 8.65600000 2683020134 2683020134 -3.00000000
8.19882011 2.80708361 2.00071478 106 13 7110 8.89400000 2683020136 2683020136 13.00000000
8.16017723 2.79226184 -0.15054446 12 14 7111 8.62600000 2683020138 2683020138 -1.00000000
7.32401752 2.50614357 2.07417583 45 15 7111 8.01400000 2683020141 2683020141 15.00000000
2.13772368 0.72815686 -0.60511893 4 0 7119 2.33800000 2683020161 2683020161 -15.00000000
8.16644573 2.78008485 0.15057936 12 1 7120 8.62800000 2683020164 2683020164 1.00000000
2.53855896 0.86370158 -0.61906528 3 2 7121 2.75200000 2683020166 2683020166 -13.00000000
8.18582916 2.78349543 0.45312470 13 3 7122 8.65800000 2683020168 2683020168 3.00000000
3.03903008 1.03338659 -0.62394542 5 4 7122 3.27000000 2683020171 2683020171 -11.00000000
8.17955971 2.77977109 0.75581461 78 5 7123 8.67200000 2683020173 2683020173 5.00000000
3.81755352 1.29662788 -0.63856548 4 6 7124 4.08200000 2683020175 2683020175 -9.00000000
8.19380283 2.78142118 1.06245697 92 7 7125 8.71800000 2683020178 2683020178 7.00000000
5.18088055 1.75766361 -0.67174381 6 8 7126 5.51200000 2683020180 2683020180 -7.00000000
8.20143509 2.78081965 1.37161744 86 9 7127 8.76800000 2683020182 2683020182 9.00000000
8.04564381 2.72799635 -0.74326420 13 10 7127 8.52800000 2683020184 2683020184 -5.00000000
8.19993114 2.77871418 1.68293536 71 11 7128 8.82000000 2683020187 2683020187 11.00000000
8.16273975 2.76452279 -0.45165929 12 12 7129 8.63000000 2683020189 2683020189 -3.00000000
8.20487785 2.77719784 1.99981487 101 13 7130 8.89000000 2683020191 2683020191 13.00000000
8.16797924 2.76311970 -0.15050955 14 14 7131 8.62400000 2683020194 2683020194 -1.00000000
7.34047413 2.48175788 2.07624626 45 15 7132 8.02200000 2683020196 2683020196 15.00000000
2.14561892 0.72291440 -0.60667187 4 0 7138 2.34400000 2683020217 2683020217 -15.00000000
8.16045856 2.74788356 0.15030013 12 1 7139 8.61200000 2683020219 2683020219 1.00000000
2.52478647 0.84968454 -0.61501616 4 2 7140 2.73400000 2683020221 2683020221 -13.00000000
8.17986965 2.75124121 0.45228735 15 3 7141 8.64200000 2683020224 2683020224 3.00000000
3.03871870 1.02205145 -0.62318218 4 4 7141 3.26600000 2683020226 2683020226 -11.00000000
8.18117905 2.75009203 0.75511736 78 5 7142 8.66400000 2683020228 2683020228 5.00000000
3.82932234 1.28647768 -0.63981694 4 6 7143 4.09000000 2683020231 2683020231 -9.00000000
8.18416309 2.74791574 1.06001949 95 7 7144 8.69800000 2683020233 2683020233 7.00000000
5.16786098 1.73415828 -0.66930646 6 8 7145 5.49200000 2683020235 2683020235 -7.00000000
8.20638466 2.75378346 1.37099171 86 9 7145 8.76400000 2683020237 2683020237 9.00000000
8.06220150 2.70383501 -0.74396139 13 10 7146 8.53600000 2683020240 2683020240 -5.00000000
8.20165539 2.74901128 1.68140888 71 11 7147 8.81200000 2683020242 2683020242 11.00000000
8.16239262 2.73426700 -0.45113593 12 12 7148 8.62000000 2683020244 2683020244 -3.00000000
8.19556236 2.74378753 1.99531591 104 13 7149 8.87000000 2683020247 2683020247 13.00000000
8.17520142 2.73538399 -0.15047465 14 14 7150 8.62200000 2683020249 2683020249 -1.00000000
7.33724260 2.45500708 2.07314062 47 15 7150 8.01000000 2683020251 2683020251 15.00000000
2.15179491 0.71664125 -0.60770714 4 0 7158 2.34800000 2683020272 2683020272 -15.00000000
8.17759037 2.72190762 0.15043974 12 1 7159 8.62000000 2683020274 2683020274 1.00000000
2.52958632 0.84148133 -0.61546606 4 2 7160 2.73600000 2683020277 2683020277 -13.00000000
8.18184280 2.72015095 0.45186865 13 3 7161 8.63400000 2683020279 2683020279 3.00000000
3.04971981 1.01391554 -0.62470865 5 4 7161 3.27400000 2683020281 2683020281 -11.00000000
8.17749310 2.71711993 0.75389719 79 5 7162 8.65000000 2683020284 2683020284 5.00000000
3.83004022 1.27185786 -0.63919121 4 6 7163 4.08600000 2683020286 2683020286 -9.00000000
8.18616867 2.71683002 1.05904460 95 7 7164 8.69000000 2683020288 2683020288 7.00000000
5.17765141 1.71735847 -0.66979390 6 8 7165 5.49600000 2683020290 2683020290 -7.00000000
8.20142269 2.71871471 1.36848867 89 9 7166 8.74800000 2683020293 2683020293 9.00000000
8.09428501 2.68319917 -0.74605316 13 10 7166 8.56000000 2683020295 2683020295 -5.00000000
8.20374584 2.71789575 1.67988241 75 11 7167 8.80400000 2683020297 2683020297 11.00000000
8.16809559 2.70450282 -0.45092660 12 12 7168 8.61600000 2683020300 2683020300 -3.00000000
8.19028950 2.71026516 1.99171662 101 13 7169 8.85400000 2683020302 2683020302 13.00000000
8.16381550 2.69992375 -0.15009069 14 14 7170 8.60000000 2683020304 2683020304 -1.00000000
7.35719681 2.43173575 2.07624626 45 15 7171 8.02200000 2683020307 2683020307 15.00000000
2.15061331 0.70791763 -0.60667187 4 0 7178 2.34400000 2683020327 2683020327 -15.00000000
8.16804695 2.68709683 0.15009069 12 1 7179 8.60000000 2683020330 2683020330 1.00000000
2.54176450 0.83568960 -0.61771560 4 2 7180 2.74600000 2683020332 2683020332 -13.00000000
8.18180084 2.68845701 0.45134529 10 3 7181 8.62400000 2683020334 2683020334 3.00000000
3.04764485 1.00142527 -0.62356383 5 4 7181 3.26800000 2683020337 2683020337 -11.00000000
8.17935658 2.68607211 0.75319993 79 5 7182 8.64200000 2683020339 2683020339 5.00000000
3.83445644 1.25848079 -0.63919121 6 6 7183 4.08600000 2683020341 2683020341 -9.00000000
8.19182968 2.68700099 1.05855715 97 7 7184 8.68600000 2683020343 2683020343 7.00000000
5.17984152 1.69803786 -0.66930646 9 8 7185 5.49200000 2683020346 2683020346 -7.00000000
8.19349957 2.68596458 1.36567283 97 9 7185 8.73000000 2683020348 2683020348 9.00000000
