# .PCD v0.7 - Point Cloud Data file format
VERSION 0.7
FIELDS x y z intensity laser_id azimuth distance_m adjustedtime timestamp vertical_angle
SIZE 4 4 4 1 1 2 8 8 4 8
TYPE F F F U U U F U U F
COUNT 1 1 1 1 1 1 1 1 1 1
WIDTH 523
HEIGHT 1
VIEWPOINT 0 0 0 1 0 0 0
POINTS 523
DATA ascii
-3.03754663 3.03754663 -0.52745050 72 8 31500 4.32800000 2690987957 2690987957 -7.00000000
-4.40464878 4.40618658 -0.54507202 3 10 31501 6.25400000 2690987962 2690987962 -5.00000000
-7.18048239 7.18800592 -0.53246599 4 12 31503 10.17400000 2690987966 2690987966 -3.00000000
-7.88748455 7.89850569 2.57703924 47 13 31504 11.45600000 2690987969 2690987969 13.00000000
-6.78321886 6.79506826 2.57266140 45 15 31505 9.94000000 2690987973 2690987973 15.00000000
-1.46786749 1.47454369 -0.55749625 4 0 31513 2.15400000 2690987994 2690987994 -15.00000000
-1.72893870 1.73801529 -0.56597686 3 2 31515 2.51600000 2690987998 2690987998 -13.00000000
-2.03499222 2.04638958 -0.56097847 3 4 31516 2.94000000 2690988003 2690988003 -11.00000000
-2.49658608 2.51232219 -0.56097400 1 6 31518 3.58600000 2690988008 2690988008 -9.00000000
-3.01853251 3.03967977 -0.52598810 72 8 31520 4.31600000 2690988012 2690988012 -7.00000000
-4.39485598 4.42719078 -0.54576927 3 10 31521 6.26200000 2690988017 2690988017 -5.00000000
-7.20176554 7.25981855 -0.53592020 4 12 31523 10.24000000 2690988021 2690988021 -3.00000000
-7.85437727 7.92045498 2.57523966 45 13 31524 11.44800000 2690988024 2690988024 13.00000000
-6.75826836 6.81988430 2.57266140 45 15 31526 9.94000000 2690988028 2690988028 15.00000000
-1.46594512 1.48189461 -0.55853152 4 0 31531 2.15800000 2690988049 2690988049 -15.00000000
-1.71525002 1.73512304 -0.56327742 3 2 31533 2.50400000 2690988054 2690988054 -13.00000000
-2.03407311 2.05835843 -0.56250495 3 4 31534 2.94800000 2690988058 2690988058 -11.00000000
-2.48312902 2.51453066 -0.55972254 1 6 31536 3.57800000 2690988063 2690988063 -9.00000000
-3.00757384 3.04773498 -0.52574432 58 8 31538 4.31400000 2690988068 2690988068 -7.00000000
-3.49242783 3.54029894 -0.43508148 3 10 31539 4.99200000 2690988072 2690988072 -5.00000000
-7.22519302 7.32934475 -0.53937435 4 12 31541 10.30600000 2690988077 2690988077 -3.00000000
-7.83766270 7.95341921 2.57793903 50 13 31542 11.46000000 2690988079 2690988079 13.00000000
-6.73258066 6.83440161 2.57059073 45 15 31543 9.93200000 2690988084 2690988084 15.00000000
-1.46888626 1.49527144 -0.56163734 4 0 31551 2.17000000 2690988104 2690988104 -15.00000000
-1.70099187 1.73275578 -0.56057805 3 2 31553 2.49200000 2690988109 2690988109 -13.00000000
-2.01037455 2.04863095 -0.55792552 3 4 31554 2.92400000 2690988114 2690988114 -11.00000000
-2.47571969 2.52459359 -0.56003541 1 6 31556 3.58000000 2690988118 2690988118 -9.00000000
-2.98719120 3.04829001 -0.52403820 62 8 31558 4.30000000 2690988123 2690988123 -7.00000000
-4.37236881 4.46335745 -0.54664081 3 10 31559 6.27200000 2690988127 2690988127 -5.00000000
-7.17860746 7.33311224 -0.53780431 4 12 31561 10.27600000 2690988132 2690988132 -3.00000000
-7.79758549 7.96819401 2.57388997 53 13 31562 11.44200000 2690988134 2690988134 13.00000000
-6.71018744 6.86179447 2.57162595 45 15 31564 9.93600000 2690988139 2690988139 15.00000000
-1.46095979 1.49762404 -0.56060207 4 0 31571 2.16600000 2690988160 2690988160 -15.00000000
-1.70581555 1.74984610 -0.56417722 3 2 31573 2.50800000 2690988164 2690988164 -13.00000000
-2.00869203 2.06126022 -0.55945200 3 4 31574 2.93200000 2690988169 2690988169 -11.00000000
-2.48618627 2.55303288 -0.56441557 3 6 31576 3.60800000 2690988174 2690988174 -9.00000000
-2.95991945 3.04162693 -0.52111334 74 8 31578 4.27600000 2690988178 2690988178 -7.00000000
-4.36926556 4.49144554 -0.54820961 3 10 31579 6.29000000 2690988183 2690988183 -5.00000000
-7.14600563 7.35096550 -0.53728092 4 12 31581 10.26600000 2690988187 2690988187 -3.00000000
-7.77108192 7.99676180 2.57433987 53 13 31582 11.44400000 2690988190 2690988190 13.00000000
-6.69681883 6.89370775 2.57524943 45 15 31583 9.95000000 2690988194 2690988194 15.00000000
-1.45572329 1.50271463 -0.56060207 4 0 31591 2.16600000 2690988215 2690988215 -15.00000000
-1.70240784 1.75859022 -0.56507707 3 2 31593 2.51200000 2690988220 2690988220 -13.00000000
-2.00967622 2.07672429 -0.56174171 3 4 31594 2.94400000 2690988224 2690988224 -11.00000000
-2.48000574 2.56453586 -0.56504130 1 6 31596 3.61200000 2690988229 2690988229 -9.00000000
-2.95342255 3.05622292 -0.52184451 82 8 31598 4.28200000 2690988233 2690988233 -7.00000000
-4.36048222 4.51383495 -0.54908121 3 10 31599 6.30000000 2690988238 2690988238 -5.00000000
-7.13278675 7.38879728 -0.53822297 8 12 31601 10.28400000 2690988243 2690988243 -3.00000000
-7.74041414 8.02103424 2.57344007 52 13 31602 11.44000000 2690988245 2690988245 13.00000000
-6.66211987 6.90847254 2.57162595 42 15 31604 9.93600000 2690988250 2690988250 15.00000000
-1.44752765 1.50525510 -0.55956680 4 0 31612 2.16200000 2690988270 2690988270 -15.00000000
-1.70135200 1.77043843 -0.56687665 3 2 31614 2.52000000 2690988275 2690988275 -13.00000000
-1.99661088 2.07841277 -0.56021523 3 4 31615 2.93600000 2690988280 2690988280 -11.00000000
-2.45964575 2.56220794 -0.56253833 1 6 31617 3.59600000 2690988284 2690988284 -9.00000000
-2.95319486 3.07848740 -0.52379441 86 8 31619 4.29800000 2690988289 2690988289 -7.00000000
-4.33977175 4.52547216 -0.54855824 3 10 31620 6.29400000 2690988293 2690988293 -5.00000000
-7.08769321 7.39614439 -0.53686225 8 12 31622 10.25800000 2690988298 2690988298 -3.00000000
-7.70691919 8.04512882 2.57209039 53 13 31623 11.43400000 2690988300 2690988300 13.00000000
-6.63662815 6.93029022 2.57110834 45 15 31624 9.93400000 2690988305 2690988305 15.00000000
-1.44493294 1.51309299 -0.56060207 4 0 31632 2.16600000 2690988326 2690988326 -15.00000000
-1.68439865 1.76508796 -0.56327742 3 2 31634 2.50400000 2690988330 2690988330 -13.00000000
-1.99476421 2.09105182 -0.56174171 3 4 31635 2.94400000 2690988335 2690988335 -11.00000000
-2.45613885 2.57649732 -0.56378978 1 6 31637 3.60400000 2690988339 2690988339 -9.00000000
-2.94516921 3.09165168 -0.52428192 86 8 31639 4.30200000 2690988344 2690988344 -7.00000000
-4.33906269 4.55646467 -0.55047566 3 10 31640 6.31600000 2690988349 2690988349 -5.00000000
-7.27386665 7.64365339 -0.55298173 12 12 31642 10.56600000 2690988353 2690988353 -3.00000000
-7.68281889 8.07621765 2.57344007 52 13 31643 11.44000000 2690988356 2690988356 13.00000000
-6.60840273 6.94921446 2.56955552 45 15 31644 9.92800000 2690988360 2690988360 15.00000000
-1.44283187 1.52042747 -0.56163734 4 0 31650 2.17000000 2690988381 2690988381 -15.00000000
-1.67616332 1.76754284 -0.56237763 3 2 31652 2.50000000 2690988386 2690988386 -13.00000000
-1.98818517 2.09730816 -0.56174171 3 4 31653 2.94400000 2690988390 2690988390 -11.00000000
-2.42222095 2.55695343 -0.55784529 1 6 31655 3.56600000 2690988395 2690988395 -9.00000000
-2.92998338 3.09512258 -0.52330697 94 8 31657 4.29400000 2690988399 2690988399 -7.00000000
-4.33568239 4.58165073 -0.55187017 7 10 31658 6.33200000 2690988404 2690988404 -5.00000000
-7.22923279 7.64469957 -0.55141163 12 12 31660 10.53600000 2690988409 2690988409 -3.00000000
-7.65473175 8.09748173 2.57254028 54 13 31661 11.43600000 2690988411 2690988411 13.00000000
-6.59449959 6.97836590 2.57266140 42 15 31662 9.94000000 2690988415 2690988415 15.00000000
-1.44281530 1.53107846 -0.56370789 4 0 31670 2.17800000 2690988436 2690988436 -15.00000000
-1.67532718 1.77905786 -0.56417722 3 2 31672 2.50800000 2690988441 2690988441 -13.00000000
-1.98623490 2.10995364 -0.56326813 3 4 31673 2.95200000 2690988445 2690988445 -11.00000000
-2.44170403 2.59560800 -0.56441557 9 6 31675 3.60800000 2690988450 2690988450 -9.00000000
-2.92460012 3.11111665 -0.52428192 92 8 31677 4.30200000 2690988455 2690988455 -7.00000000
-4.31966305 4.59675694 -0.55187017 3 10 31678 6.33200000 2690988459 2690988459 -5.00000000
-7.10679865 7.56797218 -0.54408461 8 12 31680 10.39600000 2690988464 2690988464 -3.00000000
-7.61574936 8.11278629 2.56894112 53 13 31681 11.42000000 2690988466 2690988466 13.00000000
-6.56623507 6.99967098 2.57162595 40 15 31683 9.93600000 2690988471 2690988471 15.00000000
-1.43455446 1.53353477 -0.56267262 4 0 31691 2.17400000 2690988492 2690988492 -15.00000000
-1.66879535 1.78518629 -0.56417722 3 2 31693 2.50800000 2690988496 2690988496 -13.00000000
-1.97580731 2.11435056 -0.56250495 3 4 31694 2.94800000 2690988501 2690988501 -11.00000000
-2.90000391 3.10552382 -0.67298108 13 6 31696 4.30200000 2690988505 2690988505 -9.00000000
-2.91859484 3.12762022 -0.52525687 100 8 31698 4.31000000 2690988510 2690988510 -7.00000000
-4.31094027 4.62130022 -0.55291605 3 10 31699 6.34400000 2690988515 2690988515 -5.00000000
-7.87696218 8.44700718 2.24505854 3 11 31700 11.76600000 2690988517 2690988517 11.00000000
-7.04496622 7.55744553 -0.54146779 8 12 31701 10.34600000 2690988519 2690988519 -3.00000000
-7.58596325 8.14064503 2.56894112 54 13 31702 11.42000000 2690988521 2690988521 13.00000000
-6.53912783 7.01972151 2.57059073 42 15 31703 9.93200000 2690988526 2690988526 15.00000000
-1.42130387 1.53004062 -0.55956680 4 0 31711 2.16200000 2690988547 2690988547 -15.00000000
-1.67581177 1.80528283 -0.56867629 3 2 31713 2.52800000 2690988551 2690988551 -13.00000000
-1.96574390 2.11835623 -0.56174171 3 4 31714 2.94400000 2690988556 2690988556 -11.00000000
-2.42978382 2.62025595 -0.56597990 7 6 31716 3.61800000 2690988561 2690988561 -9.00000000
-2.92654943 3.15817380 -0.52866924 100 8 31718 4.33800000 2690988565 2690988565 -7.00000000
-4.27853489 4.61878014 -0.55082428 3 10 31719 6.32000000 2690988570 2690988570 -5.00000000
-7.02261305 7.58638811 -0.54178184 4 12 31721 10.35200000 2690988574 2690988574 -3.00000000
-7.55882454 8.16850567 2.56939101 55 13 31722 11.42200000 2690988577 2690988577 13.00000000
-6.50146627 7.02832317 2.56541443 42 15 31723 9.91200000 2690988581 2690988581 15.00000000
-1.42015266 1.53900468 -0.56111968 4 0 31730 2.16800000 2690988602 2690988602 -15.00000000
-1.65924752 1.79936922 -0.56507707 3 2 31732 2.51200000 2690988607 2690988607 -13.00000000
-1.96403098 2.13063741 -0.56326813 3 4 31733 2.95200000 2690988611 2690988611 -11.00000000
-2.87745976 3.12373853 -0.67266822 11 6 31735 4.30000000 2690988616 2690988616 -9.00000000
-2.93488240 3.18830848 -0.53208154 100 8 31737 4.36600000 2690988620 2690988620 -7.00000000
-4.28882837 4.66079950 -0.55413622 3 10 31738 6.35800000 2690988625 2690988625 -5.00000000
-7.02715874 7.64197779 -0.54408461 4 12 31740 10.39600000 2690988630 2690988630 -3.00000000
-7.53169537 8.19352722 2.56939101 56 13 31741 11.42200000 2690988632 2690988632 13.00000000
-6.48335218 7.05553436 2.56748486 42 15 31742 9.92000000 2690988637 2690988637 15.00000000
-1.42390776 1.55392265 -0.56474316 4 0 31750 2.18200000 2690988657 2690988657 -15.00000000
-1.65032434 1.80227566 -0.56417722 3 2 31752 2.50800000 2690988662 2690988662 -13.00000000
-1.96983767 2.15196157 -0.56708431 3 4 31753 2.97200000 2690988667 2690988667 -11.00000000
-2.39455962 2.61778593 -0.56191260 1 6 31755 3.59200000 2690988671 2690988671 -9.00000000
-2.92373514 3.19853377 -0.53208154 100 8 31757 4.36600000 2690988676 2690988676 -7.00000000
-4.26312494 4.66544580 -0.55291605 3 10 31758 6.34400000 2690988680 2690988680 -5.00000000
-6.97215891 7.63548803 -0.54188651 8 12 31760 10.35400000 2690988685 2690988685 -3.00000000
-7.49779367 8.21401024 2.56759143 59 13 31761 11.41400000 2690988687 2690988687 13.00000000
-6.45744896 7.07924938 2.56748486 40 15 31763 9.92000000 2690988692 2690988692 15.00000000
-1.41717482 1.55745471 -0.56422549 4 0 31770 2.18000000 2690988713 2690988713 -15.00000000
-1.64402318 1.80802536 -0.56417722 3 2 31772 2.50800000 2690988717 2690988717 -13.00000000
-1.95174968 2.14720225 -0.56403136 3 4 31773 2.95600000 2690988722 2690988722 -11.00000000
-2.38806343 2.62905288 -0.56253833 1 6 31775 3.59600000 2690988726 2690988726 -9.00000000
-2.89921045 3.19402122 -0.52964419 100 8 31777 4.34600000 2690988731 2690988731 -7.00000000
-4.26823521 4.70390654 -0.55570501 3 10 31778 6.37600000 2690988736 2690988736 -5.00000000
-6.97229528 7.68937063 -0.54397994 4 12 31780 10.39400000 2690988740 2690988740 -3.00000000
-7.46384048 8.23435688 2.56579161 57 13 31781 11.40600000 2690988743 2690988743 13.00000000
-6.44042349 7.10778189 2.57007313 40 15 31782 9.93000000 2690988747 2690988747 15.00000000
-1.41431987 1.56525886 -0.56526077 4 0 31790 2.18400000 2690988768 2690988768 -15.00000000
-1.64553785 1.82243133 -0.56687665 3 2 31792 2.52000000 2690988772 2690988772 -13.00000000
-1.93898082 2.14817262 -0.56250495 2 4 31793 2.94800000 2690988777 2690988777 -11.00000000
-2.38945651 2.64910746 -0.56504130 1 6 31795 3.61200000 2690988782 2690988782 -9.00000000
-2.88272738 3.19822383 -0.52866924 100 8 31797 4.33800000 2690988786 2690988786 -7.00000000
-4.26379251 4.73209858 -0.55727381 7 10 31798 6.39400000 2690988791 2690988791 -5.00000000
-6.97882271 7.75076771 -0.54659671 4 12 31800 10.44400000 2690988796 2690988796 -3.00000000
-7.43114042 8.25601482 2.56444192 52 13 31801 11.40000000 2690988798 2690988798 13.00000000
-6.41169739 7.12591171 2.56852031 42 15 31802 9.92400000 2690988802 2690988802 15.00000000
-1.40212393 1.56324148 -0.56267262 4 0 31811 2.17400000 2690988823 2690988823 -15.00000000
-1.63884735 1.82845032 -0.56687665 3 2 31813 2.52000000 2690988828 2690988828 -13.00000000
-1.93371451 2.15818930 -0.56326813 3 4 31814 2.95200000 2690988832 2690988832 -11.00000000
-2.37577772 2.65343237 -0.56410271 1 6 31816 3.60600000 2690988837 2690988837 -9.00000000
-2.86966228 3.20728874 -0.52842546 78 8 31818 4.33600000 2690988842 2690988842 -7.00000000
-4.24110699 4.74175406 -0.55657655 7 10 31819 6.38600000 2690988846 2690988846 -5.00000000
-6.96234655 7.78969669 -0.54753876 4 12 31821 10.46200000 2690988851 2690988851 -3.00000000
-7.38525009 8.26575756 2.55904317 17 13 31822 11.37600000 2690988853 2690988853 13.00000000
-6.37142229 7.13606787 2.56334376 42 15 31824 9.90400000 2690988858 2690988858 15.00000000
-1.39665866 1.56812632 -0.56267262 4 0 31831 2.17400000 2690988878 2690988878 -15.00000000
-1.63763726 1.83998251 -0.56867629 3 2 31833 2.52800000 2690988883 2690988883 -13.00000000
-1.93660927 2.17666006 -0.56632107 3 4 31834 2.96800000 2690988888 2690988888 -11.00000000
-2.35206318 2.64547038 -0.56066114 1 6 31836 3.58400000 2690988892 2690988892 -9.00000000
-2.86636019 3.22619009 -0.52988791 54 8 31838 4.34800000 2690988897 2690988897 -7.00000000
-4.22717524 4.75950861 -0.55692518 7 10 31839 6.39000000 2690988902 2690988902 -5.00000000
-6.93776464 7.81693983 -0.54774809 4 12 31841 10.46600000 2690988906 2690988906 -3.00000000
-6.32946348 7.13406038 2.20182085 15 13 31842 9.78800000 2690988908 2690988908 13.00000000
-6.35416317 7.16693783 2.56644964 42 15 31844 9.91600000 2690988913 2690988913 15.00000000
-1.39245617 1.57443905 -0.56319022 4 0 31851 2.17600000 2690988934 2690988934 -15.00000000
-1.61571836 1.82816541 -0.56327742 3 2 31853 2.50400000 2690988938 2690988938 -13.00000000
-1.93159914 2.18634939 -0.56708431 2 4 31854 2.97200000 2690988943 2690988943 -11.00000000
-2.35588837 2.66847277 -0.56378978 1 6 31856 3.60400000 2690988948 2690988948 -9.00000000
-2.91549230 3.30465055 -0.54109991 22 8 31858 4.44000000 2690988952 2690988952 -7.00000000
-4.22371435 4.78917837 -0.55866832 3 10 31859 6.41000000 2690988957 2690988957 -5.00000000
-6.90251303 7.83211946 -0.54712009 4 12 31861 10.45400000 2690988961 2690988961 -3.00000000
-6.27875805 7.12686682 2.19282293 16 13 31862 9.74800000 2690988964 2690988964 13.00000000
-6.32400131 7.18327475 2.56437922 42 15 31864 9.90800000 2690988968 2690988968 15.00000000
-1.39460051 1.58799934 -0.56629604 4 0 31871 2.18800000 2690988989 2690988989 -15.00000000
-1.61061251 1.83525884 -0.56372732 4 2 31873 2.50600000 2690988994 2690988994 -13.00000000
-1.91100848 2.17832041 -0.56326813 3 4 31874 2.95200000 2690988998 2690988998 -11.00000000
-2.34525704 2.67519474 -0.56347692 1 6 31876 3.60200000 2690989003 2690989003 -9.00000000
-2.89347434 3.30286217 -0.53915000 14 8 31878 4.42400000 2690989008 2690989008 -7.00000000
-4.22009754 4.81888103 -0.56041145 7 10 31879 6.43000000 2690989012 2690989012 -5.00000000
-6.89354610 7.87720776 -0.54858547 4 12 31881 10.48200000 2690989017 2690989017 -3.00000000
-6.08832216 6.95953465 2.13478541 46 13 31882 9.49000000 2690989019 2690989019 13.00000000
-6.28363085 7.18785238 2.55816746 42 15 31884 9.88400000 2690989024 2690989024 15.00000000
-1.38833463 1.59091723 -0.56577843 4 0 31889 2.18600000 2690989044 2690989044 -15.00000000
-1.61252367 1.84912205 -0.56642675 4 2 31891 2.51800000 2690989049 2690989049 -13.00000000
-1.91189611 2.19319248 -0.56555784 2 4 31892 2.96400000 2690989054 2690989054 -11.00000000
-2.35370898 2.70191264 -0.56754422 1 6 31894 3.62800000 2690989058 2690989058 -9.00000000
-2.89220762 3.32241678 -0.54085612 12 8 31896 4.43800000 2690989063 2690989063 -7.00000000
-4.21278524 4.84113312 -0.56145728 3 10 31897 6.44200000 2690989067 2690989067 -5.00000000
-6.88449192 7.91691113 -0.54984158 4 12 31899 10.50600000 2690989072 2690989072 -3.00000000
-6.13802338 7.06098843 2.15998006 30 13 31900 9.60200000 2690989074 2690989074 13.00000000
-6.13049221 7.05481100 2.50433302 45 15 31901 9.67600000 2690989079 2690989079 15.00000000
-1.37265193 1.58407390 -0.56163734 4 0 31909 2.17000000 2690989100 2690989100 -15.00000000
-1.60861051 1.85768580 -0.56732655 4 2 31911 2.52200000 2690989104 2690989104 -13.00000000
-1.90936840 2.20579052 -0.56708431 3 4 31912 2.97200000 2690989109 2690989109 -11.00000000
-2.33650923 2.70114827 -0.56566703 1 6 31914 3.61600000 2690989113 2690989113 -9.00000000
-2.88578510 3.33849955 -0.54183108 12 8 31916 4.44600000 2690989118 2690989118 -7.00000000
-4.19716358 4.85731649 -0.56163162 3 10 31917 6.44400000 2690989123 2690989123 -5.00000000
-6.87769985 7.96508121 -0.55151629 4 12 31919 10.53800000 2690989127 2690989127 -3.00000000
-6.15281248 7.12810183 2.17392707 17 13 31920 9.66400000 2690989130 2690989130 13.00000000
-6.23582125 7.22936869 2.55816746 42 15 31922 9.88400000 2690989134 2690989134 15.00000000
-1.36963415 1.59178448 -0.56267262 4 0 31929 2.17400000 2690989155 2690989155 -15.00000000
-1.59830463 1.85885680 -0.56597686 4 2 31931 2.51600000 2690989160 2690989160 -13.00000000
-1.90421653 2.21541977 -0.56784755 3 4 31932 2.97600000 2690989164 2690989164 -11.00000000
-2.30647278 2.68531156 -0.56066114 1 6 31934 3.58400000 2690989169 2690989169 -9.00000000
-2.88187146 3.35759044 -0.54329354 12 8 31936 4.45800000 2690989173 2690989173 -7.00000000
-4.19185925 4.88554668 -0.56320041 7 10 31937 6.46200000 2690989178 2690989178 -5.00000000
-6.87325525 8.01633263 -0.55340040 4 12 31939 10.57400000 2690989183 2690989183 -3.00000000
-6.10633421 7.12438202 2.16627860 20 13 31940 9.63000000 2690989185 2690989185 13.00000000
-6.22186899 7.26174355 2.56230855 45 15 31941 9.90000000 2690989190 2690989190 15.00000000
-1.37410855 1.60830593 -0.56681371 4 0 31949 2.19000000 2690989210 2690989210 -15.00000000
-1.58801031 1.85997844 -0.56462717 4 2 31951 2.51000000 2690989215 2690989215 -13.00000000
-1.89647162 2.22205329 -0.56784755 3 4 31952 2.97600000 2690989219 2690989219 -11.00000000
-2.31631303 2.71589112 -0.56535417 1 6 31954 3.61400000 2690989224 2690989224 -9.00000000
-2.86755848 3.36460781 -0.54280603 12 8 31956 4.45400000 2690989229 2690989229 -7.00000000
-4.18511677 4.91228199 -0.56459492 7 10 31957 6.47800000 2690989233 2690989233 -5.00000000
-6.03503704 7.08613157 1.80925095 12 11 31958 9.48200000 2690989236 2690989236 11.00000000
-6.86076784 8.05852509 -0.55465645 4 12 31959 10.59800000 2690989238 2690989238 -3.00000000
-6.06879807 7.13081360 2.16177964 19 13 31960 9.61000000 2690989240 2690989240 13.00000000
-6.20146942 7.29185724 2.56489682 45 15 31962 9.91000000 2690989245 2690989245 15.00000000
-1.36820459 1.61333144 -0.56681371 4 0 31970 2.19000000 2690989266 2690989266 -15.00000000
-1.58370221 1.86875963 -0.56552696 4 2 31972 2.51400000 2690989270 2690989270 -13.00000000
-1.88577664 2.22599316 -0.56708431 3 4 31973 2.97200000 2690989275 2690989275 -11.00000000
-2.32038283 2.74094701 -0.56879574 1 6 31975 3.63600000 2690989279 2690989279 -9.00000000
-2.85777140 3.37812638 -0.54329354 12 8 31977 4.45800000 2690989284 2690989284 -7.00000000
-4.15550518 4.91389608 -0.56302607 7 10 31978 6.46000000 2690989289 2690989289 -5.00000000
-6.02930403 7.13219261 1.81535673 21 11 31979 9.51400000 2690989291 2690989291 11.00000000
-6.84149885 8.09582043 -0.55549383 4 12 31980 10.61400000 2690989293 2690989293 -3.00000000
-6.01872778 7.12472439 2.15323138 14 13 31981 9.57200000 2690989296 2690989296 13.00000000
-6.17473173 7.31198406 2.56437922 45 15 31982 9.90800000 2690989300 2690989300 15.00000000
-1.36007595 1.61514211 -0.56577843 4 0 31990 2.18600000 2690989321 2690989321 -15.00000000
-1.57842410 1.87576747 -0.56597686 4 2 31992 2.51600000 2690989325 2690989325 -13.00000000
-1.86535704 2.21753836 -0.56326813 2 4 31993 2.95200000 2690989330 2690989330 -11.00000000
-2.31207228 2.75054216 -0.56910861 1 6 31995 3.63800000 2690989335 2690989335 -9.00000000
-2.85362291 3.39720130 -0.54475594 12 8 31997 4.47000000 2690989339 2690989339 -7.00000000
-4.15370178 4.94668150 -0.56511784 7 10 31998 6.48400000 2690989344 2690989344 -5.00000000
-6.01825571 7.16973591 1.81955457 15 11 31999 9.53600000 2690989346 2690989346 11.00000000
-6.81576538 8.12271309 -0.55570316 4 12 32000 10.61800000 2690989348 2690989348 -3.00000000
-5.97754049 7.12628078 2.14738274 14 13 32001 9.54600000 2690989351 2690989351 13.00000000
-6.14044476 7.32568312 2.56127334 42 15 32003 9.89600000 2690989355 2690989355 15.00000000
-1.34727585 1.61075246 -0.56267262 4 0 32009 2.17400000 2690989376 2690989376 -15.00000000
-1.57844400 1.88846743 -0.56822634 4 2 32011 2.52600000 2690989381 2690989381 -13.00000000
-1.87309885 2.24179077 -0.56784755 3 4 32012 2.97600000 2690989385 2690989385 -11.00000000
-2.29407597 2.74757981 -0.56691849 1 6 32014 3.62400000 2690989390 2690989390 -9.00000000
-2.84361339 3.40816998 -0.54499972 14 8 32016 4.47200000 2690989395 2690989395 -7.00000000
-4.12834215 4.94971800 -0.56389767 7 10 32017 6.47000000 2690989399 2690989399 -5.00000000
-6.79390669 8.15140724 -0.55612189 4 12 32019 10.62600000 2690989404 2690989404 -3.00000000
-5.99504042 7.19547081 2.16222954 27 13 32020 9.61200000 2690989406 2690989406 13.00000000
-6.04445601 7.25735664 2.53073263 45 15 32021 9.77800000 2690989411 2690989411 15.00000000
-1.34411359 1.61841774 -0.56370789 4 0 32029 2.17800000 2690989431 2690989431 -15.00000000
-1.57184231 1.89396572 -0.56822634 4 2 32031 2.52600000 2690989436 2690989436 -13.00000000
-1.86776912 2.25133729 -0.56861079 3 4 32032 2.98000000 2690989441 2690989441 -11.00000000
-2.28321052 2.75405025 -0.56660563 1 6 32034 3.62200000 2690989445 2690989445 -9.00000000
-2.83803153 3.42571855 -0.54621840 12 8 32036 4.48200000 2690989450 2690989450 -7.00000000
-4.13137197 4.98865032 -0.56668663 4 10 32037 6.50200000 2690989454 2690989454 -5.00000000
-6.01062822 7.26043987 1.83214796 9 11 32038 9.60200000 2690989457 2690989457 11.00000000
-6.75395155 8.16122437 -0.55517983 4 12 32039 10.60800000 2690989459 2690989459 -3.00000000
-7.05554676 8.52869129 2.55544400 42 13 32040 11.36000000 2690989461 2690989461 13.00000000
-6.08059120 7.35539818 2.55713224 42 15 32042 9.88000000 2690989466 2690989466 15.00000000
-1.34214330 1.62757111 -0.56526077 4 0 32049 2.18400000 2690989487 2690989487 -15.00000000
-1.56398237 1.89793706 -0.56777644 4 2 32051 2.52400000 2690989491 2690989491 -13.00000000
-1.86239564 2.26087403 -0.56937402 2 4 32052 2.98400000 2690989496 2690989496 -11.00000000
-2.27358317 2.76200318 -0.56660563 1 6 32054 3.62200000 2690989501 2690989501 -9.00000000
-2.82479501 3.43407106 -0.54597467 14 8 32056 4.48000000 2690989505 2690989505 -7.00000000
-4.14303827 5.03843641 -0.57069582 4 10 32057 6.54800000 2690989510 2690989510 -5.00000000
-6.74697828 8.21098328 -0.55695927 8 12 32059 10.64200000 2690989514 2690989514 -3.00000000
-7.02202225 8.54874992 2.55409431 51 13 32060 11.35400000 2690989517 2690989517 13.00000000
-6.06720018 7.38895893 2.56179094 45 15 32061 9.89800000 2690989521 2690989521 15.00000000
-1.34379697 1.64121449 -0.56836665 4 0 32069 2.19600000 2690989542 2690989542 -15.00000000
-1.55981588 1.90640128 -0.56867629 4 2 32071 2.52800000 2690989547 2690989547 -13.00000000
-1.85697830 2.27040052 -0.57013726 3 4 32072 2.98800000 2690989551 2690989551 -11.00000000
-2.27892923 2.78827667 -0.57036006 1 6 32074 3.64600000 2690989556 2690989556 -9.00000000
-2.80776787 3.43776059 -0.54499972 16 8 32076 4.47200000 2690989560 2690989560 -7.00000000
-4.10904503 5.03280449 -0.56842977 4 10 32077 6.52200000 2690989565 2690989565 -5.00000000
-6.73342657 8.25305557 -0.55821532 8 12 32079 10.66600000 2690989570 2690989570 -3.00000000
-6.98474884 8.56414795 2.55139494 57 13 32080 11.34200000 2690989572 2690989572 13.00000000
-6.03763628 7.40815163 2.56075573 40 15 32082 9.89400000 2690989577 2690989577 15.00000000
-1.33440399 1.64139831 -0.56681371 5 0 32089 2.19000000 2690989597 2690989597 -15.00000000
-1.55683804 1.91637206 -0.57002598 4 2 32091 2.53400000 2690989602 2690989602 -13.00000000
-1.84161592 2.26772475 -0.56784755 3 4 32092 2.97600000 2690989607 2690989607 -11.00000000
-2.26669288 2.79314685 -0.56973433 1 6 32094 3.64200000 2690989611 2690989611 -9.00000000
-2.80200243 3.45524979 -0.54621840 18 8 32096 4.48200000 2690989616 2690989616 -7.00000000
-4.09772539 5.05485582 -0.56930131 4 10 32097 6.53200000 2690989620 2690989620 -5.00000000
-6.73349237 8.31220341 -0.56062275 8 12 32099 10.71200000 2690989625 2690989625 -3.00000000
-6.95726442 8.59150600 2.55229473 60 13 32100 11.34600000 2690989627 2690989627 13.00000000
-6.01425219 7.42963409 2.56127334 42 15 32101 9.89600000 2690989632 2690989632 15.00000000
-1.32138586 1.63702679 -0.56370789 5 0 32109 2.17800000 2690989653 2690989653 -15.00000000
-1.55503309 1.92786193 -0.57182556 4 2 32111 2.54200000 2690989657 2690989657 -13.00000000
-1.84108281 2.28330946 -0.57013726 3 4 32112 2.98800000 2690989662 2690989662 -11.00000000
-2.25445056 2.79796576 -0.56910861 1 6 32114 3.63800000 2690989666 2690989666 -9.00000000
-2.79739404 3.47428679 -0.54768085 18 8 32116 4.49400000 2690989671 2690989671 -7.00000000
-4.06631422 5.05205536 -0.56738389 4 10 32117 6.51000000 2690989676 2690989676 -5.00000000
-6.70068073 8.33098793 -0.56030875 4 12 32119 10.70600000 2690989680 2690989680 -3.00000000
-6.92967415 8.61877632 2.55319452 56 13 32120 11.35000000 2690989683 2690989683 13.00000000
-5.98101997 7.44154787 2.55816746 40 15 32121 9.88400000 2690989687 2690989687 15.00000000
-1.32440889 1.65195048 -0.56733137 5 0 32128 2.19200000 2690989708 2690989708 -15.00000000
-1.54619455 1.92996633 -0.57092577 4 2 32130 2.53800000 2690989713 2690989713 -13.00000000
-1.82613754 2.28020763 -0.56784755 3 4 32131 2.97600000 2690989717 2690989717 -11.00000000
-2.24022245 2.79925728 -0.56785709 1 6 32133 3.63000000 2690989722 2690989722 -9.00000000
-2.79825568 3.49904728 -0.55011821 18 8 32135 4.51400000 2690989726 2690989726 -7.00000000
-4.07442045 5.09663677 -0.57087010 4 10 32136 6.55000000 2690989731 2690989731 -5.00000000
-6.69171619 8.37656975 -0.56187880 4 12 32138 10.73600000 2690989736 2690989736 -3.00000000
-6.90348768 8.64475441 2.55409431 59 13 32139 11.35400000 2690989738 2690989738 13.00000000
-5.95631027 7.46134090 2.55816746 45 15 32140 9.88400000 2690989742 2690989742 15.00000000
-1.31261873 1.64900613 -0.56474316 4 0 32148 2.18200000 2690989763 2690989763 -15.00000000
-1.53338277 1.92772627 -0.56867629 4 2 32150 2.52800000 2690989768 2690989768 -13.00000000
-1.83282959 2.30500817 -0.57242697 4 4 32151 3.00000000 2690989772 2690989772 -11.00000000
-2.22552204 2.80087376 -0.56660563 1 6 32153 3.62200000 2690989777 2690989777 -9.00000000
-2.78725886 3.51034832 -0.55036193 16 8 32155 4.51600000 2690989782 2690989782 -7.00000000
-4.05288887 5.10614634 -0.57034719 4 10 32156 6.54400000 2690989786 2690989786 -5.00000000
-6.65871239 8.39518261 -0.56156480 4 12 32158 10.73000000 2690989791 2690989791 -3.00000000
-6.86600542 8.65963745 2.55139494 56 13 32159 11.34200000 2690989793 2690989793 13.00000000
-5.93252182 7.48766422 2.55972028 45 15 32161 9.89000000 2690989798 2690989798 15.00000000
-1.31135643 1.65986943 -0.56681371 4 0 32169 2.19000000 2690989819 2690989819 -15.00000000
-1.52751446 1.93486297 -0.56912619 4 2 32171 2.53000000 2690989823 2690989823 -13.00000000
-1.81220651 2.29629898 -0.56861079 2 4 32172 2.98000000 2690989828 2690989828 -11.00000000
-2.22991991 2.82762480 -0.57036006 1 6 32174 3.64600000 2690989832 2690989832 -9.00000000
-2.77560282 3.52209973 -0.55060571 12 8 32176 4.51800000 2690989837 2690989837 -7.00000000
-4.04770899 5.13818264 -0.57226461 4 10 32177 6.56600000 2690989842 2690989842 -5.00000000
-6.65754747 8.45719624 -0.56407696 4 12 32179 10.77800000 2690989846 2690989846 -3.00000000
-6.82457924 8.67249298 2.54779553 56 13 32180 11.32600000 2690989848 2690989848 13.00000000
-5.90873766 7.51136351 2.56075573 45 15 32181 9.89400000 2690989853 2690989853 15.00000000
-1.30078518 1.65835667 -0.56474316 4 0 32189 2.18200000 2690989874 2690989874 -15.00000000
-1.53036869 1.95245314 -0.57272536 4 2 32191 2.54600000 2690989878 2690989878 -13.00000000
-1.80417991 2.30261087 -0.56861079 2 4 32192 2.98000000 2690989883 2690989883 -11.00000000
-2.21516490 2.82916999 -0.56910861 1 6 32194 3.63800000 2690989888 2690989888 -9.00000000
-2.76696134 3.53645706 -0.55133688 16 8 32196 4.52400000 2690989892 2690989892 -7.00000000
-4.04938841 5.17739058 -0.57505357 4 10 32197 6.59800000 2690989897 2690989897 -5.00000000
-6.63044548 8.48353100 -0.56428629 4 12 32199 10.78200000 2690989901 2690989901 -3.00000000
-6.79426479 8.69626236 2.54779553 59 13 32200 11.32600000 2690989904 2690989904 13.00000000
-5.88010406 7.52889824 2.55972028 45 15 32201 9.89000000 2690989908 2690989908 15.00000000
-1.28815532 1.65351725 -0.56163734 3 0 32208 2.17000000 2690989929 2690989929 -15.00000000
-1.52388561 1.95751739 -0.57272536 4 2 32210 2.54600000 2690989934 2690989934 -13.00000000
-1.79653430 2.30858111 -0.56861079 2 4 32211 2.98000000 2690989938 2690989938 -11.00000000
-2.20092034 2.83026290 -0.56785709 1 6 32213 3.63000000 2690989943 2690989943 -9.00000000
-2.75765491 3.54874825 -0.55182439 16 8 32215 4.52800000 2690989947 2690989947 -7.00000000
-4.00286293 5.15302753 -0.57087010 4 10 32216 6.55000000 2690989952 2690989952 -5.00000000
-6.62799501 8.53860378 -0.56648439 4 12 32218 10.82400000 2690989957 2690989957 -3.00000000
-6.77255774 8.72798252 2.55049515 59 13 32219 11.33800000 2690989959 2690989959 13.00000000
-5.84444857 7.53461790 2.55506158 40 15 32220 9.87200000 2690989964 2690989964 15.00000000
-1.28828514 1.66564429 -0.56422549 4 0 32228 2.18000000 2690989984 2690989984 -15.00000000
-1.51466000 1.95974100 -0.57182556 4 2 32230 2.54200000 2690989989 2690989989 -13.00000000
-1.79566669 2.32415962 -0.57090050 2 4 32231 2.99200000 2690989994 2690989994 -11.00000000
-2.19102764 2.83792830 -0.56785709 1 6 32233 3.63000000 2690989998 2690989998 -9.00000000
-2.74767566 3.56149602 -0.55231184 16 8 32235 4.53200000 2690990003 2690990003 -7.00000000
-4.00066900 5.18747902 -0.57313615 4 10 32236 6.57600000 2690990007 2690990007 -5.00000000
-6.60302591 8.56801605 -0.56690305 4 12 32238 10.83200000 2690990012 2690990012 -3.00000000
-6.74205017 8.75156975 2.55049515 59 13 32239 11.33800000 2690990014 2690990014 13.00000000
-5.82622099 7.56823444 2.55920267 40 15 32241 9.88800000 2690990019 2690990019 15.00000000
-1.28481627 1.67319560 -0.56526077 4 0 32248 2.18400000 2690990040 2690990040 -15.00000000
-1.50069201 1.95573997 -0.56912619 4 2 32250 2.53000000 2690990044 2690990044 -13.00000000
-1.79471231 2.33976007 -0.57319021 2 4 32251 3.00400000 2690990049 2690990049 -11.00000000
-2.17990637 2.84399128 -0.56754422 1 6 32253 3.62800000 2690990053 2690990053 -9.00000000
-2.73643398 3.57264137 -0.55255562 18 8 32255 4.53400000 2690990058 2690990058 -7.00000000
-3.98132586 5.19983053 -0.57296187 4 10 32256 6.57400000 2690990063 2690990063 -5.00000000
-6.57914591 8.59894371 -0.56742644 4 12 32258 10.84200000 2690990067 2690990067 -3.00000000
-6.70672464 8.76885986 2.54869556 59 13 32259 11.33000000 2690990070 2690990070 13.00000000
-5.79874516 7.58444405 2.55816746 42 15 32260 9.88400000 2690990074 2690990074 15.00000000
-1.29302251 1.69610608 -0.57147247 4 0 32268 2.20800000 2690990095 2690990095 -15.00000000
-1.49621797 1.96406674 -0.57002598 4 2 32270 2.53400000 2690990099 2690990099 -13.00000000
-1.77939749 2.33663893 -0.57090050 2 4 32271 2.99200000 2690990104 2690990104 -11.00000000
-2.18790913 2.87516308 -0.57223725 1 6 32273 3.65800000 2690990109 2690990109 -9.00000000
-2.72995448 3.59007239 -0.55377430 16 8 32275 4.54400000 2690990113 2690990113 -7.00000000
-3.96556211 5.21686840 -0.57331049 4 10 32276 6.57800000 2690990118 2690990118 -5.00000000
-6.54908991 8.62185669 -0.56742644 4 12 32278 10.84200000 2690990123 2690990123 -3.00000000
-6.66900396 8.78290462 2.54599595 59 13 32279 11.31800000 2690990125 2690990125 13.00000000
-5.76989937 7.60156155 2.55713224 40 15 32280 9.88000000 2690990129 2690990129 15.00000000
-1.28009903 1.69136679 -0.56836665 4 0 32288 2.19600000 2690990150 2690990150 -15.00000000
-1.49640596 1.97860324 -0.57272536 4 2 32290 2.54600000 2690990155 2690990155 -13.00000000
-1.77359819 2.34596801 -0.57166374 3 4 32291 2.99600000 2690990159 2690990159 -11.00000000
-2.18381333 2.89066339 -0.57380164 1 6 32293 3.66800000 2690990164 2690990164 -9.00000000
-2.72219014 3.60591698 -0.55474925 16 8 32295 4.55200000 2690990169 2690990169 -7.00000000
-3.94132686 5.22272730 -0.57243890 4 10 32296 6.56800000 2690990173 2690990173 -5.00000000
-6.53699255 8.66858482 -0.56899649 4 12 32298 10.87200000 2690990178 2690990178 -3.00000000
-6.64065123 8.80924225 2.54689574 57 13 32299 11.32200000 2690990180 2690990180 13.00000000
-5.73967457 7.61957216 2.55609679 45 15 32301 9.87600000 2690990185 2690990185 15.00000000
-1.26838493 1.68810260 -0.56577843 4 0 32308 2.18600000 2690990205 2690990205 -15.00000000
-1.49651051 1.99316490 -0.57542479 4 2 32310 2.55800000 2690990210 2690990210 -13.00000000
-1.76539838 2.35214472 -0.57166374 3 4 32311 2.99600000 2690990215 2690990215 -11.00000000
-2.16422796 2.88562632 -0.57129866 1 6 32313 3.65200000 2690990219 2690990219 -9.00000000
-2.71672964 3.62492824 -0.55621171 16 8 32315 4.56400000 2690990224 2690990224 -7.00000000
-3.94696426 5.26834393 -0.57592517 4 10 32316 6.60800000 2690990229 2690990229 -5.00000000
-6.51866341 8.70733833 -0.57004321 4 12 32318 10.89200000 2690990233 2690990233 -3.00000000
-6.60986090 8.83236885 2.54689574 59 13 32319 11.32200000 2690990235 2690990235 13.00000000
-5.70841455 7.63337231 2.55402637 42 15 32321 9.86800000 2690990240 2690990240 15.00000000
-1.26710486 1.69871378 -0.56784898 4 0 32328 2.19400000 2690990261 2690990261 -15.00000000
-1.48488557 1.99212682 -0.57362521 4 2 32330 2.55000000 2690990265 2690990265 -13.00000000
-1.75717711 2.35829282 -0.57166374 3 4 32331 2.99600000 2690990270 2690990270 -11.00000000
-2.14116526 2.87573457 -0.56785709 1 6 32333 3.63000000 2690990275 2690990275 -9.00000000
-2.70879960 3.64075971 -0.55718666 16 8 32335 4.57200000 2690990279 2690990279 -7.00000000
-3.93211722 5.28688526 -0.57644808 4 10 32336 6.61400000 2690990284 2690990284 -5.00000000
-6.50609970 8.75408554 -0.57161331 4 12 32338 10.92200000 2690990288 2690990288 -3.00000000
-6.58596277 8.86477375 2.54959536 57 13 32339 11.33400000 2690990291 2690990291 13.00000000
-5.68173456 7.65325212 2.55402637 40 15 32341 9.86800000 2690990295 2690990295 15.00000000
-1.26806545 1.71244168 -0.57095480 4 0 32348 2.20600000 2690990316 2690990316 -15.00000000
-1.47328603 1.99103177 -0.57182556 4 2 32350 2.54200000 2690990321 2690990321 -13.00000000
-1.75827456 2.37703919 -0.57471669 4 4 32351 3.01200000 2690990325 2690990325 -11.00000000
-2.14755225 2.90543079 -0.57223725 1 6 32353 3.65800000 2690990330 2690990330 -9.00000000
-2.69017744 3.64220929 -0.55596793 18 8 32355 4.56200000 2690990335 2690990335 -7.00000000
-3.89943743 5.28134489 -0.57435632 4 10 32356 6.59000000 2690990339 2690990339 -5.00000000
-6.48736048 8.79281425 -0.57266003 4 12 32358 10.94200000 2690990344 2690990344 -3.00000000
-6.55266571 8.88457203 2.54869556 56 13 32359 11.33000000 2690990346 2690990346 13.00000000
-5.65498495 7.67303848 2.55402637 42 15 32361 9.86800000 2690990351 2690990351 15.00000000
-1.26208019 1.71685767 -0.57095480 4 0 32368 2.20600000 2690990371 2690990371 -15.00000000
-1.46978807 2.00087404 -0.57317531 4 2 32370 2.54800000 2690990376 2690990376 -13.00000000
-1.74067044 2.37050271 -0.57166374 3 4 32371 2.99600000 2690990381 2690990381 -11.00000000
-2.14557767 2.92405772 -0.57442737 1 6 32373 3.67200000 2690990385 2690990385 -9.00000000
-2.68214273 3.65798116 -0.55694288 24 8 32375 4.57000000 2690990390 2690990390 -7.00000000
-3.88333392 5.29813814 -0.57470495 4 10 32376 6.59400000 2690990394 2690990394 -5.00000000
-6.44954729 8.80573750 -0.57203197 4 12 32378 10.93000000 2690990399 2690990399 -3.00000000
-6.51700783 8.90110207 2.54689574 57 13 32379 11.32200000 2690990401 2690990401 13.00000000
-5.63635492 7.70110226 2.55713224 42 15 32380 9.88000000 2690990406 2690990406 15.00000000
-1.25835717 1.72437370 -0.57199007 4 0 32388 2.21000000 2690990427 2690990427 -15.00000000
-1.46623933 2.01071596 -0.57452500 4 2 32390 2.55400000 2690990431 2690990431 -13.00000000
-1.73469818 2.37973738 -0.57242697 4 4 32391 3.00000000 2690990436 2690990436 -11.00000000
-2.14698815 2.94749641 -0.57755607 1 6 32393 3.69200000 2690990440 2690990440 -9.00000000
-2.67519855 3.67534590 -0.55816162 26 8 32395 4.58000000 2690990445 2690990445 -7.00000000
-3.88943291 5.34549332 -0.57836550 4 10 32396 6.63600000 2690990450 2690990450 -5.00000000
-6.45752954 8.88150597 -0.57548618 4 12 32398 10.99600000 2690990454 2690990454 -3.00000000
-6.48589754 8.92379665 2.54689574 57 13 32399 11.32200000 2690990457 2690990457 13.00000000
-5.59900904 7.70920420 2.55299115 40 15 32401 9.86400000 2690990461 2690990461 15.00000000
-1.24839818 1.72206211 -0.56991953 4 0 32406 2.20200000 2690990482 2690990482 -15.00000000
-1.46448827 2.02162504 -0.57632458 4 2 32408 2.56200000 2690990487 2690990487 -13.00000000
-1.73181939 2.39153576 -0.57395345 2 4 32409 3.00800000 2690990491 2690990491 -11.00000000
-2.13192773 2.94622493 -0.57599169 1 6 32411 3.68200000 2690990496 2690990496 -9.00000000
-2.66829157 3.69016671 -0.55913657 28 8 32413 4.58800000 2690990500 2690990500 -7.00000000
-3.86561751 5.34799767 -0.57731962 4 10 32414 6.62400000 2690990505 2690990505 -5.00000000
-6.44947624 8.92927361 -0.57726562 4 12 32416 11.03000000 2690990510 2690990510 -3.00000000
-6.45783043 8.94412804 2.54689574 60 13 32417 11.32200000 2690990512 2690990512 13.00000000
-5.57158852 7.71951675 2.55092049 42 15 32418 9.85600000 2690990517 2690990517 15.00000000
-1.24237943 1.72640932 -0.56991953 4 0 32426 2.20200000 2690990537 2690990537 -15.00000000
-1.45173395 2.01881409 -0.57407510 4 2 32428 2.55200000 2690990542 2690990542 -13.00000000
-1.72575259 2.40075469 -0.57471669 4 4 32429 3.01200000 2690990546 2690990546 -11.00000000
-2.10319161 2.92797899 -0.57098579 1 6 32431 3.65000000 2690990551 2690990551 -9.00000000
-2.66812730 3.71719766 -0.56181765 34 8 32433 4.61000000 2690990556 2690990556 -7.00000000
-3.87015629 5.39383459 -0.58080590 4 10 32434 6.66400000 2690990560 2690990560 -5.00000000
-6.40313864 8.93063068 -0.57590485 4 12 32436 11.00400000 2690990565 2690990565 -3.00000000
-6.43111134 8.97295189 2.54869556 57 13 32437 11.33000000 2690990567 2690990567 13.00000000
-5.54663229 7.74459791 2.55247331 40 15 32439 9.86200000 2690990572 2690990572 15.00000000
-1.23409975 1.72759151 -0.56888425 4 0 32446 2.19800000 2690990593 2690990593 -15.00000000
-1.43675280 2.01276660 -0.57092577 4 2 32448 2.53800000 2690990597 2690990597 -13.00000000
-1.71736193 2.40676403 -0.57471669 4 4 32449 3.01200000 2690990602 2690990602 -11.00000000
-2.09639859 2.94012785 -0.57192439 1 6 32451 3.65600000 2690990606 2690990606 -9.00000000
-2.65052795 3.72002172 -0.56084269 32 8 32453 4.60200000 2690990611 2690990611 -7.00000000
-3.83974600 5.39108276 -0.57906276 4 10 32454 6.64400000 2690990616 2690990616 -5.00000000
-6.37424231 8.95618153 -0.57611418 4 12 32456 11.00800000 2690990620 2690990620 -3.00000000
-6.39071321 8.98264217 2.54509616 57 13 32457 11.31400000 2690990623 2690990623 13.00000000
-4.86145496 6.83567667 2.24758458 13 15 32458 8.68400000 2690990627 2690990627 15.00000000
-1.23476636 1.74134409 -0.57199007 4 0 32466 2.21000000 2690990648 2690990648 -15.00000000
-1.43647802 2.02730989 -0.57362521 4 2 32468 2.55000000 2690990652 2690990652 -13.00000000
-1.70668077 2.40953994 -0.57395345 4 4 32469 3.00800000 2690990657 2690990657 -11.00000000
-2.10552335 2.97483802 -0.57724315 1 6 32471 3.69000000 2690990662 2690990662 -9.00000000
-2.64211154 3.73573399 -0.56181765 36 8 32473 4.61000000 2690990666 2690990666 -7.00000000
-3.82780552 5.41421413 -0.58010864 4 10 32474 6.65600000 2690990671 2690990671 -5.00000000
-6.36714125 9.01263332 -0.57831234 4 12 32476 11.05000000 2690990675 2690990675 -3.00000000
-6.35032558 8.99216080 2.54149699 56 13 32477 11.29800000 2690990678 2690990678 13.00000000
-4.83414030 6.85029221 2.24654937 33 15 32479 8.68000000 2690990682 2690990682 15.00000000
-1.22423267 1.73932457 -0.56991953 4 0 32486 2.20200000 2690990703 2690990703 -15.00000000
-1.42715049 2.02912378 -0.57272536 4 2 32488 2.54600000 2690990708 2690990708 -13.00000000
-1.69600117 2.41227055 -0.57319021 4 4 32489 3.00400000 2690990712 2690990712 -11.00000000
-2.10421109 2.99510050 -0.57974613 1 6 32491 3.70600000 2690990717 2690990717 -9.00000000
-2.62905526 3.74493384 -0.56181765 36 8 32493 4.61000000 2690990722 2690990722 -7.00000000
-3.81689453 5.43895864 -0.58132881 4 10 32494 6.67000000 2690990726 2690990726 -5.00000000
-6.34940338 9.05442715 -0.57956839 4 12 32496 11.07400000 2690990731 2690990731 -3.00000000
-6.32113552 9.01746464 2.54239678 59 13 32497 11.30200000 2690990733 2690990733 13.00000000
-4.80474567 6.85679245 2.24344349 40 15 32498 8.66800000 2690990738 2690990738 15.00000000
-1.21594107 1.74042010 -0.56888425 4 0 32506 2.19800000 2690990758 2690990758 -15.00000000
-1.42340541 2.03888679 -0.57407510 4 2 32508 2.55200000 2690990763 2690990763 -13.00000000
-1.68757045 2.41817594 -0.57319021 2 4 32509 3.00400000 2690990768 2690990768 -11.00000000
-2.07114482 2.97002101 -0.57348877 1 6 32511 3.66600000 2690990772 2690990772 -9.00000000
-2.62391138 3.76548886 -0.56352383 38 8 32513 4.62400000 2690990777 2690990777 -7.00000000
-3.78877521 5.43917036 -0.57993430 4 10 32514 6.65400000 2690990781 2690990781 -5.00000000
-6.31889963 9.07817459 -0.57967305 4 12 32516 11.07600000 2690990786 2690990786 -3.00000000
-6.28962040 9.03947449 2.54239678 57 13 32517 11.30200000 2690990788 2690990788 13.00000000
-4.77627373 6.86959839 2.24189067 40 15 32519 8.66200000 2690990793 2690990793 15.00000000
-1.20985842 1.74465394 -0.56888425 4 0 32526 2.19800000 2690990814 2690990814 -15.00000000
-1.41627967 2.04384279 -0.57407510 3 2 32528 2.55200000 2690990818 2690990818 -13.00000000
-1.68359089 2.43050742 -0.57471669 2 4 32529 3.01200000 2690990823 2690990823 -11.00000000
-2.07875299 3.00322056 -0.57849467 1 6 32531 3.69800000 2690990828 2690990828 -9.00000000
-2.62317276 3.79258394 -0.56620497 40 8 32533 4.64600000 2690990832 2690990832 -7.00000000
-3.76863289 5.45072365 -0.57976002 4 10 32534 6.65200000 2690990837 2690990837 -5.00000000
-6.30306625 9.12318230 -0.58113843 8 12 32536 11.10400000 2690990841 2690990841 -3.00000000
-6.26024342 9.06458092 2.54329658 57 13 32537 11.30600000 2690990844 2690990844 13.00000000
-4.75346708 6.88539934 2.24189067 40 15 32538 8.66200000 2690990848 2690990848 15.00000000
-1.21252370 1.76159704 -0.57302535 4 0 32546 2.21400000 2690990869 2690990869 -15.00000000
-1.40803230 2.04716849 -0.57362521 4 2 32548 2.55000000 2690990874 2690990874 -13.00000000
-1.67954564 2.44284058 -0.57624316 2 4 32549 3.02000000 2690990878 2690990878 -11.00000000
-2.05259705 2.98766422 -0.57411450 1 6 32551 3.67000000 2690990883 2690990883 -9.00000000
-2.60767126 3.79844427 -0.56571752 40 8 32553 4.64200000 2690990887 2690990887 -7.00000000
-3.75409269 5.47041655 -0.58045727 8 10 32554 6.66000000 2690990892 2690990892 -5.00000000
-6.27231169 9.14677525 -0.58124316 4 12 32556 11.10600000 2690990897 2690990897 -3.00000000
-6.22195292 9.07673454 2.54059720 55 13 32557 11.29400000 2690990899 2690990899 13.00000000
-4.72819853 6.90277529 2.24189067 38 15 32559 8.66200000 2690990904 2690990904 15.00000000
-1.20854676 1.76900911 -0.57406062 4 0 32566 2.21800000 2690990924 2690990924 -15.00000000
-1.40307522 2.05528998 -0.57452500 4 2 32568 2.55400000 2690990929 2690990929 -13.00000000
-1.66658175 2.44220185 -0.57471669 2 4 32569 3.01200000 2690990934 2690990934 -11.00000000
-2.04438138 2.99807501 -0.57474023 1 6 32571 3.67400000 2690990938 2690990938 -9.00000000
-2.59774971 3.81244493 -0.56644869 42 8 32573 4.64800000 2690990943 2690990943 -7.00000000
-3.75292039 5.50983429 -0.58324623 8 10 32574 6.69200000 2690990947 2690990947 -5.00000000
-6.26956367 9.21154308 -0.58396459 4 12 32576 11.15800000 2690990952 2690990952 -3.00000000
-6.18913507 9.09678650 2.54014730 54 13 32577 11.29200000 2690990954 2690990954 13.00000000
-4.70745516 6.92161131 2.24292588 42 15 32578 8.66600000 2690990959 2690990959 15.00000000
-1.19802761 1.76682115 -0.57199007 4 0 32586 2.21000000 2690990980 2690990980 -15.00000000
-1.40245104 2.06985474 -0.57722443 4 2 32588 2.56600000 2690990984 2690990984 -13.00000000
-1.65804672 2.44800448 -0.57471669 4 4 32589 3.01200000 2690990989 2690990989 -11.00000000
-2.04940438 3.02809596 -0.57912040 1 6 32591 3.70200000 2690990993 2690990993 -9.00000000
-2.59332228 3.83464456 -0.56839859 42 8 32593 4.66400000 2690990998 2690990998 -7.00000000
-3.72808528 5.51464796 -0.58237469 8 10 32594 6.68200000 2690991003 2690991003 -5.00000000
-6.25861311 9.26481724 -0.58595335 4 12 32596 11.19600000 2690991007 2690991007 -3.00000000
-6.16715860 9.13286972 2.54419637 60 13 32597 11.31000000 2690991010 2690991010 13.00000000
-4.68110371 6.93479919 2.24189067 38 15 32598 8.66200000 2690991014 2690991014 15.00000000
-1.19000435 1.76757920 -0.57095480 4 0 32605 2.20600000 2690991035 2690991035 -15.00000000
-1.39884269 2.07934499 -0.57857412 4 2 32607 2.57200000 2690991040 2690991040 -13.00000000
-1.65649319 2.46326399 -0.57700640 2 4 32608 3.02400000 2690991044 2690991044 -11.00000000
-2.03935170 3.03487539 -0.57912040 1 6 32610 3.70200000 2690991049 2690991049 -9.00000000
-2.58944464 3.85640740 -0.57034850 44 8 32612 4.68000000 2690991053 2690991053 -7.00000000
-3.70866728 5.52532625 -0.58220035 8 10 32613 6.68000000 2690991058 2690991058 -5.00000000
-6.22785568 9.28552055 -0.58595335 4 12 32615 11.19600000 2690991063 2690991063 -3.00000000
-6.13141298 9.14517784 2.54194689 54 13 32616 11.30000000 2690991065 2690991065 13.00000000
-4.65377951 6.94386482 2.23982000 40 15 32617 8.65400000 2690991069 2690991069 15.00000000
-1.18812013 1.77814746 -0.57302535 4 0 32625 2.21400000 2690991090 2690991090 -15.00000000
-1.38724756 2.07773232 -0.57677448 4 2 32627 2.56400000 2690991095 2690991095 -13.00000000
-1.64570498 2.46576548 -0.57624316 2 4 32628 3.02000000 2690991099 2690991099 -11.00000000
-2.01778531 3.02554131 -0.57599169 1 6 32630 3.68200000 2690991104 2690991104 -9.00000000
-2.58807683 3.88359356 -0.57302964 40 8 32632 4.70200000 2690991109 2690991109 -7.00000000
-3.70150828 5.55647802 -0.58411777 8 10 32633 6.70200000 2690991113 2690991113 -5.00000000
-6.18987131 9.29889011 -0.58543003 8 12 32635 11.18600000 2690991118 2690991118 -3.00000000
-6.10916901 9.18112659 2.54599595 60 13 32636 11.31800000 2690991120 2690991120 13.00000000
-4.62936735 6.96248388 2.24033761 42 15 32638 8.65600000 2690991125 2690991125 15.00000000
