# .PCD v0.7 - Point Cloud Data file format
VERSION 0.7
FIELDS x y z intensity laser_id azimuth distance_m adjustedtime timestamp vertical_angle
SIZE 4 4 4 1 1 2 8 8 4 8
TYPE F F F U U U F U U F
COUNT 1 1 1 1 1 1 1 1 1 1
WIDTH 526
HEIGHT 1
VIEWPOINT 0 0 0 1 0 0 0
POINTS 526
DATA ascii
-10.13696384 0.16809262 2.71656466 42 15 27095 10.49600000 2690775691 2690775691 15.00000000
-1.94507241 0.03429095 -0.52126157 4 0 27101 2.01400000 2690775712 2690775712 -15.00000000
-2.24263740 0.04031999 -0.51783735 4 2 27103 2.30200000 2690775717 2690775717 -13.00000000
-2.61854982 0.04753563 -0.50907838 3 4 27104 2.66800000 2690775721 2690775721 -11.00000000
-3.15018654 0.05828665 -0.49902594 3 6 27106 3.19000000 2690775726 2690775726 -9.00000000
-3.95757079 0.07460729 -0.48601493 7 8 27108 3.98800000 2690775731 2690775731 -7.00000000
-5.18724298 0.09869448 -0.45390710 6 10 27109 5.20800000 2690775735 2690775735 -5.00000000
-7.64207602 0.14806965 -0.40057942 12 12 27111 7.65400000 2690775740 2690775740 -3.00000000
-10.14411163 0.20009035 2.71863532 45 15 27113 10.50400000 2690775747 2690775747 15.00000000
-1.95652938 0.04132508 -0.52436739 4 0 27121 2.02600000 2690775767 2690775767 -15.00000000
-2.22884512 0.04785519 -0.51468801 4 2 27123 2.28800000 2690775772 2690775772 -13.00000000
-2.62229371 0.05676076 -0.50984162 3 4 27124 2.67200000 2690775777 2690775777 -11.00000000
-3.14601421 0.06919562 -0.49840021 3 6 27126 3.18600000 2690775781 2690775781 -9.00000000
-3.94140959 0.08806659 -0.48406503 7 8 27128 3.97200000 2690775786 2690775786 -7.00000000
-5.18288326 0.11671103 -0.45355847 9 10 27129 5.20400000 2690775790 2690775790 -5.00000000
-7.62354231 0.17433362 -0.39963737 12 12 27131 7.63600000 2690775795 2690775795 -3.00000000
-10.14331055 0.23726903 2.71863532 45 15 27134 10.50400000 2690775802 2690775802 15.00000000
-1.95637321 0.04815439 -0.52436739 4 0 27141 2.02600000 2690775823 2690775823 -15.00000000
-2.22282004 0.05548913 -0.51333833 4 2 27143 2.28200000 2690775827 2690775827 -13.00000000
-2.62993002 0.06611127 -0.51136810 3 4 27144 2.68000000 2690775832 2690775832 -11.00000000
-3.14575338 0.08017684 -0.49840021 3 6 27146 3.18600000 2690775837 2690775837 -9.00000000
-3.94107819 0.10182413 -0.48406503 7 8 27148 3.97200000 2690775841 2690775841 -7.00000000
-5.17846107 0.13469835 -0.45320988 9 10 27149 5.20000000 2690775846 2690775846 -5.00000000
-7.64484930 0.20152262 -0.40078875 12 12 27151 7.65800000 2690775850 2690775850 -3.00000000
-10.15405464 0.27121365 2.72174096 45 15 27153 10.51600000 2690775857 2690775857 15.00000000
-1.95039988 0.05482028 -0.52281445 4 0 27161 2.02000000 2690775878 2690775878 -15.00000000
-2.23819637 0.06369133 -0.51693749 4 2 27163 2.29800000 2690775883 2690775883 -13.00000000
-2.61398363 0.07484154 -0.50831515 3 4 27164 2.66400000 2690775887 2690775887 -11.00000000
-3.16520000 0.09172931 -0.50152892 3 6 27166 3.20600000 2690775892 2690775892 -9.00000000
-3.94466710 0.11569684 -0.48455250 7 8 27168 3.97600000 2690775896 2690775896 -7.00000000
-5.18194199 0.15289125 -0.45355847 9 10 27169 5.20400000 2690775901 2690775901 -5.00000000
-7.65208483 0.22844529 -0.40120745 12 12 27171 7.66600000 2690775906 2690775906 -3.00000000
-10.14140701 0.30807635 2.71863532 45 15 27174 10.50400000 2690775913 2690775913 15.00000000
-1.94439328 0.06178442 -0.52126157 5 0 27182 2.01400000 2690775933 2690775933 -15.00000000
-2.25158215 0.07233231 -0.52008682 4 2 27184 2.31200000 2690775938 2690775938 -13.00000000
-2.61761618 0.08454853 -0.50907838 3 4 27185 2.66800000 2690775943 2690775943 -11.00000000
-3.14904785 0.10281406 -0.49902594 3 6 27187 3.19000000 2690775947 2690775947 -9.00000000
-3.94421673 0.13015400 -0.48455250 7 8 27189 3.97600000 2690775952 2690775952 -7.00000000
-5.18532944 0.17201510 -0.45390710 9 10 27190 5.20800000 2690775956 2690775956 -5.00000000
-7.65319204 0.25655696 -0.40131211 12 12 27192 7.66800000 2690775961 2690775961 -3.00000000
-10.13447762 0.34327838 2.71708226 42 15 27194 10.49800000 2690775968 2690775968 15.00000000
-1.94609642 0.06863934 -0.52177918 4 0 27202 2.01600000 2690775989 2690775989 -15.00000000
-2.24157834 0.07984450 -0.51783735 4 2 27204 2.30200000 2690775993 2690775993 -13.00000000
-2.61534309 0.09361497 -0.50869679 3 4 27205 2.66600000 2690775998 2690775998 -11.00000000
-3.14472151 0.11366295 -0.49840021 3 6 27207 3.18600000 2690776002 2690776002 -9.00000000
-3.95564079 0.14435546 -0.48601493 7 8 27209 3.98800000 2690776007 2690776007 -7.00000000
-5.18867970 0.19026025 -0.45425573 6 10 27210 5.21200000 2690776012 2690776012 -5.00000000
-7.64825821 0.28312227 -0.40110278 12 12 27212 7.66400000 2690776016 2690776016 -3.00000000
-10.13900852 0.37886864 2.71863532 45 15 27214 10.50400000 2690776023 2690776023 15.00000000
-1.95163608 0.07565656 -0.52333212 5 0 27222 2.02200000 2690776044 2690776044 -15.00000000
-2.22570801 0.08705924 -0.51423812 4 2 27224 2.28600000 2690776049 2690776049 -13.00000000
-2.63265610 0.10343734 -0.51213133 3 4 27225 2.68400000 2690776053 2690776053 -11.00000000
-3.15614867 0.12510884 -0.50027740 3 6 27227 3.19800000 2690776058 2690776058 -9.00000000
-3.94321179 0.15768643 -0.48455250 7 8 27229 3.97600000 2690776062 2690776062 -7.00000000
-5.18798399 0.20837095 -0.45425573 6 10 27230 5.21200000 2690776067 2690776067 -5.00000000
-7.65121460 0.30997965 -0.40131211 16 12 27232 7.66800000 2690776072 2690776072 -3.00000000
-10.13762474 0.41425806 2.71863532 47 15 27234 10.50400000 2690776078 2690776078 15.00000000
-1.95908070 0.08279487 -0.52540267 4 0 27242 2.03000000 2690776099 2690776099 -15.00000000
-2.23123145 0.09507678 -0.51558781 4 2 27244 2.29200000 2690776104 2690776104 -13.00000000
-2.61658740 0.11195500 -0.50907838 3 4 27245 2.66800000 2690776108 2690776108 -11.00000000
-3.14779854 0.13578457 -0.49902594 3 6 27247 3.19000000 2690776113 2690776113 -9.00000000
-3.94660378 0.17162232 -0.48503998 7 8 27249 3.98000000 2690776118 2690776118 -7.00000000
-5.19120598 0.22665295 -0.45460436 6 10 27250 5.21600000 2690776122 2690776122 -5.00000000
-7.64809084 0.33659768 -0.40120745 20 12 27252 7.66600000 2690776127 2690776127 -3.00000000
-10.14375782 0.45175534 2.72070575 45 15 27255 10.51200000 2690776134 2690776134 15.00000000
-1.93951225 0.08807274 -0.52022630 4 0 27260 2.01000000 2690776155 2690776155 -15.00000000
-2.23481512 0.10226408 -0.51648760 4 2 27262 2.29600000 2690776159 2690776159 -13.00000000
-2.62406754 0.12053503 -0.51060486 3 4 27263 2.67600000 2690776164 2690776164 -11.00000000
-3.15919590 0.14622097 -0.50090313 3 6 27265 3.20200000 2690776168 2690776168 -9.00000000
-3.95397687 0.18438996 -0.48601493 7 8 27267 3.98800000 2690776173 2690776173 -7.00000000
-5.19842911 0.24333310 -0.45530161 6 10 27268 5.22400000 2690776178 2690776178 -5.00000000
-7.64899063 0.36071724 -0.40131211 24 12 27270 7.66800000 2690776182 2690776182 -3.00000000
-10.13851357 0.48166710 2.71967053 47 15 27272 10.50800000 2690776189 2690776189 15.00000000
-1.93533397 0.09465362 -0.51919103 4 0 27280 2.00600000 2690776210 2690776210 -15.00000000
-2.24612284 0.11063967 -0.51918703 4 2 27282 2.30800000 2690776214 2690776214 -13.00000000
-2.61578727 0.12930627 -0.50907838 3 4 27283 2.66800000 2690776219 2690776219 -11.00000000
-3.14682865 0.15665841 -0.49902594 3 6 27285 3.19000000 2690776224 2690776224 -9.00000000
-3.95330930 0.19819081 -0.48601493 5 8 27287 3.98800000 2690776228 2690776228 -7.00000000
-5.17764950 0.26047644 -0.45355847 6 10 27288 5.20400000 2690776233 2690776233 -5.00000000
-7.65566349 0.38781920 -0.40173081 24 12 27290 7.67600000 2690776237 2690776237 -3.00000000
-10.12519455 0.51646370 2.71656466 47 15 27292 10.49600000 2690776244 2690776244 15.00000000
-1.94074368 0.10238939 -0.52074391 4 0 27302 2.01200000 2690776265 2690776265 -15.00000000
-2.23789740 0.11884993 -0.51738745 4 2 27304 2.30000000 2690776270 2690776270 -13.00000000
-2.62311339 0.13976704 -0.51060486 3 4 27305 2.67600000 2690776274 2690776274 -11.00000000
-3.14225888 0.16852860 -0.49840021 3 6 27307 3.18600000 2690776279 2690776279 -9.00000000
-3.95648360 0.21358293 -0.48650241 5 8 27309 3.99200000 2690776283 2690776283 -7.00000000
-5.20446348 0.28186369 -0.45599884 6 10 27310 5.23200000 2690776288 2690776288 -5.00000000
-7.65212393 0.41710320 -0.40162614 28 12 27312 7.67400000 2690776293 2690776293 -3.00000000
-10.12313652 0.55533773 2.71656466 47 15 27314 10.49600000 2690776300 2690776300 15.00000000
-1.95194733 0.10981430 -0.52384973 4 0 27322 2.02400000 2690776320 2690776320 -15.00000000
-2.23746896 0.12666093 -0.51738745 4 2 27324 2.30000000 2690776325 2690776325 -13.00000000
-2.61868930 0.14869995 -0.50984162 3 4 27325 2.67200000 2690776330 2690776330 -11.00000000
-3.14954019 0.17994681 -0.49965167 3 6 27327 3.19400000 2690776334 2690776334 -9.00000000
-3.95967746 0.22762018 -0.48698989 5 8 27329 3.99600000 2690776339 2690776339 -7.00000000
-5.20145893 0.29991424 -0.45582452 6 10 27330 5.23000000 2690776343 2690776343 -5.00000000
-7.64264536 0.44334888 -0.40120745 28 12 27332 7.66600000 2690776348 2690776348 -3.00000000
-10.12874699 0.59288871 2.71863532 42 15 27335 10.50400000 2690776355 2690776355 15.00000000
-1.95930648 0.11640425 -0.52592027 4 0 27340 2.03200000 2690776376 2690776376 -15.00000000
-2.23511481 0.13357325 -0.51693749 4 2 27342 2.29800000 2690776380 2690776380 -13.00000000
-2.61820936 0.15692607 -0.50984162 3 4 27343 2.67200000 2690776385 2690776385 -11.00000000
-3.15290284 0.19007823 -0.50027740 3 6 27345 3.19800000 2690776389 2690776389 -9.00000000
-3.94507265 0.23921768 -0.48528373 3 8 27347 3.98200000 2690776394 2690776394 -7.00000000
-5.19253635 0.31576985 -0.45512730 6 10 27348 5.22200000 2690776399 2690776399 -5.00000000
-7.65317631 0.46808830 -0.40183547 32 12 27350 7.67800000 2690776403 2690776403 -3.00000000
-10.12501526 0.62282008 2.71811771 42 15 27352 10.50200000 2690776410 2690776410 15.00000000
-1.95117605 0.12275759 -0.52384973 4 0 27360 2.02400000 2690776431 2690776431 -15.00000000
-2.23852444 0.14162053 -0.51783735 4 2 27362 2.30200000 2690776435 2690776435 -13.00000000
-2.60980821 0.16556716 -0.50831515 3 4 27363 2.66400000 2690776440 2690776440 -11.00000000
-3.17587662 0.20259182 -0.50403184 3 6 27365 3.22200000 2690776445 2690776445 -9.00000000
-3.96798587 0.25451189 -0.48820859 6 8 27367 4.00600000 2690776449 2690776449 -7.00000000
-5.18543768 0.33350962 -0.45460436 6 10 27368 5.21600000 2690776454 2690776454 -5.00000000
-7.65348864 0.49492893 -0.40194014 24 12 27370 7.68000000 2690776459 2690776459 -3.00000000
-10.11699581 0.65778315 2.71656466 45 15 27372 10.49600000 2690776465 2690776465 15.00000000
-1.94490767 0.12986253 -0.52229685 4 0 27382 2.01800000 2690776486 2690776486 -15.00000000
-2.23796415 0.15021478 -0.51783735 4 2 27384 2.30200000 2690776491 2690776491 -13.00000000
-2.60131812 0.17505957 -0.50678867 3 4 27385 2.65600000 2690776495 2690776495 -11.00000000
-3.15142488 0.21318491 -0.50027740 3 6 27387 3.19800000 2690776500 2690776500 -9.00000000
-3.96697950 0.26974595 -0.48820859 4 8 27389 4.00600000 2690776505 2690776505 -7.00000000
-5.19604540 0.35423082 -0.45565021 6 10 27390 5.22800000 2690776509 2690776509 -5.00000000
-7.65352440 0.52444899 -0.40204480 32 12 27392 7.68200000 2690776514 2690776514 -3.00000000
-10.10463810 0.69772458 2.71397662 40 15 27395 10.48600000 2690776521 2690776521 15.00000000
-1.93480694 0.13597357 -0.51970863 4 0 27402 2.00800000 2690776541 2690776541 -15.00000000
-2.23159456 0.15761393 -0.51648760 4 2 27404 2.29600000 2690776546 2690776546 -13.00000000
-2.62419128 0.18580271 -0.51136810 3 4 27405 2.68000000 2690776551 2690776551 -11.00000000
-3.16248393 0.22502534 -0.50215465 3 6 27407 3.21000000 2690776555 2690776555 -9.00000000
-3.97393370 0.28415799 -0.48918355 4 8 27409 4.01400000 2690776560 2690776560 -7.00000000
-5.18484068 0.37165400 -0.45477867 6 10 27410 5.21800000 2690776565 2690776565 -5.00000000
-7.65563154 0.55144858 -0.40225416 28 12 27412 7.68600000 2690776569 2690776569 -3.00000000
-10.10792160 0.73341149 2.71552944 45 15 27415 10.49200000 2690776576 2690776576 15.00000000
-1.94785690 0.14304167 -0.52333212 4 0 27420 2.02200000 2690776597 2690776597 -15.00000000
-2.22525811 0.16419370 -0.51513791 4 2 27422 2.29000000 2690776601 2690776601 -13.00000000
-2.62359452 0.19404592 -0.51136810 3 4 27423 2.68000000 2690776606 2690776606 -11.00000000
-3.15388155 0.23437388 -0.50090313 3 6 27425 3.20200000 2690776611 2690776611 -9.00000000
-3.96114397 0.29575422 -0.48772112 4 8 27427 4.00200000 2690776615 2690776615 -7.00000000
-5.20351601 0.38942772 -0.45652178 6 10 27428 5.23800000 2690776620 2690776620 -5.00000000
-7.64987803 0.57519722 -0.40204480 52 12 27430 7.68200000 2690776624 2690776624 -3.00000000
-10.10749340 0.76530868 2.71604705 42 15 27433 10.49400000 2690776631 2690776631 15.00000000
-1.94927192 0.14998829 -0.52384973 4 0 27440 2.02400000 2690776652 2690776652 -15.00000000
-2.24215794 0.17331196 -0.51918703 4 2 27442 2.30800000 2690776657 2690776657 -13.00000000
-2.62681603 0.20350608 -0.51213133 3 4 27443 2.68400000 2690776661 2690776661 -11.00000000
-3.14910531 0.24507502 -0.50027740 3 6 27445 3.19800000 2690776666 2690776666 -9.00000000
-3.96602464 0.31004351 -0.48845232 6 8 27447 4.00800000 2690776671 2690776671 -7.00000000
-5.22000170 0.40898967 -0.45809057 3 10 27448 5.25600000 2690776675 2690776675 -5.00000000
-7.63786793 0.60111326 -0.40152144 24 12 27450 7.67200000 2690776680 2690776680 -3.00000000
-10.12594414 0.80226409 2.72174096 42 15 27453 10.51600000 2690776687 2690776687 15.00000000
-1.94103396 0.15617189 -0.52177918 4 0 27460 2.01600000 2690776707 2690776707 -15.00000000
-2.23571205 0.18066660 -0.51783735 4 2 27462 2.30200000 2690776712 2690776712 -13.00000000
-2.60260749 0.21077244 -0.50755191 3 4 27463 2.66000000 2690776717 2690776717 -11.00000000
-3.16004395 0.25702682 -0.50215465 3 6 27465 3.21000000 2690776721 2690776721 -9.00000000
-3.95898271 0.32340080 -0.48772112 6 8 27467 4.00200000 2690776726 2690776726 -7.00000000
-5.19471312 0.42525765 -0.45599884 6 10 27468 5.23200000 2690776730 2690776730 -5.00000000
-7.65164757 0.62907994 -0.40235883 24 12 27470 7.68800000 2690776735 2690776735 -3.00000000
-10.10782623 0.83456683 2.71759987 45 15 27472 10.50000000 2690776742 2690776742 15.00000000
-1.93470180 0.16246144 -0.52022630 4 0 27480 2.01000000 2690776763 2690776763 -15.00000000
-2.23895144 0.18879709 -0.51873714 4 2 27482 2.30600000 2690776767 2690776767 -13.00000000
-2.61946249 0.22134370 -0.51098651 3 4 27483 2.67800000 2690776772 2690776772 -11.00000000
-3.16700077 0.26872391 -0.50340611 3 6 27485 3.21800000 2690776776 2690776776 -9.00000000
-3.95782971 0.33721825 -0.48772112 4 8 27487 4.00200000 2690776781 2690776781 -7.00000000
-5.20312309 0.44423547 -0.45687041 6 10 27488 5.24200000 2690776786 2690776786 -5.00000000
-7.65537500 0.65629715 -0.40267286 32 12 27490 7.69400000 2690776790 2690776790 -3.00000000
-10.10085011 0.87127620 2.71656466 45 15 27493 10.49600000 2690776797 2690776797 15.00000000
-1.93794227 0.16988881 -0.52126157 4 0 27501 2.01400000 2690776818 2690776818 -15.00000000
-2.23047948 0.19631854 -0.51693749 4 2 27503 2.29800000 2690776823 2690776823 -13.00000000
-2.61276674 0.23042560 -0.50984162 3 4 27504 2.67200000 2690776827 2690776827 -11.00000000
-5.60665178 0.49544901 0.49242994 2 5 27505 5.65000000 2690776829 2690776829 5.00000000
-3.15025306 0.27893594 -0.50090313 3 6 27506 3.20200000 2690776832 2690776832 -9.00000000
-3.95063519 0.35119483 -0.48698989 5 8 27508 3.99600000 2690776836 2690776836 -7.00000000
-5.21932077 0.46489376 -0.45843920 6 10 27509 5.26000000 2690776841 2690776841 -5.00000000
-7.64695024 0.68381739 -0.40235883 36 12 27511 7.68800000 2690776846 2690776846 -3.00000000
-10.10351944 0.90704769 2.71811771 47 15 27513 10.50200000 2690776853 2690776853 15.00000000
-1.94888067 0.17770500 -0.52436739 4 0 27521 2.02600000 2690776873 2690776873 -15.00000000
-2.22201800 0.20339262 -0.51513791 4 2 27523 2.29000000 2690776878 2690776878 -13.00000000
-2.62563181 0.24079955 -0.51251298 3 4 27524 2.68600000 2690776882 2690776882 -11.00000000
-5.57711172 0.51246458 0.48998958 8 5 27525 5.62200000 2690776885 2690776885 5.00000000
-3.15712857 0.29065505 -0.50215465 3 6 27526 3.21000000 2690776887 2690776887 -9.00000000
-3.95333862 0.36534834 -0.48747736 6 8 27528 4.00000000 2690776892 2690776892 -7.00000000
-5.20774651 0.48219129 -0.45756766 6 10 27529 5.25000000 2690776896 2690776896 -5.00000000
-7.59281063 0.70570034 -0.39963737 12 12 27531 7.63600000 2690776901 2690776901 -3.00000000
-7.30515909 0.68153721 -0.12806576 2 14 27533 7.33800000 2690776906 2690776906 -1.00000000
-10.10205078 0.94425261 2.71863532 45 15 27534 10.50400000 2690776908 2690776908 15.00000000
-1.93670905 0.18341395 -0.52126157 4 0 27541 2.01400000 2690776929 2690776929 -15.00000000
-7.08907795 0.67261195 0.12429604 3 1 27542 7.12200000 2690776931 2690776931 1.00000000
-2.22517467 0.21151650 -0.51603770 4 2 27543 2.29400000 2690776933 2690776933 -13.00000000
-2.61695766 0.24921875 -0.51098651 3 4 27544 2.67800000 2690776938 2690776938 -11.00000000
-5.55743837 0.53022611 0.48842078 11 5 27545 5.60400000 2690776940 2690776940 5.00000000
-3.16396046 0.30242553 -0.50340611 3 6 27546 3.21800000 2690776942 2690776942 -9.00000000
-3.95994329 0.37990412 -0.48845232 6 8 27548 4.00800000 2690776947 2690776947 -7.00000000
-5.23578024 0.50322604 -0.46018231 6 10 27549 5.28000000 2690776952 2690776952 -5.00000000
-7.30998850 0.70515954 -0.38487864 3 12 27551 7.35400000 2690776956 2690776956 -3.00000000
-7.08379269 0.68583530 -0.12422623 6 14 27553 7.11800000 2690776961 2690776961 -1.00000000
-10.10847759 0.97867787 2.72122335 47 15 27553 10.51400000 2690776963 2690776963 15.00000000
-1.93797958 0.19036205 -0.52177918 4 0 27561 2.01600000 2690776984 2690776984 -15.00000000
-6.08368492 0.59865463 0.10670401 2 1 27562 6.11400000 2690776986 2690776986 1.00000000
-2.23993731 0.22081195 -0.51963693 4 2 27563 2.31000000 2690776988 2690776988 -13.00000000
-6.51929665 0.64381802 0.34332389 2 3 27564 6.56000000 2690776991 2690776991 3.00000000
-2.59848785 0.25661561 -0.50755191 3 4 27564 2.66000000 2690776993 2690776993 -11.00000000
-5.54365730 0.54844505 0.48737490 11 5 27565 5.59200000 2690776995 2690776995 5.00000000
-3.15502238 0.31268868 -0.50215465 3 6 27566 3.21000000 2690776998 2690776998 -9.00000000
-3.96649456 0.39451048 -0.48942727 6 8 27568 4.01600000 2690777002 2690777002 -7.00000000
-5.18442774 0.51656079 -0.45582452 6 10 27569 5.23000000 2690777007 2690777007 -5.00000000
-7.28760910 0.72868472 -0.38383189 3 12 27571 7.33400000 2690777011 2690777011 -3.00000000
-6.39291811 0.64147890 -0.11214916 6 14 27573 6.42600000 2690777016 2690777016 -1.00000000
-10.10097885 1.01533425 2.72018814 47 15 27574 10.51000000 2690777018 2690777018 15.00000000
-1.93345940 0.19673458 -0.52074391 4 0 27581 2.01200000 2690777039 2690777039 -15.00000000
-5.73341560 0.58440113 0.10059567 5 1 27582 5.76400000 2690777041 2690777041 1.00000000
-2.25466228 0.23021302 -0.52323616 4 2 27583 2.32600000 2690777044 2690777044 -13.00000000
-5.97458744 0.61109084 0.31474844 2 3 27584 6.01400000 2690777046 2690777046 3.00000000
-2.62101316 0.26808164 -0.51213133 3 4 27584 2.68400000 2690777048 2690777048 -11.00000000
-5.52981710 0.56657422 0.48632905 11 5 27585 5.58000000 2690777051 2690777051 5.00000000
-3.15391183 0.32369986 -0.50215465 3 6 27586 3.21000000 2690777053 2690777053 -9.00000000
-3.95916915 0.40774363 -0.48869607 4 8 27588 4.01000000 2690777058 2690777058 -7.00000000
-5.18259287 0.53465468 -0.45582452 3 10 27589 5.23000000 2690777062 2690777062 -5.00000000
-6.15593863 0.63941222 -0.10803039 2 14 27593 6.19000000 2690777071 2690777071 -1.00000000
-10.01877403 1.04064178 2.69896507 42 15 27593 10.42800000 2690777074 2690777074 15.00000000
-1.93852460 0.20408922 -0.52229685 4 0 27601 2.01800000 2690777094 2690777094 -15.00000000
-5.18246841 0.54652846 0.09096194 4 1 27602 5.21200000 2690777097 2690777097 1.00000000
-2.24221706 0.23685358 -0.52053672 4 2 27603 2.31400000 2690777099 2690777099 -13.00000000
-5.58710098 0.59117186 0.29444209 4 3 27604 5.62600000 2690777101 2690777101 3.00000000
-2.62006140 0.27722904 -0.51213133 3 4 27604 2.68400000 2690777104 2690777104 -11.00000000
-5.52384329 0.58545345 0.48598042 17 5 27605 5.57600000 2690777106 2690777106 5.00000000
-3.15276265 0.33470711 -0.50215465 3 6 27606 3.21000000 2690777108 2690777108 -9.00000000
-3.96166968 0.42198172 -0.48918355 4 8 27608 4.01400000 2690777113 2690777113 -7.00000000
-4.81418324 0.51363796 -0.42357692 2 10 27609 4.86000000 2690777117 2690777117 -5.00000000
-5.07003689 0.54272562 -0.26722738 2 12 27611 5.10600000 2690777122 2690777122 -3.00000000
-5.05217218 0.54259717 -0.08869313 2 14 27613 5.08200000 2690777127 2690777127 -1.00000000
-10.08404064 1.08479393 2.71759987 45 15 27614 10.50000000 2690777129 2690777129 15.00000000
-1.93780041 0.21085469 -0.52229685 4 0 27621 2.01800000 2690777150 2690777150 -15.00000000
-5.09107208 0.55486560 0.08939122 7 1 27622 5.12200000 2690777152 2690777152 1.00000000
-2.22200441 0.24256417 -0.51603770 4 2 27623 2.29400000 2690777154 2690777154 -13.00000000
-5.25740814 0.57485121 0.27717122 2 3 27624 5.29600000 2690777157 2690777157 3.00000000
-2.62688422 0.28722665 -0.51365781 3 4 27624 2.69200000 2690777159 2690777159 -11.00000000
-5.51780462 0.60429794 0.48563179 34 5 27625 5.57200000 2690777161 2690777161 5.00000000
-3.15550232 0.34614104 -0.50278038 3 6 27626 3.21400000 2690777164 2690777164 -9.00000000
-3.95622611 0.43537369 -0.48869607 4 8 27628 4.01000000 2690777168 2690777168 -7.00000000
-4.75096846 0.52367252 -0.41817325 2 10 27629 4.79800000 2690777173 2690777173 -5.00000000
-4.69093132 0.51871234 -0.24733973 2 12 27631 4.72600000 2690777177 2690777177 -3.00000000
-4.74417210 0.52627593 -0.08331779 1 14 27633 4.77400000 2690777182 2690777182 -1.00000000
-10.09574795 1.11993182 2.72174096 47 15 27633 10.51600000 2690777184 2690777184 15.00000000
-1.94665146 0.21869598 -0.52488500 4 0 27641 2.02800000 2690777205 2690777205 -15.00000000
-4.60622597 0.51829916 0.08090936 4 1 27642 4.63600000 2690777207 2690777207 1.00000000
-2.23663592 0.25206482 -0.51963693 4 2 27643 2.31000000 2690777210 2690777210 -13.00000000
-4.84851503 0.54727584 0.25571349 6 3 27644 4.88600000 2690777212 2690777212 3.00000000
-2.61806202 0.29551360 -0.51213133 3 4 27644 2.68400000 2690777214 2690777214 -11.00000000
-3.16212606 0.35804269 -0.50403184 3 6 27646 3.22200000 2690777219 2690777219 -9.00000000
-3.95862722 0.44962889 -0.48918355 4 8 27648 4.01400000 2690777223 2690777223 -7.00000000
-4.73723412 0.53890210 -0.41712737 2 10 27649 4.78600000 2690777228 2690777228 -5.00000000
-4.60971689 0.52602589 -0.24315286 4 12 27651 4.64600000 2690777233 2690777233 -3.00000000
-4.63899660 0.53100753 -0.08150274 1 14 27653 4.67000000 2690777237 2690777237 -1.00000000
-10.08581829 1.15626705 2.72018814 47 15 27654 10.51000000 2690777240 2690777240 15.00000000
-1.94019747 0.22414535 -0.52333212 4 0 27659 2.02200000 2690777260 2690777260 -15.00000000
-4.57477808 0.52931988 0.08038578 8 1 27660 4.60600000 2690777263 2690777263 1.00000000
-2.23583317 0.25909019 -0.51963693 4 2 27661 2.31000000 2690777265 2690777265 -13.00000000
-4.74757433 0.55099255 0.25047988 4 3 27662 4.78600000 2690777267 2690777267 3.00000000
-2.60932016 0.30283171 -0.51060486 3 4 27662 2.67600000 2690777270 2690777270 -11.00000000
-3.16490984 0.36843187 -0.50465757 3 6 27664 3.22600000 2690777274 2690777274 -9.00000000
-3.94930840 0.46114215 -0.48820859 4 8 27666 4.00600000 2690777279 2690777279 -7.00000000
-4.71374941 0.55123627 -0.41520995 5 10 27667 4.76400000 2690777283 2690777283 -5.00000000
-4.61994362 0.54190117 -0.24378088 4 12 27669 4.65800000 2690777288 2690777288 -3.00000000
-4.51020145 0.53062499 -0.07926883 5 14 27671 4.54200000 2690777293 2690777293 -1.00000000
-10.07466793 1.18528414 2.71811771 47 15 27671 10.50200000 2690777295 2690777295 15.00000000
-1.92789352 0.22954611 -0.52022630 4 0 27679 2.01000000 2690777316 2690777316 -15.00000000
-4.54510355 0.54197079 0.07989711 6 1 27680 4.57800000 2690777318 2690777318 1.00000000
-2.24265504 0.26781741 -0.52143657 4 2 27681 2.31800000 2690777320 2690777320 -13.00000000
-4.72182465 0.56471527 0.24922383 4 3 27682 4.76200000 2690777323 2690777323 3.00000000
-2.59850025 0.31077239 -0.50869679 3 4 27682 2.66600000 2690777325 2690777325 -11.00000000
-5.38084030 0.64448404 0.47412723 2 5 27683 5.44000000 2690777327 2690777327 5.00000000
-3.15575933 0.37853616 -0.50340611 3 6 27684 3.21800000 2690777329 2690777329 -9.00000000
-3.94570374 0.47468787 -0.48796484 4 8 27686 4.00400000 2690777334 2690777334 -7.00000000
-4.71575308 0.56816363 -0.41555858 5 10 27687 4.76800000 2690777339 2690777339 -5.00000000
-4.60810947 0.55682653 -0.24325752 4 12 27689 4.64800000 2690777343 2690777343 -3.00000000
-4.48251438 0.54323769 -0.07881507 5 14 27691 4.51600000 2690777348 2690777348 -1.00000000
-10.06088066 1.21928203 2.71552944 47 15 27691 10.49200000 2690777350 2690777350 15.00000000
-1.93666792 0.23744982 -0.52281445 4 0 27699 2.02000000 2690777371 2690777371 -15.00000000
-4.52532101 0.55563956 0.07958297 4 1 27700 4.56000000 2690777373 2690777373 1.00000000
-2.23783827 0.27516845 -0.52053672 4 2 27701 2.31400000 2690777376 2690777376 -13.00000000
-4.66630316 0.57460344 0.24639769 2 3 27702 4.70800000 2690777378 2690777378 3.00000000
-2.61688519 0.32224035 -0.51251298 3 4 27702 2.68600000 2690777380 2690777380 -11.00000000
-5.27375507 0.65033883 0.46488872 2 5 27703 5.33400000 2690777382 2690777382 5.00000000
-3.14265585 0.38809687 -0.50152892 3 6 27704 3.20600000 2690777385 2690777385 -9.00000000
-3.95584297 0.48992199 -0.48942727 4 8 27706 4.01600000 2690777389 2690777389 -7.00000000
-4.71374083 0.58462125 -0.41555858 5 10 27707 4.76800000 2690777394 2690777394 -5.00000000
-4.58433580 0.57019669 -0.24210614 2 12 27709 4.62600000 2690777399 2690777399 -3.00000000
-4.45677900 0.55591112 -0.07839621 3 14 27711 4.49200000 2690777403 2690777403 -1.00000000
-10.05848026 1.25463271 2.71604705 42 15 27711 10.49400000 2690777405 2690777405 15.00000000
-1.94732726 0.24565935 -0.52592027 4 0 27719 2.03200000 2690777426 2690777426 -15.00000000
-4.46978807 0.56466556 0.07864054 4 1 27720 4.50600000 2690777429 2690777429 1.00000000
-2.22526407 0.28151083 -0.51783735 4 2 27721 2.30200000 2690777431 2690777431 -13.00000000
-4.62265873 0.58561707 0.24419957 1 3 27722 4.66600000 2690777433 2690777433 3.00000000
-2.62353516 0.33236000 -0.51403946 3 4 27722 2.69400000 2690777435 2690777435 -11.00000000
-5.23192215 0.66372877 0.46140251 7 5 27723 5.29400000 2690777438 2690777438 5.00000000
-3.15108013 0.40030918 -0.50309324 3 6 27724 3.21600000 2690777440 2690777440 -9.00000000
-3.95607781 0.50397831 -0.48967102 4 8 27726 4.01800000 2690777445 2690777445 -7.00000000
-4.72748232 0.60308874 -0.41695309 5 10 27727 4.78400000 2690777449 2690777449 -5.00000000
-4.43696070 0.56917489 -0.07808207 1 14 27731 4.47400000 2690777458 2690777458 -1.00000000
-10.06147861 1.29247499 2.71811771 45 15 27732 10.50200000 2690777461 2690777461 15.00000000
-1.94454205 0.25220680 -0.52540267 4 0 27739 2.03000000 2690777482 2690777482 -15.00000000
-4.42812872 0.57511353 0.07794245 4 1 27740 4.46600000 2690777484 2690777484 1.00000000
-2.21267295 0.28776875 -0.51513791 4 2 27741 2.29000000 2690777486 2690777486 -13.00000000
-4.51759863 0.58833724 0.23875663 1 3 27742 4.56200000 2690777488 2690777488 3.00000000
-2.61651850 0.34075519 -0.51289457 3 4 27742 2.68800000 2690777491 2690777491 -11.00000000
-5.18808460 0.67657703 0.45774198 7 5 27743 5.25200000 2690777493 2690777493 5.00000000
-3.15553975 0.41207340 -0.50403184 3 6 27744 3.22200000 2690777495 2690777495 -9.00000000
-6.28883028 0.82235765 0.77874511 2 7 27745 6.39000000 2690777498 2690777498 7.00000000
-3.95035791 0.51726907 -0.48918355 4 8 27746 4.01400000 2690777500 2690777500 -7.00000000
-4.72139740 0.61906898 -0.41660446 8 10 27747 4.78000000 2690777505 2690777505 -5.00000000
-4.34176731 0.57237542 -0.07644154 1 14 27751 4.38000000 2690777514 2690777514 -1.00000000
-10.06671333 1.32709539 2.72070575 47 15 27751 10.51200000 2690777516 2690777516 15.00000000
-1.93981993 0.25848266 -0.52436739 4 0 27759 2.02600000 2690777537 2690777537 -15.00000000
-4.36861277 0.58289737 0.07693021 3 1 27760 4.40800000 2690777539 2690777539 1.00000000
-2.22710776 0.29755524 -0.51873714 4 2 27761 2.30600000 2690777541 2690777541 -13.00000000
-4.46998644 0.59801167 0.23634918 3 3 27762 4.51600000 2690777544 2690777544 3.00000000
-2.60947537 0.34910548 -0.51174974 3 4 27762 2.68200000 2690777546 2690777546 -11.00000000
-5.12249899 0.68621737 0.45216399 7 5 27763 5.18800000 2690777548 2690777548 5.00000000
-3.17366052 0.42571202 -0.50716054 3 6 27764 3.24200000 2690777551 2690777551 -9.00000000
-5.60912704 0.75339997 0.69489902 2 7 27765 5.70200000 2690777553 2690777553 7.00000000
-3.95246315 0.53158444 -0.48967102 4 8 27766 4.01800000 2690777555 2690777555 -7.00000000
-4.71525860 0.63501412 -0.41625583 5 10 27767 4.77600000 2690777560 2690777560 -5.00000000
-4.30803680 0.58323509 -0.07588306 3 14 27771 4.34800000 2690777569 2690777569 -1.00000000
-10.04861927 1.36041248 2.71708226 45 15 27771 10.49800000 2690777571 2690777571 15.00000000
-1.93503165 0.26506636 -0.52333212 4 0 27780 2.02200000 2690777592 2690777592 -15.00000000
-4.33078623 0.59401399 0.07630192 3 1 27781 4.37200000 2690777594 2690777594 1.00000000
-2.24144697 0.30783719 -0.52233636 4 2 27782 2.32200000 2690777597 2690777597 -13.00000000
-4.43027639 0.60844797 0.23436041 3 3 27782 4.47800000 2690777599 2690777599 3.00000000
-2.61984801 0.36027211 -0.51403946 3 4 27783 2.69400000 2690777601 2690777601 -11.00000000
-5.08047438 0.69955218 0.44867778 10 5 27784 5.14800000 2690777604 2690777604 5.00000000
-3.14663959 0.43383384 -0.50309324 1 6 27785 3.21600000 2690777606 2690777606 -9.00000000
-5.58273077 0.77069581 0.69197410 2 7 27786 5.67800000 2690777608 2690777608 7.00000000
-3.96818566 0.54851371 -0.49186468 6 8 27787 4.03600000 2690777610 2690777610 -7.00000000
-4.70895243 0.65174586 -0.41590720 5 10 27788 4.77200000 2690777615 2690777615 -5.00000000
-4.24645185 0.59075481 -0.07483592 3 14 27792 4.28800000 2690777624 2690777624 -1.00000000
-10.03208447 1.39563632 2.71397662 42 15 27792 10.48600000 2690777627 2690777627 15.00000000
-1.93409455 0.27181926 -0.52333212 5 0 27800 2.02200000 2690777647 2690777647 -15.00000000
-4.28116179 0.60244006 0.07546420 5 1 27801 4.32400000 2690777650 2690777650 1.00000000
-2.23264027 0.31457189 -0.52053672 4 2 27802 2.31400000 2690777652 2690777652 -13.00000000
-4.38846302 0.61910164 0.23226698 5 3 27803 4.43800000 2690777654 2690777654 3.00000000
-2.61857438 0.36941490 -0.51403946 3 4 27803 2.69400000 2690777657 2690777657 -11.00000000
-5.04249096 0.71226609 0.44554016 10 5 27804 5.11200000 2690777659 2690777659 5.00000000
-3.16270947 0.44730467 -0.50590909 3 6 27805 3.23400000 2690777661 2690777661 -9.00000000
-5.63110924 0.79741502 0.69831133 2 7 27806 5.73000000 2690777663 2690777663 7.00000000
-3.96231604 0.56180453 -0.49137720 6 8 27807 4.03200000 2690777666 2690777666 -7.00000000
-4.71059370 0.66873926 -0.41625583 5 10 27808 4.77600000 2690777670 2690777670 -5.00000000
-4.36397552 0.62108570 -0.23101091 2 12 27810 4.41400000 2690777675 2690777675 -3.00000000
-4.22258759 0.60246712 -0.07445197 5 14 27812 4.26600000 2690777680 2690777680 -1.00000000
-10.03072739 1.43294275 2.71501184 47 15 27813 10.49000000 2690777682 2690777682 15.00000000
-1.94274330 0.27960747 -0.52592027 4 0 27819 2.03200000 2690777703 2690777703 -15.00000000
-4.25341034 0.61292577 0.07501044 5 1 27820 4.29800000 2690777705 2690777705 1.00000000
-2.21615458 0.31974760 -0.51693749 4 2 27821 2.29800000 2690777707 2690777707 -13.00000000
-4.33905363 0.62604022 0.22975485 5 3 27821 4.39000000 2690777710 2690777710 3.00000000
-2.62122130 0.37865776 -0.51480269 3 4 27822 2.69800000 2690777712 2690777712 -11.00000000
-5.03024197 0.72755766 0.44466859 10 5 27823 5.10200000 2690777714 2690777714 5.00000000
-3.15338874 0.45665768 -0.50465757 3 6 27824 3.22600000 2690777716 2690777716 -9.00000000
-5.55771017 0.80582964 0.68953675 2 7 27825 5.65800000 2690777719 2690777719 7.00000000
-3.94471526 0.57265943 -0.48942727 6 8 27826 4.01600000 2690777721 2690777721 -7.00000000
-4.71623707 0.68550283 -0.41695309 5 10 27827 4.78400000 2690777726 2690777726 -5.00000000
-4.32038784 0.62950635 -0.22881280 4 12 27829 4.37200000 2690777730 2690777730 -3.00000000
-4.21265173 0.61531037 -0.07431234 5 14 27831 4.25800000 2690777735 2690777735 -1.00000000
-10.03191090 1.46528566 2.71656466 47 15 27831 10.49600000 2690777737 2690777737 15.00000000
-1.94557774 0.28695098 -0.52695560 5 0 27839 2.03600000 2690777758 2690777758 -15.00000000
-4.22354937 0.62367952 0.07452177 7 1 27840 4.27000000 2690777760 2690777760 1.00000000
-2.22273612 0.32862151 -0.51873714 4 2 27841 2.30600000 2690777762 2690777762 -13.00000000
-4.30918074 0.63709301 0.22828944 5 3 27841 4.36200000 2690777765 2690777765 3.00000000
-2.61017299 0.38636786 -0.51289457 3 4 27842 2.68800000 2690777767 2690777767 -11.00000000
-5.02175903 0.74423581 0.44414568 10 5 27843 5.09600000 2690777769 2690777769 5.00000000
-3.14395952 0.46650255 -0.50340611 3 6 27844 3.21800000 2690777772 2690777772 -9.00000000
-5.58235312 0.82930857 0.69294912 2 7 27845 5.68600000 2690777774 2690777774 7.00000000
-3.95447326 0.58817786 -0.49088973 6 8 27846 4.02800000 2690777776 2690777776 -7.00000000
-4.70987415 0.70137441 -0.41660446 5 10 27847 4.78000000 2690777781 2690777781 -5.00000000
-4.28260756 0.63927585 -0.22692871 4 12 27849 4.33600000 2690777786 2690777786 -3.00000000
-4.19465685 0.62764412 -0.07403311 7 14 27851 4.24200000 2690777790 2690777790 -1.00000000
-10.02864552 1.50058055 2.71708226 47 15 27851 10.49800000 2690777792 2690777792 15.00000000
-1.93692362 0.29258636 -0.52488500 4 0 27859 2.02800000 2690777813 2690777813 -15.00000000
-4.20948362 0.63662452 0.07431234 7 1 27860 4.25800000 2690777815 2690777815 1.00000000
-2.22542906 0.33696181 -0.51963693 4 2 27861 2.31000000 2690777818 2690777818 -13.00000000
-4.28509521 0.64958978 0.22713806 7 3 27862 4.34000000 2690777820 2690777820 3.00000000
-2.60298514 0.39459395 -0.51174974 3 4 27862 2.68200000 2690777822 2690777822 -11.00000000
-4.98170376 0.75608015 0.44083375 9 5 27863 5.05800000 2690777825 2690777825 5.00000000
-3.14621782 0.47806767 -0.50403184 3 6 27864 3.22200000 2690777827 2690777827 -9.00000000
-5.60297441 0.85237223 0.69587398 2 7 27865 5.71000000 2690777829 2690777829 7.00000000
-3.95239592 0.60197794 -0.49088973 6 8 27866 4.02800000 2690777832 2690777832 -7.00000000
-5.19192410 0.79169416 -0.45948508 9 10 27867 5.27200000 2690777836 2690777836 -5.00000000
-4.25665760 0.65059990 -0.22567265 6 12 27869 4.31200000 2690777841 2690777841 -3.00000000
-4.17662716 0.63985986 -0.07375387 7 14 27871 4.22600000 2690777845 2690777845 -1.00000000
-10.02689743 1.53791308 2.71811771 45 15 27872 10.50200000 2690777848 2690777848 15.00000000
-1.93207216 0.29875529 -0.52384973 4 0 27879 2.02400000 2690777868 2690777868 -15.00000000
-4.20130730 0.65039670 0.07420763 7 1 27880 4.25200000 2690777871 2690777871 1.00000000
-2.25119972 0.34890646 -0.52593559 4 2 27881 2.33800000 2690777873 2690777873 -13.00000000
-4.28291750 0.66379613 0.22713806 11 3 27881 4.34000000 2690777875 2690777875 3.00000000
-2.60935211 0.40488175 -0.51327622 3 4 27882 2.69000000 2690777878 2690777878 -11.00000000
-4.95147133 0.76918322 0.43839338 9 5 27883 5.03000000 2690777880 2690777880 5.00000000
-3.15624142 0.49086851 -0.50590909 3 6 27884 3.23400000 2690777882 2690777882 -9.00000000
-5.59996462 0.87192506 0.69587398 2 7 27885 5.71000000 2690777885 2690777885 7.00000000
-3.94438648 0.61485350 -0.49015850 4 8 27886 4.02200000 2690777887 2690777887 -7.00000000
-5.21668911 0.81411350 -0.46192545 9 10 27887 5.30000000 2690777892 2690777892 -5.00000000
-4.23068190 0.66175061 -0.22441658 6 12 27889 4.28800000 2690777896 2690777896 -3.00000000
-4.16251516 0.65257680 -0.07354444 14 14 27891 4.21400000 2690777901 2690777901 -1.00000000
-10.00619984 1.57050776 2.71397662 45 15 27892 10.48600000 2690777903 2690777903 15.00000000
-1.93865001 0.30670515 -0.52592027 5 0 27899 2.03200000 2690777924 2690777924 -15.00000000
-4.18913603 0.66349393 0.07403311 7 1 27900 4.24200000 2690777926 2690777926 1.00000000
-2.23072124 0.35371062 -0.52143657 4 2 27901 2.31800000 2690777928 2690777928 -13.00000000
-4.28649235 0.67968059 0.22745207 26 3 27901 4.34600000 2690777931 2690777931 3.00000000
-2.61373973 0.41491103 -0.51442105 3 4 27902 2.69600000 2690777933 2690777933 -11.00000000
-4.94285297 0.78552425 0.43787044 9 5 27903 5.02400000 2690777935 2690777935 5.00000000
-3.14280367 0.50002056 -0.50403184 3 6 27904 3.22200000 2690777938 2690777938 -9.00000000
-5.55767965 0.88522232 0.69099915 2 7 27905 5.67000000 2690777940 2690777940 7.00000000
-3.94613671 0.62924343 -0.49064597 4 8 27906 4.02600000 2690777942 2690777942 -7.00000000
-5.23348999 0.83545899 -0.46366856 9 10 27907 5.32000000 2690777947 2690777947 -5.00000000
-4.21454048 0.67430562 -0.22368388 8 12 27909 4.27400000 2690777951 2690777951 -3.00000000
-4.15428829 0.66615283 -0.07343972 17 14 27911 4.20800000 2690777956 2690777956 -1.00000000
-10.00447178 1.60603869 2.71501184 45 15 27912 10.49000000 2690777958 2690777958 15.00000000
-1.93947458 0.31377897 -0.52643794 4 0 27919 2.03400000 2690777979 2690777979 -15.00000000
-4.19074202 0.67875212 0.07410292 7 1 27920 4.24600000 2690777981 2690777981 1.00000000
-2.21408391 0.35899991 -0.51783735 4 2 27921 2.30200000 2690777984 2690777984 -13.00000000
-4.26832151 0.69208175 0.22661468 5 3 27921 4.33000000 2690777986 2690777986 3.00000000
-2.61033773 0.42371759 -0.51403946 3 4 27922 2.69400000 2690777988 2690777988 -11.00000000
-4.92238188 0.79989707 0.43630165 9 5 27923 5.00600000 2690777991 2690777991 5.00000000
-3.12934065 0.50908488 -0.50215465 3 6 27924 3.21000000 2690777993 2690777993 -9.00000000
-5.59374142 0.91099858 0.69587398 2 7 27925 5.71000000 2690777995 2690777995 7.00000000
-3.93216085 0.64109761 -0.48918355 4 8 27926 4.01400000 2690777998 2690777998 -7.00000000
-5.23644114 0.85468507 -0.46419150 9 10 27927 5.32600000 2690778002 2690778002 -5.00000000
-4.19836378 0.68675607 -0.22295117 8 12 27929 4.26000000 2690778007 2690778007 -3.00000000
-4.14404440 0.67935598 -0.07330011 22 14 27931 4.20000000 2690778011 2690778011 -1.00000000
-10.00261688 1.64157677 2.71604705 42 15 27932 10.49400000 2690778014 2690778014 15.00000000
-1.94402933 0.32183197 -0.52799088 4 0 27940 2.04000000 2690778034 2690778034 -15.00000000
-4.18822622 0.69410741 0.07410292 5 1 27941 4.24600000 2690778037 2690778037 1.00000000
-2.22428799 0.36902624 -0.52053672 4 2 27942 2.31400000 2690778039 2690778039 -13.00000000
-4.27363777 0.70902884 0.22703338 7 3 27942 4.33800000 2690778041 2690778041 3.00000000
-2.61651397 0.43456876 -0.51556593 3 4 27943 2.70200000 2690778044 2690778044 -11.00000000
-4.91745138 0.81760633 0.43612733 9 5 27944 5.00400000 2690778046 2690778046 5.00000000
-3.15083671 0.52444303 -0.50590909 3 6 27945 3.23400000 2690778048 2690778048 -9.00000000
-3.93957496 0.65713841 -0.49040225 6 8 27947 4.02400000 2690778053 2690778053 -7.00000000
-5.22737789 0.87288737 -0.46366856 9 10 27948 5.32000000 2690778057 2690778057 -5.00000000
-4.19581842 0.70213920 -0.22295117 12 12 27950 4.26000000 2690778062 2690778062 -3.00000000
-4.12180471 0.69123274 -0.07295106 29 14 27952 4.18000000 2690778067 2690778067 -1.00000000
-9.99301529 1.67584336 2.71501184 45 15 27952 10.49000000 2690778069 2690778069 15.00000000
-1.92956042 0.32636073 -0.52436739 4 0 27960 2.02600000 2690778090 2690778090 -15.00000000
-4.21732426 0.71406412 0.07466140 5 1 27961 4.27800000 2690778092 2690778092 1.00000000
-2.22298622 0.37678820 -0.52053672 4 2 27962 2.31400000 2690778094 2690778094 -13.00000000
-4.29082823 0.72728002 0.22808009 16 3 27962 4.35800000 2690778097 2690778097 3.00000000
-2.60723877 0.44238576 -0.51403946 3 4 27963 2.69400000 2690778099 2690778099 -11.00000000
-4.89688921 0.83176368 0.43455854 9 5 27964 4.98600000 2690778101 2690778101 5.00000000
-3.14509201 0.53477603 -0.50528330 3 6 27965 3.23000000 2690778103 2690778103 -9.00000000
-3.93725705 0.67088610 -0.49040225 6 8 27967 4.02400000 2690778108 2690778108 -7.00000000
-5.23411894 0.89280403 -0.46454009 9 10 27968 5.33000000 2690778113 2690778113 -5.00000000
-4.20121670 0.71812713 -0.22336987 18 12 27970 4.26800000 2690778117 2690778117 -3.00000000
-4.10951185 0.70392823 -0.07277653 33 14 27972 4.17000000 2690778122 2690778122 -1.00000000
-9.97918987 1.71115243 2.71294117 42 15 27973 10.48200000 2690778124 2690778124 15.00000000
-1.92275643 0.33177212 -0.52281445 4 0 27979 2.02000000 2690778145 2690778145 -15.00000000
-4.20310974 0.72600311 0.07445197 5 1 27980 4.26600000 2690778147 2690778147 1.00000000
-2.23324609 0.38615000 -0.52323616 4 2 27981 2.32600000 2690778150 2690778150 -13.00000000
-4.28432751 0.74157208 0.22787075 7 3 27982 4.35400000 2690778152 2690778152 3.00000000
-2.60188842 0.45035955 -0.51327622 3 4 27982 2.69000000 2690778154 2690778154 -11.00000000
-4.86662006 0.84323567 0.43211818 9 5 27983 4.95800000 2690778156 2690778156 5.00000000
-3.12773085 0.54250187 -0.50278038 3 6 27984 3.21400000 2690778159 2690778159 -9.00000000
-3.94087791 0.68495864 -0.49113345 6 8 27986 4.03000000 2690778163 2690778163 -7.00000000
-5.22916698 0.90981460 -0.46436581 9 10 27987 5.32800000 2690778168 2690778168 -5.00000000
-4.19684458 0.73171192 -0.22326519 26 12 27989 4.26600000 2690778173 2690778173 -3.00000000
-4.11897421 0.71961689 -0.07298596 40 14 27991 4.18200000 2690778177 2690778177 -1.00000000
-9.96615314 1.74116457 2.71087074 42 15 27991 10.47400000 2690778180 2690778180 15.00000000
-1.92919683 0.33982229 -0.52488500 4 0 27999 2.02800000 2690778200 2690778200 -15.00000000
-4.20055008 0.74067032 0.07445197 5 1 28000 4.26600000 2690778203 2690778203 1.00000000
-2.22420835 0.39258820 -0.52143657 4 2 28001 2.31800000 2690778205 2690778205 -13.00000000
-4.27777910 0.75582767 0.22766142 9 3 28002 4.35000000 2690778207 2690778207 3.00000000
-2.61190057 0.46148866 -0.51556593 3 4 28002 2.70200000 2690778209 2690778209 -11.00000000
-4.87149477 0.86160624 0.43281543 9 5 28003 4.96600000 2690778212 2690778212 5.00000000
-3.11609244 0.55169451 -0.50121605 3 6 28004 3.20400000 2690778214 2690778214 -9.00000000
-3.95019054 0.70079118 -0.49259588 4 8 28006 4.04200000 2690778219 2690778219 -7.00000000
-5.23380613 0.92945570 -0.46506304 9 10 28007 5.33600000 2690778223 2690778223 -5.00000000
-4.17656755 0.74320799 -0.22232315 26 12 28009 4.24800000 2690778228 2690778228 -3.00000000
-4.11446857 0.73363942 -0.07295106 50 14 28011 4.18000000 2690778233 2690778233 -1.00000000
-9.95590019 1.77700174 2.70983529 45 15 28012 10.47000000 2690778235 2690778235 15.00000000
-1.93186224 0.34690073 -0.52592027 4 0 28018 2.03200000 2690778256 2690778256 -15.00000000
-4.19413424 0.75388819 0.07438216 5 1 28019 4.26200000 2690778258 2690778258 1.00000000
-4.09864092 0.73746192 -0.96144080 5 2 28020 4.27400000 2690778260 2690778260 -13.00000000
-4.27524948 0.77000910 0.22766142 9 3 28021 4.35000000 2690778262 2690778262 3.00000000
-2.61035585 0.47014749 -0.51556593 3 4 28021 2.70200000 2690778265 2690778265 -11.00000000
-4.86076784 0.87634194 0.43211818 9 5 28022 4.95800000 2690778267 2690778267 5.00000000
-3.13757348 0.56623477 -0.50497043 1 6 28023 3.22800000 2690778269 2690778269 -9.00000000
-3.94784498 0.71388662 -0.49259588 4 8 28025 4.04200000 2690778274 2690778274 -7.00000000
-5.24441862 0.94929069 -0.46628323 9 10 28026 5.35000000 2690778279 2690778279 -5.00000000
-4.16621923 0.75562817 -0.22190446 30 12 28028 4.24000000 2690778283 2690778283 -3.00000000
-9.84008121 1.78647184 2.30889773 5 13 28029 10.26400000 2690778286 2690778286 13.00000000
-4.11398077 0.74763697 -0.07298596 63 14 28030 4.18200000 2690778288 2690778288 -1.00000000
-9.95597076 1.80930662 2.71138835 42 15 28030 10.47600000 2690778290 2690778290 15.00000000
-1.94774163 0.35677475 -0.53057903 4 0 28038 2.05000000 2690778311 2690778311 -15.00000000
-4.18360949 0.76708132 0.07424254 5 1 28039 4.25400000 2690778313 2690778313 1.00000000
-4.10754204 0.75387502 -0.96414024 5 2 28040 4.28600000 2690778315 2690778315 -13.00000000
-4.25092697 0.78095806 0.22651002 7 3 28041 4.32800000 2690778318 2690778318 3.00000000
-2.59711313 0.47712803 -0.51327622 3 4 28041 2.69000000 2690778320 2690778320 -11.00000000
-4.85571957 0.89294350 0.43194386 9 5 28042 4.95600000 2690778322 2690778322 5.00000000
-3.14140606 0.57825631 -0.50590909 3 6 28043 3.23400000 2690778325 2690778325 -9.00000000
-3.93752027 0.72622263 -0.49162093 4 8 28045 4.03400000 2690778329 2690778329 -7.00000000
-5.23911381 0.96722960 -0.46610892 9 10 28046 5.34800000 2690778334 2690778334 -5.00000000
-4.16355658 0.77016640 -0.22190446 28 12 28048 4.24000000 2690778338 2690778338 -3.00000000
-9.75713921 1.80661738 2.29090142 5 13 28049 10.18400000 2690778341 2690778341 13.00000000
-4.10544729 0.76089966 -0.07288125 66 14 28050 4.17600000 2690778343 2690778343 -1.00000000
-9.95876980 1.84754682 2.71397662 45 15 28051 10.48600000 2690778345 2690778345 15.00000000
-1.93129241 0.36073384 -0.52643794 4 0 28058 2.03400000 2690778366 2690778366 -15.00000000
-4.20449448 0.78609020 0.07466140 5 1 28059 4.27800000 2690778368 2690778368 1.00000000
-4.10488558 0.76820844 -0.96414024 5 2 28060 4.28600000 2690778371 2690778371 -13.00000000
-4.26191711 0.79836601 0.22724272 5 3 28061 4.34200000 2690778373 2690778373 3.00000000
-2.59929109 0.48691368 -0.51403946 3 4 28061 2.69400000 2690778375 2690778375 -11.00000000
-4.85648966 0.91062206 0.43229249 9 5 28062 4.96000000 2690778378 2690778378 5.00000000
-3.14325142 0.58994710 -0.50653481 3 6 28063 3.23800000 2690778380 2690778380 -9.00000000
-3.94081402 0.74106330 -0.49235216 6 8 28065 4.04000000 2690778385 2690778385 -7.00000000
-5.22591543 0.98366886 -0.46523735 9 10 28066 5.33800000 2690778389 2690778389 -5.00000000
-4.16084290 0.78469521 -0.22190446 26 12 28068 4.24000000 2690778394 2690778394 -3.00000000
-4.09294128 0.77336931 -0.07270672 82 14 28070 4.16600000 2690778398 2690778398 -1.00000000
-9.94119930 1.87840903 2.71087074 45 15 28070 10.47400000 2690778401 2690778401 15.00000000
-1.91863489 0.36530513 -0.52333212 4 0 28078 2.02200000 2690778421 2690778421 -15.00000000
-4.18011713 0.79664385 0.07427744 5 1 28079 4.25600000 2690778424 2690778424 1.00000000
-4.10792160 0.78362799 -0.96548992 5 2 28080 4.29200000 2690778426 2690778426 -13.00000000
-4.24733353 0.81099045 0.22661468 5 3 28081 4.33000000 2690778428 2690778428 3.00000000
-2.58214831 0.49303824 -0.51098651 3 4 28081 2.67800000 2690778431 2690778431 -11.00000000
-4.83958244 0.92495066 0.43107229 9 5 28082 4.94600000 2690778433 2690778433 5.00000000
-3.12953162 0.59868854 -0.50465757 3 6 28083 3.22600000 2690778435 2690778435 -9.00000000
-7.12604618 1.36452270 0.89086491 2 7 28084 7.31000000 2690778438 2690778438 7.00000000
-3.93820310 0.75481480 -0.49235216 6 8 28085 4.04000000 2690778440 2690778440 -7.00000000
-5.23614693 1.00453246 -0.46645755 9 10 28086 5.35200000 2690778444 2690778444 -5.00000000
-4.15415573 0.79846054 -0.22169511 30 12 28088 4.23600000 2690778449 2690778449 -3.00000000
-4.10199881 0.78992045 -0.07291616 78 14 28090 4.17800000 2690778454 2690778454 -1.00000000
-9.91717529 1.91154206 2.70621204 40 15 28091 10.45600000 2690778456 2690778456 15.00000000
-1.91917944 0.37270311 -0.52384973 4 0 28099 2.02400000 2690778477 2690778477 -15.00000000
-4.18305779 0.81310409 0.07438216 5 1 28100 4.26200000 2690778479 2690778479 1.00000000
-4.09354448 0.79644597 -0.96279049 5 2 28101 4.28000000 2690778481 2690778481 -13.00000000
-4.22864914 0.82349801 0.22577731 5 3 28102 4.31400000 2690778484 2690778484 3.00000000
-2.59574032 0.50550121 -0.51403946 3 4 28102 2.69400000 2690778486 2690778486 -11.00000000
