# .PCD v0.7 - Point Cloud Data file format
VERSION 0.7
FIELDS x y z intensity laser_id azimuth distance_m adjustedtime timestamp vertical_angle
SIZE 4 4 4 1 1 2 8 8 4 8
TYPE F F F U U U F U U F
COUNT 1 1 1 1 1 1 1 1 1 1
WIDTH 539
HEIGHT 1
VIEWPOINT 0 0 0 1 0 0 0
POINTS 539
DATA ascii
3.64640355 1.81961918 -0.64544863 6 6 6348 4.12600000 2682918044 2682918044 -9.00000000
8.23348713 4.10685968 1.12972879 97 7 6349 9.27000000 2682918046 2682918046 7.00000000
4.90321541 2.44465303 -0.67271876 6 8 6350 5.52000000 2682918048 2682918048 -7.00000000
8.30174160 4.13909531 1.46923244 2 9 6350 9.39200000 2682918050 2682918050 9.00000000
6.74411106 3.36102009 -0.65924603 8 10 6351 7.56400000 2682918053 2682918053 -5.00000000
8.21174240 4.08885670 -0.48075810 17 12 6353 9.18600000 2682918057 2682918057 -3.00000000
8.26068592 4.11142826 2.13028646 75 13 6354 9.47000000 2682918060 2682918060 13.00000000
8.19812298 4.07850456 -0.15982914 16 14 6355 9.15800000 2682918062 2682918062 -1.00000000
7.87328482 3.91690016 2.35628867 45 15 6355 9.10400000 2682918064 2682918064 15.00000000
2.02507305 1.00393379 -0.60563654 4 0 6363 2.34000000 2682918085 2682918085 -15.00000000
8.20810318 4.06739759 0.15989895 12 1 6364 9.16200000 2682918087 2682918087 1.00000000
8.20046043 4.06182814 -2.11274028 8 2 6365 9.39200000 2682918090 2682918090 -13.00000000
8.22457886 4.07198668 0.48096743 13 3 6366 9.19000000 2682918092 2682918092 3.00000000
2.90304828 1.43729842 -0.62966967 5 4 6366 3.30000000 2682918094 2682918094 -11.00000000
8.21237755 4.06416130 0.80165851 82 5 6367 9.19800000 2682918097 2682918097 5.00000000
3.63502693 1.79812133 -0.64231992 4 6 6368 4.10600000 2682918099 2682918099 -9.00000000
8.23709583 4.07281542 1.12826633 95 7 6369 9.25800000 2682918101 2682918101 7.00000000
4.93307447 2.43807721 -0.67564362 6 8 6370 5.54400000 2682918103 2682918103 -7.00000000
6.80224609 3.36040235 -0.66377813 4 10 6371 7.61600000 2682918108 2682918108 -5.00000000
8.21880150 4.05663157 -0.48033941 17 12 6373 9.17800000 2682918113 2682918113 -3.00000000
8.26799679 4.07911921 2.12848687 72 13 6374 9.46200000 2682918115 2682918115 13.00000000
8.20513535 4.04632521 -0.15968952 18 14 6375 9.15000000 2682918117 2682918117 -1.00000000
7.88412237 3.88630843 2.35525322 47 15 6376 9.10000000 2682918120 2682918120 15.00000000
2.03550053 1.00026691 -0.60770714 4 0 6383 2.34800000 2682918140 2682918140 -15.00000000
8.19532776 4.02549696 0.15937537 12 1 6384 9.13200000 2682918143 2682918143 1.00000000
8.19709587 4.02458954 -2.10824132 8 2 6385 9.37200000 2682918145 2682918145 -13.00000000
8.22260571 4.03533363 0.48002538 10 3 6386 9.17200000 2682918147 2682918147 3.00000000
2.89747286 1.42196655 -0.62737995 5 4 6386 3.28800000 2682918150 2682918150 -11.00000000
8.22114754 4.03283787 0.80113560 86 5 6387 9.19200000 2682918152 2682918152 5.00000000
3.64837599 1.78890038 -0.64357138 6 6 6388 4.11400000 2682918154 2682918154 -9.00000000
8.22630787 4.03180695 1.12485409 95 7 6389 9.23000000 2682918156 2682918156 7.00000000
4.93085861 2.41560268 -0.67418122 6 8 6390 5.53200000 2682918159 2682918159 -7.00000000
7.53684139 3.69062948 -0.73420000 13 10 6391 8.42400000 2682918163 2682918163 -5.00000000
8.20600128 4.01475191 -0.47876933 12 12 6393 9.14800000 2682918168 2682918168 -3.00000000
8.27518272 4.04680920 2.12668729 72 13 6394 9.45400000 2682918170 2682918170 13.00000000
8.20663452 4.01151180 -0.15944518 14 14 6395 9.13600000 2682918173 2682918173 -1.00000000
7.90738010 3.86523271 2.35835910 45 15 6395 9.11200000 2682918175 2682918175 15.00000000
2.04592681 0.99653941 -0.60977769 4 0 6403 2.35600000 2682918196 2682918196 -15.00000000
8.20034027 3.99248862 0.15920085 15 1 6404 9.12200000 2682918198 2682918198 1.00000000
8.19006729 3.98571897 -2.10284257 8 2 6405 9.34800000 2682918200 2682918200 -13.00000000
8.21688461 3.99699640 0.47887400 10 3 6406 9.15000000 2682918203 2682918203 3.00000000
2.90241885 1.41184378 -0.62737995 5 4 6406 3.28800000 2682918205 2682918205 -11.00000000
8.22263241 3.99801731 0.79991543 82 5 6407 9.17800000 2682918207 2682918207 5.00000000
3.65459824 1.77615428 -0.64357138 6 6 6408 4.11400000 2682918209 2682918209 -9.00000000
8.21890450 3.99265838 1.12192917 95 7 6409 9.20600000 2682918212 2682918212 7.00000000
4.94283199 2.40011024 -0.67466867 6 8 6410 5.53600000 2682918214 2682918214 -7.00000000
8.33752155 4.04848289 1.46798098 2 9 6410 9.38400000 2682918216 2682918216 9.00000000
7.56760263 3.67299819 -0.73594308 13 10 6411 8.44400000 2682918219 2682918219 -5.00000000
8.34251785 4.04731083 1.80238175 3 11 6412 9.44600000 2682918221 2682918221 11.00000000
8.20019722 3.97649693 -0.47761795 17 12 6413 9.12600000 2682918223 2682918223 -3.00000000
8.26821518 4.00769901 2.12128854 70 13 6414 9.43000000 2682918226 2682918226 13.00000000
8.21518803 3.98022532 -0.15934047 16 14 6415 9.13000000 2682918228 2682918228 -1.00000000
7.92777824 3.84097648 2.36042976 45 15 6415 9.12000000 2682918230 2682918230 15.00000000
2.05252624 0.99178803 -0.61081296 4 0 6421 2.36000000 2682918251 2682918251 -15.00000000
8.20383835 3.96235824 0.15902632 18 1 6422 9.11200000 2682918253 2682918253 1.00000000
8.18499851 3.95149732 -2.09834337 8 2 6423 9.32800000 2682918256 2682918256 -13.00000000
8.20781612 3.96074653 0.47761795 10 3 6424 9.12600000 2682918258 2682918258 3.00000000
2.89976740 1.39930570 -0.62585348 5 4 6424 3.28000000 2682918260 2682918260 -11.00000000
8.22258949 3.96610641 0.79869521 86 5 6425 9.16400000 2682918262 2682918262 5.00000000
3.64948392 1.75951695 -0.64169419 6 6 6426 4.10200000 2682918265 2682918265 -9.00000000
8.21888924 3.96078587 1.12022305 90 7 6427 9.19200000 2682918267 2682918267 7.00000000
4.93604040 2.37767839 -0.67271876 6 8 6428 5.52000000 2682918269 2682918269 -7.00000000
7.58269453 3.65093446 -0.73629171 13 10 6429 8.44800000 2682918274 2682918274 -5.00000000
8.18565178 3.93772864 -0.47604784 17 12 6431 9.09600000 2682918279 2682918279 -3.00000000
8.26320267 3.97325897 2.11678934 70 13 6432 9.41000000 2682918281 2682918281 13.00000000
8.20061684 3.94140339 -0.15881690 18 14 6433 9.10000000 2682918283 2682918283 -1.00000000
7.93980598 3.81605172 2.36042976 45 15 6433 9.12000000 2682918285 2682918285 15.00000000
2.04552174 0.97961080 -0.60770714 4 0 6441 2.34800000 2682918306 2682918306 -15.00000000
8.21220875 3.93110728 0.15892161 18 1 6442 9.10600000 2682918309 2682918309 1.00000000
8.18819523 3.91785550 -2.09564400 8 2 6443 9.31600000 2682918311 2682918311 -13.00000000
8.21438408 3.92862487 0.47719926 10 3 6444 9.11800000 2682918313 2682918313 3.00000000
2.90640545 1.39002216 -0.62623513 5 4 6444 3.28200000 2682918315 2682918315 -11.00000000
8.21840858 3.92878699 0.79695213 86 5 6445 9.14400000 2682918318 2682918318 5.00000000
3.67342710 1.75528383 -0.64482284 6 6 6446 4.12200000 2682918320 2682918320 -9.00000000
8.22908211 3.93036127 1.11973548 90 7 6447 9.18800000 2682918322 2682918322 7.00000000
4.95147562 2.36385465 -0.67369372 6 8 6448 5.52800000 2682918325 2682918325 -7.00000000
7.57381439 3.61414695 -0.73420000 13 10 6449 8.42400000 2682918329 2682918329 -5.00000000
8.20295238 3.91085029 -0.47625721 17 12 6451 9.10000000 2682918334 2682918334 -3.00000000
8.26646614 3.93936062 2.11408997 72 13 6452 9.39800000 2682918336 2682918336 13.00000000
8.19266129 3.90243459 -0.15839805 16 14 6453 9.07600000 2682918338 2682918338 -1.00000000
7.95373917 3.78692532 2.36042976 45 15 6454 9.12000000 2682918341 2682918341 15.00000000
2.03862596 0.96713883 -0.60460126 4 0 6462 2.33600000 2682918362 2682918362 -15.00000000
8.20487976 3.89070010 0.15850276 18 1 6463 9.08200000 2682918364 2682918364 1.00000000
8.19369507 3.88364482 -2.09339452 8 2 6464 9.30600000 2682918366 2682918366 -13.00000000
8.21067905 3.88994002 0.47615254 10 3 6465 9.09800000 2682918368 2682918368 3.00000000
2.90260935 1.37515748 -0.62432700 5 4 6465 3.27200000 2682918371 2682918371 -11.00000000
8.19853973 3.88243699 0.79364020 75 5 6466 9.10600000 2682918373 2682918373 5.00000000
3.68340659 1.74349856 -0.64544863 6 6 6467 4.12600000 2682918375 2682918375 -9.00000000
8.23087215 3.89423108 1.11802936 92 7 6468 9.17400000 2682918378 2682918378 7.00000000
4.96010637 2.34569073 -0.67369372 9 8 6469 5.52800000 2682918380 2682918380 -7.00000000
7.59061289 3.58806634 -0.73454863 13 10 6470 8.42800000 2682918385 2682918385 -5.00000000
8.19736576 3.87137675 -0.47510582 17 12 6472 9.07800000 2682918389 2682918389 -3.00000000
8.26675129 3.90238094 2.11049080 72 13 6473 9.38200000 2682918391 2682918391 13.00000000
8.19424915 3.86640739 -0.15815371 16 14 6474 9.06200000 2682918394 2682918394 -1.00000000
7.95992136 3.75584102 2.35835910 47 15 6474 9.11200000 2682918396 2682918396 15.00000000
2.05597568 0.96659231 -0.60874242 4 0 6482 2.35200000 2682918417 2682918417 -15.00000000
8.19488335 3.85097980 0.15804899 18 1 6483 9.05600000 2682918419 2682918419 1.00000000
8.17897987 3.84176373 -2.08619618 8 2 6484 9.27400000 2682918421 2682918421 -13.00000000
8.21878338 3.85870934 0.47583851 10 3 6485 9.09200000 2682918424 2682918424 3.00000000
2.92160916 1.37169194 -0.62737995 5 4 6485 3.28800000 2682918426 2682918426 -11.00000000
8.20302391 3.84956288 0.79276866 78 5 6486 9.09600000 2682918428 2682918428 5.00000000
3.67516303 1.72391927 -0.64294565 6 6 6487 4.11000000 2682918431 2682918431 -9.00000000
8.22823906 3.85789180 1.11583567 90 7 6488 9.15600000 2682918433 2682918433 7.00000000
4.98084641 2.33425927 -0.67539990 9 8 6489 5.54200000 2682918435 2682918435 -7.00000000
8.36103535 3.91659546 1.46234941 2 9 6490 9.34800000 2682918438 2682918438 9.00000000
7.60309124 3.56154823 -0.73454863 13 10 6490 8.42800000 2682918440 2682918440 -5.00000000
8.19816685 3.83681273 -0.47437310 17 12 6492 9.06400000 2682918444 2682918444 -3.00000000
8.27326202 3.87019801 2.10869122 70 13 6493 9.37400000 2682918447 2682918447 13.00000000
8.20226192 3.83523965 -0.15804899 18 14 6494 9.05600000 2682918449 2682918449 -1.00000000
7.98348284 3.73294234 2.36146498 45 15 6494 9.12400000 2682918451 2682918451 15.00000000
2.05916977 0.95976913 -0.60874242 4 0 6501 2.35200000 2682918472 2682918472 -15.00000000
8.19310760 3.81702757 0.15776975 15 1 6502 9.04000000 2682918474 2682918474 1.00000000
8.16870880 3.80392575 -2.08034730 8 2 6503 9.24800000 2682918477 2682918477 -13.00000000
8.21275997 3.82443881 0.47479180 13 3 6503 9.07200000 2682918479 2682918479 3.00000000
2.92436171 1.36116755 -0.62699836 5 4 6504 3.28600000 2682918481 2682918481 -11.00000000
8.20851898 3.81897759 0.79207140 75 5 6505 9.08800000 2682918484 2682918484 5.00000000
3.68085957 1.71172249 -0.64294565 6 6 6506 4.11000000 2682918486 2682918486 -9.00000000
8.21758556 3.81970716 1.11266708 92 7 6507 9.13000000 2682918488 2682918488 7.00000000
4.98135900 2.31438351 -0.67442495 9 8 6508 5.53400000 2682918490 2682918490 -7.00000000
7.61486006 3.53631592 -0.73454863 13 10 6509 8.42800000 2682918495 2682918495 -5.00000000
8.20178604 3.80540252 -0.47384974 17 12 6511 9.05400000 2682918500 2682918500 -3.00000000
8.25776482 3.82962370 2.10149264 75 13 6512 9.34200000 2682918502 2682918502 13.00000000
8.20223522 3.80213189 -0.15780465 16 14 6513 9.04200000 2682918504 2682918504 -1.00000000
8.00282860 3.70969748 2.36353540 45 15 6513 9.13200000 2682918507 2682918507 15.00000000
2.06776881 0.95500547 -0.61029530 4 0 6521 2.35800000 2682918527 2682918527 -15.00000000
8.19548798 3.78337622 0.15756032 12 1 6522 9.02800000 2682918530 2682918530 1.00000000
8.17132092 3.77048945 -2.07764792 10 2 6523 9.23600000 2682918532 2682918532 -13.00000000
8.20677185 3.78511047 0.47364041 13 3 6524 9.05000000 2682918534 2682918534 3.00000000
2.92018151 1.34684014 -0.62509024 5 4 6524 3.27600000 2682918537 2682918537 -11.00000000
8.21456146 3.78696489 0.79137415 75 5 6525 9.08000000 2682918539 2682918539 5.00000000
3.70116472 1.70547712 -0.64544863 6 6 6526 4.12600000 2682918541 2682918541 -9.00000000
8.22726250 3.78933835 1.11217964 92 7 6527 9.12600000 2682918543 2682918543 7.00000000
4.96776915 2.28701973 -0.67150009 9 8 6528 5.51000000 2682918546 2682918546 -7.00000000
7.62353754 3.50804782 -0.73420000 13 10 6529 8.42400000 2682918550 2682918550 -5.00000000
8.19505787 3.76757288 -0.47269836 17 12 6531 9.03200000 2682918555 2682918555 -3.00000000
8.25337505 3.79263830 2.09699368 80 13 6532 9.32200000 2682918557 2682918557 13.00000000
8.19546795 3.76429629 -0.15742071 14 14 6533 9.02000000 2682918560 2682918560 -1.00000000
8.01988316 3.68195295 2.36457086 45 15 6534 9.13600000 2682918562 2682918562 15.00000000
2.06774163 0.94581312 -0.60926002 4 0 6542 2.35400000 2682918583 2682918583 -15.00000000
8.20748138 3.75248122 0.15752542 12 1 6543 9.02600000 2682918585 2682918585 1.00000000
8.17622375 3.73646498 -2.07539845 8 2 6544 9.22600000 2682918587 2682918587 -13.00000000
8.20358562 3.74896908 0.47269836 13 3 6544 9.03200000 2682918590 2682918590 3.00000000
2.93402719 1.34020662 -0.62699836 5 4 6545 3.28600000 2682918592 2682918592 -11.00000000
8.20482540 3.74607396 0.78910810 78 5 6546 9.05400000 2682918594 2682918594 5.00000000
3.70379663 1.69025993 -0.64482284 6 6 6547 4.12200000 2682918596 2682918596 -9.00000000
8.22303486 3.75092006 1.10974228 97 7 6548 9.10600000 2682918599 2682918599 7.00000000
4.98153639 2.27126718 -0.67223132 9 8 6549 5.51600000 2682918601 2682918601 -7.00000000
8.30452538 3.78459024 1.44545448 2 9 6550 9.24000000 2682918603 2682918603 9.00000000
7.62184000 3.47347260 -0.73280549 13 10 6550 8.40800000 2682918606 2682918606 -5.00000000
8.19972324 3.73337293 -0.47217500 17 12 6552 9.02200000 2682918610 2682918610 -3.00000000
8.25480461 3.75671244 2.09384441 69 13 6553 9.30800000 2682918613 2682918613 13.00000000
8.19100761 3.72595334 -0.15707166 16 14 6554 9.00000000 2682918615 2682918615 -1.00000000
8.02565289 3.65073609 2.36250019 47 15 6554 9.12800000 2682918617 2682918617 15.00000000
2.05871344 0.93300748 -0.60563654 4 0 6562 2.34000000 2682918638 2682918638 -15.00000000
8.19320679 3.71143198 0.15700185 12 1 6563 8.99600000 2682918640 2682918640 1.00000000
8.18921661 3.70790172 -2.07539845 8 2 6564 9.22600000 2682918642 2682918642 -13.00000000
8.21662140 3.72031045 0.47269836 13 3 6564 9.03200000 2682918645 2682918645 3.00000000
2.93332171 1.32752836 -0.62585348 5 4 6565 3.28000000 2682918647 2682918647 -11.00000000
8.19969845 3.70919943 0.78736496 78 5 6566 9.03400000 2682918649 2682918649 5.00000000
3.70607424 1.67569327 -0.64419711 6 6 6567 4.11800000 2682918652 2682918652 -9.00000000
8.23246002 3.72055840 1.10925472 95 7 6568 9.10200000 2682918654 2682918654 7.00000000
5.00028896 2.25876784 -0.67369372 9 8 6569 5.52800000 2682918656 2682918656 -7.00000000
7.64118195 3.45012593 -0.73350275 13 10 6570 8.41600000 2682918661 2682918661 -5.00000000
8.21088409 3.70390654 -0.47207034 17 12 6572 9.02000000 2682918666 2682918666 -3.00000000
8.25187874 3.72066569 2.08979535 72 13 6573 9.29000000 2682918668 2682918668 13.00000000
8.20031738 3.69569540 -0.15700185 14 14 6574 8.99600000 2682918670 2682918670 -1.00000000
8.03482437 3.62111163 2.36146498 45 15 6574 9.12400000 2682918672 2682918672 15.00000000
2.06515861 0.92811912 -0.60667187 4 0 6580 2.34400000 2682918693 2682918693 -15.00000000
8.18658543 3.67747998 0.15665279 12 1 6581 8.97600000 2682918695 2682918695 1.00000000
8.18126869 3.67337608 -2.07044959 8 2 6582 9.20400000 2682918698 2682918698 -13.00000000
8.22344685 3.69058943 0.47238433 13 3 6583 9.02600000 2682918700 2682918700 3.00000000
2.94643354 1.32232583 -0.62776160 6 4 6583 3.29000000 2682918702 2682918702 -11.00000000
8.20040321 3.67852831 0.78631914 82 5 6584 9.02200000 2682918705 2682918705 5.00000000
3.70591283 1.66161752 -0.64325851 6 6 6585 4.11200000 2682918707 2682918707 -9.00000000
8.21512413 3.68168759 1.10535491 97 7 6586 9.07000000 2682918709 2682918709 7.00000000
5.01822996 2.24791694 -0.67515618 6 8 6587 5.54000000 2682918712 2682918712 -7.00000000
7.65198326 3.42610335 -0.73350275 13 10 6588 8.41600000 2682918716 2682918716 -5.00000000
8.20060253 3.66830659 -0.47081426 12 12 6590 8.99600000 2682918721 2682918721 -3.00000000
8.25641060 3.69154167 2.08799577 70 13 6591 9.28200000 2682918723 2682918723 13.00000000
8.20093346 3.66501975 -0.15679242 14 14 6592 8.98400000 2682918725 2682918725 -1.00000000
7.11369991 3.17764282 2.08763433 38 15 6593 8.06600000 2682918728 2682918728 15.00000000
2.07191539 0.92247617 -0.60770714 4 0 6600 2.34800000 2682918748 2682918748 -15.00000000
8.19206429 3.64562893 0.15651318 12 1 6601 8.96800000 2682918751 2682918751 1.00000000
8.16911411 3.63370776 -2.06415081 8 2 6602 9.17600000 2682918753 2682918753 -13.00000000
8.21009159 3.65193510 0.47091892 13 3 6602 8.99800000 2682918755 2682918755 3.00000000
2.95103121 1.31203270 -0.62776160 5 4 6603 3.29000000 2682918758 2682918758 -11.00000000
8.20955276 3.64826298 0.78597051 82 5 6604 9.01800000 2682918760 2682918760 5.00000000
3.70627451 1.64626575 -0.64231992 6 6 6605 4.10600000 2682918762 2682918762 -9.00000000
8.20615387 3.64332294 1.10243011 97 7 6606 9.04600000 2682918765 2682918765 7.00000000
5.01153040 2.22394466 -0.67320627 9 8 6607 5.52400000 2682918767 2682918767 -7.00000000
7.66571712 3.40018010 -0.73367703 13 10 6608 8.41800000 2682918772 2682918772 -5.00000000
8.19692326 3.63237619 -0.46987221 17 12 6610 8.97800000 2682918776 2682918776 -3.00000000
8.24786472 3.65322852 2.08259678 68 13 6611 9.25800000 2682918778 2682918778 13.00000000
8.19904804 3.62989450 -0.15651318 18 14 6612 8.96800000 2682918781 2682918781 -1.00000000
7.12121534 3.15122843 2.08659911 47 15 6613 8.06200000 2682918783 2682918783 15.00000000
2.08251357 0.91762972 -0.60977769 4 0 6622 2.35600000 2682918804 2682918804 -15.00000000
8.19868183 3.61092281 0.15637356 12 1 6623 8.96000000 2682918806 2682918806 1.00000000
8.17587185 3.59917307 -2.06235123 8 2 6624 9.16800000 2682918808 2682918808 -13.00000000
8.20211792 3.61072707 0.46966287 13 3 6624 8.97400000 2682918811 2682918811 3.00000000
2.94526529 1.29594779 -0.62547189 5 4 6625 3.27800000 2682918813 2682918813 -11.00000000
8.21985245 3.61510944 0.78562188 93 5 6626 9.01400000 2682918815 2682918815 5.00000000
3.71437669 1.63281751 -0.64263278 6 6 6627 4.10800000 2682918818 2682918818 -9.00000000
8.21281338 3.60859275 1.10145509 97 7 6628 9.03800000 2682918820 2682918820 7.00000000
5.01094532 2.20069432 -0.67198753 9 8 6629 5.51400000 2682918822 2682918822 -7.00000000
7.68418932 3.37312317 -0.73420000 13 10 6630 8.42400000 2682918827 2682918827 -5.00000000
8.19617748 3.59445834 -0.46903485 17 12 6632 8.96200000 2682918831 2682918831 -3.00000000
8.24755287 3.61527324 2.07899761 64 13 6633 9.24200000 2682918834 2682918834 13.00000000
8.18911457 3.58795333 -0.15605941 20 14 6634 8.94200000 2682918836 2682918836 -1.00000000
7.13857126 3.12618661 2.08815217 45 15 6635 8.06800000 2682918838 2682918838 15.00000000
2.07508087 0.90571803 -0.60667187 4 0 6642 2.34400000 2682918859 2682918859 -15.00000000
8.20023918 3.57748437 0.15616414 12 1 6643 8.94800000 2682918861 2682918861 1.00000000
8.18124008 3.56749630 -2.06055164 8 2 6644 9.16000000 2682918864 2682918864 -13.00000000
8.20917988 3.57967949 0.46934885 15 3 6644 8.96800000 2682918866 2682918866 3.00000000
2.94797134 1.28487456 -0.62509024 5 4 6645 3.27600000 2682918868 2682918868 -11.00000000
8.20136929 3.57286716 0.78265858 78 5 6646 8.98000000 2682918871 2682918871 5.00000000
3.72548699 1.62220788 -0.64357138 6 6 6647 4.11400000 2682918873 2682918873 -9.00000000
8.21079826 3.57356501 1.09950519 92 7 6648 9.02200000 2682918875 2682918875 7.00000000
5.03133869 2.18873262 -0.67369372 9 8 6649 5.52800000 2682918878 2682918878 -7.00000000
7.68678141 3.34230757 -0.73332840 13 10 6650 8.41400000 2682918882 2682918882 -5.00000000
8.20134640 3.56264353 -0.46861616 17 12 6652 8.95400000 2682918887 2682918887 -3.00000000
8.25297260 3.58335757 2.07719803 60 13 6653 9.23400000 2682918889 2682918889 13.00000000
8.19241714 3.55536580 -0.15588489 18 14 6654 8.93200000 2682918891 2682918891 -1.00000000
7.14057875 3.09740543 2.08556390 42 15 6655 8.05800000 2682918894 2682918894 15.00000000
2.07968879 0.89996171 -0.60718948 4 0 6660 2.34600000 2682918914 2682918914 -15.00000000
8.18574238 3.54059100 0.15567547 18 1 6661 8.92000000 2682918917 2682918917 1.00000000
8.18883038 3.54023004 -2.05965185 8 2 6662 9.15600000 2682918919 2682918919 -13.00000000
8.21121883 3.54990911 0.46882549 13 3 6662 8.95800000 2682918921 2682918921 3.00000000
2.95379567 1.27638566 -0.62547189 5 4 6663 3.27800000 2682918924 2682918924 -11.00000000
8.18877602 3.53681445 0.78039253 78 5 6664 8.95400000 2682918926 2682918926 5.00000000
3.72693777 1.60892999 -0.64294565 6 6 6665 4.11000000 2682918928 2682918928 -9.00000000
8.22016144 3.54696608 1.09926152 99 7 6666 9.02000000 2682918930 2682918930 7.00000000
5.03454447 2.17134309 -0.67320627 9 8 6667 5.52400000 2682918933 2682918933 -7.00000000
7.70090246 3.31971979 -0.73367703 13 10 6668 8.41800000 2682918937 2682918937 -5.00000000
8.20699501 3.53449059 -0.46830213 17 12 6670 8.94800000 2682918942 2682918942 -3.00000000
8.26060963 3.55587125 2.07629824 62 13 6671 9.23000000 2682918944 2682918944 13.00000000
8.18517685 3.52170777 -0.15553585 18 14 6672 8.91200000 2682918947 2682918947 -1.00000000
7.14796305 3.07544184 2.08504629 45 15 6672 8.05600000 2682918949 2682918949 15.00000000
2.08281755 0.89269680 -0.60718948 4 0 6680 2.34600000 2682918970 2682918970 -15.00000000
8.18886089 3.50805855 0.15550095 21 1 6681 8.91000000 2682918972 2682918972 1.00000000
8.17784977 3.50165224 -2.05380321 8 2 6682 9.13000000 2682918974 2682918974 -13.00000000
8.20703602 3.51414943 0.46788344 10 3 6682 8.94000000 2682918977 2682918977 3.00000000
2.96364784 1.26838458 -0.62661672 6 4 6683 3.28400000 2682918979 2682918979 -11.00000000
8.18641663 3.50193977 0.77899802 75 5 6684 8.93800000 2682918981 2682918981 5.00000000
3.72163343 1.59125113 -0.64106846 6 6 6685 4.09800000 2682918983 2682918983 -9.00000000
8.21971512 3.51278996 1.09755528 92 7 6686 9.00600000 2682918986 2682918986 7.00000000
5.04939556 2.15687513 -0.67418122 6 8 6687 5.53200000 2682918988 2682918988 -7.00000000
7.71061134 3.29203606 -0.73350275 13 10 6688 8.41600000 2682918993 2682918993 -5.00000000
8.18805218 3.49250007 -0.46652272 17 12 6690 8.91400000 2682918997 2682918997 -3.00000000
8.26580048 3.52395773 2.07449865 60 13 6691 9.22200000 2682919000 2682919000 13.00000000
8.19925976 3.49389863 -0.15557075 20 14 6692 8.91400000 2682919002 2682919002 -1.00000000
7.15207767 3.04619455 2.08297563 42 15 6693 8.04800000 2682919004 2682919004 15.00000000
2.09674597 0.88958400 -0.61029530 4 0 6701 2.35800000 2682919025 2682919025 -15.00000000
8.18877697 3.47255659 0.15525661 15 1 6702 8.89600000 2682919027 2682919027 1.00000000
8.17268658 3.46405053 -2.04930401 8 2 6703 9.11000000 2682919030 2682919030 -13.00000000
8.20943451 3.47793627 0.46725541 10 3 6704 8.92800000 2682919032 2682919032 3.00000000
2.96827674 1.25751376 -0.62661672 6 4 6704 3.28400000 2682919034 2682919034 -11.00000000
8.19002342 3.46802711 0.77812648 75 5 6705 8.92800000 2682919036 2682919036 5.00000000
3.72016406 1.57452023 -0.63981694 6 6 6706 4.09000000 2682919039 2682919039 -9.00000000
8.20876789 3.47258544 1.09438670 90 7 6707 8.98000000 2682919041 2682919041 7.00000000
5.04995346 2.13526130 -0.67320627 6 8 6708 5.52400000 2682919043 2682919043 -7.00000000
7.71528482 3.26065087 -0.73280549 13 10 6709 8.40800000 2682919048 2682919048 -5.00000000
8.18423748 3.45547414 -0.46558067 17 12 6711 8.89600000 2682919053 2682919053 -3.00000000
8.26429749 3.48757696 2.07089949 66 13 6712 9.20600000 2682919055 2682919055 13.00000000
8.19911289 3.45838308 -0.15532641 18 14 6713 8.90000000 2682919057 2682919057 -1.00000000
7.17334747 3.02571535 2.08608150 42 15 6713 8.06000000 2682919060 2682919060 15.00000000
2.09983850 0.88225961 -0.61029530 4 0 6721 2.35800000 2682919080 2682919080 -15.00000000
8.19716072 3.44240260 0.15518680 15 1 6722 8.89200000 2682919083 2682919083 1.00000000
2.47428560 1.03856981 -0.61951518 4 2 6723 2.75400000 2682919085 2682919085 -13.00000000
8.18837357 3.43535042 0.46537131 10 3 6724 8.89200000 2682919087 2682919087 3.00000000
2.97083783 1.24638534 -0.62623513 6 4 6724 3.28200000 2682919089 2682919089 -11.00000000
8.21126652 3.44326973 0.77899802 82 5 6725 8.93800000 2682919092 2682919092 5.00000000
3.74021196 1.56763351 -0.64231992 6 6 6726 4.10600000 2682919094 2682919094 -9.00000000
8.20802307 3.43854117 1.09268057 92 7 6727 8.96600000 2682919096 2682919096 7.00000000
5.04638958 2.11302066 -0.67174381 6 8 6728 5.51200000 2682919099 2682919099 -7.00000000
7.72661924 3.23369956 -0.73280549 13 10 6729 8.40800000 2682919103 2682919103 -5.00000000
8.18335056 3.42149186 -0.46484795 17 12 6731 8.88200000 2682919108 2682919108 -3.00000000
8.25844097 3.45119405 2.06640029 66 13 6732 9.18600000 2682919110 2682919110 13.00000000
8.18714809 3.41972232 -0.15487266 18 14 6733 8.87400000 2682919113 2682919113 -1.00000000
7.18438864 2.99940348 2.08608150 42 15 6734 8.06000000 2682919115 2682919115 15.00000000
2.07971811 0.86527723 -0.60356599 4 0 6741 2.33200000 2682919136 2682919136 -15.00000000
8.19435596 3.40762568 0.15490755 12 1 6742 8.87600000 2682919138 2682919138 1.00000000
2.48869276 1.03441429 -0.62221462 4 2 6743 2.76600000 2682919140 2682919140 -13.00000000
8.19662666 3.40521431 0.46516198 13 3 6744 8.88800000 2682919142 2682919142 3.00000000
2.96791816 1.23299479 -0.62470865 6 4 6744 3.27400000 2682919145 2682919145 -11.00000000
8.20115471 3.40541744 0.77690631 82 5 6745 8.91400000 2682919147 2682919147 5.00000000
3.75113487 1.55683982 -0.64325851 6 6 6746 4.11200000 2682919149 2682919149 -9.00000000
8.21997547 3.40986896 1.09268057 90 7 6747 8.96600000 2682919152 2682919152 7.00000000
5.05190086 2.09463215 -0.67150009 6 8 6748 5.51000000 2682919154 2682919154 -7.00000000
7.75810671 3.21509933 -0.73472291 13 10 6749 8.43000000 2682919159 2682919159 -5.00000000
8.18786335 3.38984966 -0.46442929 17 12 6751 8.87400000 2682919163 2682919163 -3.00000000
8.25963306 3.41787481 2.06370091 68 13 6752 9.17400000 2682919166 2682919166 13.00000000
8.18055630 3.38348031 -0.15452361 16 14 6753 8.85400000 2682919168 2682919168 -1.00000000
7.19072533 2.97408581 2.08504629 45 15 6753 8.05600000 2682919170 2682919170 15.00000000
2.08629823 0.85948414 -0.60460126 4 0 6761 2.33600000 2682919191 2682919191 -15.00000000
8.19880486 3.37595558 0.15476795 12 1 6762 8.86800000 2682919193 2682919193 1.00000000
2.48147583 1.02127087 -0.61951518 4 2 6763 2.75400000 2682919195 2682919195 -13.00000000
8.20107460 3.37354279 0.46474329 13 3 6764 8.88000000 2682919198 2682919198 3.00000000
2.97583532 1.22412109 -0.62547189 6 4 6764 3.27800000 2682919200 2682919200 -11.00000000
8.19272232 3.36843538 0.77498889 78 5 6765 8.89200000 2682919202 2682919202 5.00000000
3.74741077 1.53998232 -0.64169419 6 6 6766 4.10200000 2682919205 2682919205 -9.00000000
8.21713829 3.37512136 1.09073067 90 7 6767 8.95000000 2682919207 2682919207 7.00000000
5.07570934 2.08377004 -0.67369372 6 8 6768 5.52800000 2682919209 2682919209 -7.00000000
7.75822258 3.18346095 -0.73367703 13 10 6769 8.41800000 2682919214 2682919214 -5.00000000
8.18855762 3.35670280 -0.46380123 17 12 6771 8.86200000 2682919218 2682919218 -3.00000000
8.26790714 3.38754487 2.06280112 68 13 6772 9.17000000 2682919221 2682919221 13.00000000
8.18121338 3.35035706 -0.15431418 16 14 6773 8.84200000 2682919223 2682919223 -1.00000000
7.20157766 2.94771051 2.08504629 40 15 6774 8.05600000 2682919225 2682919225 15.00000000
2.08913684 0.85256100 -0.60460126 4 0 6780 2.33600000 2682919246 2682919246 -15.00000000
8.17847729 3.33590984 0.15417455 12 1 6781 8.83400000 2682919248 2682919248 1.00000000
2.48845792 1.01450777 -0.62041503 4 2 6782 2.75800000 2682919251 2682919251 -13.00000000
8.20851707 3.34482121 0.46453395 13 3 6783 8.87600000 2682919253 2682919253 3.00000000
2.97806025 1.21350527 -0.62509024 8 4 6783 3.27600000 2682919255 2682919255 -11.00000000
8.18908596 3.33523679 0.77359438 75 5 6784 8.87600000 2682919258 2682919258 5.00000000
3.74517846 1.52456784 -0.64044273 6 6 6785 4.09400000 2682919260 2682919260 -9.00000000
8.21357536 3.34186864 1.08878076 90 7 6786 8.93400000 2682919262 2682919262 7.00000000
5.08626890 2.06842256 -0.67418122 6 8 6787 5.53200000 2682919265 2682919265 -7.00000000
7.76689100 3.15696597 -0.73350275 13 10 6788 8.41600000 2682919269 2682919269 -5.00000000
8.19039154 3.32577300 -0.46327788 17 12 6790 8.85200000 2682919274 2682919274 -3.00000000
8.28270626 3.36157465 2.06370091 66 13 6791 9.17400000 2682919276 2682919276 13.00000000
8.17930794 3.31794691 -0.15406984 16 14 6792 8.82800000 2682919278 2682919278 -1.00000000
7.21080256 2.92507172 2.08504629 40 15 6792 8.05600000 2682919281 2682919281 15.00000000
2.09568262 0.84671068 -0.60563654 4 0 6800 2.34000000 2682919301 2682919301 -15.00000000
8.18450928 3.30509496 0.15406984 12 1 6801 8.82800000 2682919304 2682919304 1.00000000
2.47752738 0.99998021 -0.61681581 4 2 6802 2.74200000 2682919306 2682919306 -13.00000000
8.20532513 3.31016994 0.46369657 10 3 6803 8.86000000 2682919308 2682919308 3.00000000
2.99320221 1.20750952 -0.62737995 6 4 6803 3.28800000 2682919311 2682919311 -11.00000000
8.19513416 3.30439591 0.77307147 75 5 6804 8.87000000 2682919313 2682919313 5.00000000
3.74681306 1.51000869 -0.63981694 6 6 6805 4.09000000 2682919315 2682919315 -9.00000000
8.19941235 3.30279374 1.08536839 92 7 6806 8.90600000 2682919318 2682919318 7.00000000
5.08977509 2.04917288 -0.67369372 6 8 6807 5.52800000 2682919320 2682919320 -7.00000000
7.78895378 3.13429785 -0.73454863 13 10 6808 8.42800000 2682919324 2682919324 -5.00000000
8.18527222 3.29045844 -0.46233582 17 12 6810 8.83400000 2682919329 2682919329 -3.00000000
8.26907539 3.32247043 2.05740237 64 13 6811 9.14600000 2682919331 2682919331 13.00000000
8.19083977 3.28937578 -0.15406984 18 14 6812 8.82800000 2682919334 2682919334 -1.00000000
7.22147512 2.89862299 2.08504629 42 15 6813 8.05600000 2682919336 2682919336 15.00000000
2.10924029 0.84406298 -0.60874242 4 0 6819 2.35200000 2682919357 2682919357 -15.00000000
8.19542408 3.27793598 0.15406984 12 1 6820 8.82800000 2682919359 2682919359 1.00000000
2.48806787 0.99465245 -0.61861539 4 2 6821 2.75000000 2682919361 2682919361 -13.00000000
8.19214630 3.27330804 0.46233582 10 3 6822 8.83400000 2682919364 2682919364 3.00000000
2.98078203 1.19102097 -0.62394542 6 4 6822 3.27000000 2682919366 2682919366 -11.00000000
8.20234680 3.27572370 0.77272284 78 5 6823 8.86600000 2682919368 2682919368 5.00000000
3.76647687 1.50343394 -0.64231992 6 6 6824 4.10600000 2682919371 2682919371 -9.00000000
8.20294476 3.27264309 1.08439338 95 7 6825 8.89800000 2682919373 2682919373 7.00000000
5.07810354 2.02493048 -0.67125636 6 8 6826 5.50800000 2682919375 2682919375 -7.00000000
7.80485678 3.11066461 -0.73507154 13 10 6827 8.43400000 2682919380 2682919380 -5.00000000
8.18315029 3.25812531 -0.46160313 12 12 6829 8.82000000 2682919384 2682919384 -3.00000000
8.26194096 3.28782558 2.05290341 62 13 6830 9.12600000 2682919387 2682919387 13.00000000
8.18497944 3.25554419 -0.15375569 16 14 6831 8.81000000 2682919389 2682919389 -1.00000000
7.23054552 2.87592196 2.08504629 42 15 6831 8.05600000 2682919391 2682919391 15.00000000
2.10858154 0.83527225 -0.60770714 4 0 6839 2.34800000 2682919412 2682919412 -15.00000000
8.19566154 3.24489188 0.15386042 15 1 6840 8.81600000 2682919414 2682919414 1.00000000
2.49877262 0.98882967 -0.62041503 4 2 6841 2.75800000 2682919417 2682919417 -13.00000000
8.19980717 3.24322295 0.46212649 10 3 6842 8.83000000 2682919419 2682919419 3.00000000
2.98492122 1.18060887 -0.62394542 5 4 6842 3.27000000 2682919421 2682919421 -11.00000000
8.19520283 3.23974752 0.77097970 78 5 6843 8.84600000 2682919424 2682919424 5.00000000
3.76619029 1.48809958 -0.64138132 6 6 6844 4.10000000 2682919426 2682919426 -9.00000000
8.20324039 3.23961473 1.08293104 95 7 6845 8.88600000 2682919428 2682919428 7.00000000
5.08698750 2.00792122 -0.67150009 6 8 6846 5.51000000 2682919430 2682919430 -7.00000000
7.80825424 3.08047676 -0.73437428 13 10 6847 8.42600000 2682919435 2682919435 -5.00000000
8.18889809 3.22734404 -0.46128911 17 12 6849 8.81400000 2682919440 2682919440 -3.00000000
8.26974106 3.25753760 2.05200362 60 13 6850 9.12200000 2682919442 2682919442 13.00000000
8.17024422 3.21669769 -0.15326703 18 14 6851 8.78200000 2682919444 2682919444 -1.00000000
7.23744249 2.84798646 2.08401084 40 15 6852 8.05200000 2682919447 2682919447 15.00000000
2.10069323 0.82367563 -0.60460126 4 0 6859 2.33600000 2682919467 2682919467 -15.00000000
8.17901039 3.20531917 0.15333684 15 1 6860 8.78600000 2682919470 2682919470 1.00000000
2.49858022 0.97867984 -0.61951518 4 2 6861 2.75400000 2682919472 2682919472 -13.00000000
8.19620037 3.20875573 0.46128911 10 3 6862 8.81400000 2682919474 2682919474 3.00000000
2.99816489 1.17376089 -0.62585348 5 4 6862 3.28000000 2682919477 2682919477 -11.00000000
8.18605137 3.20313525 0.76906228 86 5 6863 8.82400000 2682919479 2682919479 5.00000000
3.78607941 1.48070002 -0.64388424 6 6 6864 4.11600000 2682919481 2682919481 -9.00000000
8.20710373 3.20806956 1.08195603 92 7 6865 8.87800000 2682919483 2682919483 7.00000000
5.10690832 1.99520874 -0.67320627 6 8 6866 5.52400000 2682919486 2682919486 -7.00000000
7.80411196 3.04740453 -0.73297977 13 10 6867 8.41000000 2682919490 2682919490 -5.00000000
8.20011425 3.19873977 -0.46128911 17 12 6869 8.81400000 2682919495 2682919495 -3.00000000
8.28832436 3.23148251 2.05380321 62 13 6870 9.13000000 2682919497 2682919497 13.00000000
8.18328571 3.18888474 -0.15330194 14 14 6871 8.78400000 2682919500 2682919500 -1.00000000
7.23964691 2.82116485 2.08194041 42 15 6871 8.04400000 2682919502 2682919502 15.00000000
2.10715747 0.81773567 -0.60563654 4 0 6879 2.34000000 2682919523 2682919523 -15.00000000
8.17523479 3.17096448 0.15305761 15 1 6880 8.77000000 2682919525 2682919525 1.00000000
2.50198126 0.96995217 -0.61951518 4 2 6881 2.75400000 2682919527 2682919527 -13.00000000
8.19990158 3.17723966 0.46087044 13 3 6882 8.80600000 2682919530 2682919530 3.00000000
3.00224376 1.16328812 -0.62585348 6 4 6882 3.28000000 2682919532 2682919532 -11.00000000
8.19532490 3.17382145 0.76888794 82 5 6883 8.82200000 2682919534 2682919534 5.00000000
3.76727653 1.45820534 -0.63981694 6 6 6884 4.09000000 2682919536 2682919536 -9.00000000
8.20344067 3.17367172 1.08000612 97 7 6885 8.86200000 2682919539 2682919539 7.00000000
5.11754465 1.97880197 -0.67369372 6 8 6886 5.52800000 2682919541 2682919541 -7.00000000
7.82027721 3.02229929 -0.73350275 13 10 6887 8.41600000 2682919546 2682919546 -5.00000000
8.18887138 3.16146445 -0.46003306 17 12 6889 8.79000000 2682919550 2682919550 -3.00000000
8.30682564 3.20533729 2.05560279 57 13 6890 9.13800000 2682919553 2682919553 13.00000000
8.19250202 3.15958071 -0.15326703 16 14 6891 8.78200000 2682919555 2682919555 -1.00000000
7.24584579 2.79448628 2.08090520 45 15 6891 8.04000000 2682919557 2682919557 15.00000000
2.11707091 0.81351537 -0.60770714 4 0 6898 2.34800000 2682919578 2682919578 -15.00000000
8.17263794 3.13881826 0.15281327 15 1 6899 8.75600000 2682919580 2682919580 1.00000000
2.49790668 0.95885652 -0.61771560 4 2 6900 2.74600000 2682919583 2682919583 -13.00000000
8.20293331 3.14716864 0.46045175 13 3 6901 8.79800000 2682919585 2682919585 3.00000000
3.00791788 1.15402925 -0.62623513 5 4 6901 3.28200000 2682919587 2682919587 -11.00000000
8.20022392 3.14448714 0.76836503 86 5 6902 8.81600000 2682919589 2682919589 5.00000000
3.77578044 1.44711840 -0.64044273 4 6 6903 4.09400000 2682919592 2682919592 -9.00000000
8.19538212 3.13934970 1.07756877 95 7 6904 8.84200000 2682919594 2682919594 7.00000000
5.09812450 1.95188379 -0.67028141 6 8 6905 5.50000000 2682919596 2682919596 -7.00000000
8.30764484 3.17902827 1.40884876 2 9 6906 9.00600000 2682919599 2682919599 9.00000000
7.83211756 2.99706173 -0.73367703 13 10 6906 8.41800000 2682919601 2682919601 -5.00000000
8.18251991 3.12787366 -0.45909101 17 12 6908 8.77200000 2682919606 2682919606 -3.00000000
8.31194782 3.17568684 2.05425310 54 13 6909 9.13200000 2682919608 2682919608 13.00000000
8.18425274 3.12526226 -0.15291798 16 14 6910 8.76200000 2682919610 2682919610 -1.00000000
7.26229191 2.77319956 2.08297563 40 15 6910 8.04800000 2682919612 2682919612 15.00000000
2.11628628 0.80474716 -0.60667187 4 0 6918 2.34400000 2682919633 2682919633 -15.00000000
8.17980576 3.10885048 0.15274346 15 1 6919 8.75200000 2682919636 2682919636 1.00000000
2.50488186 0.95151538 -0.61861539 4 2 6920 2.75000000 2682919638 2682919638 -13.00000000
8.18959522 3.10929990 0.45909101 13 3 6921 8.77200000 2682919640 2682919640 3.00000000
3.00642157 1.14143205 -0.62509024 5 4 6921 3.27600000 2682919642 2682919642 -11.00000000
8.20183659 3.11230969 0.76749349 82 5 6922 8.80600000 2682919645 2682919645 5.00000000
3.78080869 1.43392968 -0.64044273 4 6 6923 4.09400000 2682919647 2682919647 -9.00000000
8.19515324 3.10650158 1.07610631 97 7 6924 8.83000000 2682919649 2682919649 7.00000000
5.10490656 1.93407619 -0.67028141 9 8 6925 5.50000000 2682919652 2682919652 -7.00000000
7.85557413 2.97464323 -0.73489720 13 10 6926 8.43200000 2682919656 2682919656 -5.00000000
8.19151974 3.09858561 -0.45898634 17 12 6928 8.77000000 2682919661 2682919661 -3.00000000
8.31933689 3.14527488 2.05335331 54 13 6929 9.12800000 2682919663 2682919663 13.00000000
8.17453575 3.08889961 -0.15253404 14 14 6930 8.74000000 2682919665 2682919665 -1.00000000
7.27240705 2.74656320 2.08297563 40 15 6931 8.04800000 2682919668 2682919668 15.00000000
2.11198878 0.79426509 -0.60460126 4 0 6939 2.33600000 2682919689 2682919689 -15.00000000
8.18552971 3.07673836 0.15263875 21 1 6940 8.74600000 2682919691 2682919691 1.00000000
2.51747394 0.94575477 -0.62086493 4 2 6941 2.76000000 2682919693 2682919693 -13.00000000
8.19345760 3.07645440 0.45867231 10 3 6942 8.76400000 2682919695 2682919695 3.00000000
2.99955726 1.12626457 -0.62280059 5 4 6942 3.26400000 2682919698 2682919698 -11.00000000
8.19080448 3.07382727 0.76540172 82 5 6943 8.78200000 2682919700 2682919700 5.00000000
3.79713631 1.42422509 -0.64231992 4 6 6944 4.10600000 2682919702 2682919702 -9.00000000
8.19533157 3.07226324 1.07464385 95 7 6945 8.81800000 2682919705 2682919705 7.00000000
5.12311459 1.91953170 -0.67174381 6 8 6946 5.51200000 2682919707 2682919707 -7.00000000
7.85896063 2.94303608 -0.73420000 13 10 6947 8.42400000 2682919712 2682919712 -5.00000000
8.18411541 3.06154346 -0.45793962 17 12 6949 8.75000000 2682919716 2682919716 -3.00000000
8.33811092 3.11749172 2.05515289 53 13 6950 9.13600000 2682919718 2682919718 13.00000000
8.16707039 3.05191779 -0.15218498 14 14 6951 8.72000000 2682919721 2682919721 -1.00000000
7.27471161 2.71845627 2.08090520 42 15 6951 8.04000000 2682919723 2682919723 15.00000000
2.11112714 0.78554064 -0.60356599 4 0 6959 2.33200000 2682919744 2682919744 -15.00000000
8.18497372 3.04396462 0.15242931 12 1 6960 8.73400000 2682919746 2682919746 1.00000000
2.52441311 0.93831933 -0.62176472 6 2 6961 2.76400000 2682919748 2682919748 -13.00000000
8.19665718 3.04505301 0.45825362 13 3 6962 8.75600000 2682919751 2682919751 3.00000000
3.01635289 1.12057316 -0.62547189 5 4 6962 3.27800000 2682919753 2682919753 -11.00000000
8.18467331 3.03897548 0.76383293 86 5 6963 8.76400000 2682919755 2682919755 5.00000000
3.77986097 1.40271473 -0.63856548 6 6 6964 4.08200000 2682919758 2682919758 -9.00000000
8.20600605 3.04363751 1.07464385 92 7 6965 8.81800000 2682919760 2682919760 7.00000000
5.12606096 1.90025699 -0.67125636 6 8 6966 5.50800000 2682919762 2682919762 -7.00000000
8.24469757 3.05471492 1.39257956 5 9 6967 8.90200000 2682919765 2682919765 9.00000000
7.84863520 2.90797091 -0.73228258 13 10 6967 8.40200000 2682919767 2682919767 -5.00000000
8.21856594 3.04340172 1.70354271 15 11 6968 8.92800000 2682919769 2682919769 11.00000000
8.19662571 3.03365016 -0.45804429 12 12 6969 8.75200000 2682919771 2682919771 -3.00000000
8.24476242 3.04983044 2.02950835 55 13 6970 9.02200000 2682919774 2682919774 13.00000000
8.17204666 3.02131057 -0.15208027 12 14 6971 8.71400000 2682919776 2682919776 -1.00000000
7.28053236 2.69170642 2.07986975 45 15 6971 8.03600000 2682919778 2682919778 15.00000000
2.11734605 0.77987093 -0.60460126 4 0 6978 2.33600000 2682919799 2682919799 -15.00000000
8.17625713 3.00989723 0.15208027 12 1 6979 8.71400000 2682919801 2682919801 1.00000000
2.52019525 0.92725134 -0.61996508 10 2 6980 2.75600000 2682919804 2682919804 -13.00000000
8.20055962 3.01721859 0.45793962 10 3 6980 8.75000000 2682919806 2682919806 3.00000000
3.02558017 1.11259723 -0.62661672 5 4 6981 3.28400000 2682919808 2682919808 -11.00000000
8.17787552 3.00563169 0.76226413 78 5 6982 8.74600000 2682919811 2682919811 5.00000000
3.79190874 1.39289701 -0.63981694 4 6 6983 4.09000000 2682919813 2682919813 -9.00000000
8.20114613 3.01093531 1.07269394 92 7 6984 8.80200000 2682919815 2682919815 7.00000000
5.13606167 1.88461554 -0.67174381 6 8 6985 5.51200000 2682919817 2682919817 -7.00000000
7.88068151 2.89016008 -0.73437428 13 10 6986 8.42600000 2682919822 2682919822 -5.00000000
8.20649338 3.00802350 1.69896328 68 11 6987 8.90400000 2682919824 2682919824 11.00000000
8.16725731 2.99202490 -0.45584619 12 12 6988 8.71000000 2682919827 2682919827 -3.00000000
8.21274281 3.00706244 2.01916075 84 13 6989 8.97600000 2682919829 2682919829 13.00000000
8.18577671 2.99556899 -0.15215008 8 14 6990 8.71800000 2682919831 2682919831 -1.00000000
7.28578997 2.66622066 2.07883453 42 15 6990 8.03200000 2682919834 2682919834 15.00000000
2.12913108 0.77578211 -0.60718948 4 0 6998 2.34600000 2682919854 2682919854 -15.00000000
8.17731953 2.97791719 0.15190575 12 1 6999 8.70400000 2682919857 2682919857 1.00000000
2.50510454 0.91178346 -0.61546606 11 2 7000 2.73600000 2682919859 2682919859 -13.00000000
8.18716335 2.97826576 0.45657888 13 3 7001 8.72400000 2682919861 2682919861 3.00000000
3.02944541 1.10202920 -0.62661672 5 4 7001 3.28400000 2682919864 2682919864 -11.00000000
8.17708206 2.97298265 0.76121825 78 5 7002 8.73400000 2682919866 2682919866 5.00000000
3.79674768 1.37965226 -0.63981694 4 6 7003 4.09000000 2682919868 2682919868 -9.00000000
8.19668007 2.97686863 1.07074404 90 7 7004 8.78600000 2682919870 2682919870 7.00000000
5.14260864 1.86667585 -0.67174381 6 8 7005 5.51200000 2682919873 2682919873 -7.00000000
8.22444630 2.98370385 1.38569653 100 9 7006 8.85800000 2682919875 2682919875 9.00000000
7.92068958 2.87350535 -0.73716325 13 10 7006 8.45800000 2682919877 2682919877 -5.00000000
8.20771503 2.97601295 1.69705522 71 11 7007 8.89400000 2682919880 2682919880 11.00000000
8.16450691 2.95873427 -0.45511347 12 12 7008 8.69600000 2682919882 2682919882 -3.00000000
8.21036339 2.97373080 2.01601124 106 13 7009 8.96200000 2682919884 2682919884 13.00000000
8.17549992 2.95948982 -0.15176612 14 14 7010 8.69600000 2682919887 2682919887 -1.00000000
7.29914665 2.64081335 2.07986975 45 15 7011 8.03600000 2682919889 2682919889 15.00000000
2.13364339 0.76900035 -0.60770714 4 0 7018 2.34800000 2682919910 2682919910 -15.00000000
8.18013859 2.94664407 0.15176612 15 1 7019 8.69600000 2682919912 2682919912 1.00000000
2.51193905 0.90435368 -0.61636591 7 2 7020 2.74000000 2682919914 2682919914 -13.00000000
8.17256546 2.94230461 0.45521814 10 3 7020 8.69800000 2682919917 2682919917 3.00000000
3.01849532 1.08613014 -0.62356383 5 4 7021 3.26800000 2682919919 2682919919 -11.00000000
8.18366051 2.94307256 0.76086962 75 5 7022 8.73000000 2682919921 2682919921 5.00000000
3.79038692 1.36238182 -0.63793975 4 6 7023 4.07800000 2682919923 2682919923 -9.00000000
8.19020748 2.94219851 1.06855035 90 7 7024 8.76800000 2682919926 2682919926 7.00000000
5.13788366 1.84468865 -0.67028141 6 8 7025 5.50000000 2682919928 2682919928 -7.00000000
8.19762516 2.94163322 1.37943912 86 9 7026 8.81800000 2682919930 2682919930 9.00000000
7.92692089 2.84449363 -0.73681468 13 10 7026 8.45400000 2682919933 2682919933 -5.00000000
8.20511723 2.94270515 1.69438386 87 11 7027 8.88000000 2682919935 2682919935 11.00000000
8.16350460 2.92617321 -0.45448545 12 12 7028 8.68400000 2682919937 2682919937 -3.00000000
8.19867897 2.93716645 2.01061249 106 13 7029 8.93800000 2682919940 2682919940 13.00000000
8.17448521 2.92688942 -0.15155670 14 14 7030 8.68400000 2682919942 2682919942 -1.00000000
7.30786371 2.61659408 2.07986975 45 15 7030 8.03600000 2682919944 2682919944 15.00000000
2.13449502 0.76089919 -0.60718948 4 0 7038 2.34600000 2682919965 2682919965 -15.00000000
8.17530537 2.91270304 0.15148689 12 1 7039 8.68000000 2682919967 2682919967 1.00000000
2.51691628 0.89623356 -0.61681581 4 2 7040 2.74200000 2682919969 2682919969 -13.00000000
8.17902279 2.91241908 0.45500880 13 3 7040 8.69400000 2682919972 2682919972 3.00000000
3.01856899 1.07427049 -0.62280059 5 4 7041 3.26400000 2682919974 2682919974 -11.00000000
8.18825245 2.91248536 0.76034671 86 5 7042 8.72400000 2682919976 2682919976 5.00000000
3.80256438 1.35178924 -0.63919121 4 6 7043 4.08600000 2682919979 2682919979 -9.00000000
8.20042706 2.91359162 1.06855035 87 7 7044 8.76800000 2682919981 2682919981 7.00000000
5.14055014 1.82541430 -0.66979390 6 8 7045 5.49600000 2682919983 2682919983 -7.00000000
8.19108963 2.90705395 1.37662327 76 9 7046 8.80000000 2682919986 2682919986 9.00000000
7.95182276 2.82213736 -0.73820913 13 10 7046 8.47000000 2682919988 2682919988 -5.00000000
8.21163845 2.91273332 1.69362068 84 11 7047 8.87600000 2682919990 2682919990 11.00000000
8.16237450 2.89365530 -0.45385742 12 12 7048 8.67200000 2682919993 2682919993 -3.00000000
8.20153427 2.90592647 2.00881290 106 13 7049 8.93000000 2682919995 2682919995 13.00000000
8.16957188 2.89299726 -0.15127745 14 14 7050 8.66800000 2682919997 2682919997 -1.00000000
7.31148958 2.58913422 2.07831693 45 15 7050 8.03000000 2682919999 2682919999 15.00000000
2.12620640 0.74958980 -0.60408366 4 0 7058 2.33400000 2682920020 2682920020 -15.00000000
8.16656208 2.87750268 0.15113784 12 1 7059 8.66000000 2682920022 2682920022 1.00000000
2.53105807 0.89132619 -0.61951518 4 2 7060 2.75400000 2682920025 2682920025 -13.00000000
8.17645454 2.87778044 0.45427611 13 3 7061 8.68000000 2682920027 2682920027 3.00000000
3.02785611 1.06568253 -0.62394542 5 4 7061 3.27000000 2682920029 2682920029 -11.00000000
8.17393589 2.87529039 0.75808066 82 5 7062 8.69800000 2682920032 2682920032 5.00000000
3.82216835 1.34374893 -0.64169419 4 6 7063 4.10200000 2682920034 2682920034 -9.00000000
8.20492935 2.88297486 1.06781924 90 7 7064 8.76200000 2682920036 2682920036 7.00000000
5.15625525 1.81074798 -0.67101258 6 8 7065 5.50600000 2682920039 2682920039 -7.00000000
8.19882107 2.87922096 1.37631047 89 9 7065 8.79800000 2682920041 2682920041 9.00000000
7.97666550 2.79964161 -0.73960364 13 10 7066 8.48600000 2682920043 2682920043 -5.00000000
8.20693493 2.87885284 1.69056773 87 11 7067 8.86000000 2682920046 2682920046 11.00000000
8.17242527 2.86514568 -0.45385742 12 12 7068 8.67200000 2682920048 2682920048 -3.00000000
8.20427132 2.87470245 2.00701332 106 13 7069 8.92200000 2682920050 2682920050 13.00000000
8.16640949 2.85983586 -0.15103312 14 14 7070 8.65400000 2682920052 2682920052 -1.00000000
7.31363678 2.55976629 2.07624626 45 15 7071 8.02200000 2682920055 2682920055 15.00000000
2.13245845 0.74343532 -0.60511893 4 0 7078 2.33800000 2682920075 2682920075 -15.00000000
8.16144943 2.84371471 0.15085860 12 1 7079 8.64400000 2682920078 2682920078 1.00000000
2.52863288 0.88056314 -0.61816549 3 2 7080 2.74800000 2682920080 2682920080 -13.00000000
8.18972492 2.85196400 0.45448545 13 3 7080 8.68400000 2682920082 2682920082 3.00000000
3.02970338 1.05446148 -0.62356383 5 4 7081 3.26800000 2682920085 2682920085 -11.00000000
8.17451382 2.84346771 0.75720912 78 5 7082 8.68800000 2682920087 2682920087 5.00000000
3.80071402 1.32131767 -0.63731402 4 6 7083 4.07400000 2682920089 2682920089 -9.00000000
8.19994164 2.84910440 1.06586933 92 7 7084 8.74600000 2682920092 2682920092 7.00000000
5.16066933 1.79208708 -0.67076886 6 8 7085 5.50400000 2682920094 2682920094 -7.00000000
8.20372009 2.84720826 1.37537181 81 9 7086 8.79200000 2682920096 2682920096 9.00000000
