# .PCD v0.7 - Point Cloud Data file format
VERSION 0.7
FIELDS x y z intensity laser_id azimuth distance_m adjustedtime timestamp vertical_angle
SIZE 4 4 4 1 1 2 8 8 4 8
TYPE F F F U U U F U U F
COUNT 1 1 1 1 1 1 1 1 1 1
WIDTH 539
HEIGHT 1
VIEWPOINT 0 0 0 1 0 0 0
POINTS 539
DATA ascii
7.37984371 4.79985476 2.35887671 29 15 5696 9.11400000 2687516264 2687516264 15.00000000
1.91592896 1.24231803 -0.61184824 4 0 5704 2.36400000 2687516285 2687516285 -15.00000000
8.23579788 5.33817768 0.17131282 13 1 5705 9.81600000 2687516287 2687516287 1.00000000
2.26674962 1.46867192 -0.62356430 3 2 5706 2.77200000 2687516289 2687516289 -13.00000000
8.26115227 5.35051680 0.51582319 84 3 5707 9.85600000 2687516292 2687516292 3.00000000
2.72550869 1.76523578 -0.63119614 9 4 5707 3.30800000 2687516294 2687516294 -11.00000000
8.24863148 5.34036398 0.85970426 73 5 5708 9.86400000 2687516296 2687516296 5.00000000
3.42455101 2.21628928 -0.64607435 6 6 5709 4.13000000 2687516299 2687516299 -9.00000000
8.33528137 5.39233541 1.21893716 2 7 5710 10.00200000 2687516301 2687516301 7.00000000
4.62067747 2.98810649 -0.67564362 6 8 5711 5.54400000 2687516303 2687516303 -7.00000000
7.07440519 4.57313585 -0.73698896 13 10 5712 8.45600000 2687516308 2687516308 -5.00000000
8.68829346 5.61425829 2.01074529 40 11 5713 10.53800000 2687516310 2687516310 11.00000000
8.22909546 5.31549501 -0.51341575 12 12 5714 9.81000000 2687516312 2687516312 -3.00000000
8.31822681 5.37101126 2.28595257 78 13 5715 10.16200000 2687516315 2687516315 13.00000000
8.24267101 5.32018709 -0.17124301 10 14 5716 9.81200000 2687516317 2687516317 -1.00000000
7.41361952 4.78324747 2.36405325 40 15 5717 9.13400000 2687516319 2687516319 15.00000000
1.91700459 1.23353183 -0.61081296 4 0 5724 2.36000000 2687516340 2687516340 -15.00000000
8.23756313 5.29857874 0.17096378 13 1 5725 9.79600000 2687516342 2687516342 1.00000000
2.26530600 1.45653486 -0.62176472 3 2 5726 2.76400000 2687516345 2687516345 -13.00000000
8.26129723 5.30976868 0.51467180 89 3 5727 9.83400000 2687516347 2687516347 3.00000000
2.73660874 1.75889564 -0.63234103 9 4 5727 3.31400000 2687516349 2687516349 -11.00000000
8.25381279 5.30292273 0.85830975 77 5 5728 9.84800000 2687516352 2687516352 5.00000000
3.43559074 2.20645690 -0.64670008 6 6 5729 4.13400000 2687516354 2687516354 -9.00000000
8.33066654 5.34819317 1.21552479 2 7 5730 9.97400000 2687516356 2687516356 7.00000000
4.62272644 2.96659851 -0.67442495 4 8 5731 5.53400000 2687516359 2687516359 -7.00000000
7.09703350 4.55271673 -0.73768622 13 10 5732 8.46400000 2687516363 2687516363 -5.00000000
8.69626999 5.57647800 2.00807381 40 11 5733 10.52400000 2687516365 2687516365 11.00000000
8.23414803 5.27811527 -0.51257837 12 12 5734 9.79400000 2687516368 2687516368 -3.00000000
8.31067181 5.32512093 2.27875423 80 13 5735 10.13000000 2687516370 2687516370 13.00000000
8.24098492 5.27844000 -0.17082416 12 14 5736 9.78800000 2687516372 2687516372 -1.00000000
7.43269396 4.76072073 2.36508846 45 15 5736 9.13800000 2687516375 2687516375 15.00000000
1.93432450 1.23515022 -0.61495405 4 0 5744 2.37600000 2687516395 2687516395 -15.00000000
8.23746681 5.25795698 0.17057982 13 1 5745 9.77400000 2687516398 2687516398 1.00000000
2.28023338 1.45490777 -0.62446415 3 2 5746 2.77600000 2687516400 2687516400 -13.00000000
8.25452232 5.26478910 0.51310170 99 3 5747 9.80400000 2687516402 2687516402 3.00000000
2.73114491 1.74194229 -0.62966967 6 4 5747 3.30000000 2687516405 2687516405 -11.00000000
8.25379276 5.26229715 0.85639232 77 5 5748 9.82600000 2687516407 2687516407 5.00000000
3.44493747 2.19551253 -0.64701295 6 6 5749 4.13600000 2687516409 2687516409 -9.00000000
8.35598183 5.32334709 1.21649981 2 7 5750 9.98200000 2687516412 2687516412 7.00000000
4.63137913 2.94937778 -0.67418122 6 8 5751 5.53200000 2687516414 2687516414 -7.00000000
7.11624384 4.53005552 -0.73803484 13 10 5752 8.46800000 2687516418 2687516418 -5.00000000
8.72065163 5.54925060 2.00921869 37 11 5753 10.53000000 2687516421 2687516421 11.00000000
8.24915218 5.24719667 -0.51236904 17 12 5754 9.79000000 2687516423 2687516423 -3.00000000
8.29303169 5.27307510 2.26885629 76 13 5755 10.08600000 2687516425 2687516425 13.00000000
8.23910809 5.23676920 -0.17040530 14 14 5756 9.76400000 2687516428 2687516428 -1.00000000
7.44683170 4.73137426 2.36405325 45 15 5757 9.13400000 2687516430 2687516430 15.00000000
1.92209315 1.21838617 -0.60977769 4 0 5763 2.35600000 2687516451 2687516451 -15.00000000
8.24641228 5.22526026 0.17040530 13 1 5764 9.76400000 2687516453 2687516453 1.00000000
2.29492307 1.45359480 -0.62716353 3 2 5765 2.78800000 2687516455 2687516455 -13.00000000
8.25674820 5.22777128 0.51215965 100 3 5766 9.78600000 2687516458 2687516458 3.00000000
2.73358893 1.73077548 -0.62890643 6 4 5766 3.29600000 2687516460 2687516460 -11.00000000
8.25099564 5.22211170 0.85430062 85 5 5767 9.80200000 2687516462 2687516462 5.00000000
3.45219922 2.18407679 -0.64701295 6 6 5768 4.13600000 2687516465 2687516465 -9.00000000
8.34171104 5.27544880 1.21186876 2 7 5769 9.94400000 2687516467 2687516467 7.00000000
4.63610077 2.93082118 -0.67344999 4 8 5770 5.52600000 2687516469 2687516469 -7.00000000
7.12112093 4.50004625 -0.73698896 13 10 5771 8.45600000 2687516474 2687516474 -5.00000000
8.73734570 5.51925278 2.00883698 34 11 5772 10.52800000 2687516476 2687516476 11.00000000
8.23273182 5.19848537 -0.51027560 17 12 5773 9.75000000 2687516478 2687516478 -3.00000000
8.29728794 5.23722410 2.26525712 70 13 5774 10.07000000 2687516481 2687516481 13.00000000
8.22936916 5.19234562 -0.16984682 14 14 5775 9.73200000 2687516483 2687516483 -1.00000000
7.45839167 4.70589447 2.36301780 45 15 5775 9.13000000 2687516485 2687516485 15.00000000
1.92796969 1.21269798 -0.61029530 4 0 5783 2.35800000 2687516506 2687516506 -15.00000000
8.23412991 5.17728376 0.16977701 13 1 5784 9.72800000 2687516508 2687516508 1.00000000
2.28678370 1.43727922 -0.62356430 3 2 5785 2.77200000 2687516511 2687516511 -13.00000000
8.25465202 5.18616772 0.51090360 89 3 5786 9.76200000 2687516513 2687516513 3.00000000
2.74626350 1.72540069 -0.63043290 5 4 5786 3.30400000 2687516515 2687516515 -11.00000000
8.24217796 5.17632437 0.85151160 81 5 5787 9.77000000 2687516518 2687516518 5.00000000
3.45812893 2.17096281 -0.64670008 6 6 5788 4.13400000 2687516520 2687516520 -9.00000000
8.36511993 5.24946451 1.21259999 2 7 5789 9.95000000 2687516522 2687516522 7.00000000
4.64630270 2.91462016 -0.67344999 4 8 5790 5.52600000 2687516524 2687516524 -7.00000000
7.13678598 4.47516155 -0.73698896 13 10 5791 8.45600000 2687516529 2687516529 -5.00000000
8.23221016 5.15805101 -0.50912416 17 12 5793 9.72800000 2687516534 2687516534 -3.00000000
8.29735184 5.19685078 2.26030827 74 13 5794 10.04800000 2687516536 2687516536 13.00000000
8.23388481 5.15509892 -0.16956758 14 14 5795 9.71600000 2687516538 2687516538 -1.00000000
7.47558928 4.67852640 2.36301780 45 15 5796 9.13000000 2687516541 2687516541 15.00000000
1.93874645 1.21005225 -0.61236584 4 0 5803 2.36600000 2687516561 2687516561 -15.00000000
8.23009586 5.13474941 0.16932325 13 1 5804 9.70200000 2687516564 2687516564 1.00000000
2.28847980 1.42722559 -0.62266451 3 2 5805 2.76800000 2687516566 2687516566 -13.00000000
8.25575638 5.14675570 0.50985688 89 3 5806 9.74200000 2687516568 2687516568 3.00000000
2.75560141 1.71788120 -0.63119614 5 4 5806 3.30800000 2687516571 2687516571 -11.00000000
8.24328709 5.13698483 0.84976852 77 5 5807 9.75000000 2687516573 2687516573 5.00000000
3.46568608 2.15887833 -0.64670008 4 6 5808 4.13400000 2687516575 2687516575 -9.00000000
4.66993093 2.90677595 -0.67539990 4 8 5810 5.54200000 2687516580 2687516580 -7.00000000
7.15574694 4.45232773 -0.73733759 13 10 5811 8.46000000 2687516584 2687516584 -5.00000000
8.22472286 5.11346579 -0.50755411 17 12 5813 9.69800000 2687516589 2687516589 -3.00000000
8.30716610 5.16271257 2.25805879 66 13 5814 10.03800000 2687516591 2687516591 13.00000000
8.23484325 5.11577320 -0.16921854 14 14 5815 9.69600000 2687516594 2687516594 -1.00000000
7.48449898 4.64963293 2.36094737 45 15 5815 9.12200000 2687516596 2687516596 15.00000000
1.94952810 1.20734584 -0.61443639 4 0 5823 2.37400000 2687516617 2687516617 -15.00000000
8.23266697 5.09651661 0.16900910 13 1 5824 9.68400000 2687516619 2687516619 1.00000000
2.29013371 1.41717768 -0.62176472 3 2 5825 2.76400000 2687516621 2687516621 -13.00000000
8.25838470 5.10845041 0.50891483 94 3 5826 9.72400000 2687516624 2687516624 3.00000000
2.75657225 1.70515347 -0.63005131 5 4 5826 3.30200000 2687516626 2687516626 -11.00000000
8.25100040 5.10189199 0.84872264 81 5 5827 9.73800000 2687516628 2687516628 5.00000000
3.47320080 2.14676762 -0.64670008 4 6 5828 4.13400000 2687516630 2687516630 -9.00000000
4.66653728 2.88211226 -0.67344999 4 8 5830 5.52600000 2687516635 2687516635 -7.00000000
7.18480730 4.43569517 -0.73873210 13 10 5831 8.47600000 2687516640 2687516640 -5.00000000
8.21702385 5.06899595 -0.50598401 12 12 5833 9.66800000 2687516644 2687516644 -3.00000000
8.30523205 5.12140942 2.25265980 66 13 5834 10.01400000 2687516647 2687516647 13.00000000
8.24243641 5.08070135 -0.16900910 16 14 5835 9.68400000 2687516649 2687516649 -1.00000000
7.50397253 4.62550640 2.36198258 45 15 5835 9.12600000 2687516651 2687516651 15.00000000
1.94179237 1.19413149 -0.61081296 4 0 5841 2.36000000 2687516672 2687516672 -15.00000000
8.23500919 5.06225014 0.16872987 13 1 5842 9.66800000 2687516674 2687516674 1.00000000
2.30453658 1.41609752 -0.62446415 3 2 5843 2.77600000 2687516677 2687516677 -13.00000000
8.23354816 5.05739260 0.50640273 76 3 5844 9.67600000 2687516679 2687516679 3.00000000
2.76191568 1.69648504 -0.63005131 5 4 5844 3.30200000 2687516681 2687516681 -11.00000000
8.24491596 5.06239319 0.84645659 77 5 5845 9.71200000 2687516683 2687516683 5.00000000
3.47656083 2.13377905 -0.64607435 4 6 5846 4.13000000 2687516686 2687516686 -9.00000000
4.68233728 2.87158871 -0.67442495 4 8 5848 5.53400000 2687516690 2687516690 -7.00000000
7.19191265 4.40893650 -0.73803484 13 10 5849 8.46800000 2687516695 2687516695 -5.00000000
8.21587658 5.03272390 -0.50493729 12 12 5851 9.64800000 2687516700 2687516700 -3.00000000
8.29469013 5.07901049 2.24546146 72 13 5852 9.98200000 2687516702 2687516702 13.00000000
8.23277378 5.03912306 -0.16848554 16 14 5853 9.65400000 2687516704 2687516704 -1.00000000
7.52835321 4.60796022 2.36508846 45 15 5853 9.13800000 2687516706 2687516706 15.00000000
1.95089614 1.19036484 -0.61236584 4 0 5861 2.36600000 2687516727 2687516727 -15.00000000
8.24238682 5.02722597 0.16852044 13 1 5862 9.65600000 2687516730 2687516730 1.00000000
2.30613780 1.40601563 -0.62356430 3 2 5863 2.77200000 2687516732 2687516732 -13.00000000
8.24262428 5.02342415 0.50587934 81 3 5864 9.66600000 2687516734 2687516734 3.00000000
2.76279140 1.68376863 -0.62890643 5 4 5864 3.29600000 2687516736 2687516736 -11.00000000
8.24211788 5.02114344 0.84436482 69 5 5865 9.68800000 2687516739 2687516739 5.00000000
3.48061347 2.11957574 -0.64544863 6 6 5866 4.12600000 2687516741 2687516741 -9.00000000
4.67198277 2.84284425 -0.67150009 4 8 5868 5.51000000 2687516746 2687516746 -7.00000000
6.69318438 4.07111979 -0.68539274 4 10 5869 7.86400000 2687516750 2687516750 -5.00000000
8.22144699 4.99675322 -0.50420463 17 12 5871 9.63400000 2687516755 2687516755 -3.00000000
8.30237579 5.04395485 2.24276209 75 13 5872 9.97000000 2687516757 2687516757 13.00000000
8.22296619 4.99374676 -0.16792706 12 14 5873 9.62200000 2687516759 2687516759 -1.00000000
7.53528309 4.57432175 2.36198258 47 15 5874 9.12600000 2687516762 2687516762 15.00000000
1.93686068 1.17254257 -0.60667187 4 0 5881 2.34400000 2687516783 2687516783 -15.00000000
8.22908974 4.97978878 0.16789214 13 1 5882 9.62000000 2687516785 2687516785 1.00000000
2.32103610 1.40400898 -0.62626374 3 2 5883 2.78400000 2687516787 2687516787 -13.00000000
8.24472713 4.98532057 0.50493729 76 3 5884 9.64800000 2687516789 2687516789 3.00000000
2.76697183 1.67309868 -0.62852484 5 4 5884 3.29400000 2687516792 2687516792 -11.00000000
8.23913383 4.97997475 0.84227312 77 5 5885 9.66400000 2687516794 2687516794 5.00000000
3.49475408 2.11149931 -0.64670008 6 6 5886 4.13400000 2687516796 2687516796 -9.00000000
4.70906830 2.84293413 -0.67539990 4 8 5888 5.54200000 2687516801 2687516801 -7.00000000
6.67664909 4.02920198 -0.68225515 12 10 5889 7.82800000 2687516806 2687516806 -5.00000000
8.32970238 5.02479792 1.89091718 3 11 5890 9.91000000 2687516808 2687516808 11.00000000
8.23028755 4.96286774 -0.50368124 17 12 5891 9.62400000 2687516810 2687516810 -3.00000000
8.29656601 5.00085926 2.23646331 84 13 5892 9.94200000 2687516812 2687516812 13.00000000
8.22664547 4.95675659 -0.16764781 16 14 5893 9.60600000 2687516815 2687516815 -1.00000000
7.54544687 4.54631758 2.36042976 45 15 5893 9.12000000 2687516817 2687516817 15.00000000
1.95087838 1.17174256 -0.60977769 4 0 5901 2.35600000 2687516838 2687516838 -15.00000000
8.22584915 4.93868160 0.16747329 13 1 5902 9.59600000 2687516840 2687516840 1.00000000
2.31255555 1.38787603 -0.62266451 3 2 5903 2.76800000 2687516842 2687516842 -13.00000000
8.24495125 4.94623566 0.50389057 57 3 5904 9.62800000 2687516845 2687516845 3.00000000
2.78121305 1.66847980 -0.63043290 5 4 5904 3.30400000 2687516847 2687516847 -11.00000000
8.23937988 4.94093800 0.84052998 81 5 5905 9.64400000 2687516849 2687516849 5.00000000
3.47499442 2.08303761 -0.64169419 4 6 5906 4.10200000 2687516852 2687516852 -9.00000000
4.71555758 2.82443905 -0.67491245 6 8 5908 5.53800000 2687516856 2687516856 -7.00000000
8.35039902 4.99959040 1.54150522 2 9 5909 9.85400000 2687516859 2687516859 9.00000000
6.68725443 4.00382423 -0.68190652 8 10 5909 7.82400000 2687516861 2687516861 -5.00000000
8.34045315 4.99165821 1.88939071 3 11 5910 9.90200000 2687516863 2687516863 11.00000000
8.22699356 4.92180395 -0.50242519 12 12 5911 9.60000000 2687516865 2687516865 -3.00000000
8.30393600 4.96586752 2.23376393 82 13 5912 9.93000000 2687516868 2687516868 13.00000000
8.23188305 4.92082787 -0.16740349 14 14 5913 9.59200000 2687516870 2687516870 -1.00000000
6.89136839 4.11949968 2.15130401 13 15 5913 8.31200000 2687516872 2687516872 15.00000000
1.95847940 1.16656160 -0.61081296 4 0 5922 2.36000000 2687516893 2687516893 -15.00000000
8.23358631 4.90236092 0.16726387 13 1 5923 9.58400000 2687516895 2687516895 1.00000000
2.31762671 1.37939084 -0.62266451 3 2 5924 2.76800000 2687516898 2687516898 -13.00000000
8.23470688 4.90108156 0.50221586 42 3 5924 9.59600000 2687516900 2687516900 3.00000000
2.78224778 1.65526354 -0.62928808 5 4 5925 3.29800000 2687516902 2687516902 -11.00000000
8.24373436 4.90255880 0.83913547 81 5 5926 9.62800000 2687516905 2687516905 5.00000000
3.50637794 2.08441877 -0.64607435 4 6 5927 4.13000000 2687516907 2687516907 -9.00000000
4.70881081 2.79699898 -0.67247504 4 8 5929 5.51800000 2687516911 2687516911 -7.00000000
6.69160509 3.97318435 -0.68086064 17 10 5930 7.81200000 2687516916 2687516916 -5.00000000
8.31817341 4.93700647 1.88023186 3 11 5931 9.85400000 2687516918 2687516918 11.00000000
8.22608280 4.88040733 -0.50127381 12 12 5932 9.57800000 2687516921 2687516921 -3.00000000
8.29191113 4.91750574 2.22566581 80 13 5933 9.89400000 2687516923 2687516923 13.00000000
8.24470234 4.88756418 -0.16729876 12 14 5934 9.58600000 2687516925 2687516925 -1.00000000
7.58277130 4.49516296 2.36198258 31 15 5934 9.12600000 2687516928 2687516928 15.00000000
1.97418165 1.16659784 -0.61443639 4 0 5942 2.37400000 2687516948 2687516948 -15.00000000
8.22654343 4.85935211 0.16677520 13 1 5943 9.55600000 2687516951 2687516951 1.00000000
2.32242775 1.37129235 -0.62266451 3 2 5944 2.76800000 2687516953 2687516953 -13.00000000
8.21821404 4.85056353 0.50012237 23 3 5945 9.55600000 2687516955 2687516955 3.00000000
2.78800893 1.64554155 -0.62928808 5 4 5945 3.29800000 2687516958 2687516958 -11.00000000
8.25221729 4.86869049 0.83826393 81 5 5946 9.61800000 2687516960 2687516960 5.00000000
3.51703548 2.07417345 -0.64670008 4 6 5947 4.13400000 2687516962 2687516962 -9.00000000
8.33312988 4.91250753 1.18773866 6 7 5948 9.74600000 2687516964 2687516964 7.00000000
4.70486355 2.77248263 -0.67052513 4 8 5949 5.50200000 2687516967 2687516967 -7.00000000
8.34889030 4.91590977 1.88328481 3 11 5951 9.87000000 2687516974 2687516974 11.00000000
8.23101902 4.84457159 -0.50054109 12 12 5952 9.56400000 2687516976 2687516976 -3.00000000
8.28047180 4.87173271 2.21801734 75 13 5953 9.86000000 2687516978 2687516978 13.00000000
8.23068619 4.84050846 -0.16667049 12 14 5954 9.55000000 2687516981 2687516981 -1.00000000
7.60419226 4.47027779 2.36353540 45 15 5955 9.13200000 2687516983 2687516983 15.00000000
1.96450698 1.15256941 -0.61029530 4 0 5960 2.35800000 2687517004 2687517004 -15.00000000
8.23486900 4.82943726 0.16663557 13 1 5961 9.54800000 2687517006 2687517006 1.00000000
2.32672429 1.36398947 -0.62266451 3 2 5962 2.76800000 2687517008 2687517008 -13.00000000
8.23084736 4.82514811 0.50001770 26 3 5962 9.55400000 2687517011 2687517011 3.00000000
2.78300166 1.63081920 -0.62699836 5 4 5963 3.28600000 2687517013 2687517013 -11.00000000
8.23824596 4.82562256 0.83530062 81 5 5964 9.58400000 2687517015 2687517015 5.00000000
3.52353430 2.06311417 -0.64670008 4 6 5965 4.13400000 2687517017 2687517017 -9.00000000
8.34852219 4.88630438 1.18773866 9 7 5966 9.74600000 2687517020 2687517020 7.00000000
4.72554398 2.76470518 -0.67223132 6 8 5967 5.51600000 2687517022 2687517022 -7.00000000
8.41514015 4.91938114 1.89473331 3 11 5969 9.93000000 2687517029 2687517029 11.00000000
8.22205639 4.80458164 -0.49907568 17 12 5970 9.53600000 2687517031 2687517031 -3.00000000
8.28563976 4.83979750 2.21531796 74 13 5971 9.84800000 2687517034 2687517034 13.00000000
8.21994972 4.79950237 -0.16614690 14 14 5972 9.52000000 2687517036 2687517036 -1.00000000
7.60908079 4.44282579 2.36094737 45 15 5972 9.12200000 2687517038 2687517038 15.00000000
1.95850027 1.13987434 -0.60718948 4 0 5980 2.34600000 2687517059 2687517059 -15.00000000
8.22056484 4.78256226 0.16600730 13 1 5981 9.51200000 2687517061 2687517061 1.00000000
2.34494805 1.36369669 -0.62626374 3 2 5982 2.78400000 2687517063 2687517063 -13.00000000
8.23382759 4.78835535 0.49918035 21 3 5982 9.53800000 2687517066 2687517066 3.00000000
2.79376912 1.62405479 -0.62814319 5 4 5983 3.29200000 2687517068 2687517068 -11.00000000
8.22920036 4.78182077 0.83268595 85 5 5984 9.55400000 2687517070 2687517070 5.00000000
3.52729821 2.04881787 -0.64607435 4 6 5985 4.13000000 2687517073 2687517073 -9.00000000
4.76263618 2.76413631 -0.67613113 6 8 5987 5.54800000 2687517077 2687517077 -7.00000000
6.71941805 3.89824486 -0.67964047 52 10 5988 7.79800000 2687517082 2687517082 -5.00000000
8.23013783 4.77084398 -0.49855232 17 12 5990 9.52600000 2687517087 2687517087 -3.00000000
8.29068089 4.80400658 2.21216869 70 13 5991 9.83400000 2687517089 2687517089 13.00000000
8.21761894 4.75975513 -0.16576296 16 14 5992 9.49800000 2687517091 2687517091 -1.00000000
7.62621450 4.41720629 2.36146498 42 15 5992 9.12400000 2687517093 2687517093 15.00000000
1.97250545 1.13882661 -0.61029530 4 0 6000 2.35800000 2687517114 2687517114 -15.00000000
8.21815681 4.74284315 0.16562334 13 1 6001 9.49000000 2687517116 2687517116 1.00000000
2.33956599 1.34966028 -0.62356430 3 2 6002 2.77200000 2687517119 2687517119 -13.00000000
8.23748112 4.75016260 0.49834296 10 3 6003 9.52200000 2687517121 2687517121 3.00000000
2.80112195 1.61527348 -0.62852484 5 4 6003 3.29400000 2687517123 2687517123 -11.00000000
8.23375893 4.74610186 0.83146578 81 5 6004 9.54000000 2687517126 2687517126 5.00000000
3.52073574 2.02860332 -0.64357138 4 6 6005 4.11400000 2687517128 2687517128 -9.00000000
4.76193333 2.74155211 -0.67466867 6 8 6007 5.53600000 2687517133 2687517133 -7.00000000
8.21730709 4.72516108 -0.49677289 17 12 6010 9.49200000 2687517142 2687517142 -3.00000000
8.29388332 4.76726818 2.20856953 68 13 6011 9.81800000 2687517144 2687517144 13.00000000
8.22204590 4.72406816 -0.16551863 14 14 6012 9.48400000 2687517146 2687517146 -1.00000000
7.64402866 4.39018726 2.36198258 45 15 6013 9.12600000 2687517149 2687517149 15.00000000
1.97982144 1.13385439 -0.61133057 4 0 6020 2.36200000 2687517169 2687517169 -15.00000000
8.22077942 4.70617962 0.16534410 13 1 6021 9.47400000 2687517172 2687517172 1.00000000
2.33749723 1.33761394 -0.62176472 3 2 6022 2.76400000 2687517174 2687517174 -13.00000000
8.23931980 4.71488428 0.49750561 10 3 6022 9.50600000 2687517176 2687517176 3.00000000
2.81526399 1.61035991 -0.63043290 5 4 6023 3.30400000 2687517179 2687517179 -11.00000000
8.24162769 4.71238661 0.83059424 81 5 6024 9.53000000 2687517181 2687517181 5.00000000
3.54151559 2.02414298 -0.64607435 4 6 6025 4.13000000 2687517183 2687517183 -9.00000000
8.25100136 4.71392536 1.16677713 9 7 6026 9.57400000 2687517186 2687517186 7.00000000
4.76113129 2.71900654 -0.67320627 6 8 6027 5.52400000 2687517188 2687517188 -7.00000000
6.69975090 3.82457042 -0.67493409 21 10 6028 7.74400000 2687517193 2687517193 -5.00000000
8.20772743 4.68160534 -0.49520281 17 12 6030 9.46200000 2687517197 2687517197 -3.00000000
8.29015827 4.72670555 2.20317054 72 13 6031 9.79400000 2687517199 2687517199 13.00000000
8.22458744 4.68741751 -0.16523938 14 14 6032 9.46800000 2687517202 2687517202 -1.00000000
7.65594959 4.36156511 2.36094737 45 15 6033 9.12200000 2687517204 2687517204 15.00000000
1.98228407 1.12563646 -0.61081296 4 0 6041 2.36000000 2687517225 2687517225 -15.00000000
8.22927761 4.67108154 0.16516958 16 1 6042 9.46400000 2687517227 2687517227 1.00000000
2.34577394 1.33096099 -0.62266451 3 2 6043 2.76800000 2687517229 2687517229 -13.00000000
8.22180271 4.66494179 0.49541217 10 3 6043 9.46600000 2687517232 2687517232 3.00000000
2.81602407 1.59712505 -0.62928808 5 4 6044 3.29800000 2687517234 2687517234 -11.00000000
8.23977852 4.67133904 0.82867682 77 5 6045 9.50800000 2687517236 2687517236 5.00000000
3.54891062 2.01114917 -0.64607435 6 6 6046 4.13000000 2687517239 2687517239 -9.00000000
8.24576855 4.67093277 1.16360843 24 7 6047 9.54800000 2687517241 2687517241 7.00000000
4.77970219 2.70642829 -0.67442495 4 8 6048 5.53400000 2687517243 2687517243 -7.00000000
6.69118261 3.78723073 -0.67266804 34 10 6049 7.71800000 2687517248 2687517248 -5.00000000
8.21092319 4.64362526 -0.49436545 17 12 6051 9.44600000 2687517252 2687517252 -3.00000000
8.28198051 4.68190384 2.19642210 74 13 6052 9.76400000 2687517255 2687517255 13.00000000
8.21733856 4.64346838 -0.16475071 14 14 6053 9.44000000 2687517257 2687517257 -1.00000000
7.68197632 4.33917618 2.36405325 45 15 6054 9.13400000 2687517259 2687517259 15.00000000
1.97946835 1.11491787 -0.60874242 4 0 6061 2.35200000 2687517280 2687517280 -15.00000000
8.23507786 4.63644123 0.16496015 16 1 6062 9.45200000 2687517282 2687517282 1.00000000
2.34700918 1.32085311 -0.62176472 3 2 6063 2.76400000 2687517285 2687517285 -13.00000000
8.23977661 4.63719320 0.49551684 13 3 6063 9.46800000 2687517287 2687517287 3.00000000
2.80960441 1.58054745 -0.62661672 5 4 6064 3.28400000 2687517289 2687517289 -11.00000000
8.23693085 4.63180637 0.82675940 73 5 6065 9.48600000 2687517292 2687517292 5.00000000
3.55590940 1.99874878 -0.64607435 4 6 6066 4.13000000 2687517294 2687517294 -9.00000000
8.24817848 4.63434219 1.16165853 49 7 6067 9.53200000 2687517296 2687517296 7.00000000
4.78912020 2.68972754 -0.67442495 4 8 6068 5.53400000 2687517299 2687517299 -7.00000000
6.69914961 3.76092505 -0.67214507 44 10 6069 7.71200000 2687517303 2687517303 -5.00000000
8.21837330 4.61004972 -0.49384210 17 12 6071 9.43600000 2687517308 2687517308 -3.00000000
8.28637505 4.64629412 2.19327283 75 13 6072 9.75000000 2687517310 2687517310 13.00000000
8.21779823 4.60595703 -0.16443658 12 14 6073 9.42200000 2687517312 2687517312 -1.00000000
7.69370508 4.31044626 2.36301780 45 15 6074 9.13000000 2687517315 2687517315 15.00000000
1.98970592 1.11246479 -0.61081296 4 0 6079 2.36000000 2687517335 2687517335 -15.00000000
8.21643639 4.59201145 0.16429695 16 1 6080 9.41400000 2687517338 2687517338 1.00000000
2.36815977 1.32297742 -0.62626374 3 2 6081 2.78400000 2687517340 2687517340 -13.00000000
8.23163700 4.59862137 0.49415609 13 3 6081 9.44200000 2687517342 2687517342 3.00000000
2.81627011 1.57267034 -0.62699836 4 4 6082 3.28600000 2687517345 2687517345 -11.00000000
8.22360611 4.59036922 0.82397038 77 5 6083 9.45400000 2687517347 2687517347 5.00000000
3.54837084 1.97986770 -0.64357138 4 6 6084 4.11400000 2687517349 2687517349 -9.00000000
8.25056076 4.60163832 1.15995240 72 7 6085 9.51800000 2687517351 2687517351 7.00000000
4.79407883 2.67273545 -0.67393744 4 8 6086 5.53000000 2687517354 2687517354 -7.00000000
8.22409058 4.57935047 -0.49331874 17 12 6089 9.42600000 2687517363 2687517363 -3.00000000
8.28219986 4.60981369 2.18832397 74 13 6090 9.72800000 2687517365 2687517365 13.00000000
8.22174263 4.57428408 -0.16422714 12 14 6091 9.41000000 2687517368 2687517368 -1.00000000
7.69464350 4.28102493 2.35939431 42 15 6091 9.11600000 2687517370 2687517370 15.00000000
1.98344016 1.09989142 -0.60770714 4 0 6099 2.34800000 2687517391 2687517391 -15.00000000
8.21142864 4.55166912 0.16387810 13 1 6100 9.39000000 2687517393 2687517393 1.00000000
2.35571766 1.30525815 -0.62176472 3 2 6101 2.76400000 2687517395 2687517395 -13.00000000
8.24763966 4.56985950 0.49415609 13 3 6101 9.44200000 2687517398 2687517398 3.00000000
2.82689476 1.56568372 -0.62814319 5 4 6102 3.29200000 2687517400 2687517400 -11.00000000
8.22912121 4.55584526 0.82292449 81 5 6103 9.44200000 2687517402 2687517402 5.00000000
3.56563044 1.97320843 -0.64544863 4 6 6104 4.12600000 2687517404 2687517404 -9.00000000
8.24572945 4.56128025 1.15702760 87 7 6105 9.49400000 2687517407 2687517407 7.00000000
4.81727695 2.66366935 -0.67588741 4 8 6106 5.54600000 2687517409 2687517409 -7.00000000
6.68732643 3.69617248 -0.66848457 104 10 6107 7.67000000 2687517414 2687517414 -5.00000000
8.21904469 4.53902817 -0.49206266 17 12 6109 9.40200000 2687517418 2687517418 -3.00000000
8.28629875 4.57428265 2.18517447 75 13 6110 9.71400000 2687517421 2687517421 13.00000000
8.21665001 4.53396368 -0.16380829 16 14 6111 9.38600000 2687517423 2687517423 -1.00000000
7.71704912 4.25652599 2.36146498 45 15 6112 9.12400000 2687517425 2687517425 15.00000000
1.98726737 1.09296119 -0.60770714 4 0 6119 2.34800000 2687517446 2687517446 -15.00000000
8.22025681 4.51912451 0.16373847 16 1 6120 9.38200000 2687517448 2687517448 1.00000000
2.35001230 1.29139614 -0.61906528 3 2 6121 2.75200000 2687517451 2687517451 -13.00000000
8.24157619 4.52709913 0.49279538 18 3 6122 9.41600000 2687517453 2687517453 3.00000000
2.83406377 1.55675161 -0.62852484 4 4 6122 3.29400000 2687517455 2687517455 -11.00000000
8.23100185 4.51942110 0.82153004 81 5 6123 9.42600000 2687517457 2687517457 5.00000000
3.56556964 1.95694828 -0.64419711 4 6 6124 4.11800000 2687517460 2687517460 -9.00000000
8.23375416 4.51719236 1.15312767 92 7 6125 9.46200000 2687517462 2687517462 7.00000000
4.82306433 2.64492869 -0.67539990 4 8 6126 5.54200000 2687517464 2687517464 -7.00000000
8.21381855 4.49879789 -0.49080661 21 12 6129 9.37800000 2687517474 2687517474 -3.00000000
8.27315712 4.52942085 2.17752624 75 13 6130 9.68000000 2687517476 2687517476 13.00000000
8.23067188 4.50429440 -0.16377339 16 14 6131 9.38400000 2687517478 2687517478 -1.00000000
7.73112154 4.23091173 2.36146498 45 15 6131 9.12400000 2687517481 2687517481 15.00000000
2.00124621 1.09156811 -0.61081296 4 0 6139 2.36000000 2687517501 2687517501 -15.00000000
8.21315765 4.47795868 0.16328472 13 1 6140 9.35600000 2687517504 2687517504 1.00000000
2.36819482 1.29064560 -0.62266451 3 2 6141 2.76800000 2687517506 2687517506 -13.00000000
8.22400475 4.48014975 0.49080661 10 3 6142 9.37800000 2687517508 2687517508 3.00000000
2.83603239 1.54497111 -0.62776160 4 4 6142 3.29000000 2687517510 2687517510 -11.00000000
8.23797894 4.48589802 0.82065845 89 5 6143 9.41600000 2687517513 2687517513 5.00000000
3.58625913 1.95204520 -0.64670008 6 6 6144 4.13400000 2687517515 2687517515 -9.00000000
8.23552227 4.48083401 1.15117776 87 7 6145 9.44600000 2687517517 2687517517 7.00000000
4.82180452 2.62238646 -0.67393744 4 8 6146 5.53000000 2687517520 2687517520 -7.00000000
6.69196224 3.63797712 -0.66639280 29 10 6147 7.64600000 2687517524 2687517524 -5.00000000
8.21192169 4.46056557 -0.48975989 17 12 6149 9.35800000 2687517529 2687517529 -3.00000000
8.27007866 4.49028635 2.17257738 72 13 6150 9.65800000 2687517531 2687517531 13.00000000
8.21646690 4.45932102 -0.16317999 16 14 6151 9.35000000 2687517534 2687517534 -1.00000000
7.74997282 4.20439005 2.36250019 45 15 6152 9.12800000 2687517536 2687517536 15.00000000
2.00183487 1.08238816 -0.60977769 4 0 6160 2.35600000 2687517557 2687517557 -15.00000000
8.21895981 4.44212151 0.16307528 13 1 6161 9.34400000 2687517559 2687517559 1.00000000
2.36948037 1.28010452 -0.62176472 3 2 6162 2.76400000 2687517561 2687517561 -13.00000000
8.22982597 4.44428301 0.49017856 10 3 6163 9.36600000 2687517563 2687517563 3.00000000
2.82440138 1.52523744 -0.62394542 4 4 6163 3.27000000 2687517566 2687517566 -11.00000000
8.23157310 4.44337082 0.81839240 85 5 6164 9.39000000 2687517568 2687517568 5.00000000
3.59338951 1.93888783 -0.64670008 4 6 6165 4.13400000 2687517570 2687517570 -9.00000000
8.23791313 4.44308043 1.14922786 90 7 6166 9.43000000 2687517573 2687517573 7.00000000
4.83487797 2.60658002 -0.67442495 4 8 6167 5.53400000 2687517575 2687517575 -7.00000000
6.68069601 3.60019302 -0.66395247 12 10 6168 7.61800000 2687517580 2687517580 -5.00000000
8.21238804 4.42191553 -0.48881784 17 12 6170 9.34000000 2687517584 2687517584 -3.00000000
8.27275276 4.45255613 2.16897798 70 13 6171 9.64200000 2687517587 2687517587 13.00000000
8.20634079 4.41496468 -0.16265643 14 14 6172 9.32000000 2687517589 2687517589 -1.00000000
7.75609541 4.17273569 2.35991216 47 15 6172 9.11800000 2687517591 2687517591 15.00000000
1.99879074 1.07174218 -0.60770714 4 0 6180 2.34800000 2687517612 2687517612 -15.00000000
8.21150303 4.40112448 0.16262153 12 1 6181 9.31800000 2687517614 2687517614 1.00000000
2.39454722 1.28286910 -0.62716353 3 2 6182 2.78800000 2687517616 2687517616 -13.00000000
8.23296452 4.40892792 0.48944587 10 3 6183 9.35200000 2687517619 2687517619 3.00000000
2.84355378 1.52278376 -0.62699836 4 4 6183 3.28600000 2687517621 2687517621 -11.00000000
8.22595406 4.40332699 0.81630069 85 5 6184 9.36600000 2687517623 2687517623 5.00000000
3.58968544 1.92074108 -0.64482284 6 6 6185 4.12200000 2687517626 2687517626 -9.00000000
8.24286938 4.40868044 1.14776552 92 7 6186 9.41800000 2687517628 2687517628 7.00000000
4.83344364 2.58407187 -0.67296249 4 8 6187 5.52200000 2687517630 2687517630 -7.00000000
6.67740774 3.56839967 -0.66238362 17 10 6188 7.60000000 2687517635 2687517635 -5.00000000
8.22424984 4.39134026 -0.48860848 17 12 6190 9.33600000 2687517639 2687517639 -3.00000000
8.27449131 4.41631126 2.16537881 70 13 6191 9.62600000 2687517642 2687517642 13.00000000
8.21111584 4.38064480 -0.16244701 18 14 6192 9.30800000 2687517644 2687517644 -1.00000000
7.76622343 4.14155293 2.35835910 42 15 6193 9.11200000 2687517646 2687517646 15.00000000
2.00574493 1.06692255 -0.60874242 4 0 6199 2.35200000 2687517667 2687517667 -15.00000000
8.20309925 4.36166525 0.16216776 12 1 6200 9.29200000 2687517669 2687517669 1.00000000
2.38846350 1.26943398 -0.62446415 3 2 6201 2.77600000 2687517672 2687517672 -13.00000000
8.23519325 4.37504292 0.48871315 10 3 6202 9.33800000 2687517674 2687517674 3.00000000
2.84512043 1.51150370 -0.62623513 4 4 6202 3.28200000 2687517676 2687517676 -11.00000000
8.22291470 4.36667967 0.81455755 81 5 6203 9.34600000 2687517679 2687517679 5.00000000
3.59603500 1.90882671 -0.64482284 6 6 6204 4.12200000 2687517681 2687517681 -9.00000000
8.23640156 4.37015676 1.14484060 90 7 6205 9.39400000 2687517683 2687517683 7.00000000
4.86303091 2.57919073 -0.67588741 4 8 6206 5.54600000 2687517686 2687517686 -7.00000000
8.21052742 4.34908581 -0.48693374 17 12 6209 9.30400000 2687517695 2687517695 -3.00000000
8.28564644 4.38702393 2.16447902 66 13 6210 9.62200000 2687517697 2687517697 13.00000000
8.20615578 4.34310246 -0.16206305 16 14 6211 9.28600000 2687517699 2687517699 -1.00000000
7.77919626 4.11713409 2.35835910 45 15 6211 9.11200000 2687517702 2687517702 15.00000000
2.01970935 1.06532252 -0.61184824 4 0 6219 2.36400000 2687517722 2687517722 -15.00000000
8.21473694 4.33113956 0.16209795 12 1 6220 9.28800000 2687517725 2687517725 1.00000000
2.37908840 1.25382042 -0.62086493 3 2 6221 2.76000000 2687517727 2687517727 -13.00000000
8.21860695 4.32951450 0.48682907 10 3 6222 9.30200000 2687517729 2687517729 3.00000000
2.86080098 1.50705338 -0.62852484 5 4 6222 3.29400000 2687517732 2687517732 -11.00000000
8.22400379 4.33052349 0.81316310 81 5 6223 9.33000000 2687517734 2687517734 5.00000000
3.60267615 1.89626253 -0.64482284 6 6 6224 4.12200000 2687517736 2687517736 -9.00000000
8.23228073 4.33121252 1.14215946 85 7 6225 9.37200000 2687517739 2687517739 7.00000000
4.86146259 2.55665588 -0.67442495 4 8 6226 5.53400000 2687517741 2687517741 -7.00000000
8.20620823 4.31018305 -0.48578236 17 12 6229 9.28200000 2687517750 2687517750 -3.00000000
8.27675343 4.34539270 2.15818048 72 13 6230 9.59400000 2687517752 2687517752 13.00000000
8.21772480 4.31257248 -0.16199324 16 14 6231 9.28200000 2687517755 2687517755 -1.00000000
7.79423380 4.08859444 2.35835910 45 15 6232 9.11200000 2687517757 2687517757 15.00000000
2.01980758 1.05682778 -0.61081296 4 0 6238 2.36000000 2687517778 2687517778 -15.00000000
8.21133423 4.29460669 0.16174890 15 1 6239 9.26800000 2687517780 2687517780 1.00000000
2.39014101 1.24953556 -0.62266451 4 2 6240 2.76800000 2687517782 2687517782 -13.00000000
8.21698761 4.29391146 0.48588702 13 3 6241 9.28400000 2687517785 2687517785 3.00000000
2.86578298 1.49755824 -0.62852484 5 4 6241 3.29400000 2687517787 2687517787 -11.00000000
8.22419071 4.29584837 0.81176859 75 5 6242 9.31400000 2687517789 2687517789 5.00000000
3.61244678 1.88613379 -0.64544863 6 6 6243 4.12600000 2687517792 2687517792 -9.00000000
8.24131966 4.30113411 1.14142823 85 7 6244 9.36600000 2687517794 2687517794 7.00000000
4.86463404 2.53776622 -0.67369372 6 8 6245 5.52800000 2687517796 2687517796 -7.00000000
8.20628643 4.27556372 -0.48494497 17 12 6248 9.26600000 2687517805 2687517805 -3.00000000
8.26864910 4.30622053 2.15233159 74 13 6249 9.56800000 2687517808 2687517808 13.00000000
8.21069527 4.27421761 -0.16157438 16 14 6250 9.25800000 2687517810 2687517810 -1.00000000
7.80875349 4.06498003 2.35887671 45 15 6250 9.11400000 2687517812 2687517812 15.00000000
2.02005458 1.04799163 -0.60977769 4 0 6258 2.35600000 2687517833 2687517833 -15.00000000
8.21207333 4.25855350 0.16146967 12 1 6259 9.25200000 2687517835 2687517835 1.00000000
2.40140867 1.24477196 -0.62446415 3 2 6260 2.77600000 2687517838 2687517838 -13.00000000
8.22660637 4.26244640 0.48557299 13 3 6261 9.27800000 2687517840 2687517840 3.00000000
2.86053395 1.48212659 -0.62623513 5 4 6261 3.28200000 2687517842 2687517842 -11.00000000
8.21790600 4.25611925 0.80967683 78 5 6262 9.29000000 2687517845 2687517845 5.00000000
3.60848308 1.86806357 -0.64357138 6 6 6263 4.11400000 2687517847 2687517847 -9.00000000
8.24570465 4.26686668 1.13996589 87 7 6264 9.35400000 2687517849 2687517849 7.00000000
4.88051558 2.52441812 -0.67466867 6 8 6265 5.53600000 2687517851 2687517851 -7.00000000
8.32088566 4.30208874 1.48362446 2 9 6266 9.48400000 2687517854 2687517854 9.00000000
8.20873928 4.24047565 -0.48421228 17 12 6268 9.25200000 2687517861 2687517861 -3.00000000
8.27150917 4.27107286 2.14918232 75 13 6269 9.55400000 2687517863 2687517863 13.00000000
8.19891071 4.23177338 -0.16105081 14 14 6270 9.22800000 2687517865 2687517865 -1.00000000
7.82016659 4.03456068 2.35784149 45 15 6271 9.11000000 2687517868 2687517868 15.00000000
2.00670147 1.03174722 -0.60460126 4 0 6279 2.33600000 2687517888 2687517888 -15.00000000
8.21339893 4.22111368 0.16119042 12 1 6280 9.23600000 2687517891 2687517891 1.00000000
2.40248799 1.23418105 -0.62356430 3 2 6281 2.77200000 2687517893 2687517893 -13.00000000
8.22618389 4.22405481 0.48463094 13 3 6282 9.26000000 2687517895 2687517895 3.00000000
2.87467933 1.47611618 -0.62814319 5 4 6282 3.29200000 2687517898 2687517898 -11.00000000
8.21749687 4.21778202 0.80810803 75 5 6283 9.27200000 2687517900 2687517900 5.00000000
3.62585115 1.86023557 -0.64544863 6 6 6284 4.12600000 2687517902 2687517902 -9.00000000
8.24715710 4.22936916 1.13801599 87 7 6285 9.33800000 2687517904 2687517904 7.00000000
4.88973522 2.50651312 -0.67466867 6 8 6286 5.53600000 2687517907 2687517907 -7.00000000
6.68132353 3.42342162 -0.65680569 12 10 6287 7.53600000 2687517911 2687517911 -5.00000000
8.21178150 4.20398998 -0.48347956 17 12 6289 9.23800000 2687517916 2687517916 -3.00000000
8.26976013 4.23185015 2.14468336 80 13 6290 9.53400000 2687517918 2687517918 13.00000000
8.20190430 4.19532013 -0.16080648 16 14 6291 9.21400000 2687517921 2687517921 -1.00000000
7.82388258 4.00196028 2.35473561 45 15 6291 9.09800000 2687517923 2687517923 15.00000000
2.01717520 1.02824569 -0.60667187 4 0 6299 2.34400000 2687517944 2687517944 -15.00000000
8.19779301 4.17698431 0.16059704 12 1 6300 9.20200000 2687517946 2687517946 1.00000000
8.19278145 4.17262983 -2.12263823 8 2 6301 9.43600000 2687517948 2687517948 -13.00000000
8.23375893 4.19168997 0.48421228 13 3 6302 9.25200000 2687517951 2687517951 3.00000000
2.87456560 1.46340060 -0.62699836 5 4 6302 3.28600000 2687517953 2687517953 -11.00000000
8.22151566 4.18365049 0.80706215 78 5 6303 9.26000000 2687517955 2687517955 5.00000000
3.62880087 1.84577656 -0.64482284 6 6 6304 4.12200000 2687517957 2687517957 -9.00000000
8.23709679 4.18796015 1.13460362 95 7 6305 9.31000000 2687517960 2687517960 7.00000000
4.89845467 2.48942947 -0.67466867 6 8 6306 5.53600000 2687517962 2687517962 -7.00000000
6.67902231 3.39285970 -0.65541118 12 10 6307 7.52000000 2687517967 2687517967 -5.00000000
8.21215820 4.16806841 -0.48264217 17 12 6309 9.22200000 2687517971 2687517971 -3.00000000
8.27753067 4.19943094 2.14288378 78 13 6310 9.52600000 2687517974 2687517974 13.00000000
8.21114826 4.16395140 -0.16070175 18 14 6311 9.20800000 2687517976 2687517976 -1.00000000
7.83780432 3.97462535 2.35473561 45 15 6311 9.09800000 2687517978 2687517978 15.00000000
2.03091812 1.02678061 -0.60977769 4 0 6318 2.35600000 2687517999 2687517999 -15.00000000
8.20267582 4.14526701 0.16042252 12 1 6319 9.19200000 2687518001 2687518001 1.00000000
2.39865708 1.21164894 -0.62041503 4 2 6320 2.75800000 2687518004 2687518004 -13.00000000
8.22978497 4.15536070 0.48316556 15 3 6321 9.23200000 2687518006 2687518006 3.00000000
2.88641286 1.45739973 -0.62852484 5 4 6321 3.29400000 2687518008 2687518008 -11.00000000
8.22111416 4.14918232 0.80566770 78 5 6322 9.24400000 2687518010 2687518010 5.00000000
3.63490176 1.83373284 -0.64482284 6 6 6323 4.12200000 2687518013 2687518013 -9.00000000
8.22966957 4.14989614 1.13167870 95 7 6324 9.28600000 2687518015 2687518015 7.00000000
4.90313768 2.47138500 -0.67418122 6 8 6325 5.53200000 2687518017 2687518017 -7.00000000
6.67956066 3.36531401 -0.65436530 8 10 6326 7.50800000 2687518022 2687518022 -5.00000000
8.20274353 4.12913847 -0.48128146 17 12 6328 9.19600000 2687518027 2687518027 -3.00000000
8.26703930 4.15969563 2.13658500 75 13 6329 9.49800000 2687518029 2687518029 13.00000000
8.21597862 4.13220692 -0.16052723 16 14 6330 9.19800000 2687518031 2687518031 -1.00000000
7.85957098 3.95295238 2.35732388 47 15 6330 9.10800000 2687518033 2687518033 15.00000000
2.03794408 1.02141631 -0.61081296 4 0 6338 2.36000000 2687518054 2687518054 -15.00000000
8.20636845 4.11123466 0.16021310 12 1 6339 9.18000000 2687518057 2687518057 1.00000000
8.19137096 4.10193348 -2.11498976 8 2 6340 9.40200000 2687518059 2687518059 -13.00000000
8.21744919 4.11319828 0.48159546 13 3 6341 9.20200000 2687518061 2687518061 3.00000000
2.88621569 1.44467914 -0.62737995 5 4 6341 3.28800000 2687518063 2687518063 -11.00000000
8.22663879 4.11600256 0.80479610 78 5 6342 9.23400000 2687518066 2687518066 5.00000000
3.63774705 1.81926632 -0.64419711 6 6 6343 4.11800000 2687518068 2687518068 -9.00000000
8.22634888 4.11226797 1.12924135 97 7 6344 9.26600000 2687518070 2687518070 7.00000000
4.89397717 2.44538188 -0.67174381 9 8 6345 5.51200000 2687518073 2687518073 -7.00000000
8.32712555 4.15901232 1.47423840 2 9 6346 9.42400000 2687518075 2687518075 9.00000000
6.72335100 3.35800171 -0.65750295 8 10 6346 7.54400000 2687518077 2687518077 -5.00000000
8.20817089 4.09602118 -0.48075810 17 12 6348 9.18600000 2687518082 2687518082 -3.00000000
8.25535107 4.11776543 2.12983656 74 13 6349 9.46800000 2687518084 2687518084 13.00000000
8.20171928 4.08922625 -0.15996876 16 14 6350 9.16600000 2687518086 2687518086 -1.00000000
7.87919378 3.92670417 2.35887671 47 15 6351 9.11400000 2687518089 2687518089 15.00000000
2.03111672 1.00913894 -0.60770714 4 0 6358 2.34800000 2687518110 2687518110 -15.00000000
8.20992279 4.07722759 0.16000366 12 1 6359 9.16800000 2687518112 2687518112 1.00000000
8.19342136 4.06724977 -2.11184049 8 2 6360 9.38800000 2687518114 2687518114 -13.00000000
8.22638988 4.08182573 0.48128146 13 3 6361 9.19600000 2687518116 2687518116 3.00000000
2.88772368 1.43285024 -0.62661672 5 4 6361 3.28400000 2687518119 2687518119 -11.00000000
8.22846127 4.08106422 0.80357593 86 5 6362 9.22000000 2687518121 2687518121 5.00000000
3.65469432 1.81182146 -0.64607435 4 6 6363 4.13000000 2687518123 2687518123 -9.00000000
8.23353863 4.08000231 1.12826633 95 7 6364 9.25800000 2687518126 2687518126 7.00000000
4.92027187 2.43709469 -0.67418122 6 8 6365 5.53200000 2687518128 2687518128 -7.00000000
6.76360035 3.34865665 -0.66029191 4 10 6366 7.57600000 2687518133 2687518133 -5.00000000
8.20988750 4.06114578 -0.48002538 12 12 6368 9.17200000 2687518137 2687518137 -3.00000000
8.26443386 4.08633280 2.12848687 72 13 6369 9.46200000 2687518139 2687518139 13.00000000
8.20339394 4.05436993 -0.15972443 18 14 6370 9.15200000 2687518142 2687518142 -1.00000000
7.88870811 3.89884233 2.35784149 47 15 6370 9.11000000 2687518144 2687518144 15.00000000
2.03462672 1.00204289 -0.60770714 4 0 6378 2.34800000 2687518165 2687518165 -15.00000000
8.20616436 4.03971291 0.15965462 12 1 6379 9.14800000 2687518167 2687518167 1.00000000
8.19882584 4.03432274 -2.10959101 8 2 6380 9.37800000 2687518169 2687518169 -13.00000000
8.21908092 4.04250765 0.48002538 13 3 6381 9.17200000 2687518172 2687518172 3.00000000
2.89975429 1.42622745 -0.62814319 5 4 6381 3.29200000 2687518174 2687518174 -11.00000000
8.20332146 4.03297806 0.79974109 75 5 6382 9.17600000 2687518176 2687518176 5.00000000
3.65035915 1.79382598 -0.64419711 4 6 6383 4.11800000 2687518179 2687518179 -9.00000000
8.23347664 4.04423523 1.12631643 95 7 6384 9.24200000 2687518181 2687518181 7.00000000
4.92518473 2.41815495 -0.67369372 9 8 6385 5.52800000 2687518183 2687518183 -7.00000000
7.54434967 3.70247197 -0.73524582 13 10 6386 8.43600000 2687518188 2687518188 -5.00000000
8.20787430 4.02454948 -0.47908333 17 12 6388 9.15400000 2687518192 2687518192 -3.00000000
8.26639843 4.05145597 2.12533760 74 13 6389 9.44800000 2687518195 2687518195 13.00000000
8.19774342 4.01603270 -0.15934047 18 14 6390 9.13000000 2687518197 2687518197 -1.00000000
7.89186001 3.86618233 2.35473561 45 15 6390 9.09800000 2687518199 2687518199 15.00000000
2.04158425 0.99662948 -0.60874242 4 0 6398 2.35200000 2687518221 2687518221 -15.00000000
8.19146156 3.99701238 0.15909614 12 1 6399 9.11600000 2687518223 2687518223 1.00000000
8.19709492 3.99799037 -2.10554194 8 2 6400 9.36000000 2687518226 2687518226 -13.00000000
8.22167015 4.00997686 0.47939736 10 3 6400 9.16000000 2687518228 2687518228 3.00000000
2.90118575 1.41437602 -0.62737995 5 4 6401 3.28800000 2687518230 2687518230 -11.00000000
8.20660210 3.99908209 0.79869521 75 5 6402 9.16400000 2687518233 2687518233 5.00000000
3.65659857 1.78107285 -0.64419711 6 6 6403 4.11800000 2687518235 2687518235 -9.00000000
8.22612572 4.00504303 1.12339163 95 7 6404 9.21800000 2687518237 2687518237 7.00000000
4.94787550 2.40789747 -0.67564362 6 8 6405 5.54400000 2687518239 2687518239 -7.00000000
7.55722761 3.67611480 -0.73524582 13 10 6406 8.43600000 2687518244 2687518244 -5.00000000
8.20031643 3.98539758 -0.47782728 17 12 6408 9.13000000 2687518249 2687518249 -3.00000000
8.27172661 4.01831865 2.12308812 70 13 6409 9.43800000 2687518251 2687518251 13.00000000
8.20271778 3.98302555 -0.15916595 16 14 6410 9.12000000 2687518253 2687518253 -1.00000000
7.91225910 3.84198642 2.35680628 45 15 6410 9.10600000 2687518256 2687518256 15.00000000
2.04505062 0.98949695 -0.60874242 4 0 6418 2.35200000 2687518276 2687518276 -15.00000000
8.19456196 3.96317077 0.15888670 18 1 6419 9.10400000 2687518279 2687518279 1.00000000
8.17941952 3.95408607 -2.09744358 8 2 6420 9.32400000 2687518281 2687518281 -13.00000000
8.21293449 3.96851945 0.47803661 10 3 6421 9.13400000 2687518283 2687518283 3.00000000
2.91140819 1.40680289 -0.62852484 5 4 6421 3.29400000 2687518286 2687518286 -11.00000000
8.20257092 3.96174598 0.79695213 75 5 6422 9.14400000 2687518288 2687518288 5.00000000
3.65923572 1.76658046 -0.64357138 4 6 6423 4.11400000 2687518290 2687518290 -9.00000000
8.22217751 3.96767688 1.12095428 92 7 6424 9.19800000 2687518292 2687518292 7.00000000
4.93837070 2.38198733 -0.67320627 6 8 6425 5.52400000 2687518295 2687518295 -7.00000000
7.57719231 3.65317369 -0.73594308 13 10 6426 8.44400000 2687518299 2687518299 -5.00000000
8.19798374 3.94894814 -0.47688523 17 12 6428 9.11200000 2687518304 2687518304 -3.00000000
8.27165604 3.98265743 2.11948872 66 13 6429 9.42200000 2687518306 2687518306 13.00000000
8.20936298 3.95089984 -0.15902632 18 14 6430 9.11200000 2687518309 2687518309 -1.00000000
7.93325090 3.81631064 2.35887671 45 15 6431 9.11400000 2687518311 2687518311 15.00000000
2.05006242 0.98354554 -0.60926002 4 0 6437 2.35400000 2687518332 2687518332 -15.00000000
8.20946217 3.93683934 0.15892161 21 1 6438 9.10600000 2687518334 2687518334 1.00000000
8.18897247 3.92525578 -2.09654379 8 2 6439 9.32000000 2687518336 2687518336 -13.00000000
8.20374870 3.93233848 0.47678056 10 3 6439 9.11000000 2687518339 2687518339 3.00000000
2.90543413 1.39205086 -0.62623513 5 4 6440 3.28200000 2687518341 2687518341 -11.00000000
8.21746063 3.93538404 0.79712641 78 5 6441 9.14600000 2687518343 2687518343 5.00000000
3.66507363 1.75443625 -0.64357138 4 6 6442 4.11400000 2687518345 2687518345 -9.00000000
8.22454548 3.93524861 1.11949182 90 7 6443 9.18600000 2687518348 2687518348 7.00000000
4.94266081 2.36388493 -0.67271876 6 8 6444 5.52000000 2687518350 2687518350 -7.00000000
7.58207512 3.62458944 -0.73524582 13 10 6445 8.43600000 2687518355 2687518355 -5.00000000
8.19481373 3.91399384 -0.47594318 17 12 6447 9.09400000 2687518359 2687518359 -3.00000000
8.26371384 3.94513083 2.11408997 72 13 6448 9.39800000 2687518362 2687518362 13.00000000
8.19895840 3.91245914 -0.15857257 16 14 6449 9.08600000 2687518364 2687518364 -1.00000000
7.95914936 3.79802465 2.36301780 45 15 6449 9.13000000 2687518366 2687518366 15.00000000
2.05348325 0.97638351 -0.60926002 4 0 6457 2.35400000 2687518387 2687518387 -15.00000000
8.21231842 3.90300894 0.15871218 18 1 6458 9.09400000 2687518389 2687518389 1.00000000
8.19382286 3.89246607 -2.09429431 8 2 6459 9.31000000 2687518391 2687518391 -13.00000000
8.21742535 3.90367818 0.47678056 10 3 6459 9.11000000 2687518394 2687518394 3.00000000
2.90318179 1.37853205 -0.62470865 5 4 6460 3.27400000 2687518396 2687518396 -11.00000000
8.22034740 3.90155005 0.79608053 82 5 6461 9.13400000 2687518398 2687518398 5.00000000
3.68188381 1.74671221 -0.64544863 6 6 6462 4.12600000 2687518401 2687518401 -9.00000000
8.23105812 3.90311337 1.11851680 95 7 6463 9.17800000 2687518403 2687518403 7.00000000
4.94729471 2.34491706 -0.67223132 6 8 6464 5.51600000 2687518405 2687518405 -7.00000000
7.59468079 3.59810114 -0.73524582 13 10 6465 8.43600000 2687518410 2687518410 -5.00000000
8.20301056 3.88280129 -0.47562918 17 12 6467 9.08800000 2687518415 2687518415 -3.00000000
8.26334286 3.90959358 2.11049080 72 13 6468 9.38200000 2687518417 2687518417 13.00000000
