# .PCD v0.7 - Point Cloud Data file format
VERSION 0.7
FIELDS x y z intensity laser_id azimuth distance_m adjustedtime timestamp vertical_angle
SIZE 4 4 4 1 1 2 8 8 4 8
TYPE F F F U U U F U U F
COUNT 1 1 1 1 1 1 1 1 1 1
WIDTH 520
HEIGHT 1
VIEWPOINT 0 0 0 1 0 0 0
POINTS 520
DATA ascii
-7.46005440 -0.89616102 -0.39377573 4 12 26315 7.52400000 2690873559 2690873559 -3.00000000
-10.21240139 -1.22137082 2.75590515 42 15 26318 10.64800000 2690873566 2690873566 15.00000000
-1.92037940 -0.22729188 -0.51815575 5 0 26325 2.00200000 2690873586 2690873586 -15.00000000
-2.22560906 -0.26263046 -0.51738745 4 2 26327 2.30000000 2690873591 2690873591 -13.00000000
-2.58344078 -0.30439880 -0.50564384 3 4 26328 2.65000000 2690873596 2690873596 -11.00000000
-3.09389448 -0.36344907 -0.49339432 4 6 26330 3.15400000 2690873600 2690873600 -9.00000000
-3.87422562 -0.45374596 -0.47894651 7 8 26332 3.93000000 2690873605 2690873605 -7.00000000
-5.07588911 -0.59358567 -0.44710895 3 10 26333 5.13000000 2690873609 2690873609 -5.00000000
-7.45520210 -0.86918992 -0.39335704 4 12 26335 7.51600000 2690873614 2690873614 -3.00000000
-10.22982788 -1.18905985 2.75952864 42 15 26337 10.66200000 2690873621 2690873621 15.00000000
-1.92691886 -0.22124822 -0.51970863 5 0 26345 2.00800000 2690873642 2690873642 -15.00000000
-2.20715117 -0.25264385 -0.51288843 4 2 26347 2.28000000 2690873646 2690873646 -13.00000000
-2.58448744 -0.29537904 -0.50564384 3 4 26348 2.65000000 2690873651 2690873651 -11.00000000
-3.09906960 -0.35309437 -0.49402004 3 6 26350 3.15800000 2690873655 2690873655 -9.00000000
-3.86986876 -0.43954754 -0.47821531 7 8 26352 3.92400000 2690873660 2690873660 -7.00000000
-5.11356449 -0.57990503 -0.45024657 3 10 26353 5.16600000 2690873665 2690873665 -5.00000000
-7.45223665 -0.84248805 -0.39304304 4 12 26355 7.51000000 2690873669 2690873669 -3.00000000
-10.23411751 -1.15155768 2.75952864 42 15 26358 10.66200000 2690873676 2690873676 15.00000000
-1.93535936 -0.21537533 -0.52177918 5 0 26365 2.01600000 2690873697 2690873697 -15.00000000
-2.21964073 -0.24622707 -0.51558781 4 2 26367 2.29200000 2690873702 2690873702 -13.00000000
-2.58940554 -0.28678796 -0.50640708 3 4 26368 2.65400000 2690873706 2690873706 -11.00000000
-3.11206388 -0.34357506 -0.49589726 3 6 26370 3.17000000 2690873711 2690873711 -9.00000000
-3.84770131 -0.42343077 -0.47529045 5 8 26372 3.90000000 2690873715 2690873715 -7.00000000
-5.11357737 -0.56183428 -0.45007226 3 10 26373 5.16400000 2690873720 2690873720 -5.00000000
-7.46902990 -0.81799179 -0.39377573 4 12 26375 7.52400000 2690873725 2690873725 -3.00000000
-1.92457497 -0.20737658 -0.51867336 5 0 26385 2.00400000 2690873752 2690873752 -15.00000000
-2.22823715 -0.23930995 -0.51738745 4 2 26387 2.30000000 2690873757 2690873757 -13.00000000
-2.58258247 -0.27691028 -0.50488061 3 4 26388 2.64600000 2690873761 2690873761 -11.00000000
-3.10538745 -0.33187020 -0.49464577 3 6 26390 3.16200000 2690873766 2690873766 -9.00000000
-3.86099958 -0.41125873 -0.47675288 5 8 26392 3.91200000 2690873771 2690873771 -7.00000000
-5.09569502 -0.54187429 -0.44832915 3 10 26393 5.14400000 2690873775 2690873775 -5.00000000
-7.48574257 -0.79338855 -0.39450845 8 12 26395 7.53800000 2690873780 2690873780 -3.00000000
-8.56278038 -0.90300655 2.30711293 6 15 26398 8.91400000 2690873787 2690873787 15.00000000
-1.92528713 -0.20065729 -0.51867336 5 0 26405 2.00400000 2690873808 2690873808 -15.00000000
-2.22518229 -0.23112783 -0.51648760 4 2 26407 2.29600000 2690873812 2690873812 -13.00000000
-2.59134459 -0.26870364 -0.50640708 3 4 26408 2.65400000 2690873817 2690873817 -11.00000000
-3.12224627 -0.32265279 -0.49714872 3 6 26410 3.17800000 2690873821 2690873821 -9.00000000
-3.87228465 -0.39879563 -0.47797155 5 8 26412 3.92200000 2690873826 2690873826 -7.00000000
-5.08764601 -0.52306485 -0.44745758 6 10 26413 5.13400000 2690873831 2690873831 -5.00000000
-7.48250580 -0.76664293 -0.39419442 8 12 26415 7.53200000 2690873835 2690873835 -3.00000000
-8.64068031 -0.88225943 2.32730079 13 15 26417 8.99200000 2690873842 2690873842 15.00000000
-1.92789793 -0.19412912 -0.51919103 5 0 26425 2.00600000 2690873863 2690873863 -15.00000000
-2.22597551 -0.22335909 -0.51648760 4 2 26427 2.29600000 2690873867 2690873867 -13.00000000
-2.58445263 -0.25887385 -0.50488061 3 4 26428 2.64600000 2690873872 2690873872 -11.00000000
-3.09976625 -0.30939782 -0.49339432 3 6 26430 3.15400000 2690873877 2690873877 -9.00000000
-3.89143133 -0.38704464 -0.48016521 5 8 26432 3.94000000 2690873881 2690873881 -7.00000000
-5.09935379 -0.50628674 -0.44832915 6 10 26433 5.14400000 2690873886 2690873886 -5.00000000
-7.48712397 -0.74071604 -0.39429909 8 12 26435 7.53400000 2690873890 2690873890 -3.00000000
-10.25112057 -1.00874400 2.76004624 42 15 26438 10.66400000 2690873897 2690873897 15.00000000
-1.93048668 -0.18758516 -0.51970863 5 0 26445 2.00800000 2690873918 2690873918 -15.00000000
-2.21898293 -0.21483645 -0.51468801 4 2 26447 2.28800000 2690873923 2690873923 -13.00000000
-2.58924890 -0.25022855 -0.50564384 3 4 26448 2.65000000 2690873927 2690873927 -11.00000000
-3.11655760 -0.30009037 -0.49589726 3 6 26450 3.17000000 2690873932 2690873932 -9.00000000
-3.88090253 -0.37232122 -0.47870278 5 8 26452 3.92800000 2690873937 2690873937 -7.00000000
-5.09712362 -0.48810372 -0.44798052 6 10 26453 5.14000000 2690873941 2690873941 -5.00000000
-7.46978140 -0.71267962 -0.39325237 8 12 26455 7.51400000 2690873946 2690873946 -3.00000000
-10.25056267 -0.97437888 2.75901103 42 15 26457 10.66000000 2690873953 2690873953 15.00000000
-1.93497658 -0.18120560 -0.52074391 5 0 26465 2.01200000 2690873973 2690873973 -15.00000000
-2.22359991 -0.20745149 -0.51558781 4 2 26467 2.29200000 2690873978 2690873978 -13.00000000
-2.58228731 -0.24046074 -0.50411737 3 4 26468 2.64200000 2690873983 2690873983 -11.00000000
-3.09398293 -0.28702012 -0.49214283 3 6 26470 3.14600000 2690873987 2690873987 -9.00000000
-3.87822509 -0.35840672 -0.47821531 5 8 26472 3.92400000 2690873992 2690873992 -7.00000000
-5.11466789 -0.47177246 -0.44937500 6 10 26473 5.15600000 2690873996 2690873996 -5.00000000
-7.48017931 -0.68733191 -0.39367107 8 12 26475 7.52200000 2690874001 2690874001 -3.00000000
-9.50376797 -0.86825567 2.55713224 13 15 26478 9.88000000 2690874008 2690874008 15.00000000
-1.92212892 -0.17323631 -0.51712048 5 0 26485 1.99800000 2690874029 2690874029 -15.00000000
-2.22431064 -0.19968840 -0.51558781 4 2 26487 2.29200000 2690874033 2690874033 -13.00000000
-2.58311105 -0.23144540 -0.50411737 3 4 26488 2.64200000 2690874038 2690874038 -11.00000000
-3.13038206 -0.27937916 -0.49777448 3 6 26490 3.18200000 2690874043 2690874043 -9.00000000
-3.87945271 -0.34486699 -0.47821531 5 8 26492 3.92400000 2690874047 2690874047 -7.00000000
-5.11826801 -0.45409214 -0.44954932 3 10 26493 5.15800000 2690874052 2690874052 -5.00000000
-11.13520527 -0.98595536 2.17293286 21 11 26494 11.38800000 2690874054 2690874054 11.00000000
-7.51237535 -0.66385418 -0.39524114 4 12 26495 7.55200000 2690874056 2690874056 -3.00000000
-10.00109100 -0.88201803 2.31789565 27 13 26496 10.30400000 2690874059 2690874059 13.00000000
-10.23787117 -0.90109950 2.75383472 35 15 26497 10.64000000 2690874063 2690874063 15.00000000
-1.92657125 -0.16685915 -0.51815575 4 0 26505 2.00200000 2690874084 2690874084 -15.00000000
-2.23858476 -0.19309521 -0.51873714 4 2 26507 2.30600000 2690874089 2690874089 -13.00000000
-2.61324358 -0.22495292 -0.50984162 5 4 26508 2.67200000 2690874093 2690874093 -11.00000000
-3.11952925 -0.26743799 -0.49589726 3 6 26510 3.17000000 2690874098 2690874098 -9.00000000
-3.89250016 -0.33233631 -0.47967774 5 8 26512 3.93600000 2690874102 2690874102 -7.00000000
-5.10195541 -0.43470097 -0.44798052 3 10 26513 5.14000000 2690874107 2690874107 -5.00000000
-7.51663733 -0.63779593 -0.39534581 8 12 26515 7.55400000 2690874112 2690874112 -3.00000000
-10.04100323 -0.85022634 2.32644391 15 13 26516 10.34200000 2690874114 2690874114 13.00000000
-10.23533058 -0.86308283 2.75228167 45 15 26518 10.63400000 2690874119 2690874119 15.00000000
-1.93291759 -0.16061306 -0.51970863 4 0 26525 2.00800000 2690874139 2690874139 -15.00000000
-2.23341894 -0.18479782 -0.51738745 4 2 26527 2.30000000 2690874144 2690874144 -13.00000000
-2.59249020 -0.21405259 -0.50564384 3 4 26528 2.65000000 2690874149 2690874149 -11.00000000
-3.11256886 -0.25589973 -0.49464577 3 6 26530 3.16200000 2690874153 2690874153 -9.00000000
-3.89561510 -0.31890887 -0.47992146 5 8 26532 3.93800000 2690874158 2690874158 -7.00000000
-5.10542727 -0.41705140 -0.44815484 6 10 26533 5.14200000 2690874162 2690874162 -5.00000000
-7.52478981 -0.61203980 -0.39565983 8 12 26535 7.56000000 2690874167 2690874167 -3.00000000
-10.24391270 -0.82960433 2.75383472 45 15 26537 10.64000000 2690874174 2690874174 15.00000000
-1.95079827 -0.15524422 -0.52436739 5 0 26545 2.02600000 2690874195 2690874195 -15.00000000
-2.22627974 -0.17638496 -0.51558781 4 2 26547 2.29200000 2690874199 2690874199 -13.00000000
-2.60887885 -0.20623955 -0.50869679 3 4 26548 2.66600000 2690874204 2690874204 -11.00000000
-3.12525892 -0.24596320 -0.49652299 3 6 26550 3.17400000 2690874208 2690874208 -9.00000000
-3.90264153 -0.30577388 -0.48065269 5 8 26552 3.94400000 2690874213 2690874213 -7.00000000
-5.14061975 -0.40186736 -0.45111811 3 10 26553 5.17600000 2690874218 2690874218 -5.00000000
-7.56272268 -0.58855903 -0.39754394 8 12 26555 7.59600000 2690874222 2690874222 -3.00000000
-10.24867249 -0.79399055 2.75435233 42 15 26557 10.64200000 2690874229 2690874229 15.00000000
-1.94940209 -0.14828718 -0.52384973 5 0 26565 2.02400000 2690874250 2690874250 -15.00000000
-2.22493863 -0.16846558 -0.51513791 4 2 26567 2.29000000 2690874255 2690874255 -13.00000000
-2.59783673 -0.19624430 -0.50640708 3 4 26568 2.65400000 2690874259 2690874259 -11.00000000
-3.11821914 -0.23446007 -0.49527150 3 6 26570 3.16600000 2690874264 2690874264 -9.00000000
-3.89180779 -0.29126036 -0.47919026 5 8 26572 3.93200000 2690874268 2690874268 -7.00000000
-5.13801765 -0.38362411 -0.45076951 6 10 26573 5.17200000 2690874273 2690874273 -5.00000000
-7.57269812 -0.56274867 -0.39796260 12 12 26575 7.60400000 2690874278 2690874278 -3.00000000
-10.25330830 -0.75835365 2.75486994 42 15 26577 10.64400000 2690874284 2690874284 15.00000000
-1.94605422 -0.14120199 -0.52281445 5 0 26585 2.02000000 2690874305 2690874305 -15.00000000
-2.22940063 -0.16097878 -0.51603770 4 2 26587 2.29400000 2690874310 2690874310 -13.00000000
-2.58675694 -0.18632865 -0.50411737 3 4 26588 2.64200000 2690874314 2690874314 -11.00000000
-3.14266253 -0.22526884 -0.49902594 3 6 26590 3.19000000 2690874319 2690874319 -9.00000000
-3.90072107 -0.27823859 -0.48016521 5 8 26592 3.94000000 2690874324 2690874324 -7.00000000
-5.13733768 -0.36554533 -0.45059520 3 10 26593 5.17000000 2690874328 2690874328 -5.00000000
-7.58258533 -0.53687584 -0.39838129 12 12 26595 7.61200000 2690874333 2690874333 -3.00000000
-10.24831009 -0.72022659 2.75279927 47 15 26598 10.63600000 2690874340 2690874340 15.00000000
-1.92918992 -0.13321044 -0.51815575 4 0 26605 2.00200000 2690874361 2690874361 -15.00000000
-2.24355793 -0.15413067 -0.51918703 4 2 26607 2.30800000 2690874365 2690874365 -13.00000000
-2.59914351 -0.17810334 -0.50640708 3 4 26608 2.65400000 2690874370 2690874370 -11.00000000
-3.13160467 -0.21349140 -0.49714872 3 6 26610 3.17800000 2690874374 2690874374 -9.00000000
-3.91355181 -0.26542678 -0.48162764 5 8 26612 3.95200000 2690874379 2690874379 -7.00000000
-5.13063097 -0.34707257 -0.44989794 3 10 26613 5.16200000 2690874384 2690874384 -5.00000000
-11.10052395 -0.74897254 2.16262913 25 11 26614 11.33400000 2690874386 2690874386 11.00000000
-7.58042765 -0.51013619 -0.39817196 12 12 26615 7.60800000 2690874388 2690874388 -3.00000000
-11.11787987 -0.74624509 2.57254028 42 13 26616 11.43600000 2690874390 2690874390 13.00000000
-10.24678707 -0.68597990 2.75176406 45 15 26617 10.63200000 2690874395 2690874395 15.00000000
-1.93157089 -0.12660185 -0.51867336 4 0 26625 2.00400000 2690874416 2690874416 -15.00000000
-2.22852540 -0.14528406 -0.51558781 4 2 26627 2.29200000 2690874420 2690874420 -13.00000000
-2.60366774 -0.16928430 -0.50717032 3 4 26628 2.65800000 2690874425 2690874425 -11.00000000
-3.12050343 -0.20179389 -0.49527150 3 6 26630 3.16600000 2690874430 2690874430 -9.00000000
-3.92634034 -0.25252879 -0.48309007 5 8 26632 3.96400000 2690874434 2690874434 -7.00000000
-5.14175320 -0.32979888 -0.45076951 3 10 26633 5.17200000 2690874439 2690874439 -5.00000000
-7.60209417 -0.48494393 -0.39921868 12 12 26635 7.62800000 2690874443 2690874443 -3.00000000
-10.24526310 -0.64996314 2.75072885 45 15 26637 10.62800000 2690874450 2690874450 15.00000000
-1.93971360 -0.12033711 -0.52074391 4 0 26645 2.01200000 2690874471 2690874471 -15.00000000
-2.21929383 -0.13690422 -0.51333833 4 2 26647 2.28200000 2690874476 2690874476 -13.00000000
-2.60816169 -0.16043586 -0.50793356 3 4 26648 2.66200000 2690874480 2690874480 -11.00000000
-3.14090562 -0.19210602 -0.49840021 3 6 26650 3.18600000 2690874485 2690874485 -9.00000000
-3.91134644 -0.23785780 -0.48114017 5 8 26652 3.94800000 2690874489 2690874489 -7.00000000
-5.14883900 -0.31221056 -0.45129243 3 10 26653 5.17800000 2690874494 2690874494 -5.00000000
-7.59775972 -0.45804414 -0.39890465 12 12 26655 7.62200000 2690874499 2690874499 -3.00000000
-10.24361324 -0.61396539 2.74969363 47 15 26657 10.62400000 2690874506 2690874506 15.00000000
-1.93433619 -0.11322685 -0.51919103 4 0 26665 2.00600000 2690874526 2690874526 -15.00000000
-2.23337626 -0.12994899 -0.51648760 4 2 26667 2.29600000 2690874531 2690874531 -13.00000000
-2.59694624 -0.15064850 -0.50564384 3 4 26668 2.65000000 2690874536 2690874536 -11.00000000
-3.12183619 -0.18000394 -0.49527150 3 6 26670 3.16600000 2690874540 2690874540 -9.00000000
-3.91413474 -0.22431679 -0.48138392 5 8 26672 3.95000000 2690874545 2690874545 -7.00000000
-5.15984344 -0.29480410 -0.45216399 6 10 26673 5.18800000 2690874549 2690874549 -5.00000000
-7.59333038 -0.43118054 -0.39859065 12 12 26675 7.61600000 2690874554 2690874554 -3.00000000
-10.24579430 -0.57641655 2.74969363 42 15 26678 10.62400000 2690874561 2690874561 15.00000000
-1.93857753 -0.10668638 -0.52022630 4 0 26685 2.01000000 2690874582 2690874582 -15.00000000
-2.23187041 -0.12204585 -0.51603770 4 2 26687 2.29400000 2690874586 2690874586 -13.00000000
-2.59745622 -0.14158256 -0.50564384 3 4 26688 2.65000000 2690874591 2690874591 -11.00000000
-3.14611530 -0.17038751 -0.49902594 3 6 26690 3.19000000 2690874595 2690874595 -9.00000000
-3.92876959 -0.21139915 -0.48309007 5 8 26692 3.96400000 2690874600 2690874600 -7.00000000
-5.14492464 -0.27593747 -0.45076951 3 10 26693 5.17200000 2690874605 2690874605 -5.00000000
-7.61273909 -0.40562865 -0.39953268 16 12 26695 7.63400000 2690874609 2690874609 -3.00000000
-10.23993301 -0.54202867 2.74762297 45 15 26697 10.61600000 2690874616 2690874616 15.00000000
-1.93315017 -0.09962056 -0.51867336 4 0 26705 2.00400000 2690874637 2690874637 -15.00000000
-2.24006772 -0.11465287 -0.51783735 4 2 26707 2.30200000 2690874641 2690874641 -13.00000000
-2.59793448 -0.13251488 -0.50564384 3 4 26708 2.65000000 2690874646 2690874646 -11.00000000
-3.14274526 -0.15920460 -0.49840021 3 6 26710 3.18600000 2690874651 2690874651 -9.00000000
-3.91758800 -0.19708547 -0.48162764 3 8 26712 3.95200000 2690874655 2690874655 -7.00000000
-5.13789701 -0.25757760 -0.45007226 3 10 26713 5.16400000 2690874660 2690874660 -5.00000000
-7.63006687 -0.37984723 -0.40037006 16 12 26715 7.65000000 2690874665 2690874665 -3.00000000
-10.23404503 -0.50589979 2.74555254 45 15 26717 10.60800000 2690874671 2690874671 15.00000000
-1.94120467 -0.09324275 -0.52074391 4 0 26725 2.01200000 2690874692 2690874692 -15.00000000
-2.23850775 -0.10674006 -0.51738745 4 2 26727 2.30000000 2690874697 2690874697 -13.00000000
-2.60622549 -0.12381826 -0.50717032 3 4 26728 2.65800000 2690874701 2690874701 -11.00000000
-3.11960363 -0.14711677 -0.49464577 3 6 26730 3.16200000 2690874706 2690874706 -9.00000000
-3.92618394 -0.18378061 -0.48260260 3 8 26732 3.96000000 2690874711 2690874711 -7.00000000
-5.14075518 -0.23973423 -0.45024657 3 10 26733 5.16600000 2690874715 2690874715 -5.00000000
-7.62336588 -0.35284165 -0.39995137 16 12 26735 7.64200000 2690874720 2690874720 -3.00000000
-10.24354935 -0.46873996 2.74762297 42 15 26738 10.61600000 2690874727 2690874727 15.00000000
-1.94730818 -0.08672396 -0.52229685 5 0 26745 2.01800000 2690874747 2690874747 -15.00000000
-2.22523880 -0.09832340 -0.51423812 4 2 26747 2.28600000 2690874752 2690874752 -13.00000000
-2.60664177 -0.11472008 -0.50717032 3 4 26748 2.65800000 2690874757 2690874757 -11.00000000
-3.13983297 -0.13708808 -0.49777448 3 6 26750 3.18200000 2690874761 2690874761 -9.00000000
-3.92680144 -0.17007455 -0.48260260 3 8 26752 3.96000000 2690874766 2690874766 -7.00000000
-5.15947533 -0.22256097 -0.45181537 3 10 26753 5.18400000 2690874771 2690874771 -5.00000000
-7.63053751 -0.32648510 -0.40026540 16 12 26755 7.64800000 2690874775 2690874775 -3.00000000
-10.24512291 -0.43298045 2.74762297 45 15 26758 10.61600000 2690874782 2690874782 15.00000000
-1.95145941 -0.08008449 -0.52333212 5 0 26765 2.02200000 2690874803 2690874803 -15.00000000
-2.22946262 -0.09071372 -0.51513791 4 2 26767 2.29000000 2690874807 2690874807 -13.00000000
-2.61094975 -0.10577945 -0.50793356 3 4 26768 2.66200000 2690874812 2690874812 -11.00000000
-3.12844968 -0.12565152 -0.49589726 3 6 26770 3.17000000 2690874817 2690874817 -9.00000000
-3.91745353 -0.15597156 -0.48138392 3 8 26772 3.95000000 2690874821 2690874821 -7.00000000
-5.16818428 -0.20486535 -0.45251262 3 10 26773 5.19200000 2690874826 2690874826 -5.00000000
-7.62364769 -0.29953393 -0.39984670 16 12 26775 7.64000000 2690874830 2690874830 -3.00000000
-10.24657249 -0.39721566 2.74762297 42 15 26778 10.61600000 2690874837 2690874837 15.00000000
-1.94593561 -0.07305471 -0.52177918 5 0 26785 2.01600000 2690874858 2690874858 -15.00000000
-2.22976565 -0.08293089 -0.51513791 4 2 26787 2.29000000 2690874863 2690874863 -13.00000000
-2.59560776 -0.09608388 -0.50488061 3 4 26788 2.64600000 2690874867 2690874867 -11.00000000
-3.15255785 -0.11559905 -0.49965167 3 6 26790 3.19400000 2690874872 2690874872 -9.00000000
-3.93384433 -0.14287253 -0.48333383 3 8 26792 3.96600000 2690874877 2690874877 -7.00000000
-5.16090345 -0.18653591 -0.45181537 3 10 26793 5.18400000 2690874881 2690874881 -5.00000000
-7.65059423 -0.27384940 -0.40120745 16 12 26795 7.66600000 2690874886 2690874886 -3.00000000
-10.24017334 -0.36117366 2.74555254 47 15 26798 10.60800000 2690874893 2690874893 15.00000000
-1.93652511 -0.06593300 -0.51919103 5 0 26805 2.00600000 2690874913 2690874913 -15.00000000
-2.23783231 -0.07540958 -0.51693749 4 2 26807 2.29800000 2690874918 2690874918 -13.00000000
-2.60377598 -0.08728604 -0.50640708 3 4 26808 2.65400000 2690874923 2690874923 -11.00000000
-3.13714790 -0.10406991 -0.49714872 3 6 26810 3.17800000 2690874927 2690874927 -9.00000000
-3.91844702 -0.12861899 -0.48138392 3 8 26812 3.95000000 2690874932 2690874932 -7.00000000
-5.15953159 -0.16845484 -0.45164105 3 10 26813 5.18200000 2690874936 2690874936 -5.00000000
-7.65549612 -0.24727112 -0.40141678 16 12 26815 7.67000000 2690874941 2690874941 -3.00000000
-10.22972965 -0.32684386 2.74244666 45 15 26817 10.59600000 2690874948 2690874948 15.00000000
-1.93481255 -0.05911387 -0.51867336 4 0 26825 2.00400000 2690874969 2690874969 -15.00000000
-2.24197745 -0.06771529 -0.51783735 4 2 26827 2.30200000 2690874973 2690874973 -13.00000000
-2.60798955 -0.07831449 -0.50717032 3 4 26828 2.65800000 2690874978 2690874978 -11.00000000
-3.13749194 -0.09311859 -0.49714872 3 6 26830 3.17800000 2690874982 2690874982 -9.00000000
-3.94069862 -0.11558045 -0.48406503 3 8 26832 3.97200000 2690874987 2690874987 -7.00000000
-5.15610504 -0.15032756 -0.45129243 3 10 26833 5.17800000 2690874992 2690874992 -5.00000000
-7.65431643 -0.22048944 -0.40131211 24 12 26835 7.66800000 2690874996 2690874996 -3.00000000
-10.22506618 -0.28918400 2.74089360 47 15 26838 10.59000000 2690875003 2690875003 15.00000000
-1.95237815 -0.05317080 -0.52333212 5 0 26844 2.02200000 2690875024 2690875024 -15.00000000
-2.23050141 -0.05996602 -0.51513791 4 2 26846 2.29000000 2690875029 2690875029 -13.00000000
-2.62393522 -0.07008501 -0.51022327 3 4 26847 2.67400000 2690875033 2690875033 -11.00000000
-3.13778353 -0.08271378 -0.49714872 3 6 26849 3.17800000 2690875038 2690875038 -9.00000000
-3.91724730 -0.10189258 -0.48114017 3 8 26851 3.94800000 2690875042 2690875042 -7.00000000
-5.15856695 -0.13327993 -0.45146674 3 10 26852 5.18000000 2690875047 2690875047 -5.00000000
-7.64701891 -0.19490205 -0.40089342 24 12 26854 7.66000000 2690875052 2690875052 -3.00000000
-10.21626759 -0.25681689 2.73830557 45 15 26856 10.58000000 2690875059 2690875059 15.00000000
-1.96027708 -0.04653881 -0.52540267 4 0 26864 2.03000000 2690875079 2690875079 -15.00000000
-2.23849010 -0.05236204 -0.51693749 4 2 26866 2.29800000 2690875084 2690875084 -13.00000000
-2.60846210 -0.06056079 -0.50717032 3 4 26867 2.65800000 2690875088 2690875088 -11.00000000
-3.13410354 -0.07167005 -0.49652299 3 6 26869 3.17400000 2690875093 2690875093 -9.00000000
-3.91757917 -0.08821821 -0.48114017 3 8 26871 3.94800000 2690875098 2690875098 -7.00000000
-5.16696835 -0.11545039 -0.45216399 6 10 26872 5.18800000 2690875102 2690875102 -5.00000000
-7.65164614 -0.16829562 -0.40110278 24 12 26874 7.66400000 2690875107 2690875107 -3.00000000
-10.22100353 -0.21945360 2.73934078 45 15 26877 10.58400000 2690875114 2690875114 15.00000000
-1.94691420 -0.03908232 -0.52177918 5 0 26885 2.01600000 2690875135 2690875135 -15.00000000
-2.24451208 -0.04427250 -0.51828724 4 2 26887 2.30400000 2690875139 2690875139 -13.00000000
-2.60866666 -0.05099989 -0.50717032 3 4 26888 2.65800000 2690875144 2690875144 -11.00000000
-3.14619517 -0.06041003 -0.49840021 3 6 26890 3.18600000 2690875148 2690875148 -9.00000000
-3.93772340 -0.07423313 -0.48357755 3 8 26892 3.96800000 2690875153 2690875153 -7.00000000
-5.16337299 -0.09643732 -0.45181537 6 10 26893 5.18400000 2690875158 2690875158 -5.00000000
-7.65620565 -0.14032300 -0.40131211 20 12 26895 7.66800000 2690875162 2690875162 -3.00000000
-10.21398067 -0.18363541 2.73727012 45 15 26897 10.57600000 2690875169 2690875169 15.00000000
-1.94703877 -0.03228609 -0.52177918 5 0 26905 2.01600000 2690875190 2690875190 -15.00000000
-2.24075603 -0.03637416 -0.51738745 4 2 26907 2.30000000 2690875194 2690875194 -13.00000000
-2.61275482 -0.04195669 -0.50793356 3 4 26908 2.66200000 2690875199 2690875199 -11.00000000
-3.14638686 -0.04942739 -0.49840021 3 6 26910 3.18600000 2690875204 2690875204 -9.00000000
-3.93597364 -0.06045697 -0.48333383 3 8 26912 3.96600000 2690875208 2690875208 -7.00000000
-5.15172482 -0.07823168 -0.45076951 6 10 26913 5.17200000 2690875213 2690875213 -5.00000000
-7.63867521 -0.11333034 -0.40037006 16 12 26915 7.65000000 2690875217 2690875217 -3.00000000
-10.18367863 -0.14575571 2.72898793 42 15 26918 10.54400000 2690875224 2690875224 15.00000000
-1.94520342 -0.02580367 -0.52126157 5 0 26924 2.01400000 2690875245 2690875245 -15.00000000
-2.24865866 -0.02904402 -0.51918703 4 2 26926 2.30800000 2690875250 2690875250 -13.00000000
-2.61680555 -0.03334227 -0.50869679 3 4 26927 2.66600000 2690875254 2690875254 -11.00000000
-3.13073158 -0.03879751 -0.49589726 3 6 26929 3.17000000 2690875259 2690875259 -9.00000000
-3.94012260 -0.04745229 -0.48382130 3 8 26931 3.97000000 2690875264 2690875264 -7.00000000
-5.16390944 -0.06128939 -0.45181537 6 10 26932 5.18400000 2690875268 2690875268 -5.00000000
-7.64300346 -0.08804497 -0.40057942 16 12 26934 7.65400000 2690875273 2690875273 -3.00000000
-10.18408680 -0.11376207 2.72898793 45 15 26936 10.54400000 2690875280 2690875280 15.00000000
-1.94914520 -0.01905125 -0.52229685 5 0 26944 2.01800000 2690875300 2690875300 -15.00000000
-2.23510575 -0.02106600 -0.51603770 4 2 26946 2.29400000 2690875305 2690875305 -13.00000000
-2.62083244 -0.02424403 -0.50946003 3 4 26947 2.67000000 2690875310 2690875310 -11.00000000
-3.14269972 -0.02797447 -0.49777448 3 6 26949 3.18200000 2690875314 2690875314 -9.00000000
-3.92835402 -0.03359655 -0.48235887 3 8 26951 3.95800000 2690875319 2690875319 -7.00000000
-5.16409206 -0.04326361 -0.45181537 6 10 26952 5.18400000 2690875323 2690875323 -5.00000000
-7.64725828 -0.06139744 -0.40078875 16 12 26954 7.65800000 2690875328 2690875328 -3.00000000
-10.19216251 -0.07649276 2.73105860 45 15 26957 10.55200000 2690875335 2690875335 15.00000000
-1.95886099 -0.01196615 -0.52488500 5 0 26965 2.02800000 2690875356 2690875356 -15.00000000
-2.23127055 -0.01285134 -0.51513791 4 2 26967 2.29000000 2690875360 2690875360 -13.00000000
-2.61305070 -0.01459418 -0.50793356 3 4 26968 2.66200000 2690875365 2690875365 -11.00000000
-3.14673185 -0.01647640 -0.49840021 3 6 26970 3.18600000 2690875370 2690875370 -9.00000000
-3.93242097 -0.01921759 -0.48284635 3 8 26972 3.96200000 2690875374 2690875374 -7.00000000
-5.18015480 -0.02441109 -0.45320988 9 10 26973 5.20000000 2690875379 2690875379 -5.00000000
-7.64942932 -0.03337714 -0.40089342 24 12 26975 7.66000000 2690875383 2690875383 -3.00000000
-10.20009422 -0.04094603 2.73312902 47 15 26977 10.56000000 2690875390 2690875390 15.00000000
-1.95502722 -0.00511826 -0.52384973 5 0 26985 2.02400000 2690875411 2690875411 -15.00000000
-2.23909664 -0.00508036 -0.51693749 4 2 26987 2.29800000 2690875416 2690875416 -13.00000000
-2.60130644 -0.00544817 -0.50564384 3 4 26988 2.65000000 2690875420 2690875420 -11.00000000
-3.15862250 -0.00551284 -0.50027740 3 6 26990 3.19800000 2690875425 2690875425 -9.00000000
-3.94834471 -0.00551293 -0.48479626 3 8 26992 3.97800000 2690875429 2690875429 -7.00000000
-5.18817806 -0.00633856 -0.45390710 9 10 26993 5.20800000 2690875434 2690875434 -5.00000000
-7.64949942 -0.00667545 -0.40089342 20 12 26995 7.66000000 2690875439 2690875439 -3.00000000
-10.19051647 -0.00355716 2.73054099 45 15 26998 10.55000000 2690875446 2690875446 15.00000000
-1.93957853 0.00135408 -0.51970863 5 0 27004 2.00800000 2690875466 2690875466 -15.00000000
-2.25274229 0.00235907 -0.52008682 4 2 27006 2.31200000 2690875471 2690875471 -13.00000000
-2.61308956 0.00319249 -0.50793356 3 4 27007 2.66200000 2690875476 2690875476 -11.00000000
-3.15862346 0.00496156 -0.50027740 3 6 27009 3.19800000 2690875480 2690875480 -9.00000000
-3.94834137 0.00758028 -0.48479626 3 8 27011 3.97800000 2690875485 2690875485 -7.00000000
-5.17223167 0.01083271 -0.45251262 6 10 27012 5.19200000 2690875489 2690875489 -5.00000000
-7.66346025 0.01872540 -0.40162614 16 12 27014 7.67400000 2690875494 2690875494 -3.00000000
-10.16729546 0.02839252 2.72432923 42 15 27016 10.52600000 2690875501 2690875501 15.00000000
-1.94535756 0.00814874 -0.52126157 5 0 27024 2.01400000 2690875522 2690875522 -15.00000000
-2.23907924 0.01016069 -0.51693749 4 2 27026 2.29800000 2690875526 2690875526 -13.00000000
-2.61306262 0.01231386 -0.50793356 3 4 27027 2.66200000 2690875531 2690875531 -11.00000000
-3.16253757 0.01600718 -0.50090313 3 6 27029 3.20200000 2690875535 2690875535 -9.00000000
-3.94829082 0.02136252 -0.48479626 5 8 27031 3.97800000 2690875540 2690875540 -7.00000000
-5.18411636 0.02895387 -0.45355847 6 10 27032 5.20400000 2690875545 2690875545 -5.00000000
-7.64337587 0.04535724 -0.40057942 16 12 27034 7.65400000 2690875549 2690875549 -3.00000000
-10.16713428 0.06388283 2.72432923 45 15 27036 10.52600000 2690875556 2690875556 15.00000000
-1.95304441 0.01499860 -0.52333212 5 0 27044 2.02200000 2690875577 2690875577 -15.00000000
-2.22344089 0.01785131 -0.51333833 4 2 27046 2.28200000 2690875582 2690875582 -13.00000000
-2.60515094 0.02137065 -0.50640708 3 4 27047 2.65400000 2690875586 2690875586 -11.00000000
-3.14270926 0.02687746 -0.49777448 3 6 27049 3.18200000 2690875591 2690875591 -9.00000000
-3.94620705 0.03512682 -0.48455250 5 8 27051 3.97600000 2690875595 2690875595 -7.00000000
-5.18398380 0.04704963 -0.45355847 6 10 27052 5.20400000 2690875600 2690875600 -5.00000000
-7.63118792 0.07192438 -0.39995137 16 12 27054 7.64200000 2690875605 2690875605 -3.00000000
-10.16298580 0.09933461 2.72329402 42 15 27056 10.52200000 2690875611 2690875611 15.00000000
-1.95877540 0.02188064 -0.52488500 5 0 27064 2.02800000 2690875632 2690875632 -15.00000000
-2.23115945 0.02570225 -0.51513791 4 2 27066 2.29000000 2690875637 2690875637 -13.00000000
-2.62469172 0.03069377 -0.51022327 3 4 27067 2.67400000 2690875641 2690875641 -11.00000000
-3.14259648 0.03784740 -0.49777448 3 6 27069 3.18200000 2690875646 2690875646 -9.00000000
-3.93812084 0.04880305 -0.48357755 5 8 27071 3.96800000 2690875651 2690875651 -7.00000000
-5.17581892 0.06504469 -0.45286125 6 10 27072 5.19600000 2690875655 2690875655 -5.00000000
-7.64487028 0.09874232 -0.40068409 16 12 27074 7.65600000 2690875660 2690875660 -3.00000000
-10.15869045 0.13653122 2.72225881 42 15 27077 10.51800000 2690875667 2690875667 15.00000000
-1.94517052 0.02818016 -0.52126157 5 0 27083 2.01400000 2690875688 2690875688 -15.00000000
-2.24275303 0.03327435 -0.51783735 4 2 27085 2.30200000 2690875692 2690875692 -13.00000000
-2.60887122 0.03916166 -0.50717032 3 4 27086 2.65800000 2690875697 2690875697 -11.00000000
-3.15825486 0.04851113 -0.50027740 3 6 27088 3.19800000 2690875701 2690875701 -9.00000000
-3.93793726 0.06186206 -0.48357755 5 8 27090 3.96800000 2690875706 2690875706 -7.00000000
-5.17955923 0.08227125 -0.45320988 9 10 27091 5.20000000 2690875711 2690875711 -5.00000000
-7.64849472 0.12415792 -0.40089342 12 12 27093 7.66000000 2690875715 2690875715 -3.00000000
-10.15821171 0.16844496 2.72225881 45 15 27095 10.51800000 2690875722 2690875722 15.00000000
-1.94312871 0.03493518 -0.52074391 4 0 27103 2.01200000 2690875743 2690875743 -15.00000000
-2.25236535 0.04128137 -0.52008682 4 2 27105 2.31200000 2690875747 2690875747 -13.00000000
-2.61264443 0.04834072 -0.50793356 3 4 27106 2.66200000 2690875752 2690875752 -11.00000000
-3.15016603 0.05938626 -0.49902594 3 6 27108 3.19000000 2690875757 2690875757 -9.00000000
-3.95357513 0.07591252 -0.48552746 7 8 27110 3.98400000 2690875761 2690875761 -7.00000000
-5.17924023 0.10035078 -0.45320988 6 10 27111 5.20000000 2690875766 2690875766 -5.00000000
-7.64601755 0.15081601 -0.40078875 12 12 27113 7.65800000 2690875770 2690875770 -3.00000000
-10.13438416 0.20343745 2.71604705 42 15 27115 10.49400000 2690875777 2690875777 15.00000000
-1.94492638 0.04175922 -0.52126157 5 0 27123 2.01400000 2690875798 2690875798 -15.00000000
-2.24051785 0.04888827 -0.51738745 4 2 27125 2.30000000 2690875803 2690875803 -13.00000000
-2.60460854 0.05728757 -0.50640708 3 4 27126 2.65400000 2690875807 2690875807 -11.00000000
-3.16573858 0.07073505 -0.50152892 3 6 27128 3.20600000 2690875812 2690875812 -9.00000000
-3.95328617 0.08971261 -0.48552746 5 8 27130 3.98400000 2690875816 2690875816 -7.00000000
-5.17089081 0.11824689 -0.45251262 9 10 27131 5.19200000 2690875821 2690875821 -5.00000000
-7.64145136 0.17741194 -0.40057942 12 12 27133 7.65400000 2690875826 2690875826 -3.00000000
-10.14133739 0.23899385 2.71811771 42 15 27135 10.50200000 2690875833 2690875833 15.00000000
-1.96021879 0.04893371 -0.52540267 4 0 27143 2.03000000 2690875853 2690875853 -15.00000000
-2.22280049 0.05626503 -0.51333833 4 2 27145 2.28200000 2690875858 2690875858 -13.00000000
-2.61616850 0.06667913 -0.50869679 3 4 27146 2.66600000 2690875863 2690875863 -11.00000000
-3.15362406 0.08147899 -0.49965167 3 6 27148 3.19400000 2690875867 2690875867 -9.00000000
-3.94501114 0.10330375 -0.48455250 7 8 27150 3.97600000 2690875872 2690875872 -7.00000000
-5.18638039 0.13671596 -0.45390710 9 10 27151 5.20800000 2690875876 2690875876 -5.00000000
-7.63679218 0.20397785 -0.40037006 12 12 27153 7.65000000 2690875881 2690875881 -3.00000000
-10.14811802 0.27637249 2.72018814 42 15 27156 10.51000000 2690875888 2690875888 15.00000000
-1.95038068 0.05550109 -0.52281445 4 0 27163 2.02000000 2690875909 2690875909 -15.00000000
-2.23427820 0.06436039 -0.51603770 4 2 27165 2.29400000 2690875913 2690875913 -13.00000000
-2.61003256 0.07564024 -0.50755191 3 4 27166 2.66000000 2690875918 2690875918 -11.00000000
-3.16121864 0.09271835 -0.50090313 3 6 27168 3.20200000 2690875922 2690875922 -9.00000000
-3.94065809 0.11695600 -0.48406503 7 8 27170 3.97200000 2690875927 2690875927 -7.00000000
-5.17392254 0.15446225 -0.45286125 9 10 27171 5.19600000 2690875932 2690875932 -5.00000000
-7.63603354 0.23063399 -0.40037006 12 12 27173 7.65000000 2690875936 2690875936 -3.00000000
-10.15100765 0.31014132 2.72122335 47 15 27175 10.51400000 2690875943 2690875943 15.00000000
-1.95017505 0.06230886 -0.52281445 4 0 27183 2.02000000 2690875964 2690875964 -15.00000000
-2.23598766 0.07222199 -0.51648760 4 2 27185 2.29600000 2690875968 2690875968 -13.00000000
-2.61563921 0.08494166 -0.50869679 3 4 27186 2.66600000 2690875973 2690875973 -11.00000000
-3.16482449 0.10388210 -0.50152892 3 6 27188 3.20600000 2690875978 2690875978 -9.00000000
-3.94816184 0.13097402 -0.48503998 7 8 27190 3.98000000 2690875982 2690875982 -7.00000000
-5.18529940 0.17292011 -0.45390710 9 10 27191 5.20800000 2690875987 2690875987 -5.00000000
-7.65314722 0.25789270 -0.40131211 12 12 27193 7.66800000 2690875992 2690875992 -3.00000000
-10.14986324 0.34557307 2.72122335 45 15 27195 10.51400000 2690875998 2690875998 15.00000000
-1.94415379 0.06891056 -0.52126157 4 0 27203 2.01400000 2690876019 2690876019 -15.00000000
-2.25130177 0.08058428 -0.52008682 4 2 27205 2.31200000 2690876024 2690876024 -13.00000000
-2.61140275 0.09393029 -0.50793356 3 4 27206 2.66200000 2690876028 2690876028 -11.00000000
-3.16049433 0.11478537 -0.50090313 3 6 27208 3.20200000 2690876033 2690876033 -9.00000000
-3.95561576 0.14504585 -0.48601493 7 8 27210 3.98800000 2690876038 2690876038 -7.00000000
-5.18864632 0.19116583 -0.45425573 6 10 27211 5.21200000 2690876042 2690876042 -5.00000000
-7.66816759 0.28519946 -0.40214950 12 12 27213 7.68400000 2690876047 2690876047 -3.00000000
-10.13501453 0.38226217 2.71759987 40 15 27216 10.50000000 2690876054 2690876054 15.00000000
-1.94390130 0.07569651 -0.52126157 5 0 27223 2.01400000 2690876074 2690876074 -15.00000000
-2.23737621 0.08790675 -0.51693749 4 2 27225 2.29800000 2690876079 2690876079 -13.00000000
-2.61302066 0.10312263 -0.50831515 3 4 27226 2.66400000 2690876084 2690876084 -11.00000000
-3.15612674 0.12565969 -0.50027740 3 6 27228 3.19800000 2690876088 2690876088 -9.00000000
-3.95508528 0.15885264 -0.48601493 7 8 27230 3.98800000 2690876093 2690876093 -7.00000000
-5.19192886 0.20943704 -0.45460436 9 10 27231 5.21600000 2690876098 2690876098 -5.00000000
-7.65914297 0.31163982 -0.40173081 16 12 27233 7.67600000 2690876102 2690876102 -3.00000000
-10.13554859 0.41771719 2.71811771 45 15 27236 10.50200000 2690876109 2690876109 15.00000000
-1.95134568 0.08280916 -0.52333212 5 0 27243 2.02200000 2690876130 2690876130 -15.00000000
-2.22732091 0.09529959 -0.51468801 4 2 27245 2.28800000 2690876134 2690876134 -13.00000000
-2.62637496 0.11283302 -0.51098651 3 4 27246 2.67800000 2690876139 2690876139 -11.00000000
-3.15961599 0.13684681 -0.50090313 3 6 27248 3.20200000 2690876144 2690876144 -9.00000000
-3.95054030 0.17248431 -0.48552746 7 8 27250 3.98400000 2690876148 2690876148 -7.00000000
-5.18718529 0.22738448 -0.45425573 6 10 27251 5.21200000 2690876153 2690876153 -5.00000000
-7.64603662 0.33784434 -0.40110278 20 12 27253 7.66400000 2690876157 2690876157 -3.00000000
-10.13402939 0.45309430 2.71811771 45 15 27256 10.50200000 2690876164 2690876164 15.00000000
-1.95876408 0.08997470 -0.52540267 5 0 27263 2.03000000 2690876185 2690876185 -15.00000000
-2.23476124 0.10343421 -0.51648760 4 2 27265 2.29600000 2690876190 2690876190 -13.00000000
-2.62596512 0.12200008 -0.51098651 3 4 27266 2.67800000 2690876194 2690876194 -11.00000000
-3.15911913 0.14787510 -0.50090313 3 6 27268 3.20200000 2690876199 2690876199 -9.00000000
-3.94594836 0.18608619 -0.48503998 7 8 27270 3.98000000 2690876204 2690876204 -7.00000000
-5.20228148 0.24624336 -0.45565021 6 10 27271 5.22800000 2690876208 2690876208 -5.00000000
-7.64880037 0.36472219 -0.40131211 28 12 27273 7.66800000 2690876213 2690876213 -3.00000000
-10.14010429 0.48883802 2.72018814 45 15 27276 10.51000000 2690876220 2690876220 15.00000000
-1.94493163 0.09614385 -0.52177918 4 0 27283 2.01600000 2690876240 2690876240 -15.00000000
-2.23244023 0.11113746 -0.51603770 4 2 27285 2.29400000 2690876245 2690876245 -13.00000000
-2.61375833 0.13057792 -0.50869679 3 4 27286 2.66600000 2690876250 2690876250 -11.00000000
-3.16252947 0.15910009 -0.50152892 3 6 27288 3.20600000 2690876254 2690876254 -9.00000000
-3.95320487 0.20026073 -0.48601493 5 8 27290 3.98800000 2690876259 2690876259 -7.00000000
-5.18547153 0.26359203 -0.45425573 6 10 27291 5.21200000 2690876263 2690876263 -5.00000000
-7.65147018 0.39162344 -0.40152144 28 12 27293 7.67200000 2690876268 2690876268 -3.00000000
-10.13263988 0.52216285 2.71863532 47 15 27295 10.50400000 2690876275 2690876275 15.00000000
-1.94072580 0.10272811 -0.52074391 4 0 27303 2.01200000 2690876296 2690876296 -15.00000000
-2.24176860 0.11944789 -0.51828724 4 2 27305 2.30400000 2690876300 2690876300 -13.00000000
-2.60936570 0.13949125 -0.50793356 3 4 27306 2.66200000 2690876305 2690876305 -11.00000000
-3.15011954 0.16950157 -0.49965167 3 6 27308 3.19400000 2690876309 2690876309 -9.00000000
-3.96437502 0.21470287 -0.48747736 6 8 27310 4.00000000 2690876314 2690876314 -7.00000000
-5.18650913 0.28179920 -0.45443004 6 10 27311 5.21400000 2690876319 2690876319 -5.00000000
-7.66401625 0.41909304 -0.40225416 28 12 27313 7.68600000 2690876323 2690876323 -3.00000000
-10.11522675 0.55844539 2.71449423 42 15 27316 10.48800000 2690876330 2690876330 15.00000000
-1.94614172 0.10982843 -0.52229685 4 0 27323 2.01800000 2690876351 2690876351 -15.00000000
-2.23939252 0.12716192 -0.51783735 4 2 27325 2.30200000 2690876356 2690876356 -13.00000000
-2.62846375 0.14971523 -0.51174974 3 4 27326 2.68200000 2690876360 2690876360 -11.00000000
-3.14162016 0.18004443 -0.49840021 3 6 27328 3.18600000 2690876365 2690876365 -9.00000000
-3.96360135 0.22853981 -0.48747736 6 8 27330 4.00000000 2690876369 2690876369 -7.00000000
-5.18151569 0.29967168 -0.45408142 6 10 27331 5.21000000 2690876374 2690876374 -5.00000000
-7.65453148 0.44537884 -0.40183547 32 12 27333 7.67800000 2690876379 2690876379 -3.00000000
-10.12489033 0.59266293 2.71759987 42 15 27335 10.50000000 2690876386 2690876386 15.00000000
-1.94767487 0.11673664 -0.52281445 4 0 27343 2.02000000 2690876406 2690876406 -15.00000000
-2.22726369 0.13427445 -0.51513791 4 2 27345 2.29000000 2690876411 2690876411 -13.00000000
-2.61812663 0.15829693 -0.50984162 3 4 27346 2.67200000 2690876415 2690876415 -11.00000000
-3.14885950 0.19148925 -0.49965167 3 6 27348 3.19400000 2690876420 2690876420 -9.00000000
-3.96079803 0.24225278 -0.48723364 5 8 27350 3.99800000 2690876425 2690876425 -7.00000000
-5.20032501 0.31897652 -0.45582452 6 10 27351 5.23000000 2690876429 2690876429 -5.00000000
-7.64495611 0.47160354 -0.40141678 32 12 27353 7.67000000 2690876434 2690876434 -3.00000000
-10.12072182 0.62964857 2.71708226 42 15 27356 10.49800000 2690876441 2690876441 15.00000000
-1.95303953 0.12390152 -0.52436739 5 0 27363 2.02600000 2690876462 2690876462 -15.00000000
-2.24622917 0.14328884 -0.51963693 4 2 27365 2.31000000 2690876466 2690876466 -13.00000000
-2.62343597 0.16781092 -0.51098651 3 4 27366 2.67800000 2690876471 2690876471 -11.00000000
-3.15605712 0.20298681 -0.50090313 3 6 27368 3.20200000 2690876475 2690876475 -9.00000000
-3.95200443 0.25556466 -0.48625869 3 8 27370 3.99000000 2690876480 2690876480 -7.00000000
-5.20116806 0.33725601 -0.45599884 6 10 27371 5.23200000 2690876485 2690876485 -5.00000000
-7.65322828 0.49893621 -0.40194014 24 12 27373 7.68000000 2690876489 2690876489 -3.00000000
-10.13014412 0.66396475 2.72018814 45 15 27375 10.51000000 2690876496 2690876496 15.00000000
-1.94681251 0.13033102 -0.52281445 4 0 27383 2.02000000 2690876517 2690876517 -15.00000000
-2.24182677 0.15086707 -0.51873714 4 2 27385 2.30600000 2690876521 2690876521 -13.00000000
-2.61108136 0.17617440 -0.50869679 3 4 27386 2.66600000 2690876526 2690876526 -11.00000000
-3.16715431 0.21480426 -0.50278038 3 6 27388 3.21400000 2690876531 2690876531 -9.00000000
-3.95504928 0.26962820 -0.48674616 3 8 27390 3.99400000 2690876535 2690876535 -7.00000000
-5.20393467 0.35568115 -0.45634747 6 10 27391 5.23600000 2690876540 2690876540 -5.00000000
-7.65343285 0.52578479 -0.40204480 32 12 27393 7.68200000 2690876544 2690876544 -3.00000000
-10.12378883 0.70082229 2.71915293 42 15 27396 10.50600000 2690876551 2690876551 15.00000000
-1.93478322 0.13631126 -0.51970863 4 0 27403 2.00800000 2690876572 2690876572 -15.00000000
-2.24517417 0.15896685 -0.51963693 4 2 27405 2.31000000 2690876577 2690876577 -13.00000000
-2.61436725 0.18556571 -0.50946003 3 4 27406 2.67000000 2690876581 2690876581 -11.00000000
-3.15456319 0.22501512 -0.50090313 4 6 27408 3.20200000 2690876586 2690876586 -9.00000000
-3.96794415 0.28442577 -0.48845232 6 8 27410 4.00800000 2690876591 2690876591 -7.00000000
-5.18278837 0.37241614 -0.45460436 6 10 27411 5.21600000 2690876595 2690876595 -5.00000000
-7.65553522 0.55278474 -0.40225416 32 12 27413 7.68600000 2690876600 2690876600 -3.00000000
-10.10984802 0.73355132 2.71604705 42 15 27415 10.49400000 2690876607 2690876607 15.00000000
-1.94392860 0.14377657 -0.52229685 4 0 27423 2.01800000 2690876627 2690876627 -15.00000000
-2.24460554 0.16680300 -0.51963693 4 2 27425 2.31000000 2690876632 2690876632 -13.00000000
-2.62545061 0.19556543 -0.51174974 3 4 27426 2.68200000 2690876637 2690876637 -11.00000000
-3.13799953 0.23484583 -0.49840021 3 6 27428 3.18600000 2690876641 2690876641 -9.00000000
-3.96296811 0.29797706 -0.48796484 6 8 27430 4.00400000 2690876646 2690876646 -7.00000000
-5.19933796 0.39185277 -0.45617315 3 10 27431 5.23400000 2690876650 2690876650 -5.00000000
-7.65355873 0.57950419 -0.40225416 52 12 27433 7.68600000 2690876655 2690876655 -3.00000000
-10.11479664 0.77118832 2.71811771 47 15 27436 10.50200000 2690876662 2690876662 15.00000000
-1.93956268 0.15026282 -0.52126157 4 0 27443 2.01400000 2690876683 2690876683 -15.00000000
-2.23623824 0.17403233 -0.51783735 4 2 27445 2.30200000 2690876687 2690876687 -13.00000000
-2.61692262 0.20411810 -0.51022327 3 4 27446 2.67400000 2690876692 2690876692 -11.00000000
-3.15685391 0.24734105 -0.50152892 3 6 27448 3.20600000 2690876697 2690876697 -9.00000000
-3.95794582 0.31149709 -0.48747736 6 8 27450 4.00000000 2690876701 2690876701 -7.00000000
-5.19793844 0.40999946 -0.45617315 3 10 27451 5.23400000 2690876706 2690876706 -5.00000000
-7.64153433 0.60542786 -0.40173081 24 12 27453 7.67600000 2690876710 2690876710 -3.00000000
-10.11988640 0.80533892 2.72018814 47 15 27455 10.51000000 2690876717 2690876717 15.00000000
-1.95635629 0.15843572 -0.52592027 4 0 27463 2.03200000 2690876738 2690876738 -15.00000000
-2.23173237 0.18152122 -0.51693749 4 2 27465 2.29800000 2690876743 2690876743 -13.00000000
-2.62402129 0.21388963 -0.51174974 3 4 27466 2.68200000 2690876747 2690876747 -11.00000000
-3.15597129 0.25835901 -0.50152892 3 6 27468 3.20600000 2690876752 2690876752 -9.00000000
-3.95089912 0.32482305 -0.48674616 3 8 27470 3.99400000 2690876756 2690876756 -7.00000000
-5.20243263 0.42863196 -0.45669609 6 10 27471 5.24000000 2690876761 2690876761 -5.00000000
-7.65131712 0.63308626 -0.40235883 24 12 27473 7.68800000 2690876766 2690876766 -3.00000000
-10.11301613 0.84210414 2.71915293 47 15 27476 10.50600000 2690876773 2690876773 15.00000000
-1.93846643 0.16379975 -0.52126157 4 0 27483 2.01400000 2690876793 2690876793 -15.00000000
-2.24273586 0.19029889 -0.51963693 4 2 27485 2.31000000 2690876798 2690876798 -13.00000000
-2.61934614 0.22271521 -0.51098651 3 4 27486 2.67800000 2690876803 2690876803 -11.00000000
-3.16292310 0.27004603 -0.50278038 3 6 27488 3.21400000 2690876807 2690876807 -9.00000000
-3.95765257 0.33929050 -0.48772112 4 8 27490 4.00200000 2690876812 2690876812 -7.00000000
-5.19494915 0.44627762 -0.45617315 6 10 27491 5.23400000 2690876816 2690876816 -5.00000000
-7.65105057 0.65996212 -0.40246350 32 12 27493 7.69000000 2690876821 2690876821 -3.00000000
-10.11401749 0.87596887 2.72018814 45 15 27495 10.51000000 2690876828 2690876828 15.00000000
-1.93210959 0.17005713 -0.51970863 4 0 27503 2.00800000 2690876849 2690876849 -15.00000000
-2.24205780 0.19812633 -0.51963693 4 2 27505 2.31000000 2690876853 2690876853 -13.00000000
-2.62246418 0.23220339 -0.51174974 3 4 27506 2.68200000 2690876858 2690876858 -11.00000000
-5.60250902 0.49705392 0.49208131 2 5 27507 5.64600000 2690876860 2690876860 5.00000000
-3.16196132 0.28108504 -0.50278038 3 6 27508 3.21400000 2690876862 2690876862 -9.00000000
-3.97423935 0.35469142 -0.48991477 6 8 27510 4.02000000 2690876867 2690876867 -7.00000000
-5.20526648 0.46547341 -0.45721903 3 10 27511 5.24600000 2690876872 2690876872 -5.00000000
-7.65466785 0.68720102 -0.40277752 36 12 27513 7.69600000 2690876876 2690876876 -3.00000000
-10.09935379 0.91022760 2.71708226 45 15 27515 10.49800000 2690876883 2690876883 15.00000000
-1.93733740 0.17665245 -0.52126157 4 0 27521 2.01400000 2690876904 2690876904 -15.00000000
-2.23754311 0.20481370 -0.51873714 4 2 27523 2.30600000 2690876909 2690876909 -13.00000000
-2.61781144 0.24008234 -0.51098651 3 4 27524 2.67800000 2690876913 2690876913 -11.00000000
-5.56123924 0.51100612 0.48859510 8 5 27525 5.60600000 2690876915 2690876915 5.00000000
-3.14926028 0.28993067 -0.50090313 3 6 27526 3.20200000 2690876918 2690876918 -9.00000000
-3.96124530 0.36607903 -0.48845232 6 8 27528 4.00800000 2690876922 2690876922 -7.00000000
-5.20774651 0.48219129 -0.45756766 6 10 27529 5.25000000 2690876927 2690876927 -5.00000000
-7.55502558 0.70218849 -0.39764860 12 12 27531 7.59800000 2690876932 2690876932 -3.00000000
-7.20560646 0.67224944 -0.12632051 2 14 27533 7.23800000 2690876936 2690876936 -1.00000000
-10.10029125 0.94230998 2.71811771 42 15 27533 10.50200000 2690876938 2690876938 15.00000000
-1.94824851 0.18450677 -0.52436739 4 0 27541 2.02600000 2690876959 2690876959 -15.00000000
-7.07315207 0.67110085 0.12401680 3 1 27542 7.10600000 2690876962 2690876962 1.00000000
-2.22129464 0.21114768 -0.51513791 4 2 27543 2.29000000 2690876964 2690876964 -13.00000000
-2.62282085 0.24977712 -0.51213133 3 4 27544 2.68400000 2690876968 2690876968 -11.00000000
-5.55148840 0.52965844 0.48789784 11 5 27545 5.59800000 2690876971 2690876971 5.00000000
-3.16396046 0.30242553 -0.50340611 3 6 27546 3.21800000 2690876973 2690876973 -9.00000000
-3.96389532 0.38028327 -0.48893979 6 8 27548 4.01200000 2690876978 2690876978 -7.00000000
-5.20801497 0.50055742 -0.45774198 6 10 27549 5.25200000 2690876982 2690876982 -5.00000000
-7.31197691 0.70535129 -0.38498330 3 12 27551 7.35600000 2690876987 2690876987 -3.00000000
-7.07384109 0.68487179 -0.12405171 4 14 27553 7.10800000 2690876991 2690876991 -1.00000000
-10.11407566 0.98100162 2.72277641 47 15 27554 10.52000000 2690876994 2690876994 15.00000000
-1.95140421 0.19202460 -0.52540267 4 0 27562 2.03000000 2690877015 2690877015 -15.00000000
-6.00397825 0.59186929 0.10530782 2 1 27563 6.03400000 2690877017 2690877017 1.00000000
-2.22826290 0.22005378 -0.51693749 4 2 27564 2.29800000 2690877019 2690877019 -13.00000000
-6.49930859 0.64298952 0.34227714 2 3 27565 6.54000000 2690877021 2690877021 3.00000000
-2.60821176 0.25803557 -0.50946003 3 4 27565 2.67000000 2690877024 2690877024 -11.00000000
-5.55149221 0.55019861 0.48807216 11 5 27566 5.60000000 2690877026 2690877026 5.00000000
-3.15103626 0.31284901 -0.50152892 3 6 27567 3.20600000 2690877028 2690877028 -9.00000000
-3.95457363 0.39402187 -0.48796484 6 8 27569 4.00400000 2690877033 2690877033 -7.00000000
-5.22795296 0.52181911 -0.45965940 6 10 27570 5.27400000 2690877038 2690877038 -5.00000000
-7.28748178 0.72995663 -0.38383189 3 12 27572 7.33400000 2690877042 2690877042 -3.00000000
-6.36495066 0.63979471 -0.11166050 6 14 27574 6.39800000 2690877047 2690877047 -1.00000000
-10.10482311 1.01572073 2.72122335 45 15 27574 10.51400000 2690877049 2690877049 15.00000000
