# .PCD v0.7 - Point Cloud Data file format
VERSION 0.7
FIELDS x y z intensity laser_id azimuth distance_m adjustedtime timestamp vertical_angle
SIZE 4 4 4 1 1 2 8 8 4 8
TYPE F F F U U U F U U F
COUNT 1 1 1 1 1 1 1 1 1 1
WIDTH 515
HEIGHT 1
VIEWPOINT 0 0 0 1 0 0 0
POINTS 515
DATA ascii
-0.08252251 -1.55386639 -0.13613728 100 10 18304 1.56200000 2685951374 2685951374 -5.00000000
-0.07601797 -1.42201531 -0.07463107 42 12 18306 1.42600000 2685951379 2685951379 -3.00000000
-0.07241735 -1.34584785 -0.02352584 32 14 18308 1.34800000 2685951384 2685951384 -1.00000000
-0.54234916 -10.07934380 2.70465899 45 15 18308 10.45000000 2685951386 2685951386 15.00000000
-0.08029516 -1.45440137 -0.39029911 92 0 18316 1.50800000 2685951407 2685951407 -15.00000000
-0.07190525 -1.29422522 0.06793207 6 3 18318 1.29800000 2685951414 2685951414 3.00000000
-0.10050972 -1.80339527 -0.35108855 40 4 18319 1.84000000 2685951416 2685951416 -11.00000000
-0.08771589 -1.56401587 -0.24810506 58 6 18321 1.58600000 2685951420 2685951420 -9.00000000
-0.09059736 -1.60537040 -0.19742833 81 8 18323 1.62000000 2685951425 2685951425 -7.00000000
-0.08862165 -1.56550407 -0.13718314 100 10 18324 1.57400000 2685951430 2685951430 -5.00000000
-0.07836896 -1.37587869 -0.07222362 45 12 18326 1.38000000 2685951434 2685951434 -3.00000000
-0.07757245 -1.35357249 -0.02366546 32 14 18328 1.35600000 2685951439 2685951439 -1.00000000
-0.57995337 -10.08886051 2.70776486 47 15 18329 10.46200000 2685951441 2685951441 15.00000000
-0.08684340 -1.47918308 -0.39702842 21 0 18336 1.53400000 2685951462 2685951462 -15.00000000
-0.07629403 -1.28797162 0.06761806 6 3 18339 1.29200000 2685951469 2685951469 3.00000000
-0.10564321 -1.78343523 -0.34727237 73 4 18339 1.82000000 2685951471 2685951471 -11.00000000
-0.09411477 -1.57947528 -0.25060803 58 6 18341 1.60200000 2685951476 2685951476 -9.00000000
-0.09501294 -1.58522904 -0.19499095 76 8 18343 1.60000000 2685951480 2685951480 -7.00000000
-0.09408575 -1.56518519 -0.13718314 100 10 18344 1.57400000 2685951485 2685951485 -5.00000000
-0.08196582 -1.35566056 -0.07117690 49 12 18346 1.36000000 2685951490 2685951490 -3.00000000
-0.08156854 -1.34131742 -0.02345604 30 14 18348 1.34400000 2685951494 2685951494 -1.00000000
-0.61328876 -10.08495331 2.70724726 47 15 18348 10.46000000 2685951497 2685951497 15.00000000
-0.09212614 -1.48079908 -0.39754605 54 0 18356 1.53600000 2685951517 2685951517 -15.00000000
-0.07953881 -1.26776409 0.06657134 6 3 18359 1.27200000 2685951524 2685951524 3.00000000
-0.11088447 -1.76738048 -0.34421942 100 4 18359 1.80400000 2685951526 2685951526 -11.00000000
-0.10161766 -1.61068046 -0.25561392 74 6 18361 1.63400000 2685951531 2685951531 -9.00000000
-0.09664969 -1.52347326 -0.18743505 78 8 18363 1.53800000 2685951536 2685951536 -7.00000000
-0.09676588 -1.52110314 -0.13334829 100 10 18364 1.53000000 2685951540 2685951540 -5.00000000
-0.08720744 -1.36333895 -0.07159559 52 12 18366 1.36800000 2685951545 2685951545 -3.00000000
-0.08560837 -1.33104670 -0.02328151 43 14 18368 1.33400000 2685951550 2685951550 -1.00000000
-0.65099382 -10.09420490 2.71035314 47 15 18369 10.47200000 2685951552 2685951552 15.00000000
-0.09691448 -1.47468543 -0.39599314 91 0 18376 1.53000000 2685951573 2685951573 -15.00000000
-0.08541586 -1.28940058 0.06772273 6 3 18379 1.29400000 2685951579 2685951579 3.00000000
-0.11601494 -1.75131094 -0.34116650 86 4 18379 1.78800000 2685951582 2685951582 -11.00000000
-0.10789566 -1.62017095 -0.25717825 76 6 18381 1.64400000 2685951586 2685951586 -9.00000000
-0.10395597 -1.55283654 -0.19109114 73 8 18383 1.56800000 2685951591 2685951591 -7.00000000
-0.10114091 -1.50684059 -0.13212810 85 10 18384 1.51600000 2685951596 2685951596 -5.00000000
-0.09196585 -1.36302614 -0.07159559 45 12 18386 1.36800000 2685951600 2685951600 -3.00000000
-0.08917156 -1.31477880 -0.02300227 55 14 18388 1.31800000 2685951605 2685951605 -1.00000000
-0.68407166 -10.08620834 2.70880008 47 15 18388 10.46600000 2685951607 2685951607 15.00000000
-0.10139443 -1.46470189 -0.39340496 100 0 18396 1.52000000 2685951628 2685951628 -15.00000000
-0.09033310 -1.29507184 0.06803674 9 3 18399 1.30000000 2685951635 2685951635 3.00000000
-0.12281048 -1.76068783 -0.34307456 71 4 18399 1.79800000 2685951637 2685951637 -11.00000000
-0.11493184 -1.63948989 -0.26030695 84 6 18401 1.66400000 2685951642 2685951642 -9.00000000
-0.11132888 -1.58018684 -0.19450347 93 8 18403 1.59600000 2685951646 2685951646 -7.00000000
-0.10654052 -1.50846589 -0.13230242 69 10 18404 1.51800000 2685951651 2685951651 -5.00000000
-0.09700596 -1.36668134 -0.07180493 42 12 18406 1.37200000 2685951655 2685951655 -3.00000000
-0.09447183 -1.32443273 -0.02317679 65 14 18408 1.32800000 2685951660 2685951660 -1.00000000
-0.72048378 -10.07592583 2.70672965 45 15 18409 10.45800000 2685951662 2685951662 15.00000000
-0.10543755 -1.45666885 -0.39133438 84 0 18414 1.51200000 2685951683 2685951683 -15.00000000
-0.09396555 -1.28880572 0.06772273 9 3 18417 1.29400000 2685951690 2685951690 3.00000000
-0.12905504 -1.77008355 -0.34498265 62 4 18417 1.80800000 2685951692 2685951692 -11.00000000
-0.12094785 -1.65094125 -0.26218417 100 6 18419 1.67600000 2685951697 2685951697 -9.00000000
-0.11833285 -1.60754550 -0.19791581 96 8 18421 1.62400000 2685951702 2685951702 -7.00000000
-0.11538412 -1.56375933 -0.13718314 100 10 18422 1.57400000 2685951706 2685951706 -5.00000000
-0.79848450 -10.79589653 2.10424161 6 11 18423 11.02800000 2685951708 2685951708 11.00000000
-0.10041303 -1.35441911 -0.07117690 45 12 18424 1.36000000 2685951711 2685951711 -3.00000000
-0.09952345 -1.33609438 -0.02338623 63 14 18426 1.34000000 2685951715 2685951715 -1.00000000
-0.75138092 -10.08722973 2.71035314 47 15 18426 10.47200000 2685951718 2685951718 15.00000000
-0.11286071 -1.48711300 -0.39961660 53 0 18434 1.54400000 2685951738 2685951738 -15.00000000
-0.09907249 -1.29643559 0.06814142 9 3 18437 1.30200000 2685951745 2685951745 3.00000000
-0.13538259 -1.77157986 -0.34536427 53 4 18437 1.81000000 2685951748 2685951748 -11.00000000
-0.10012177 -1.30716348 0.11469696 7 5 18438 1.31600000 2685951750 2685951750 5.00000000
-0.13124613 -1.70959651 -0.27157024 100 6 18439 1.73600000 2685951752 2685951752 -9.00000000
-0.12165391 -1.57743442 -0.19425973 91 8 18441 1.59400000 2685951757 2685951757 -7.00000000
-0.12222388 -1.58122528 -0.13875194 100 10 18442 1.59200000 2685951761 2685951761 -5.00000000
-0.82130325 -10.60121918 2.06684303 12 11 18443 10.83200000 2685951764 2685951764 11.00000000
-0.10390328 -1.33813024 -0.07033952 49 12 18444 1.34400000 2685951766 2685951766 -3.00000000
-0.10480869 -1.34371340 -0.02352584 56 14 18446 1.34800000 2685951771 2685951771 -1.00000000
-0.78910023 -10.09403801 2.71294117 47 15 18447 10.48200000 2685951773 2685951773 15.00000000
-0.12148815 -1.52325761 -0.40945172 34 0 18456 1.58200000 2685951794 2685951794 -15.00000000
-0.10293088 -1.28210974 0.06740871 11 3 18459 1.28800000 2685951801 2685951801 3.00000000
-0.14202684 -1.76908994 -0.34498265 27 4 18459 1.80800000 2685951803 2685951803 -11.00000000
-0.13876213 -1.72089386 -0.27344745 67 6 18461 1.74800000 2685951808 2685951808 -9.00000000
-0.12770991 -1.57695568 -0.19425973 93 8 18463 1.59400000 2685951812 2685951812 -7.00000000
-0.12716623 -1.56684327 -0.13753176 100 10 18464 1.57800000 2685951817 2685951817 -5.00000000
-0.86232114 -10.60190105 2.06760621 12 11 18465 10.83600000 2685951819 2685951819 11.00000000
-0.10936508 -1.34170270 -0.07054887 59 12 18466 1.34800000 2685951821 2685951821 -3.00000000
-0.10996740 -1.34330106 -0.02352584 56 14 18468 1.34800000 2685951826 2685951826 -1.00000000
-0.81584609 -9.96592617 2.67929482 47 15 18468 10.35200000 2685951828 2685951828 15.00000000
-0.12712519 -1.52667475 -0.41048700 50 0 18476 1.58600000 2685951849 2685951849 -15.00000000
-0.10790599 -1.28771341 0.06772273 13 3 18479 1.29400000 2685951856 2685951856 3.00000000
-0.14443065 -1.72358632 -0.33620545 13 4 18479 1.76200000 2685951858 2685951858 -11.00000000
-0.14410578 -1.71252525 -0.27219597 56 6 18481 1.74000000 2685951863 2685951863 -9.00000000
-0.13354804 -1.58045638 -0.19474721 93 8 18483 1.59800000 2685951867 2685951867 -7.00000000
-0.13044938 -1.54058111 -0.13526571 76 10 18484 1.55200000 2685951872 2685951872 -5.00000000
-0.11489388 -1.35126317 -0.07107223 78 12 18486 1.35800000 2685951877 2685951877 -3.00000000
-0.76664311 -8.99786091 2.08484626 4 13 18487 9.26800000 2685951879 2685951879 13.00000000
-0.11363505 -1.33095431 -0.02331642 56 14 18488 1.33600000 2685951881 2685951881 -1.00000000
-0.86323619 -10.08990669 2.71345878 47 15 18489 10.48400000 2685951884 2685951884 15.00000000
-0.13061619 -1.50505090 -0.40479299 74 0 18496 1.56400000 2685951904 2685951904 -15.00000000
-0.11309519 -1.29528773 0.06814142 9 3 18499 1.30200000 2685951911 2685951911 3.00000000
-0.14766760 -1.68446219 -0.26781580 55 6 18501 1.71200000 2685951918 2685951918 -9.00000000
-0.13888998 -1.57800317 -0.19450347 83 8 18503 1.59600000 2685951923 2685951923 -7.00000000
-0.13407588 -1.52026951 -0.13352260 100 10 18504 1.53200000 2685951927 2685951927 -5.00000000
-0.12031459 -1.35881174 -0.07149091 78 12 18506 1.36600000 2685951932 2685951932 -3.00000000
-0.77996421 -8.79131317 2.03760672 3 13 18507 9.05800000 2685951934 2685951934 13.00000000
-0.11845732 -1.33254135 -0.02335132 52 14 18508 1.33800000 2685951937 2685951937 -1.00000000
-0.89617765 -10.08121586 2.71190596 47 15 18508 10.47800000 2685951939 2685951939 15.00000000
-0.13465278 -1.49111760 -0.40116951 47 0 18516 1.55000000 2685951960 2685951960 -15.00000000
-0.11797724 -1.29886317 0.06835076 9 3 18519 1.30600000 2685951967 2685951967 3.00000000
-0.14314041 -1.57589555 -0.30758411 1 4 18519 1.61200000 2685951969 2685951969 -11.00000000
-0.15013841 -1.64655936 -0.26187131 52 6 18521 1.67400000 2685951973 2685951973 -9.00000000
-0.14421645 -1.57553196 -0.19425973 71 8 18523 1.59400000 2685951978 2685951978 -7.00000000
-0.14029160 -1.52971256 -0.13439415 100 10 18524 1.54200000 2685951983 2685951983 -5.00000000
-0.12505700 -1.35838354 -0.07149091 73 12 18526 1.36600000 2685951987 2685951987 -3.00000000
-0.81154180 -8.79823875 2.03985620 3 13 18527 9.06800000 2685951990 2685951990 13.00000000
-0.12384410 -1.34008467 -0.02349094 52 14 18528 1.34600000 2685951992 2685951992 -1.00000000
-0.74220979 -8.03125763 2.16113901 6 15 18528 8.35000000 2685951994 2685951994 15.00000000
-0.14003739 -1.49256194 -0.40168715 24 0 18536 1.55200000 2685952015 2685952015 -15.00000000
-0.12232279 -1.29645503 0.06824609 9 3 18539 1.30400000 2685952022 2685952022 3.00000000
-0.14052607 -1.48938513 -0.29079291 1 4 18539 1.52400000 2685952024 2685952024 -11.00000000
-0.15327767 -1.61849320 -0.25749114 52 6 18541 1.64600000 2685952029 2685952029 -9.00000000
-0.14840026 -1.56118560 -0.19255356 87 8 18543 1.58000000 2685952033 2685952033 -7.00000000
-0.14619710 -1.53516376 -0.13491710 100 10 18544 1.54800000 2685952038 2685952038 -5.00000000
-0.12903772 -1.34998596 -0.07107223 68 12 18546 1.35800000 2685952043 2685952043 -3.00000000
-0.12833016 -1.33765364 -0.02345604 63 14 18548 1.34400000 2685952047 2685952047 -1.00000000
-0.74459571 -7.76131821 2.08918738 6 15 18548 8.07200000 2685952049 2685952049 15.00000000
-0.14674394 -1.50744605 -0.40582827 24 0 18556 1.56800000 2685952070 2685952070 -15.00000000
-0.12665297 -1.29403234 0.06814142 6 3 18559 1.30200000 2685952077 2685952077 3.00000000
-0.14572415 -1.48888552 -0.29079291 3 4 18559 1.52400000 2685952079 2685952079 -11.00000000
-0.15911943 -1.61991417 -0.25780401 61 6 18561 1.64800000 2685952084 2685952084 -9.00000000
-0.15287519 -1.55078053 -0.19133487 82 8 18563 1.57000000 2685952089 2685952089 -7.00000000
-0.15096751 -1.52869582 -0.13439415 100 10 18564 1.54200000 2685952093 2685952093 -5.00000000
-0.13571906 -1.36940253 -0.07211895 54 12 18566 1.37800000 2685952098 2685952098 -3.00000000
-0.13161325 -1.32326841 -0.02321170 69 14 18568 1.33000000 2685952102 2685952102 -1.00000000
-0.74698853 -7.49709940 2.01878858 4 15 18569 7.80000000 2685952105 2685952105 15.00000000
-0.15006617 -1.48770368 -0.40065187 24 0 18576 1.54800000 2685952126 2685952126 -15.00000000
-0.13237815 -1.30550480 0.06876945 6 3 18579 1.31400000 2685952132 2685952132 3.00000000
-0.15012820 -1.48055482 -0.28926644 1 4 18579 1.51600000 2685952135 2685952135 -11.00000000
-0.16637276 -1.63507080 -0.26030695 58 6 18581 1.66400000 2685952139 2685952139 -9.00000000
-0.15889241 -1.55616188 -0.19206609 90 8 18583 1.57600000 2685952144 2685952144 -7.00000000
-0.15447818 -1.51032114 -0.13282534 100 10 18584 1.52400000 2685952149 2685952149 -5.00000000
-0.14070226 -1.37090719 -0.07222362 47 12 18586 1.38000000 2685952153 2685952153 -3.00000000
-0.13664123 -1.32677925 -0.02328151 82 14 18588 1.33400000 2685952158 2685952158 -1.00000000
-0.76254398 -7.40426207 1.99445951 9 15 18588 7.70600000 2685952160 2685952160 15.00000000
-0.15385416 -1.47372091 -0.39702842 28 0 18596 1.53400000 2685952181 2685952181 -15.00000000
-0.13547543 -1.29113030 0.06803674 6 3 18599 1.30000000 2685952188 2685952188 3.00000000
-0.17125189 -1.62662196 -0.25905547 63 6 18601 1.65600000 2685952195 2685952195 -9.00000000
-0.16557465 -1.56744242 -0.19352852 87 8 18603 1.58800000 2685952199 2685952199 -7.00000000
-0.15891066 -1.50184739 -0.13212810 100 10 18604 1.51600000 2685952204 2685952204 -5.00000000
-0.14633016 -1.37835217 -0.07264230 42 12 18606 1.38800000 2685952208 2685952208 -3.00000000
-0.14169534 -1.33027112 -0.02335132 91 14 18608 1.33800000 2685952213 2685952213 -1.00000000
-0.78715730 -7.39002895 1.99135375 6 15 18608 7.69400000 2685952215 2685952215 15.00000000
-0.15754639 -1.45973003 -0.39340496 28 0 18616 1.52000000 2685952236 2685952236 -15.00000000
-0.14362641 -1.32641566 0.06992084 6 3 18618 1.33600000 2685952243 2685952243 3.00000000
-0.16300096 -1.50289226 -0.29384586 1 4 18619 1.54000000 2685952245 2685952245 -11.00000000
-0.17756987 -1.63190567 -0.25999409 79 6 18621 1.66200000 2685952250 2685952250 -9.00000000
-0.17406096 -1.59448206 -0.19694085 100 8 18623 1.61600000 2685952254 2685952254 -7.00000000
-0.16436869 -1.50326407 -0.13230242 100 10 18624 1.51800000 2685952259 2685952259 -5.00000000
-0.15070505 -1.37386227 -0.07243297 40 12 18626 1.38400000 2685952264 2685952264 -3.00000000
-0.14721294 -1.33771920 -0.02349094 82 14 18628 1.34600000 2685952268 2685952268 -1.00000000
-1.10943067 -10.08135986 2.71759987 38 15 18628 10.50000000 2685952271 2685952271 15.00000000
-0.16199884 -1.45341134 -0.39185202 31 0 18636 1.51400000 2685952291 2685952291 -15.00000000
-0.14804243 -1.32191062 0.06971149 6 3 18639 1.33200000 2685952298 2685952298 3.00000000
-0.16824603 -1.50231421 -0.29384586 1 4 18639 1.54000000 2685952301 2685952301 -11.00000000
-0.18172145 -1.61753464 -0.25780401 72 6 18641 1.64800000 2685952305 2685952305 -9.00000000
-0.17718028 -1.57216609 -0.19425973 66 8 18643 1.59400000 2685952310 2685952310 -7.00000000
-0.17229672 -1.52643895 -0.13439415 100 10 18644 1.54200000 2685952314 2685952314 -5.00000000
-0.15617394 -1.37928152 -0.07274698 36 12 18646 1.39000000 2685952319 2685952319 -3.00000000
-0.15233292 -1.34117103 -0.02356075 76 14 18648 1.35000000 2685952324 2685952324 -1.00000000
-1.04287207 -9.16739655 2.47223949 9 15 18649 9.55200000 2685952326 2685952326 15.00000000
-0.16766421 -1.46249163 -0.39444023 33 0 18654 1.52400000 2685952347 2685952347 -15.00000000
-0.14991039 -1.30360794 0.06876945 6 3 18656 1.31400000 2685952354 2685952354 3.00000000
-0.17296486 -1.50177824 -0.29384586 1 4 18657 1.54000000 2685952356 2685952356 -11.00000000
-0.18090793 -1.56593537 -0.24966940 91 6 18659 1.59600000 2685952360 2685952360 -9.00000000
-0.18257551 -1.57554555 -0.19474721 50 8 18661 1.59800000 2685952365 2685952365 -7.00000000
-0.17778037 -1.53182745 -0.13491710 100 10 18662 1.54800000 2685952370 2685952370 -5.00000000
-0.16420141 -1.41052592 -0.07442173 38 12 18664 1.42200000 2685952374 2685952374 -3.00000000
-0.15654556 -1.34068584 -0.02356075 69 14 18666 1.35000000 2685952379 2685952379 -1.00000000
-1.17761219 -10.08529282 2.72070575 30 15 18666 10.51200000 2685952381 2685952381 15.00000000
-0.17095441 -1.44654942 -0.39029911 31 0 18674 1.50800000 2685952402 2685952402 -15.00000000
-0.15304932 -1.29117644 0.06814142 4 3 18676 1.30200000 2685952409 2685952409 3.00000000
-0.18613942 -1.56333280 -0.24935654 100 6 18679 1.59400000 2685952416 2685952416 -9.00000000
-0.18477866 -1.54730344 -0.19133487 65 8 18681 1.57000000 2685952420 2685952420 -7.00000000
-0.18359956 -1.53515422 -0.13526571 100 10 18682 1.55200000 2685952425 2685952425 -5.00000000
-0.17554650 -1.46348631 -0.07724787 40 12 18684 1.47600000 2685952430 2685952430 -3.00000000
-0.16194104 -1.34608734 -0.02366546 60 14 18686 1.35600000 2685952434 2685952434 -1.00000000
-1.21442449 -10.09454727 2.72432923 47 15 18686 10.52600000 2685952436 2685952436 15.00000000
-0.17463472 -1.43054140 -0.38615802 33 0 18696 1.49200000 2685952457 2685952457 -15.00000000
-0.15968955 -1.30244613 0.06876945 4 3 18699 1.31400000 2685952464 2685952464 3.00000000
-0.19189972 -1.56064594 -0.24904367 100 6 18701 1.59200000 2685952471 2685952471 -9.00000000
-0.19120441 -1.55052280 -0.19182235 100 8 18703 1.57400000 2685952476 2685952476 -7.00000000
-0.18900438 -1.53048313 -0.13491710 100 10 18704 1.54800000 2685952480 2685952480 -5.00000000
-0.18558322 -1.49847960 -0.07913197 42 12 18706 1.51200000 2685952485 2685952485 -3.00000000
-0.16686197 -1.34347117 -0.02363056 39 14 18708 1.35400000 2685952489 2685952489 -1.00000000
-1.25398290 -10.08192253 2.72225881 49 15 18709 10.51800000 2685952492 2685952492 15.00000000
-0.17914560 -1.42608953 -0.38512275 31 0 18716 1.48800000 2685952512 2685952512 -15.00000000
-0.16650404 -1.32172549 0.06981616 4 3 18718 1.33400000 2685952519 2685952519 3.00000000
-0.19784208 -1.56388605 -0.24966940 100 6 18721 1.59600000 2685952526 2685952526 -9.00000000
-0.19286814 -1.52030635 -0.18816626 83 8 18723 1.54400000 2685952531 2685952531 -7.00000000
-0.19309016 -1.51993155 -0.13404553 100 10 18724 1.53800000 2685952536 2685952536 -5.00000000
-0.18854117 -1.47999144 -0.07818992 74 12 18726 1.49400000 2685952540 2685952540 -3.00000000
-0.17611170 -1.37858486 -0.02425884 25 14 18728 1.39000000 2685952545 2685952545 -1.00000000
-1.29014826 -10.08514881 2.72432923 52 15 18729 10.52600000 2685952547 2685952547 15.00000000
-0.18436997 -1.42737138 -0.38564038 35 0 18736 1.49000000 2685952568 2685952568 -15.00000000
-0.17137325 -1.32311690 0.06992084 4 3 18738 1.33600000 2685952575 2685952575 3.00000000
-0.20380937 -1.56710374 -0.25029513 100 6 18741 1.60000000 2685952582 2685952582 -9.00000000
-0.19971403 -1.53143442 -0.18962871 76 8 18743 1.55600000 2685952586 2685952586 -7.00000000
-0.19529864 -1.49554098 -0.13195379 100 10 18744 1.51400000 2685952591 2685952591 -5.00000000
-0.19292822 -1.47338319 -0.07787590 87 12 18746 1.48800000 2685952595 2685952595 -3.00000000
-0.18534824 -1.41166723 -0.02485223 28 14 18748 1.42400000 2685952600 2685952600 -1.00000000
-1.32685506 -10.09207630 2.72743511 49 15 18749 10.53800000 2685952602 2685952602 15.00000000
-0.18985963 -1.43054926 -0.38667566 33 0 18756 1.49400000 2685952623 2685952623 -15.00000000
-0.17730805 -1.33240962 0.07044420 4 3 18758 1.34600000 2685952630 2685952630 3.00000000
-0.19967124 -1.49846125 -0.29384586 1 4 18759 1.54000000 2685952632 2685952632 -11.00000000
-0.20927835 -1.56638277 -0.25029513 100 6 18761 1.60000000 2685952637 2685952637 -9.00000000
-0.19451568 -1.45202720 -0.17987914 90 8 18763 1.47600000 2685952642 2685952642 -7.00000000
-0.19574994 -1.45930541 -0.12881619 100 10 18764 1.47800000 2685952646 2685952646 -5.00000000
-0.19514166 -1.45092702 -0.07672451 100 12 18766 1.46600000 2685952651 2685952651 -3.00000000
-0.19615401 -1.45461035 -0.02562013 43 14 18768 1.46800000 2685952655 2685952655 -1.00000000
-1.36259198 -10.09121227 2.72847033 49 15 18769 10.54200000 2685952658 2685952658 15.00000000
-0.19276525 -1.41456461 -0.38253456 35 0 18776 1.47800000 2685952678 2685952678 -15.00000000
-0.18195795 -1.33178258 0.07044420 2 3 18778 1.34600000 2685952685 2685952685 3.00000000
-0.19638526 -1.43551075 -0.28163406 1 4 18779 1.47600000 2685952688 2685952688 -11.00000000
-0.21581848 -1.57347095 -0.25154662 100 6 18781 1.60800000 2685952692 2685952692 -9.00000000
-0.20093520 -1.46117234 -0.18109785 78 8 18783 1.48600000 2685952697 2685952697 -7.00000000
-0.20192978 -1.46650827 -0.12951343 79 10 18784 1.48600000 2685952701 2685952701 -5.00000000
-0.20020516 -1.45023692 -0.07672451 100 12 18786 1.46600000 2685952706 2685952706 -3.00000000
-0.20095621 -1.45193601 -0.02558523 66 14 18788 1.46600000 2685952711 2685952711 -1.00000000
-1.39551842 -10.08281040 2.72743511 49 15 18788 10.53800000 2685952713 2685952713 15.00000000
-0.19556162 -1.39857709 -0.37839344 35 0 18796 1.46200000 2685952734 2685952734 -15.00000000
-0.19575568 -1.39641070 0.07389837 4 3 18798 1.41200000 2685952741 2685952741 3.00000000
-0.20084916 -1.43092811 -0.28087085 1 4 18799 1.47200000 2685952743 2685952743 -11.00000000
-0.21938278 -1.55901527 -0.24935654 76 6 18801 1.59400000 2685952747 2685952747 -9.00000000
-0.21657184 -1.53515589 -0.19035992 100 8 18803 1.56200000 2685952752 2685952752 -7.00000000
-0.21094891 -1.49341381 -0.13195379 79 10 18804 1.51400000 2685952757 2685952757 -5.00000000
-0.20918670 -1.47721469 -0.07818992 100 12 18806 1.49400000 2685952761 2685952761 -3.00000000
-0.20714746 -1.45914507 -0.02572485 76 14 18808 1.47400000 2685952766 2685952766 -1.00000000
-1.43192065 -10.07380295 2.72639990 49 15 18809 10.53400000 2685952768 2685952768 15.00000000
-0.19968088 -1.39604354 -0.37787580 35 0 18814 1.46000000 2685952789 2685952789 -15.00000000
-0.21741517 -1.51437318 0.08017869 7 3 18817 1.53200000 2685952796 2685952796 3.00000000
-0.20422755 -1.42251670 -0.27934438 1 4 18817 1.46400000 2685952798 2685952798 -11.00000000
-0.21921420 -1.52312422 -0.24372490 52 6 18819 1.55800000 2685952803 2685952803 -9.00000000
-0.22025970 -1.52660894 -0.18938497 72 8 18821 1.55400000 2685952807 2685952807 -7.00000000
-0.21991248 -1.52232254 -0.13456847 100 10 18822 1.54400000 2685952812 2685952812 -5.00000000
-0.21525770 -1.48643339 -0.07871328 104 12 18824 1.50400000 2685952817 2685952817 -3.00000000
-0.21345419 -1.47036076 -0.02593428 93 14 18826 1.48600000 2685952821 2685952821 -1.00000000
-1.46346915 -10.08098030 2.72950554 49 15 18826 10.54600000 2685952824 2685952824 15.00000000
-0.20511317 -1.39916086 -0.37891108 31 0 18834 1.46400000 2685952844 2685952844 -15.00000000
-0.22444439 -1.52546096 0.08080672 12 3 18837 1.54400000 2685952851 2685952851 3.00000000
-0.21761209 -1.47544801 -0.23621604 78 6 18839 1.51000000 2685952858 2685952858 -9.00000000
-0.22326458 -1.51012087 -0.18743505 41 8 18841 1.53800000 2685952863 2685952863 -7.00000000
-0.22434981 -1.51563287 -0.13404553 100 10 18842 1.53800000 2685952867 2685952867 -5.00000000
-0.22044502 -1.48567295 -0.07871328 97 12 18844 1.50400000 2685952872 2685952872 -3.00000000
-0.21887960 -1.47158468 -0.02596918 100 14 18846 1.48800000 2685952877 2685952877 -1.00000000
-1.50154614 -10.08319187 2.73157620 49 15 18847 10.55400000 2685952879 2685952879 15.00000000
-0.21052720 -1.40031004 -0.37942871 33 0 18855 1.46600000 2685952900 2685952900 -15.00000000
-0.23033194 -1.52660298 0.08091139 7 3 18858 1.54600000 2685952906 2685952906 3.00000000
-0.21264416 -1.40937126 -0.27705467 1 4 18858 1.45200000 2685952909 2685952909 -11.00000000
-0.23128930 -1.52932918 -0.24497637 100 6 18860 1.56600000 2685952913 2685952913 -9.00000000
-0.22582267 -1.48966575 -0.18499766 7 8 18862 1.51800000 2685952918 2685952918 -7.00000000
-0.22601683 -1.48919261 -0.13177948 100 10 18863 1.51200000 2685952923 2685952923 -5.00000000
-0.22588880 -1.48485506 -0.07871328 95 12 18865 1.50400000 2685952927 2685952927 -3.00000000
-0.22457319 -1.47274935 -0.02600409 100 14 18867 1.49000000 2685952932 2685952932 -1.00000000
-1.53702509 -10.07979965 2.73209381 49 15 18867 10.55600000 2685952934 2685952934 15.00000000
-0.21306287 -1.38429165 -0.37528762 37 0 18875 1.45000000 2685952955 2685952955 -15.00000000
-0.23626910 -1.52973735 0.08112073 5 3 18878 1.55000000 2685952962 2685952962 3.00000000
-0.22295660 -1.44354486 -0.28392377 1 4 18878 1.48800000 2685952964 2685952964 -11.00000000
-0.24146152 -1.55974650 -0.24998228 100 6 18880 1.59800000 2685952969 2685952969 -9.00000000
-0.23345621 -1.50456131 -0.18694757 3 8 18882 1.53400000 2685952973 2685952973 -7.00000000
-0.22815533 -1.46870685 -0.13003637 100 10 18883 1.49200000 2685952978 2685952978 -5.00000000
-0.23260692 -1.49392486 -0.07923663 100 12 18885 1.51400000 2685952982 2685952982 -3.00000000
-0.22786264 -1.46010184 -0.02579466 100 14 18887 1.47800000 2685952987 2685952987 -1.00000000
-1.57336271 -10.07028103 2.73105860 47 15 18888 10.55200000 2685952989 2685952989 15.00000000
-0.21669148 -1.37590623 -0.37321708 37 0 18895 1.44200000 2685953010 2685953010 -15.00000000
-0.24254270 -1.53482163 0.08143475 3 3 18898 1.55600000 2685953017 2685953017 3.00000000
-0.22492972 -1.42336583 -0.28010762 1 4 18898 1.46800000 2685953019 2685953019 -11.00000000
-0.24597752 -1.55304098 -0.24904367 84 6 18900 1.59200000 2685953024 2685953024 -9.00000000
-0.24119645 -1.51942158 -0.18889748 17 8 18902 1.55000000 2685953029 2685953029 -7.00000000
-0.23171714 -1.45806301 -0.12916481 100 10 18903 1.48200000 2685953033 2685953033 -5.00000000
-0.23844859 -1.49704862 -0.07944598 100 12 18905 1.51800000 2685953038 2685953038 -3.00000000
-0.23358843 -1.46324694 -0.02586447 100 14 18907 1.48200000 2685953042 2685953042 -1.00000000
-1.60644376 -10.06309986 2.73054099 49 15 18907 10.55000000 2685953045 2685953045 15.00000000
-0.22149296 -1.37514138 -0.37321708 37 0 18915 1.44200000 2685953065 2685953065 -15.00000000
-0.24117242 -1.49234390 -0.29384586 1 4 18918 1.54000000 2685953075 2685953075 -11.00000000
-0.24665977 -1.52292347 -0.24435063 100 6 18920 1.56200000 2685953079 2685953079 -9.00000000
-0.24459037 -1.50681376 -0.18743505 65 8 18922 1.53800000 2685953084 2685953084 -7.00000000
-0.23744448 -1.46117842 -0.12951343 69 10 18923 1.48600000 2685953088 2685953088 -5.00000000
-0.23885715 -1.46663785 -0.07787590 100 12 18925 1.48800000 2685953093 2685953093 -3.00000000
-0.23869470 -1.46242261 -0.02586447 100 14 18927 1.48200000 2685953098 2685953098 -1.00000000
-1.64393914 -10.06095791 2.73157620 49 15 18928 10.55400000 2685953100 2685953100 15.00000000
-0.22511131 -1.36868060 -0.37166414 39 0 18934 1.43600000 2685953121 2685953121 -15.00000000
-0.23972715 -1.45279479 -0.28621349 1 4 18937 1.50000000 2685953130 2685953130 -11.00000000
-0.25138631 -1.52014816 -0.24403776 100 6 18939 1.56000000 2685953135 2685953135 -9.00000000
-0.24796301 -1.49620247 -0.18621635 15 8 18941 1.52800000 2685953139 2685953139 -7.00000000
-0.24359299 -1.46824503 -0.13021068 100 10 18942 1.49400000 2685953144 2685953144 -5.00000000
-0.24404696 -1.46780789 -0.07798058 100 12 18944 1.49000000 2685953148 2685953148 -3.00000000
-0.24485762 -1.46951306 -0.02600409 100 14 18946 1.49000000 2685953153 2685953153 -1.00000000
-1.67744350 -10.06717682 2.73468208 49 15 18946 10.56600000 2685953155 2685953155 15.00000000
-0.23052788 -1.37169683 -0.37269944 39 0 18954 1.44000000 2685953176 2685953176 -15.00000000
-0.24479690 -1.45194912 -0.28621349 1 4 18957 1.50000000 2685953185 2685953185 -11.00000000
-0.25767836 -1.52510476 -0.24497637 100 6 18959 1.56600000 2685953190 2685953190 -9.00000000
-0.25550398 -1.50902843 -0.18792252 3 8 18961 1.54200000 2685953194 2685953194 -7.00000000
-0.24938254 -1.47131455 -0.13055930 100 10 18962 1.49800000 2685953199 2685953199 -5.00000000
-0.24582453 -1.44725657 -0.07693385 100 12 18964 1.47000000 2685953204 2685953204 -3.00000000
-0.24931459 -1.46470666 -0.02593428 100 14 18966 1.48600000 2685953208 2685953208 -1.00000000
-1.71368122 -10.05715275 2.73364687 49 15 18967 10.56200000 2685953211 2685953211 15.00000000
-0.23424521 -1.36322689 -0.37062886 41 0 18975 1.43200000 2685953231 2685953231 -15.00000000
-0.24678202 -1.43169498 -0.28239730 1 4 18978 1.48000000 2685953241 2685953241 -11.00000000
-0.26461133 -1.53193629 -0.24622785 79 6 18980 1.57400000 2685953245 2685953245 -9.00000000
-0.26103312 -1.50808179 -0.18792252 21 8 18982 1.54200000 2685953250 2685953250 -7.00000000
-0.25545380 -1.47431695 -0.13090792 100 10 18983 1.50200000 2685953254 2685953254 -5.00000000
-0.25112733 -1.44634581 -0.07693385 100 12 18985 1.47000000 2685953259 2685953259 -3.00000000
-0.25605243 -1.47166348 -0.02607390 84 14 18987 1.49400000 2685953264 2685953264 -1.00000000
-1.74943912 -10.05491543 2.73468208 49 15 18987 10.56600000 2685953266 2685953266 15.00000000
-0.23800093 -1.35669243 -0.36907595 43 0 18995 1.42600000 2685953287 2685953287 -15.00000000
-0.24973662 -1.41922355 -0.28010762 1 4 18998 1.46800000 2685953296 2685953296 -11.00000000
-0.27064323 -1.53489399 -0.24685359 71 6 19000 1.57800000 2685953300 2685953300 -9.00000000
-0.26560494 -1.50325179 -0.18743505 18 8 19002 1.53800000 2685953305 2685953305 -7.00000000
-0.25851658 -1.46164465 -0.12986206 81 10 19003 1.49000000 2685953310 2685953310 -5.00000000
-0.25826570 -1.45726013 -0.07756189 100 12 19005 1.48200000 2685953314 2685953314 -3.00000000
-0.26048863 -1.46682286 -0.02600409 84 14 19007 1.49000000 2685953319 2685953319 -1.00000000
-1.78385115 -10.04494381 2.73364687 49 15 19007 10.56200000 2685953321 2685953321 15.00000000
-0.24307567 -1.35775506 -0.36959359 50 0 19015 1.42800000 2685953342 2685953342 -15.00000000
-0.25399515 -1.41447842 -0.27934438 1 4 19018 1.46400000 2685953351 2685953351 -11.00000000
-0.27390051 -1.52227497 -0.24497637 63 6 19020 1.56600000 2685953356 2685953356 -9.00000000
-0.27261171 -1.51208353 -0.18865374 12 8 19022 1.54800000 2685953360 2685953360 -7.00000000
-0.26715556 -1.48034048 -0.13160518 57 10 19023 1.51000000 2685953365 2685953365 -5.00000000
-0.26583871 -1.47010744 -0.07829459 100 12 19025 1.49600000 2685953370 2685953370 -3.00000000
-0.26239854 -1.44819582 -0.02568994 100 14 19027 1.47200000 2685953374 2685953374 -1.00000000
-1.82165897 -10.05386257 2.73778796 49 15 19027 10.57800000 2685953376 2685953376 15.00000000
-0.24816070 -1.35879874 -0.37011123 46 0 19035 1.43000000 2685953397 2685953397 -15.00000000
-0.28099552 -1.53102422 -0.24654071 29 6 19040 1.57600000 2685953411 2685953411 -9.00000000
-0.27609307 -1.50136101 -0.18743505 3 8 19042 1.53800000 2685953416 2685953416 -7.00000000
-0.27340338 -1.48527730 -0.13212810 13 10 19043 1.51600000 2685953420 2685953420 -5.00000000
-0.26879519 -1.45738566 -0.07766656 100 12 19045 1.48400000 2685953425 2685953425 -3.00000000
-0.26817885 -1.45120382 -0.02575975 100 14 19047 1.47600000 2685953429 2685953429 -1.00000000
-1.85849607 -10.04711914 2.73778796 49 15 19048 10.57800000 2685953432 2685953432 15.00000000
-0.25219488 -1.35412586 -0.36907595 46 0 19055 1.42600000 2685953453 2685953453 -15.00000000
-0.26242191 -1.40495121 -0.27781790 5 4 19058 1.45600000 2685953462 2685953462 -11.00000000
-0.28779158 -1.53780067 -0.24779220 22 6 19060 1.58400000 2685953466 2685953466 -9.00000000
-0.27803954 -1.48282826 -0.18524140 1 8 19062 1.52000000 2685953471 2685953471 -7.00000000
-0.27388078 -1.45643854 -0.07766656 21 12 19065 1.48400000 2685953480 2685953480 -3.00000000
-0.27435362 -1.45615423 -0.02586447 100 14 19067 1.48200000 2685953485 2685953485 -1.00000000
-1.89466476 -10.05608845 2.74192905 49 15 19067 10.59400000 2685953487 2685953487 15.00000000
-0.25692013 -1.35323727 -0.36907595 46 0 19075 1.42600000 2685953508 2685953508 -15.00000000
-0.26769170 -1.40595520 -0.27819952 1 4 19078 1.45800000 2685953517 2685953517 -11.00000000
-0.29537866 -1.54842913 -0.24966940 6 6 19080 1.59600000 2685953522 2685953522 -9.00000000
-0.29588398 -1.54814196 -0.19352852 1 8 19082 1.58800000 2685953526 2685953526 -7.00000000
-0.28002220 -1.46376336 -0.13038500 5 10 19083 1.49600000 2685953531 2685953531 -5.00000000
-0.27792645 -1.44733238 -0.02572485 100 14 19087 1.47400000 2685953540 2685953540 -1.00000000
-1.92684102 -10.03423595 2.73778796 49 15 19087 10.57800000 2685953542 2685953542 15.00000000
-0.26127526 -1.35043550 -0.36855832 50 0 19095 1.42400000 2685953563 2685953563 -15.00000000
-0.27297172 -1.40693963 -0.27858114 3 4 19098 1.46000000 2685953572 2685953572 -11.00000000
-0.28457433 -1.46400797 -0.23621604 1 6 19100 1.51000000 2685953577 2685953577 -9.00000000
-0.28231350 -1.44967520 -0.18134159 1 8 19102 1.48800000 2685953581 2685953581 -7.00000000
-0.28131807 -1.44322121 -0.12864187 5 10 19103 1.47600000 2685953586 2685953586 -5.00000000
-0.28672153 -1.46821260 -0.07839926 2 12 19105 1.49800000 2685953591 2685953591 -3.00000000
-0.28297690 -1.44635344 -0.02572485 94 14 19107 1.47400000 2685953595 2685953595 -1.00000000
-1.96222627 -10.02934456 2.73830557 49 15 19107 10.58000000 2685953598 2685953598 15.00000000
-0.26561400 -1.34761989 -0.36804068 48 0 19115 1.42200000 2685953618 2685953618 -15.00000000
-0.28092647 -1.42138612 -0.28163406 5 4 19118 1.47600000 2685953628 2685953628 -11.00000000
-0.28968292 -1.46300578 -0.23621604 1 6 19120 1.51000000 2685953632 2685953632 -9.00000000
-0.28737211 -1.44868100 -0.18134159 1 8 19122 1.48800000 2685953637 2685953637 -7.00000000
-0.28868222 -1.45395589 -0.12968774 5 10 19123 1.48800000 2685953641 2685953641 -5.00000000
-0.28872761 -1.45153177 -0.07756189 2 12 19125 1.48200000 2685953646 2685953646 -3.00000000
-0.28724226 -1.44143462 -0.02565504 100 14 19127 1.47000000 2685953651 2685953651 -1.00000000
-1.99935031 -10.02398014 2.73882318 49 15 19128 10.58200000 2685953653 2685953653 15.00000000
-0.27221742 -1.35615480 -0.37062886 50 0 19135 1.43200000 2685953674 2685953674 -15.00000000
-0.28588632 -1.42039692 -0.28163406 5 4 19138 1.47600000 2685953683 2685953683 -11.00000000
-0.29478800 -1.46198559 -0.23621604 1 6 19140 1.51000000 2685953687 2685953687 -9.00000000
-0.29242718 -1.44766903 -0.18134159 1 8 19142 1.48800000 2685953692 2685953692 -7.00000000
-0.29138672 -1.44122207 -0.12864187 11 10 19143 1.47600000 2685953697 2685953697 -5.00000000
-0.28348413 -1.39961982 -0.07484042 2 12 19145 1.43000000 2685953701 2685953701 -3.00000000
-0.29266971 -1.44238293 -0.02568994 100 14 19147 1.47200000 2685953706 2685953706 -1.00000000
-2.03450084 -10.02676105 2.74141121 49 15 19147 10.59200000 2685953708 2685953708 15.00000000
-0.27694961 -1.35519636 -0.37062886 50 0 19155 1.43200000 2685953729 2685953729 -15.00000000
-0.29005450 -1.41554368 -0.28087085 3 4 19158 1.47200000 2685953738 2685953738 -11.00000000
-0.29988950 -1.46094775 -0.23621604 1 6 19160 1.51000000 2685953743 2685953743 -9.00000000
-0.29428002 -1.43108416 -0.17939167 1 8 19162 1.47200000 2685953747 2685953747 -7.00000000
-0.29762071 -1.44605064 -0.12916481 28 10 19163 1.48200000 2685953752 2685953752 -5.00000000
-0.29401436 -1.42600739 -0.07630582 6 12 19165 1.45800000 2685953757 2685953757 -3.00000000
-0.29729831 -1.43939412 -0.02565504 100 14 19167 1.47000000 2685953761 2685953761 -1.00000000
-2.07183290 -10.03094959 2.74451709 49 15 19167 10.60400000 2685953763 2685953763 15.00000000
-0.28026286 -1.34859622 -0.36907595 46 0 19174 1.42600000 2685953784 2685953784 -15.00000000
-0.30473253 -1.45994520 -0.23621604 1 6 19179 1.51000000 2685953798 2685953798 -9.00000000
-0.29821149 -1.42621434 -0.17890419 3 8 19181 1.46800000 2685953803 2685953803 -7.00000000
-0.29792506 -1.42360413 -0.12724738 24 10 19182 1.46000000 2685953807 2685953807 -5.00000000
-0.29915136 -1.42697930 -0.07641049 6 12 19184 1.46000000 2685953812 2685953812 -3.00000000
-0.29878202 -1.42274427 -0.02537580 100 14 19186 1.45400000 2685953816 2685953816 -1.00000000
-2.10604024 -10.01987553 2.74348187 49 15 19187 10.60000000 2685953819 2685953819 15.00000000
-0.28257057 -1.33626938 -0.36597013 48 0 19194 1.41400000 2685953839 2685953839 -15.00000000
-0.29805428 -1.40585434 -0.27934438 1 4 19197 1.46400000 2685953849 2685953849 -11.00000000
-0.30982682 -1.45887268 -0.23621604 1 6 19199 1.51000000 2685953853 2685953853 -9.00000000
-0.30318809 -1.42516470 -0.17890419 5 8 19201 1.46800000 2685953858 2685953858 -7.00000000
-0.30247763 -1.42060685 -0.12707308 27 10 19202 1.45800000 2685953863 2685953863 -5.00000000
-0.30746356 -1.44155300 -0.07724787 6 12 19204 1.47600000 2685953867 2685953867 -3.00000000
-0.30583555 -1.43147051 -0.02555032 100 14 19206 1.46400000 2685953872 2685953872 -1.00000000
-2.13938737 -10.00490665 2.74141121 49 15 19207 10.59200000 2685953874 2685953874 15.00000000
-0.28932711 -1.34272850 -0.36804068 46 0 19216 1.42200000 2685953895 2685953895 -15.00000000
-0.30510837 -1.41237545 -0.28087085 1 4 19219 1.47200000 2685953904 2685953904 -11.00000000
-0.30623499 -1.41519701 -0.22933292 1 6 19221 1.46600000 2685953909 2685953909 -9.00000000
-0.30865806 -1.42399001 -0.17890419 5 8 19223 1.46800000 2685953913 2685953913 -7.00000000
-0.31004211 -1.42917037 -0.12794463 55 10 19224 1.46800000 2685953918 2685953918 -5.00000000
-0.30833119 -1.41889298 -0.07609648 6 12 19226 1.45400000 2685953922 2685953922 -3.00000000
-0.31388164 -1.44200933 -0.02575975 52 14 19228 1.47600000 2685953927 2685953927 -1.00000000
-2.17861009 -10.00039291 2.74244666 49 15 19229 10.59600000 2685953929 2685953929 15.00000000
-0.29607993 -1.35114574 -0.37062886 50 0 19236 1.43200000 2685953950 2685953950 -15.00000000
-0.30582416 -1.39212656 -0.27705467 1 4 19239 1.45200000 2685953959 2685953959 -11.00000000
-0.30607882 -1.39096880 -0.22557850 5 6 19241 1.44200000 2685953964 2685953964 -9.00000000
-0.31533599 -1.43065810 -0.17987914 3 8 19243 1.47600000 2685953969 2685953969 -7.00000000
-0.31331220 -1.42029703 -0.12724738 27 10 19244 1.46000000 2685953973 2685953973 -5.00000000
-0.31759143 -1.43731022 -0.07714320 4 12 19246 1.47400000 2685953978 2685953978 -3.00000000
-0.31977752 -1.44480968 -0.02582956 13 14 19248 1.48000000 2685953982 2685953982 -1.00000000
-2.21517587 -10.00027180 2.74451709 49 15 19249 10.60400000 2685953985 2685953985 15.00000000
-0.30265775 -1.35958493 -0.37321708 46 0 19255 1.44200000 2685954005 2685954005 -15.00000000
-0.30958372 -1.38727248 -0.27629143 3 4 19258 1.44800000 2685954015 2685954015 -11.00000000
-0.30939701 -1.38416266 -0.22463989 7 6 19260 1.43600000 2685954019 2685954019 -9.00000000
-0.32007849 -1.42960453 -0.17987914 3 8 19262 1.47600000 2685954024 2685954024 -7.00000000
-0.32019857 -1.42897105 -0.12811895 33 10 19263 1.47000000 2685954028 2685954028 -5.00000000
-2.24742913 -9.99703312 2.74555254 49 15 19267 10.60800000 2685954040 2685954040 15.00000000
-0.30441725 -1.34533072 -0.36959359 43 0 19275 1.42800000 2685954061 2685954061 -15.00000000
-0.31485862 -1.38809800 -0.27667305 5 4 19278 1.45000000 2685954070 2685954070 -11.00000000
-0.31816554 -1.40041089 -0.22745571 3 6 19280 1.45400000 2685954074 2685954074 -9.00000000
-0.32066208 -1.40912247 -0.17744176 2 8 19282 1.45600000 2685954079 2685954079 -7.00000000
-0.32341495 -1.42007411 -0.12742169 22 10 19283 1.46200000 2685954084 2685954084 -5.00000000
-0.32692325 -1.43316793 -0.07703853 4 12 19285 1.47200000 2685954088 2685954088 -3.00000000
-0.31846926 -1.39386320 -0.02495694 1 14 19287 1.43000000 2685954093 2685954093 -1.00000000
-2.28362417 -9.98684502 2.74503469 47 15 19288 10.60600000 2685954095 2685954095 15.00000000
-0.30911148 -1.34425986 -0.36959359 43 0 19295 1.42800000 2685954116 2685954116 -15.00000000
-0.32146594 -1.39464283 -0.27819952 7 4 19298 1.45800000 2685954125 2685954125 -11.00000000
-0.32660684 -1.41468966 -0.22995867 1 6 19300 1.47000000 2685954130 2685954130 -9.00000000
-0.33362892 -1.44280767 -0.18182907 1 8 19302 1.49200000 2685954134 2685954134 -7.00000000
-0.32792076 -1.41699541 -0.12724738 27 10 19303 1.46000000 2685954139 2685954139 -5.00000000
-0.33192396 -1.43201804 -0.07703853 2 12 19305 1.47200000 2685954144 2685954144 -3.00000000
-0.34865677 -1.50182498 -0.02691161 1 14 19307 1.54200000 2685954148 2685954148 -1.00000000
-2.31541872 -9.97357178 2.74348187 49 15 19307 10.60000000 2685954151 2685954151 15.00000000
-0.31643894 -1.35445988 -0.37269944 35 0 19315 1.44000000 2685954171 2685954171 -15.00000000
-0.34056464 -1.45200467 -0.23621604 1 6 19320 1.51000000 2685954185 2685954185 -9.00000000
-0.33957118 -1.44549930 -0.18231654 1 8 19322 1.49600000 2685954190 2685954190 -7.00000000
-0.33377695 -1.41972113 -0.12759601 13 10 19323 1.46400000 2685954194 2685954194 -5.00000000
-0.33829391 -1.43668294 -0.07735255 4 12 19325 1.47800000 2685954199 2685954199 -3.00000000
-0.34471679 -1.46167278 -0.02621351 1 14 19327 1.50200000 2685954204 2685954204 -1.00000000
-2.35373306 -9.97253990 2.74555254 49 15 19328 10.60800000 2685954206 2685954206 15.00000000
-0.32428738 -1.36650455 -0.37632290 31 0 19335 1.45400000 2685954227 2685954227 -15.00000000
-0.33573762 -1.41146433 -0.28201568 5 4 19338 1.47800000 2685954236 2685954236 -11.00000000
-0.34563100 -1.45080709 -0.23621604 1 6 19340 1.51000000 2685954240 2685954240 -9.00000000
-0.34645769 -1.45202863 -0.18329149 1 8 19342 1.50400000 2685954245 2685954245 -7.00000000
-0.34335813 -1.43792653 -0.12933913 10 10 19343 1.48400000 2685954250 2685954250 -5.00000000
-0.34330681 -1.43549335 -0.07735255 2 12 19345 1.47800000 2685954254 2685954254 -3.00000000
-0.35121429 -1.46629465 -0.02631823 2 14 19347 1.50800000 2685954259 2685954259 -1.00000000
-2.38904047 -9.97407341 2.74814057 49 15 19347 10.61800000 2685954261 2685954261 15.00000000
-0.32950804 -1.36724234 -0.37684053 28 0 19355 1.45600000 2685954282 2685954282 -15.00000000
-0.36121887 -1.49652791 -0.35542268 55 2 19357 1.58000000 2685954286 2685954286 -13.00000000
-0.35069317 -1.44959176 -0.23621604 1 6 19360 1.51000000 2685954296 2685954296 -9.00000000
-0.34497976 -1.42380071 -0.17987914 1 8 19362 1.47600000 2685954300 2685954300 -7.00000000
-0.35916600 -1.47671795 -0.02652766 12 14 19367 1.52000000 2685954314 2685954314 -1.00000000
-2.42558122 -9.96525002 2.74814057 49 15 19368 10.61800000 2685954316 2685954316 15.00000000
-0.33611527 -1.37358975 -0.37891108 21 0 19375 1.46400000 2685954337 2685954337 -15.00000000
-0.38499448 -1.57096708 -0.37341875 78 2 19377 1.66000000 2685954342 2685954342 -13.00000000
-0.34137449 -1.39192533 -0.27858114 3 4 19378 1.46000000 2685954346 2685954346 -11.00000000
-0.35575104 -1.44835877 -0.23621604 1 6 19380 1.51000000 2685954351 2685954351 -9.00000000
-0.35658625 -1.44957459 -0.18329149 1 8 19382 1.50400000 2685954356 2685954356 -7.00000000
-0.35624591 -1.44710219 -0.13038500 7 10 19383 1.49600000 2685954360 2685954360 -5.00000000
-0.36288041 -1.46963108 -0.02642294 5 14 19387 1.51400000 2685954369 2685954369 -1.00000000
-2.45815063 -9.95527554 2.74762297 49 15 19387 10.61600000 2685954372 2685954372 15.00000000
-0.34230512 -1.37803280 -0.38046399 19 0 19395 1.47000000 2685954392 2685954392 -15.00000000
-0.40270758 -1.61878228 -0.38511622 100 2 19397 1.71200000 2685954397 2685954397 -13.00000000
-0.36899704 -1.48217010 -0.29689878 1 4 19398 1.55600000 2685954402 2685954402 -11.00000000
-0.37514120 -1.50460911 -0.24560212 1 6 19400 1.57000000 2685954406 2685954406 -9.00000000
-0.35779676 -1.43291342 -0.18134159 1 8 19402 1.48800000 2685954411 2685954411 -7.00000000
-0.36226109 -1.44971573 -0.13073361 2 10 19403 1.50000000 2685954415 2685954415 -5.00000000
-2.49415207 -9.94432545 2.74710536 49 15 19408 10.61400000 2685954427 2685954427 15.00000000
-0.35489586 -1.40873647 -0.38926384 21 0 19414 1.50400000 2685954448 2685954448 -15.00000000
-0.40712002 -1.61365891 -0.38421640 85 2 19416 1.70800000 2685954452 2685954452 -13.00000000
-0.41524202 -1.64464104 -0.32971793 1 4 19417 1.72800000 2685954457 2685954457 -11.00000000
-0.36560139 -1.44590378 -0.23621604 1 6 19419 1.51000000 2685954462 2685954462 -9.00000000
-0.36741942 -1.45096254 -0.18377897 1 8 19421 1.50800000 2685954466 2685954466 -7.00000000
-0.36657709 -1.44657505 -0.13055930 2 10 19422 1.49800000 2685954471 2685954471 -5.00000000
-0.37583992 -1.48095667 -0.08007401 2 12 19424 1.53000000 2685954475 2685954475 -3.00000000
-2.52728415 -9.94393063 2.74917579 49 15 19426 10.62200000 2685954482 2685954482 15.00000000
-0.37033752 -1.44866562 -0.40065187 24 0 19434 1.54800000 2685954503 2685954503 -15.00000000
-0.40985036 -1.60090089 -0.38151699 85 2 19436 1.69600000 2685954508 2685954508 -13.00000000
-0.44680437 -1.74397862 -0.34994370 5 4 19437 1.83400000 2685954512 2685954512 -11.00000000
-0.38831952 -1.51350117 -0.24747932 1 6 19439 1.58200000 2685954517 2685954517 -9.00000000
-0.38253990 -1.48773837 -0.13439415 2 10 19442 1.54200000 2685954526 2685954526 -5.00000000
-2.56419611 -9.93647099 2.74969363 49 15 19447 10.62400000 2685954538 2685954538 15.00000000
-0.39915717 -1.53899312 -0.42601615 30 0 19454 1.64600000 2685954558 2685954558 -15.00000000
-0.41788557 -1.60889125 -0.38376650 79 2 19456 1.70600000 2685954563 2685954563 -13.00000000
-0.45535868 -1.75190890 -0.35185179 18 4 19457 1.84400000 2685954568 2685954568 -11.00000000
-0.40852821 -1.56948686 -0.25686538 1 6 19459 1.64200000 2685954572 2685954572 -9.00000000
-0.39756867 -1.52519834 -0.19352852 1 8 19461 1.58800000 2685954577 2685954577 -7.00000000
-0.38219890 -1.46518731 -0.13247673 2 10 19462 1.52000000 2685954581 2685954581 -5.00000000
-2.60055518 -9.94099617 2.75331712 49 15 19466 10.63800000 2685954593 2685954593 15.00000000
-0.42271334 -1.60671663 -0.44516876 71 0 19474 1.72000000 2685954614 2685954614 -15.00000000
-0.42598149 -1.61684489 -0.38601601 67 2 19476 1.71600000 2685954618 2685954618 -13.00000000
-0.46147120 -1.75030875 -0.35185179 60 4 19477 1.84400000 2685954623 2685954623 -11.00000000
-0.44173899 -1.67309725 -0.27407318 6 6 19479 1.75200000 2685954627 2685954627 -9.00000000
-2.63424897 -9.92812347 2.75228167 49 15 19486 10.63400000 2685954648 2685954648 15.00000000
-0.43280166 -1.62203014 -0.44982749 90 0 19494 1.73800000 2685954669 2685954669 -15.00000000
-0.43765944 -1.63794041 -0.39141482 48 2 19496 1.74000000 2685954674 2685954674 -13.00000000
-0.47011378 -1.75817037 -0.35375988 70 4 19497 1.85400000 2685954678 2685954678 -11.00000000
-1.03131342 -3.84622860 -0.48893979 2 8 19501 4.01200000 2685954687 2685954687 -7.00000000
-1.38069332 -5.14563227 -0.46610892 3 10 19502 5.34800000 2685954692 2685954692 -5.00000000
-2.66637874 -9.90954018 2.74969363 49 15 19506 10.62400000 2685954703 2685954703 15.00000000
-0.44098374 -1.62983358 -0.45241570 100 0 19514 1.74800000 2685954724 2685954724 -15.00000000
-0.44796088 -1.65333092 -0.39546394 33 2 19516 1.75800000 2685954729 2685954729 -13.00000000
-0.47522059 -1.75272894 -0.35299665 58 4 19517 1.85000000 2685954733 2685954733 -11.00000000
-0.45444372 -1.67378533 -0.27469891 28 6 19519 1.75600000 2685954738 2685954738 -9.00000000
-1.04212892 -3.83302736 -0.48772112 4 8 19521 4.00200000 2685954743 2685954743 -7.00000000
-1.40701544 -5.17154169 -0.46889791 3 10 19522 5.38000000 2685954747 2685954747 -5.00000000
-2.70573378 -9.91088295 2.75279927 49 15 19527 10.63600000 2685954759 2685954759 15.00000000
-0.44513705 -1.62269521 -0.45086277 100 0 19534 1.74200000 2685954780 2685954780 -15.00000000
-0.46095598 -1.67806506 -0.40176257 55 2 19536 1.78600000 2685954784 2685954784 -13.00000000
-0.48445803 -1.76241767 -0.35528636 52 4 19537 1.86200000 2685954789 2685954789 -11.00000000
-1.05286491 -3.81979775 -0.48650241 3 8 19541 3.99200000 2685954798 2685954798 -7.00000000
-1.41128504 -5.11666107 -0.46436581 3 10 19542 5.32800000 2685954803 2685954803 -5.00000000
-2.74064445 -9.90930367 2.75486994 49 15 19546 10.64400000 2685954814 2685954814 15.00000000
-0.45079860 -1.62113154 -0.45086277 88 0 19554 1.74200000 2685954835 2685954835 -15.00000000
-0.46994719 -1.68770969 -0.40446201 48 2 19556 1.79800000 2685954839 2685954839 -13.00000000
-0.48744527 -1.74936855 -0.35299665 50 4 19557 1.85000000 2685954844 2685954844 -11.00000000
-0.84570116 -3.03100348 -0.49840021 3 6 19559 3.18600000 2685954849 2685954849 -9.00000000
-1.06672621 -3.81801128 -0.48674616 3 8 19561 3.99400000 2685954853 2685954853 -7.00000000
-1.43128276 -5.11937904 -0.46506304 3 10 19562 5.33600000 2685954858 2685954858 -5.00000000
