# .PCD v0.7 - Point Cloud Data file format
VERSION 0.7
FIELDS x y z intensity laser_id azimuth distance_m adjustedtime timestamp vertical_angle
SIZE 4 4 4 1 1 2 8 8 4 8
TYPE F F F U U U F U U F
COUNT 1 1 1 1 1 1 1 1 1 1
WIDTH 533
HEIGHT 1
VIEWPOINT 0 0 0 1 0 0 0
POINTS 533
DATA ascii
8.11746693 -0.56193405 0.99908489 90 7 9396 8.19800000 2682526659 2682526659 7.00000000
5.19638300 -0.36063248 -0.63957030 2 8 9397 5.24800000 2682526662 2682526662 -7.00000000
8.20770168 -0.56962001 1.30309904 7 9 9397 8.33000000 2682526664 2682526664 9.00000000
6.57492924 -0.45745760 -0.57662237 28 10 9398 6.61600000 2682526666 2682526666 -5.00000000
8.09708881 -0.56620359 -0.42538664 17 12 9400 8.12800000 2682526671 2682526671 -3.00000000
8.09080887 -0.56860256 -0.14157392 20 14 9402 8.11200000 2682526676 2682526676 -1.00000000
8.15548134 -0.57314759 2.19064450 47 15 9402 8.46400000 2682526678 2682526678 15.00000000
2.21594381 -0.15884082 -0.59528381 4 0 9410 2.30000000 2682526699 2682526699 -15.00000000
8.09190083 -0.58145422 0.14160882 18 1 9411 8.11400000 2682526701 2682526701 1.00000000
2.59290123 -0.18677124 -0.60016942 7 2 9412 2.66800000 2682526703 2682526703 -13.00000000
8.10375118 -0.58514917 0.42580533 23 3 9413 8.13600000 2682526706 2682526706 3.00000000
3.13109183 -0.22608738 -0.61020714 4 4 9413 3.19800000 2682526708 2682526708 -11.00000000
8.11966038 -0.58772248 0.71223670 94 5 9414 8.17200000 2682526710 2682526710 5.00000000
3.90296078 -0.28319141 -0.61979336 4 6 9415 3.96200000 2682526712 2682526712 -9.00000000
8.10555649 -0.58954585 0.99786621 90 7 9416 8.18800000 2682526715 2682526715 7.00000000
5.20895147 -0.37977949 -0.64127648 4 8 9417 5.26200000 2682526717 2682526717 -7.00000000
8.21354389 -0.59884131 1.30435061 7 9 9417 8.33800000 2682526719 2682526719 9.00000000
6.58918905 -0.48156738 -0.57801688 24 10 9418 6.63200000 2682526722 2682526722 -5.00000000
8.09107876 -0.59417170 -0.42517731 17 12 9420 8.12400000 2682526726 2682526726 -3.00000000
8.09276390 -0.59713560 -0.14164373 18 14 9422 8.11600000 2682526731 2682526731 -1.00000000
8.15728378 -0.60189635 2.19167972 49 15 9422 8.46800000 2682526733 2682526733 15.00000000
2.21152306 -0.16628525 -0.59424853 4 0 9430 2.29600000 2682526754 2682526754 -15.00000000
8.10178566 -0.61059839 0.14181826 12 1 9431 8.12600000 2682526756 2682526756 1.00000000
2.59223366 -0.19582102 -0.60016942 7 2 9432 2.66800000 2682526759 2682526759 -13.00000000
8.09767628 -0.61313140 0.42559600 21 3 9433 8.13200000 2682526761 2682526761 3.00000000
3.11462235 -0.23582973 -0.60715425 4 4 9433 3.18200000 2682526763 2682526763 -11.00000000
8.10166645 -0.61485565 0.71084225 76 5 9434 8.15600000 2682526765 2682526765 5.00000000
3.89800906 -0.29651389 -0.61916763 6 6 9435 3.95800000 2682526768 2682526768 -9.00000000
8.10740757 -0.61813778 0.99835366 85 7 9436 8.19200000 2682526770 2682526770 7.00000000
5.17592478 -0.39553967 -0.63737667 4 8 9437 5.23000000 2682526772 2682526772 -7.00000000
8.19553661 -0.62773454 1.30184758 10 9 9438 8.32200000 2682526775 2682526775 9.00000000
6.59541416 -0.50517368 -0.57871413 40 10 9438 6.64000000 2682526777 2682526777 -5.00000000
8.09692097 -0.62302411 -0.42559600 17 12 9440 8.13200000 2682526782 2682526782 -3.00000000
8.09262371 -0.62553513 -0.14167863 16 14 9442 8.11800000 2682526786 2682526786 -1.00000000
8.15898609 -0.63066471 2.19271493 47 15 9442 8.47200000 2682526788 2682526788 15.00000000
2.20707726 -0.17370075 -0.59321326 4 0 9450 2.29200000 2682526809 2682526809 -15.00000000
8.10558510 -0.63934690 0.14192297 12 1 9451 8.13200000 2682526812 2682526812 1.00000000
2.59347701 -0.20502199 -0.60061932 6 2 9452 2.67000000 2682526814 2682526814 -13.00000000
8.10345078 -0.64202482 0.42601469 21 3 9453 8.14000000 2682526816 2682526816 3.00000000
3.11769438 -0.24701047 -0.60791749 4 4 9453 3.18600000 2682526818 2682526818 -11.00000000
8.10145664 -0.64328969 0.71101654 76 5 9454 8.15800000 2682526821 2682526821 5.00000000
3.90482688 -0.31074548 -0.62041909 6 6 9455 3.96600000 2682526823 2682526823 -9.00000000
8.11905193 -0.64753890 1.00005984 90 7 9456 8.20600000 2682526825 2682526825 7.00000000
5.20419455 -0.41597712 -0.64103276 4 8 9457 5.26000000 2682526828 2682526828 -7.00000000
8.18148136 -0.65539211 1.29997039 7 9 9458 8.31000000 2682526830 2682526830 9.00000000
6.58963871 -0.52787471 -0.57836550 48 10 9458 6.63600000 2682526832 2682526832 -5.00000000
8.20748138 -0.65891653 1.60050583 6 11 9459 8.38800000 2682526835 2682526835 11.00000000
8.11261463 -0.65272546 -0.42653805 17 12 9460 8.15000000 2682526837 2682526837 -3.00000000
8.08042526 -0.65297449 -0.14150411 16 14 9462 8.10800000 2682526841 2682526841 -1.00000000
8.15661907 -0.66056466 2.19271493 49 15 9463 8.47200000 2682526844 2682526844 15.00000000
2.20260668 -0.18108724 -0.59217799 4 0 9470 2.28800000 2682526865 2682526865 -15.00000000
8.09134674 -0.66665155 0.14171354 15 1 9471 8.12000000 2682526867 2682526867 1.00000000
2.60439825 -0.21503580 -0.60331875 6 2 9472 2.68200000 2682526869 2682526869 -13.00000000
8.10713196 -0.67080134 0.42632869 21 3 9473 8.14600000 2682526871 2682526871 3.00000000
3.12072635 -0.25821552 -0.60868067 4 4 9473 3.19000000 2682526874 2682526874 -11.00000000
8.10313320 -0.67189443 0.71136516 76 5 9474 8.16200000 2682526876 2682526876 5.00000000
3.89190698 -0.32339251 -0.61854190 6 6 9475 3.95400000 2682526878 2682526878 -9.00000000
8.11476421 -0.67571098 0.99981612 90 7 9476 8.20400000 2682526881 2682526881 7.00000000
5.19281960 -0.43331525 -0.63981408 4 8 9477 5.25000000 2682526883 2682526883 -7.00000000
8.18701744 -0.68460524 1.30122185 7 9 9478 8.31800000 2682526885 2682526885 9.00000000
6.58577061 -0.55070758 -0.57819122 76 10 9478 6.63400000 2682526888 2682526888 -5.00000000
8.11227703 -0.68120694 -0.42664272 17 12 9480 8.15200000 2682526892 2682526892 -3.00000000
8.08008862 -0.68134445 -0.14153902 16 14 9482 8.11000000 2682526897 2682526897 -1.00000000
8.15053368 -0.68728471 2.19167972 47 15 9482 8.46800000 2682526899 2682526899 15.00000000
2.20196128 -0.18877468 -0.59217799 4 0 9490 2.28800000 2682526920 2682526920 -15.00000000
8.08897018 -0.69489157 0.14171354 12 1 9491 8.12000000 2682526922 2682526922 1.00000000
2.59198236 -0.22312273 -0.60061932 6 2 9492 2.67000000 2682526924 2682526924 -13.00000000
8.11468983 -0.69995463 0.42685205 18 3 9493 8.15600000 2682526927 2682526927 3.00000000
3.12371802 -0.26944476 -0.60944390 4 4 9493 3.19400000 2682526929 2682526929 -11.00000000
8.10073853 -0.70017552 0.71136516 76 5 9494 8.16200000 2682526931 2682526931 5.00000000
3.88091421 -0.33612362 -0.61697751 6 6 9495 3.94400000 2682526934 2682526934 -9.00000000
8.11037827 -0.70386106 0.99957234 90 7 9496 8.20200000 2682526936 2682526936 7.00000000
5.19720840 -0.45195484 -0.64054525 4 8 9497 5.25600000 2682526938 2682526938 -7.00000000
8.20032120 -0.71455091 1.30372488 7 9 9498 8.33400000 2682526941 2682526941 9.00000000
6.58777761 -0.57403874 -0.57853985 58 10 9498 6.63800000 2682526943 2682526943 -5.00000000
8.09592247 -0.70830142 -0.42591003 17 12 9500 8.13800000 2682526947 2682526947 -3.00000000
8.09359741 -0.71094495 -0.14181826 16 14 9502 8.12600000 2682526952 2682526952 -1.00000000
8.15963173 -0.71674544 2.19478559 47 15 9502 8.48000000 2682526954 2682526954 15.00000000
2.20125461 -0.19684400 -0.59217799 4 0 9511 2.28800000 2682526975 2682526975 -15.00000000
8.08836079 -0.72471291 0.14174844 15 1 9512 8.12200000 2682526977 2682526977 1.00000000
2.58532429 -0.23209858 -0.59926963 7 2 9513 2.66400000 2682526980 2682526980 -13.00000000
8.11219788 -0.72827590 0.42685205 21 3 9513 8.15600000 2682526982 2682526982 3.00000000
3.11879873 -0.28054017 -0.60868067 4 4 9514 3.19000000 2682526984 2682526984 -11.00000000
8.10407066 -0.73039806 0.71188813 79 5 9515 8.16800000 2682526987 2682526987 5.00000000
3.87572145 -0.34999028 -0.61635178 6 6 9516 3.94000000 2682526989 2682526989 -9.00000000
8.10181332 -0.73304570 0.99884117 83 7 9517 8.19600000 2682526991 2682526991 7.00000000
5.19156313 -0.47064209 -0.64005780 6 8 9518 5.25200000 2682526993 2682526993 -7.00000000
8.20958138 -0.74424112 1.30560207 7 9 9518 8.34600000 2682526996 2682526996 9.00000000
6.57769251 -0.59745944 -0.57784259 115 10 9519 6.63000000 2682526998 2682526998 -5.00000000
8.09128284 -0.73778832 -0.42580533 12 12 9521 8.13600000 2682527003 2682527003 -3.00000000
8.09492016 -0.74096924 -0.14188807 16 14 9523 8.13000000 2682527007 2682527007 -1.00000000
8.16079807 -0.74699932 2.19582081 51 15 9523 8.48400000 2682527010 2682527010 15.00000000
2.20440125 -0.20488417 -0.59321326 4 0 9531 2.29200000 2682527030 2682527030 -15.00000000
8.08777332 -0.75312757 0.14178336 12 1 9532 8.12400000 2682527033 2682527033 1.00000000
2.58643889 -0.24130265 -0.59971952 6 2 9533 2.66600000 2682527035 2682527035 -13.00000000
8.10549641 -0.75763196 0.42664272 21 3 9534 8.15200000 2682527037 2682527037 3.00000000
3.10998154 -0.29069427 -0.60715425 4 4 9534 3.18200000 2682527040 2682527040 -11.00000000
8.10543919 -0.75905359 0.71223670 76 5 9535 8.17200000 2682527042 2682527042 5.00000000
3.89414358 -0.36536223 -0.61948049 6 6 9536 3.96000000 2682527044 2682527044 -9.00000000
8.10908699 -0.76225078 1.00005984 90 7 9537 8.20600000 2682527046 2682527046 7.00000000
5.16024351 -0.48596931 -0.63640171 8 8 9538 5.22200000 2682527049 2682527049 -7.00000000
8.20286465 -0.77395463 1.30497634 7 9 9539 8.34200000 2682527051 2682527051 9.00000000
6.58350134 -0.62116480 -0.57853985 96 10 9539 6.63800000 2682527053 2682527053 -5.00000000
8.09064674 -0.76621598 -0.42591003 17 12 9541 8.13800000 2682527058 2682527058 -3.00000000
8.08830261 -0.76884282 -0.14181826 16 14 9543 8.12600000 2682527063 2682527063 -1.00000000
8.16569805 -0.77763772 2.19789124 51 15 9544 8.49200000 2682527065 2682527065 15.00000000
2.19220877 -0.21069953 -0.59010744 4 0 9549 2.28000000 2682527086 2682527086 -15.00000000
8.10129070 -0.78006560 0.14206259 12 1 9550 8.14000000 2682527088 2682527088 1.00000000
2.58566785 -0.24942698 -0.59971952 6 2 9551 2.66600000 2682527090 2682527090 -13.00000000
8.10718918 -0.78206164 0.42685205 15 3 9551 8.15600000 2682527093 2682527093 3.00000000
3.10123634 -0.29970771 -0.60562778 4 4 9552 3.17400000 2682527095 2682527095 -11.00000000
8.10499763 -0.78470582 0.71241105 83 5 9553 8.17400000 2682527097 2682527097 5.00000000
3.88314581 -0.37664068 -0.61791611 6 6 9554 3.95000000 2682527099 2682527099 -9.00000000
8.11455536 -0.78849036 1.00103474 92 7 9555 8.21400000 2682527102 2682527102 7.00000000
5.16659403 -0.50294757 -0.63737667 8 8 9556 5.23000000 2682527104 2682527104 -7.00000000
8.20039272 -0.79972082 1.30497634 7 9 9557 8.34200000 2682527106 2682527106 9.00000000
8.09416294 -0.79221332 -0.42622402 12 12 9559 8.14400000 2682527113 2682527113 -3.00000000
8.07788754 -0.79346722 -0.14167863 16 14 9561 8.11800000 2682527118 2682527118 -1.00000000
8.14989662 -0.80054045 2.19426775 47 15 9561 8.47800000 2682527120 2682527120 15.00000000
2.19914913 -0.21911663 -0.59217799 4 0 9569 2.28800000 2682527141 2682527141 -15.00000000
8.09055901 -0.80754519 0.14192297 12 1 9570 8.13200000 2682527143 2682527143 1.00000000
2.58672071 -0.25864503 -0.60016942 5 2 9571 2.66800000 2682527145 2682527145 -13.00000000
8.10440922 -0.81035626 0.42685205 15 3 9571 8.15600000 2682527148 2682527148 3.00000000
3.11579895 -0.31209657 -0.60868067 4 4 9572 3.19000000 2682527150 2682527150 -11.00000000
8.09229660 -0.81199813 0.71153951 79 5 9573 8.16400000 2682527152 2682527152 5.00000000
3.87001467 -0.38900769 -0.61603892 6 6 9574 3.93800000 2682527155 2682527155 -9.00000000
8.11570358 -0.81720841 1.00152230 90 7 9575 8.21800000 2682527157 2682527157 7.00000000
5.17073202 -0.52157700 -0.63810790 6 8 9576 5.23600000 2682527159 2682527159 -7.00000000
8.20934391 -0.82953221 1.30685353 7 9 9577 8.35400000 2682527162 2682527162 9.00000000
6.57725477 -0.66461396 -0.57836550 36 10 9577 6.63600000 2682527164 2682527164 -5.00000000
8.10525703 -0.82187283 -0.42695674 17 12 9579 8.15800000 2682527169 2682527169 -3.00000000
8.08103657 -0.82226676 -0.14178336 14 14 9581 8.12400000 2682527173 2682527173 -1.00000000
8.14705181 -0.82898402 2.19426775 49 15 9581 8.47800000 2682527175 2682527175 15.00000000
2.19837093 -0.22679175 -0.59217799 4 0 9589 2.28800000 2682527196 2682527196 -15.00000000
8.08769131 -0.83578157 0.14192297 12 1 9590 8.13200000 2682527198 2682527198 1.00000000
2.58192515 -0.26727146 -0.59926963 4 2 9591 2.66400000 2682527201 2682527201 -13.00000000
8.11330509 -0.84129089 0.42748010 15 3 9592 8.16800000 2682527203 2682527203 3.00000000
3.10492659 -0.32195839 -0.60677260 5 4 9592 3.18000000 2682527205 2682527205 -11.00000000
8.09535789 -0.84085810 0.71206242 76 5 9593 8.17000000 2682527208 2682527208 5.00000000
3.86077404 -0.40169650 -0.61478746 4 6 9594 3.93000000 2682527210 2682527210 -9.00000000
8.10687828 -0.84491521 1.00079107 85 7 9595 8.21200000 2682527212 2682527212 7.00000000
5.17282867 -0.54003525 -0.63859534 6 8 9596 5.24000000 2682527215 2682527215 -7.00000000
8.21833611 -0.85798150 1.30873072 7 9 9596 8.36600000 2682527217 2682527217 9.00000000
6.57291317 -0.68736160 -0.57819122 40 10 9597 6.63400000 2682527219 2682527219 -5.00000000
8.08843422 -0.84870148 -0.42622402 17 12 9599 8.14400000 2682527224 2682527224 -3.00000000
8.09601498 -0.85235417 -0.14209749 16 14 9601 8.14200000 2682527228 2682527228 -1.00000000
8.14780140 -0.85924411 2.19530320 47 15 9602 8.48200000 2682527231 2682527231 15.00000000
2.20140767 -0.23487402 -0.59321326 4 0 9609 2.29200000 2682527251 2682527251 -15.00000000
8.08472443 -0.86400783 0.14192297 12 1 9610 8.13200000 2682527254 2682527254 1.00000000
2.57710123 -0.27586761 -0.59836978 4 2 9611 2.66000000 2682527256 2682527256 -13.00000000
8.10252666 -0.86734062 0.42706141 13 3 9611 8.16000000 2682527258 2682527258 3.00000000
3.10573602 -0.33300397 -0.60715425 4 4 9612 3.18200000 2682527261 2682527261 -11.00000000
8.10227871 -0.87017483 0.71293396 76 5 9613 8.18000000 2682527263 2682527263 5.00000000
3.87506080 -0.41686094 -0.61729038 4 6 9614 3.94600000 2682527265 2682527265 -9.00000000
8.09993267 -0.87278301 1.00030363 90 7 9615 8.20800000 2682527268 2682527268 7.00000000
5.16301775 -0.55723649 -0.63762039 8 8 9616 5.23200000 2682527270 2682527270 -7.00000000
8.20728016 -0.88724822 1.30747926 7 9 9617 8.35800000 2682527272 2682527272 9.00000000
6.57443523 -0.71072942 -0.57853985 12 10 9617 6.63800000 2682527275 2682527275 -5.00000000
8.08343697 -0.87671483 -0.42611936 17 12 9619 8.14200000 2682527279 2682527279 -3.00000000
8.10293102 -0.88169092 -0.14227201 16 14 9621 8.15200000 2682527284 2682527284 -1.00000000
8.16011620 -0.88935447 2.19944429 47 15 9622 8.49800000 2682527286 2682527286 15.00000000
2.21593618 -0.24425018 -0.59735435 4 0 9629 2.30800000 2682527307 2682527307 -15.00000000
8.09358501 -0.89354014 0.14213240 12 1 9630 8.14400000 2682527309 2682527309 1.00000000
2.57805943 -0.28507587 -0.59881973 4 2 9631 2.66200000 2682527311 2682527311 -13.00000000
8.09945011 -0.89561844 0.42706141 13 3 9631 8.16000000 2682527314 2682527314 3.00000000
3.09479809 -0.34276238 -0.60524613 5 4 9632 3.17200000 2682527316 2682527316 -11.00000000
8.11107349 -0.89976978 0.71397984 79 5 9633 8.19200000 2682527318 2682527318 5.00000000
3.87358189 -0.43038487 -0.61729038 4 6 9634 3.94600000 2682527321 2682527321 -9.00000000
8.10472870 -0.90192991 1.00127852 90 7 9635 8.21600000 2682527323 2682527323 7.00000000
5.15314960 -0.57437581 -0.63664544 6 8 9636 5.22400000 2682527325 2682527325 -7.00000000
8.20036697 -0.91402197 1.30685353 7 9 9636 8.35400000 2682527328 2682527328 9.00000000
6.59963560 -0.73676890 -0.58098018 20 10 9637 6.66600000 2682527330 2682527330 -5.00000000
8.09422207 -0.90648198 -0.42685205 17 12 9639 8.15600000 2682527334 2682527334 -3.00000000
8.07993126 -0.90773755 -0.14192297 16 14 9641 8.13200000 2682527339 2682527339 -1.00000000
8.16080189 -0.91826516 2.20047951 49 15 9642 8.50200000 2682527341 2682527341 15.00000000
2.19587541 -0.24980019 -0.59217799 4 0 9649 2.28800000 2682527362 2682527362 -15.00000000
8.10233784 -0.92314482 0.14234182 12 1 9650 8.15600000 2682527364 2682527364 1.00000000
2.58092093 -0.29451513 -0.59971952 4 2 9651 2.66600000 2682527367 2682527367 -13.00000000
8.10421181 -0.92479110 0.42748010 10 3 9651 8.16800000 2682527369 2682527369 3.00000000
3.09358263 -0.35356316 -0.60524613 5 4 9652 3.17200000 2682527371 2682527371 -11.00000000
8.10194492 -0.92739749 0.71345693 83 5 9653 8.18600000 2682527374 2682527374 5.00000000
3.87990618 -0.44480354 -0.61854190 4 6 9654 3.95400000 2682527376 2682527376 -9.00000000
8.10547447 -0.93066812 1.00176597 90 7 9655 8.22000000 2682527378 2682527378 7.00000000
5.14322472 -0.59145302 -0.63567048 6 8 9656 5.21600000 2682527381 2682527381 -7.00000000
8.18535137 -0.94128698 1.30497634 7 9 9656 8.34200000 2682527383 2682527383 9.00000000
6.58910656 -0.75888962 -0.58028293 52 10 9657 6.65800000 2682527385 2682527385 -5.00000000
8.09696007 -0.93541819 -0.42716607 17 12 9659 8.16200000 2682527390 2682527390 -3.00000000
8.07671356 -0.93593621 -0.14192297 14 14 9661 8.13200000 2682527394 2682527394 -1.00000000
8.15370846 -0.94630069 2.19944429 47 15 9662 8.49800000 2682527397 2682527397 15.00000000
2.18731523 -0.25656348 -0.59010744 4 0 9669 2.28000000 2682527417 2682527417 -15.00000000
8.09112167 -0.95048839 0.14220221 12 1 9670 8.14800000 2682527420 2682527420 1.00000000
2.58181262 -0.30375013 -0.60016942 6 2 9671 2.66800000 2682527422 2682527422 -13.00000000
8.10093403 -0.95307446 0.42748010 13 3 9671 8.16800000 2682527424 2682527424 3.00000000
3.08453059 -0.36344069 -0.60371965 5 4 9672 3.16400000 2682527427 2682527427 -11.00000000
8.09272194 -0.95497245 0.71293396 79 5 9673 8.18000000 2682527429 2682527429 5.00000000
3.86655951 -0.45695320 -0.61666465 4 6 9674 3.94200000 2682527431 2682527431 -9.00000000
8.11794758 -0.96082240 1.00371587 87 7 9675 8.23600000 2682527433 2682527433 7.00000000
5.14901400 -0.61033726 -0.63664544 6 8 9676 5.22400000 2682527436 2682527436 -7.00000000
8.20163250 -0.97217870 1.30810499 7 9 9676 8.36200000 2682527438 2682527438 9.00000000
8.10951138 -0.96556526 -0.42800346 17 12 9679 8.17800000 2682527445 2682527445 -3.00000000
8.08133984 -0.96507198 -0.14206259 14 14 9681 8.14000000 2682527450 2682527450 -1.00000000
8.14477062 -0.97264695 2.19789124 51 15 9681 8.49200000 2682527452 2682527452 15.00000000
2.19791389 -0.26558757 -0.59321326 4 0 9689 2.29200000 2682527473 2682527473 -15.00000000
8.07981396 -0.97776490 0.14206259 12 1 9690 8.14000000 2682527475 2682527475 1.00000000
2.57686734 -0.31229156 -0.59926963 5 2 9691 2.66400000 2682527477 2682527477 -13.00000000
8.10548878 -0.98230737 0.42789876 10 3 9691 8.17600000 2682527480 2682527480 3.00000000
3.08519220 -0.37444204 -0.60410130 5 4 9692 3.16600000 2682527482 2682527482 -11.00000000
8.09329510 -0.98369628 0.71328259 79 5 9693 8.18400000 2682527484 2682527484 5.00000000
3.84925365 -0.46853775 -0.61416173 4 6 9694 3.92600000 2682527486 2682527486 -9.00000000
8.10272121 -0.98771226 1.00225353 90 7 9695 8.22400000 2682527489 2682527489 7.00000000
5.14488173 -0.62806642 -0.63640171 4 8 9696 5.22200000 2682527491 2682527491 -7.00000000
8.20603180 -1.00175929 1.30935645 7 9 9696 8.37000000 2682527493 2682527493 9.00000000
6.57375956 -0.80366248 -0.57941139 108 10 9697 6.64800000 2682527496 2682527496 -5.00000000
8.09023285 -0.99192238 -0.42716607 17 12 9699 8.16200000 2682527500 2682527500 -3.00000000
8.09379959 -0.99522763 -0.14234182 14 14 9701 8.15600000 2682527505 2682527505 -1.00000000
8.15073872 -1.00367296 2.20047951 47 15 9702 8.50200000 2682527507 2682527507 15.00000000
2.19702101 -0.27287465 -0.59321326 4 0 9708 2.29200000 2682527528 2682527528 -15.00000000
8.08446503 -1.00554049 0.14220221 12 1 9709 8.14800000 2682527530 2682527530 1.00000000
2.56808257 -0.31987157 -0.59746999 4 2 9710 2.65600000 2682527533 2682527533 -13.00000000
8.10399246 -1.01084197 0.42800346 13 3 9711 8.17800000 2682527535 2682527535 3.00000000
3.10146689 -0.38685784 -0.60753584 5 4 9711 3.18400000 2682527537 2682527537 -11.00000000
8.09987354 -1.01176393 0.71415418 76 5 9712 8.19400000 2682527539 2682527539 5.00000000
3.85943937 -0.48277086 -0.61603892 4 6 9713 3.93800000 2682527542 2682527542 -9.00000000
8.09152222 -1.01358950 1.00127852 90 7 9714 8.21600000 2682527544 2682527544 7.00000000
5.12898302 -0.64339447 -0.63469553 4 8 9715 5.20800000 2682527546 2682527546 -7.00000000
8.21050549 -1.02994943 1.31060791 7 9 9715 8.37800000 2682527549 2682527549 9.00000000
8.08095360 -1.01799619 -0.42685205 17 12 9718 8.15600000 2682527556 2682527556 -3.00000000
8.09442329 -1.02256346 -0.14241163 14 14 9720 8.16000000 2682527560 2682527560 -1.00000000
8.15137863 -1.02975857 2.20151472 49 15 9720 8.50600000 2682527563 2682527563 15.00000000
2.19605517 -0.28054205 -0.59321326 4 0 9728 2.29200000 2682527583 2682527583 -15.00000000
8.08090591 -1.03375435 0.14220221 12 1 9729 8.14800000 2682527586 2682527586 1.00000000
2.57081628 -0.32932916 -0.59836978 5 2 9730 2.66000000 2682527588 2682527588 -13.00000000
8.09447193 -1.03836167 0.42768943 13 3 9731 8.17200000 2682527590 2682527590 3.00000000
3.09036112 -0.39643264 -0.60562778 5 4 9731 3.17400000 2682527592 2682527592 -11.00000000
8.10419750 -1.04104710 0.71485138 83 5 9732 8.20200000 2682527595 2682527595 5.00000000
3.86164904 -0.49674395 -0.61666465 4 6 9733 3.94200000 2682527597 2682527597 -9.00000000
8.09777927 -1.04309607 1.00249720 92 7 9734 8.22600000 2682527599 2682527599 7.00000000
5.12276840 -0.66078609 -0.63420808 4 8 9735 5.20400000 2682527602 2682527602 -7.00000000
8.20275688 -1.05952942 1.30998218 7 9 9736 8.37400000 2682527604 2682527604 9.00000000
6.58394480 -0.85043156 -0.58080590 16 10 9736 6.66400000 2682527606 2682527606 -5.00000000
8.08923531 -1.04773712 -0.42748010 17 12 9738 8.16800000 2682527611 2682527611 -3.00000000
8.08683777 -1.05029690 -0.14234182 14 14 9740 8.15600000 2682527616 2682527616 -1.00000000
8.15521240 -1.06062448 2.20358539 47 15 9741 8.51400000 2682527618 2682527618 15.00000000
2.18548536 -0.28694856 -0.59062505 4 0 9748 2.28200000 2682527639 2682527639 -15.00000000
8.09707451 -1.06456232 0.14255126 12 1 9749 8.16800000 2682527641 2682527641 1.00000000
2.56965089 -0.33830097 -0.59836978 5 2 9750 2.66000000 2682527643 2682527643 -13.00000000
8.10267830 -1.06817663 0.42831746 13 3 9751 8.18400000 2682527645 2682527645 3.00000000
3.08117294 -0.40619120 -0.60410130 5 4 9751 3.16600000 2682527648 2682527648 -11.00000000
8.10248947 -1.06959045 0.71502572 79 5 9752 8.20400000 2682527650 2682527650 5.00000000
3.85989165 -0.51022059 -0.61666465 6 6 9753 3.94200000 2682527652 2682527652 -9.00000000
8.10589600 -1.07291913 1.00395966 95 7 9754 8.23800000 2682527655 2682527655 7.00000000
5.12633467 -0.67944634 -0.63493925 2 8 9755 5.21000000 2682527657 2682527657 -7.00000000
8.18744850 -1.08516765 1.30810499 7 9 9755 8.36200000 2682527659 2682527659 9.00000000
6.56908560 -0.87183583 -0.57976002 16 10 9756 6.65200000 2682527662 2682527662 -5.00000000
8.09146881 -1.07675779 -0.42779410 17 12 9758 8.17400000 2682527666 2682527666 -3.00000000
8.07717609 -1.07772541 -0.14223711 16 14 9760 8.15000000 2682527671 2682527671 -1.00000000
8.15547943 -1.08817339 2.20462060 47 15 9760 8.51800000 2682527673 2682527673 15.00000000
2.18255591 -0.29431739 -0.59010744 4 0 9768 2.28000000 2682527694 2682527694 -15.00000000
8.08934498 -1.09228480 0.14248145 12 1 9769 8.16400000 2682527696 2682527696 1.00000000
2.56845450 -0.34726867 -0.59836978 4 2 9770 2.66000000 2682527698 2682527698 -13.00000000
8.10285854 -1.09698963 0.42852682 13 3 9771 8.18800000 2682527701 2682527701 3.00000000
3.07973623 -0.41694403 -0.60410130 5 4 9771 3.16600000 2682527703 2682527703 -11.00000000
8.09278297 -1.09706390 0.71450275 83 5 9772 8.19800000 2682527705 2682527705 5.00000000
3.85025740 -0.52262825 -0.61541319 4 6 9773 3.93400000 2682527708 2682527708 -9.00000000
8.10800266 -1.10200942 1.00469089 90 7 9774 8.24400000 2682527710 2682527710 7.00000000
5.12786531 -0.69787186 -0.63542676 4 8 9775 5.21400000 2682527712 2682527712 -7.00000000
8.19124508 -1.11623573 1.30935645 7 9 9776 8.37000000 2682527715 2682527715 9.00000000
6.55613136 -0.89341581 -0.57888842 16 10 9776 6.64200000 2682527717 2682527717 -5.00000000
8.09557629 -1.10607719 -0.42821279 17 12 9778 8.18200000 2682527721 2682527721 -3.00000000
8.07732773 -1.10645628 -0.14230692 18 14 9780 8.15400000 2682527726 2682527726 -1.00000000
8.13612556 -1.11595726 2.20047951 47 15 9781 8.50200000 2682527728 2682527728 15.00000000
2.18544793 -0.30170101 -0.59114271 4 0 9786 2.28400000 2682527749 2682527749 -15.00000000
8.07596970 -1.11632371 0.14230692 12 1 9787 8.15400000 2682527751 2682527751 1.00000000
2.57121134 -0.35587031 -0.59926963 4 2 9788 2.66400000 2682527754 2682527754 -13.00000000
8.10135078 -1.12271416 0.42863148 13 3 9789 8.19000000 2682527756 2682527756 3.00000000
3.08230042 -0.42715624 -0.60486454 5 4 9789 3.17000000 2682527758 2682527758 -11.00000000
8.09719086 -1.12357807 0.71520001 76 5 9790 8.20600000 2682527761 2682527761 5.00000000
3.82511759 -0.53145939 -0.61165875 4 6 9791 3.91000000 2682527763 2682527763 -9.00000000
8.10450077 -1.12747598 1.00469089 90 7 9792 8.24400000 2682527765 2682527765 7.00000000
5.12958002 -0.71452576 -0.63591421 4 8 9793 5.21800000 2682527768 2682527768 -7.00000000
8.20354939 -1.14271498 1.31185937 7 9 9793 8.38600000 2682527770 2682527770 9.00000000
6.56907892 -0.91620982 -0.58028293 16 10 9794 6.65800000 2682527772 2682527772 -5.00000000
8.08019352 -1.12984514 -0.42758477 17 12 9796 8.17000000 2682527777 2682527777 -3.00000000
8.08965397 -1.13404727 -0.14258616 16 14 9798 8.17000000 2682527781 2682527781 -1.00000000
8.14808369 -1.14223814 2.20462060 47 15 9798 8.51800000 2682527784 2682527784 15.00000000
2.18438148 -0.30932781 -0.59114271 4 0 9806 2.28400000 2682527804 2682527804 -15.00000000
8.07796383 -1.14534950 0.14241163 12 1 9807 8.16000000 2682527807 2682527807 1.00000000
2.55451846 -0.36265209 -0.59567040 6 2 9808 2.64800000 2682527809 2682527809 -13.00000000
8.10529232 -1.15211070 0.42905018 13 3 9809 8.19800000 2682527811 2682527811 3.00000000
3.09050918 -0.43929431 -0.60677260 5 4 9809 3.18000000 2682527814 2682527814 -11.00000000
8.10110950 -1.15295863 0.71589726 83 5 9810 8.21400000 2682527816 2682527816 5.00000000
3.83497286 -0.54648036 -0.61353600 4 6 9811 3.92200000 2682527818 2682527818 -9.00000000
8.09658527 -1.15519834 1.00420344 90 7 9812 8.24000000 2682527821 2682527821 7.00000000
5.12705469 -0.73242700 -0.63591421 4 8 9813 5.21800000 2682527823 2682527823 -7.00000000
8.21103859 -1.17445302 1.31373668 7 9 9814 8.39800000 2682527825 2682527825 9.00000000
6.56781292 -0.93941671 -0.58045727 12 10 9814 6.66000000 2682527827 2682527827 -5.00000000
8.07620049 -1.15804350 -0.42758477 21 12 9816 8.17000000 2682527832 2682527832 -3.00000000
8.08564663 -1.16227853 -0.14258616 18 14 9818 8.17000000 2682527837 2682527837 -1.00000000
8.14766693 -1.17264509 2.20565581 47 15 9819 8.52200000 2682527839 2682527839 15.00000000
2.18328834 -0.31695083 -0.59114271 4 0 9826 2.28400000 2682527860 2682527860 -15.00000000
8.08578968 -1.17526567 0.14262107 12 1 9827 8.17200000 2682527862 2682527862 1.00000000
2.55323696 -0.37156683 -0.59567040 5 2 9828 2.64800000 2682527864 2682527864 -13.00000000
8.10319710 -1.18068433 0.42915484 15 3 9829 8.20000000 2682527867 2682527867 3.00000000
3.07730055 -0.44838110 -0.60448289 5 4 9829 3.16800000 2682527869 2682527869 -11.00000000
8.10689354 -1.18266785 0.71676880 76 5 9830 8.22400000 2682527871 2682527871 5.00000000
3.83499646 -0.56014907 -0.61384887 6 6 9831 3.92400000 2682527874 2682527874 -9.00000000
8.09446812 -1.18374097 1.00444710 90 7 9832 8.24200000 2682527876 2682527876 7.00000000
5.10482502 -0.74744344 -0.63347685 6 8 9833 5.19800000 2682527878 2682527878 -7.00000000
8.18755341 -1.19881344 1.31060791 7 9 9833 8.37800000 2682527880 2682527880 9.00000000
8.07058144 -1.18312538 -0.71363121 17 10 9834 8.18800000 2682527883 2682527883 -5.00000000
8.08198833 -1.18767953 -0.42810813 17 12 9836 8.18000000 2682527887 2682527887 -3.00000000
8.08154011 -1.19049561 -0.14258616 16 14 9838 8.17000000 2682527892 2682527892 -1.00000000
8.15137768 -1.20078349 2.20772648 49 15 9838 8.53000000 2682527894 2682527894 15.00000000
2.18599033 -0.32513842 -0.59217799 4 0 9846 2.28800000 2682527915 2682527915 -15.00000000
8.08954906 -1.20466137 0.14276068 12 1 9847 8.18000000 2682527917 2682527917 1.00000000
2.56348896 -0.38220122 -0.59836978 5 2 9848 2.66000000 2682527920 2682527920 -13.00000000
8.10100174 -1.20925748 0.42925951 13 3 9849 8.20200000 2682527922 2682527922 3.00000000
3.07183313 -0.45854044 -0.60371965 5 4 9849 3.16400000 2682527924 2682527924 -11.00000000
8.09680367 -1.21007550 0.71624589 83 5 9850 8.21800000 2682527927 2682527927 5.00000000
3.83301783 -0.57353228 -0.61384887 6 6 9851 3.92400000 2682527929 2682527929 -9.00000000
8.10402870 -1.21404743 1.00615335 90 7 9852 8.25600000 2682527931 2682527931 7.00000000
5.11985302 -0.76790804 -0.63567048 6 8 9853 5.21600000 2682527933 2682527933 -7.00000000
8.18310452 -1.22881436 1.31060791 10 9 9854 8.37800000 2682527936 2682527936 9.00000000
8.05064011 -1.20892274 -0.71223670 17 10 9854 8.17200000 2682527938 2682527938 -5.00000000
8.08766842 -1.21737015 -0.42863148 17 12 9856 8.19000000 2682527943 2682527943 -3.00000000
8.07733536 -1.21869826 -0.14258616 16 14 9858 8.17000000 2682527947 2682527947 -1.00000000
8.14692211 -1.23065174 2.20772648 47 15 9859 8.53000000 2682527950 2682527950 15.00000000
2.16580153 -0.32948017 -0.58700162 4 0 9865 2.26800000 2682527970 2682527970 -15.00000000
8.08551025 -1.23148060 0.14276068 12 1 9866 8.18000000 2682527973 2682527973 1.00000000
2.56220746 -0.39069995 -0.59836978 5 2 9867 2.66000000 2682527975 2682527975 -13.00000000
8.10681915 -1.23762178 0.42978287 15 3 9868 8.21200000 2682527977 2682527977 3.00000000
3.06641412 -0.46813193 -0.60295641 5 4 9868 3.16000000 2682527980 2682527980 -11.00000000
8.09274673 -1.23691881 0.71624589 83 5 9869 8.21800000 2682527982 2682527982 5.00000000
3.82914233 -0.58594114 -0.61353600 6 6 9870 3.92200000 2682527984 2682527984 -9.00000000
8.10388279 -1.24151587 1.00664079 90 7 9871 8.26000000 2682527986 2682527986 7.00000000
5.10158157 -0.78247422 -0.63372058 8 8 9872 5.20000000 2682527989 2682527989 -7.00000000
8.19091892 -1.25631309 1.31248522 10 9 9872 8.39000000 2682527991 2682527991 9.00000000
8.03477097 -1.23379862 -0.71119088 17 10 9873 8.16000000 2682527993 2682527993 -5.00000000
8.18678856 -1.25860465 1.61004627 3 11 9874 8.43800000 2682527996 2682527996 11.00000000
8.09345722 -1.24570227 -0.42915484 17 12 9875 8.20000000 2682527998 2682527998 -3.00000000
8.08115482 -1.24669647 -0.14272578 16 14 9877 8.17800000 2682528003 2682528003 -1.00000000
8.13919735 -1.25565088 2.20669127 47 15 9877 8.52600000 2682528005 2682528005 15.00000000
2.17609119 -0.33882150 -0.59010744 4 0 9885 2.28000000 2682528026 2682528026 -15.00000000
8.07721043 -1.25908077 0.14269088 12 1 9886 8.17600000 2682528028 2682528028 1.00000000
2.55505180 -0.39873990 -0.59702009 6 2 9887 2.65400000 2682528030 2682528030 -13.00000000
8.10836983 -1.26683724 0.43009689 15 3 9888 8.21800000 2682528033 2682528033 3.00000000
3.06864095 -0.47943896 -0.60371965 5 4 9888 3.16400000 2682528035 2682528035 -11.00000000
8.09428501 -1.26608384 0.71676880 76 5 9889 8.22400000 2682528037 2682528037 5.00000000
3.81146097 -0.59685886 -0.61103302 6 6 9890 3.90600000 2682528039 2682528039 -9.00000000
8.09753799 -1.26948869 1.00639701 90 7 9891 8.25800000 2682528042 2682528042 7.00000000
5.10078001 -0.80058509 -0.63396430 8 8 9892 5.20200000 2682528044 2682528044 -7.00000000
8.18258095 -1.28428447 1.31185937 10 9 9892 8.38600000 2682528046 2682528046 9.00000000
7.98711443 -1.25503361 -0.70735604 17 10 9893 8.11600000 2682528049 2682528049 -5.00000000
8.08905983 -1.27394605 -0.42915484 17 12 9895 8.20000000 2682528053 2682528053 -3.00000000
8.09453106 -1.27770352 -0.14303993 14 14 9897 8.19600000 2682528058 2682528058 -1.00000000
8.14239788 -1.28525913 2.20876169 49 15 9897 8.53400000 2682528060 2682528060 15.00000000
2.18252659 -0.34763092 -0.59217799 4 0 9905 2.28800000 2682528081 2682528081 -15.00000000
8.07869053 -1.28821254 0.14279559 12 1 9906 8.18200000 2682528083 2682528083 1.00000000
2.54209805 -0.40581307 -0.59432071 6 2 9907 2.64200000 2682528086 2682528086 -13.00000000
8.10587120 -1.29544818 0.43020156 13 3 9908 8.22000000 2682528088 2682528088 3.00000000
3.07082605 -0.49076727 -0.60448289 5 4 9908 3.16800000 2682528090 2682528090 -11.00000000
8.09571838 -1.29527485 0.71729177 76 5 9909 8.23000000 2682528092 2682528092 5.00000000
3.81715631 -0.61140937 -0.61228448 6 6 9910 3.91400000 2682528095 2682528095 -9.00000000
8.09305763 -1.29774666 1.00639701 90 7 9911 8.25800000 2682528097 2682528097 7.00000000
5.07835436 -0.81523883 -0.63152695 8 8 9912 5.18200000 2682528099 2682528099 -7.00000000
8.18562031 -1.31552029 1.31311095 10 9 9913 8.39400000 2682528102 2682528102 9.00000000
8.02989578 -1.29049361 -0.71153951 17 10 9913 8.16400000 2682528104 2682528104 -5.00000000
8.08259201 -1.30185676 -0.42905018 17 12 9915 8.19800000 2682528109 2682528109 -3.00000000
8.09396935 -1.30658829 -0.14310974 14 14 9917 8.20000000 2682528113 2682528113 -1.00000000
8.14930439 -1.31552076 2.21186757 47 15 9917 8.54600000 2682528115 2682528115 15.00000000
2.18511319 -0.35586828 -0.59321326 4 0 9925 2.29200000 2682528136 2682528136 -15.00000000
8.08598614 -1.31833529 0.14300501 12 1 9926 8.19400000 2682528139 2682528139 1.00000000
2.55220580 -0.41656768 -0.59702009 6 2 9927 2.65400000 2682528141 2682528141 -13.00000000
8.09538651 -1.32276893 0.42988753 13 3 9928 8.21400000 2682528143 2682528143 3.00000000
3.07296920 -0.50211662 -0.60524613 5 4 9928 3.17200000 2682528145 2682528145 -11.00000000
8.10294533 -1.32545602 0.71833766 76 5 9929 8.24200000 2682528148 2682528148 5.00000000
3.81889772 -0.62536848 -0.61291021 6 6 9930 3.91800000 2682528150 2682528150 -9.00000000
8.09631443 -1.32727325 1.00737202 95 7 9931 8.26600000 2682528152 2682528152 7.00000000
5.06764221 -0.83167470 -0.63055199 8 8 9932 5.17400000 2682528155 2682528155 -7.00000000
8.19267368 -1.34600687 1.31498814 10 9 9933 8.40600000 2682528157 2682528157 9.00000000
8.02927494 -1.31916142 -0.71188813 17 10 9933 8.16800000 2682528159 2682528159 -5.00000000
8.08390999 -1.33103585 -0.42936417 17 12 9935 8.20400000 2682528164 2682528164 -3.00000000
8.18149090 -1.34856939 1.91433346 2 13 9936 8.51000000 2682528166 2682528166 13.00000000
8.08541393 -1.33418238 -0.14303993 14 14 9937 8.19600000 2682528168 2682528168 -1.00000000
8.15205193 -1.34664011 2.21393800 47 15 9938 8.55400000 2682528171 2682528171 15.00000000
2.16480136 -0.36032173 -0.58803689 4 0 9945 2.27200000 2682528192 2682528192 -15.00000000
8.08330822 -1.34688127 0.14303993 12 1 9946 8.19600000 2682528194 2682528194 1.00000000
2.55073619 -0.42547399 -0.59702009 6 2 9947 2.65400000 2682528196 2682528196 -13.00000000
8.09465981 -1.35167694 0.43009689 13 3 9948 8.21800000 2682528198 2682528198 3.00000000
3.04796052 -0.50896001 -0.60066670 5 4 9948 3.14800000 2682528201 2682528201 -11.00000000
8.09826946 -1.35373259 0.71833766 76 5 9949 8.24200000 2682528203 2682528203 5.00000000
3.82058811 -0.63934720 -0.61353600 4 6 9950 3.92200000 2682528205 2682528205 -9.00000000
8.10142040 -1.35716653 1.00859070 87 7 9951 8.27600000 2682528208 2682528208 7.00000000
5.07253933 -0.85067230 -0.63152695 8 8 9952 5.18200000 2682528210 2682528210 -7.00000000
8.18013287 -1.37328827 1.31373668 7 9 9953 8.39800000 2682528212 2682528212 9.00000000
7.97353363 -1.33860421 -0.70735604 13 10 9953 8.11600000 2682528215 2682528215 -5.00000000
8.08709335 -1.36057127 -0.42978287 17 12 9955 8.21200000 2682528219 2682528219 -3.00000000
8.08465099 -1.36306250 -0.14310974 14 14 9957 8.20000000 2682528224 2682528224 -1.00000000
8.13992214 -1.37238109 2.21186757 47 15 9957 8.54600000 2682528226 2682528226 15.00000000
2.16353035 -0.36787611 -0.58803689 4 0 9965 2.27200000 2682528247 2682528247 -15.00000000
8.08644295 -1.37643123 0.14317954 12 1 9966 8.20400000 2682528249 2682528249 1.00000000
2.55499864 -0.43535715 -0.59836978 7 2 9967 2.66000000 2682528251 2682528251 -13.00000000
8.10958004 -1.38328254 0.43114361 15 3 9968 8.23800000 2682528254 2682528254 3.00000000
3.05003595 -0.52025646 -0.60142994 5 4 9968 3.15200000 2682528256 2682528256 -11.00000000
8.08760262 -1.38098645 0.71781468 76 5 9969 8.23600000 2682528258 2682528258 5.00000000
3.80275583 -0.65001696 -0.61103302 6 6 9970 3.90600000 2682528261 2682528261 -9.00000000
8.10641766 -1.38711154 1.00980937 90 7 9971 8.28600000 2682528263 2682528263 7.00000000
5.07345200 -0.86904389 -0.63201439 8 8 9972 5.18600000 2682528265 2682528265 -7.00000000
8.18891811 -1.40417087 1.31592667 5 9 9973 8.41200000 2682528268 2682528268 9.00000000
7.85491657 -1.34689879 -0.69724596 13 10 9973 8.00000000 2682528270 2682528270 -5.00000000
8.08623123 -1.38946867 -0.42999223 17 12 9975 8.21600000 2682528274 2682528274 -3.00000000
8.07393169 -1.39025688 -0.14300501 14 14 9977 8.19400000 2682528279 2682528279 -1.00000000
8.13508129 -1.40078640 2.21186757 47 15 9977 8.54600000 2682528281 2682528281 15.00000000
2.16610551 -0.37570891 -0.58907217 4 0 9984 2.27600000 2682528303 2682528303 -15.00000000
8.07198238 -1.40152884 0.14300501 12 1 9985 8.19400000 2682528305 2682528305 1.00000000
2.54394102 -0.44215891 -0.59612030 6 2 9986 2.65000000 2682528308 2682528308 -13.00000000
8.09338760 -1.40670061 0.43051559 15 3 9986 8.22600000 2682528310 2682528310 3.00000000
3.04829383 -0.53036791 -0.60142994 5 4 9987 3.15200000 2682528312 2682528312 -11.00000000
8.09475517 -1.40984952 0.71886057 79 5 9988 8.24800000 2682528315 2682528315 5.00000000
3.79668736 -0.66194522 -0.61040729 6 6 9989 3.90200000 2682528317 2682528317 -9.00000000
8.09590626 -1.41296184 1.00907815 90 7 9990 8.28000000 2682528319 2682528319 7.00000000
5.06272030 -0.88449675 -0.63103944 8 8 9991 5.17800000 2682528321 2682528321 -7.00000000
8.19030476 -1.43090999 1.31686532 7 9 9991 8.41800000 2682528324 2682528324 9.00000000
7.79937887 -1.36401510 -0.69271386 17 10 9992 7.94800000 2682528326 2682528326 -5.00000000
8.07961178 -1.41593122 -0.42988753 17 12 9994 8.21400000 2682528331 2682528331 -3.00000000
8.07321644 -1.41771507 -0.14307483 18 14 9996 8.19800000 2682528335 2682528335 -1.00000000
8.14180851 -1.42976046 2.21497345 47 15 9996 8.55800000 2682528338 2682528338 15.00000000
2.16478086 -0.38326773 -0.58907217 4 0 10004 2.27600000 2682528358 2682528358 -15.00000000
8.07885551 -1.43179059 0.14321445 15 1 10005 8.20600000 2682528361 2682528361 1.00000000
2.53470707 -0.44967461 -0.59432071 6 2 10006 2.64200000 2682528363 2682528363 -13.00000000
8.09407711 -1.43740261 0.43082958 15 3 10007 8.23200000 2682528365 2682528365 3.00000000
3.05415606 -0.54237831 -0.60295641 5 4 10007 3.16000000 2682528368 2682528368 -11.00000000
8.09566975 -1.43914306 0.71938348 76 5 10008 8.25400000 2682528370 2682528370 5.00000000
3.79046392 -0.67450196 -0.60978156 6 6 10009 3.89800000 2682528372 2682528372 -9.00000000
8.09092522 -1.44121325 1.00907815 87 7 10010 8.28000000 2682528374 2682528374 7.00000000
5.05960226 -0.90216351 -0.63103944 8 8 10011 5.17800000 2682528377 2682528377 -7.00000000
8.18694973 -1.46126652 1.31717825 5 9 10012 8.42000000 2682528379 2682528379 9.00000000
7.78672457 -1.38983142 -0.69201660 17 10 10012 7.94000000 2682528381 2682528381 -5.00000000
8.07068825 -1.44342244 -0.42967820 17 12 10014 8.21000000 2682528386 2682528386 -3.00000000
8.07806015 -1.44765103 -0.14324935 18 14 10016 8.20800000 2682528391 2682528391 -1.00000000
8.14031601 -1.46027422 2.21600866 49 15 10017 8.56200000 2682528393 2682528393 15.00000000
2.17103410 -0.39219561 -0.59114271 4 0 10024 2.28400000 2682528414 2682528414 -15.00000000
8.08167934 -1.46140563 0.14335407 15 1 10025 8.21400000 2682528416 2682528416 1.00000000
2.53695703 -0.45921385 -0.59522051 6 2 10026 2.64600000 2682528418 2682528418 -13.00000000
8.09712696 -1.46565855 0.43124828 18 3 10026 8.24000000 2682528421 2682528421 3.00000000
3.04258513 -0.55128592 -0.60104835 5 4 10027 3.15000000 2682528423 2682528423 -11.00000000
8.09843826 -1.46881568 0.72008073 76 5 10028 8.26200000 2682528425 2682528425 5.00000000
3.78419924 -0.68702328 -0.60915583 4 6 10029 3.89400000 2682528427 2682528427 -9.00000000
8.09756374 -1.47157669 1.01054060 87 7 10030 8.29200000 2682528430 2682528430 7.00000000
5.04861021 -0.91839820 -0.63006449 8 8 10031 5.17000000 2682528432 2682528432 -7.00000000
8.19151592 -1.49160480 1.31874251 7 9 10032 8.43000000 2682528434 2682528434 9.00000000
7.77790546 -1.41628981 -0.69166797 12 10 10032 7.93600000 2682528437 2682528437 -5.00000000
8.07542515 -1.47337806 -0.43020156 17 12 10034 8.22000000 2682528441 2682528441 -3.00000000
8.08082581 -1.47727823 -0.14338897 14 14 10036 8.21600000 2682528446 2682528446 -1.00000000
8.15063190 -1.49003971 2.22014976 47 15 10036 8.57800000 2682528448 2682528448 15.00000000
2.16965175 -0.39977154 -0.59114271 4 0 10044 2.28400000 2682528469 2682528469 -15.00000000
8.09422779 -1.49287140 0.14366820 15 1 10045 8.23200000 2682528471 2682528471 1.00000000
2.53917146 -0.46877426 -0.59612030 6 2 10046 2.65000000 2682528473 2682528473 -13.00000000
8.08410549 -1.49246347 0.43082958 15 3 10046 8.23200000 2682528476 2682528476 3.00000000
3.03678131 -0.56118959 -0.60028511 4 4 10047 3.14600000 2682528478 2682528478 -11.00000000
8.09522152 -1.49743795 0.72025508 76 5 10048 8.26400000 2682528480 2682528480 5.00000000
3.79343224 -0.70238632 -0.61103302 4 6 10049 3.90600000 2682528483 2682528483 -9.00000000
8.09628105 -1.50055695 1.01102805 87 7 10050 8.29600000 2682528485 2682528485 7.00000000
5.04147005 -0.93529135 -0.62957704 8 8 10051 5.16600000 2682528487 2682528487 -7.00000000
8.18237495 -1.51946807 1.31811678 7 9 10052 8.42600000 2682528490 2682528490 9.00000000
7.76899672 -1.44270360 -0.69131935 12 10 10052 7.93200000 2682528492 2682528492 -5.00000000
8.07808685 -1.50301898 -0.43062025 17 12 10054 8.22800000 2682528497 2682528497 -3.00000000
8.07561970 -1.50547659 -0.14338897 14 14 10056 8.21600000 2682528501 2682528501 -1.00000000
8.14158249 -1.51777363 2.21911454 47 15 10056 8.57400000 2682528503 2682528503 15.00000000
2.15685129 -0.40520245 -0.58803689 4 0 10064 2.27200000 2682528524 2682528524 -15.00000000
8.08110619 -1.51963818 0.14352860 15 1 10065 8.22400000 2682528526 2682528526 1.00000000
2.53943467 -0.47799525 -0.59657019 6 2 10066 2.65200000 2682528529 2682528529 -13.00000000
8.08839512 -1.52393222 0.43135294 15 3 10067 8.24200000 2682528531 2682528531 3.00000000
3.04252100 -0.57324052 -0.60181159 4 4 10067 3.15400000 2682528533 2682528533 -11.00000000
8.08407116 -1.52457869 0.71973211 76 5 10068 8.25800000 2682528536 2682528536 5.00000000
3.77542853 -0.71269220 -0.60853004 6 6 10069 3.89000000 2682528538 2682528538 -9.00000000
8.11049938 -1.53249478 1.01346540 87 7 10070 8.31600000 2682528540 2682528540 7.00000000
5.04207563 -0.95362151 -0.63006449 8 8 10071 5.17000000 2682528543 2682528543 -7.00000000
8.18505478 -1.54806185 1.31936824 7 9 10071 8.43400000 2682528545 2682528545 9.00000000
7.71497297 -1.46054864 -0.68696159 17 10 10072 7.88200000 2682528547 2682528547 -5.00000000
8.07475281 -1.53157973 -0.43072492 17 12 10074 8.23000000 2682528552 2682528552 -3.00000000
8.07424450 -1.53440332 -0.14345878 14 14 10076 8.22000000 2682528556 2682528556 -1.00000000
8.13596535 -1.54760385 2.21911454 49 15 10077 8.57400000 2682528559 2682528559 15.00000000
2.15921855 -0.41345546 -0.58907217 4 0 10084 2.27600000 2682528579 2682528579 -15.00000000
8.07378864 -1.54746079 0.14349368 18 1 10085 8.22200000 2682528582 2682528582 1.00000000
2.53200912 -0.48575515 -0.59522051 6 2 10086 2.64600000 2682528584 2682528584 -13.00000000
8.09702682 -1.55338001 0.43208566 13 3 10086 8.25600000 2682528586 2682528586 3.00000000
3.04628563 -0.58496815 -0.60295641 5 4 10087 3.16000000 2682528589 2682528589 -11.00000000
8.08848286 -1.55466843 0.72060370 72 5 10088 8.26800000 2682528591 2682528591 5.00000000
3.76515865 -0.72437376 -0.60727859 4 6 10089 3.88200000 2682528593 2682528593 -9.00000000
8.09925270 -1.55967033 1.01273429 90 7 10090 8.31000000 2682528596 2682528596 7.00000000
5.04261446 -0.97196722 -0.63055199 8 8 10091 5.17400000 2682528598 2682528598 -7.00000000
8.18320560 -1.57879961 1.31999397 7 9 10092 8.43800000 2682528600 2682528600 9.00000000
7.70591497 -1.48671508 -0.68661296 17 10 10092 7.87800000 2682528603 2682528603 -5.00000000
8.07916260 -1.56165171 -0.43124828 17 12 10094 8.24000000 2682528607 2682528607 -3.00000000
8.07472897 -1.56371891 -0.14356349 14 14 10096 8.22600000 2682528612 2682528612 -1.00000000
8.13809967 -1.57746470 2.22118497 49 15 10097 8.58200000 2682528614 2682528614 15.00000000
2.15776205 -0.42098999 -0.58907217 4 0 10104 2.27600000 2682528635 2682528635 -15.00000000
8.07422543 -1.57678401 0.14359841 15 1 10105 8.22800000 2682528637 2682528637 1.00000000
2.52264786 -0.49309519 -0.59342086 6 2 10106 2.63800000 2682528639 2682528639 -13.00000000
8.08371449 -1.58010185 0.43166697 15 3 10106 8.24800000 2682528642 2682528642 3.00000000
3.03844500 -0.59446722 -0.60181159 4 4 10107 3.15400000 2682528644 2682528644 -11.00000000
8.09473896 -1.58519042 0.72164953 72 5 10108 8.28000000 2682528646 2682528646 5.00000000
3.75485325 -0.73599237 -0.60602713 6 6 10109 3.87400000 2682528649 2682528649 -9.00000000
8.09181118 -1.58755028 1.01249051 90 7 10110 8.30800000 2682528651 2682528651 7.00000000
5.02750349 -0.98726827 -0.62908953 8 8 10111 5.16200000 2682528653 2682528653 -7.00000000
8.18180180 -1.60668874 1.32061970 7 9 10111 8.44200000 2682528656 2682528656 9.00000000
7.72609329 -1.51860011 -0.68887901 12 10 10112 7.90400000 2682528658 2682528658 -5.00000000
8.06778336 -1.58868611 -0.43093425 12 12 10114 8.23400000 2682528662 2682528662 -3.00000000
8.07706928 -1.59344363 -0.14370312 12 14 10116 8.23400000 2682528667 2682528667 -1.00000000
8.14391518 -1.60810781 2.22429085 47 15 10117 8.59400000 2682528669 2682528669 15.00000000
2.15627956 -0.42851943 -0.58907217 4 0 10124 2.27600000 2682528690 2682528690 -15.00000000
8.08240128 -1.60768950 0.14384273 12 1 10125 8.24200000 2682528692 2682528692 1.00000000
2.52091146 -0.50189787 -0.59342086 6 2 10126 2.63800000 2682528695 2682528695 -13.00000000
8.08990288 -1.61064959 0.43229499 13 3 10126 8.26000000 2682528697 2682528697 3.00000000
3.02864981 -0.60353500 -0.60028511 4 4 10127 3.14600000 2682528699 2682528699 -11.00000000
8.09697151 -1.61499560 0.72234678 76 5 10128 8.28800000 2682528702 2682528702 5.00000000
3.77550697 -0.75373548 -0.60978156 4 6 10129 3.89800000 2682528704 2682528704 -9.00000000
8.09011364 -1.61656427 1.01297796 87 7 10130 8.31200000 2682528706 2682528706 7.00000000
5.02013350 -1.00403285 -0.62860209 8 8 10131 5.15800000 2682528709 2682528709 -7.00000000
8.17226982 -1.63446391 1.31999397 7 9 10131 8.43800000 2682528711 2682528711 9.00000000
7.72074509 -1.54556000 -0.68887901 12 10 10132 7.90400000 2682528713 2682528713 -5.00000000
8.07393837 -1.61919463 -0.43156230 12 12 10134 8.24600000 2682528718 2682528718 -3.00000000
8.07537842 -1.62241590 -0.14377293 12 14 10136 8.23800000 2682528722 2682528722 -1.00000000
8.14772224 -1.63842976 2.22687912 47 15 10137 8.60400000 2682528725 2682528725 15.00000000
2.15484667 -0.43566754 -0.58907217 4 0 10143 2.27600000 2682528745 2682528745 -15.00000000
8.08290482 -1.63567281 0.14394745 12 1 10144 8.24800000 2682528748 2682528748 1.00000000
2.52496314 -0.51141530 -0.59477061 6 2 10145 2.64400000 2682528750 2682528750 -13.00000000
8.08843231 -1.63826084 0.43250436 13 3 10145 8.26400000 2682528752 2682528752 3.00000000
3.01893520 -0.61201477 -0.59875864 4 4 10146 3.13800000 2682528755 2682528755 -11.00000000
8.08961868 -1.64144099 0.72217250 72 5 10147 8.28600000 2682528757 2682528757 5.00000000
3.77685857 -0.76703769 -0.61040729 6 6 10148 3.90200000 2682528759 2682528759 -9.00000000
8.09638023 -1.64575565 1.01444042 87 7 10149 8.32400000 2682528761 2682528761 7.00000000
