# .PCD v0.7 - Point Cloud Data file format
VERSION 0.7
FIELDS x y z intensity laser_id azimuth distance_m adjustedtime timestamp vertical_angle
SIZE 4 4 4 1 1 2 8 8 4 8
TYPE F F F U U U F U U F
COUNT 1 1 1 1 1 1 1 1 1 1
WIDTH 537
HEIGHT 1
VIEWPOINT 0 0 0 1 0 0 0
POINTS 537
DATA ascii
8.13519192 0.67026395 0.14248145 15 1 8529 8.16400000 2688624255 2688624255 1.00000000
2.62195277 0.21556376 -0.60736787 7 2 8530 2.70000000 2688624258 2688624258 -13.00000000
8.13745689 0.66759092 0.42789876 21 3 8531 8.17600000 2688624260 2688624260 3.00000000
3.14047265 0.25764203 -0.61249685 4 4 8531 3.21000000 2688624262 2688624262 -11.00000000
8.14156151 0.66649711 0.71467710 79 5 8532 8.20000000 2688624264 2688624264 5.00000000
3.98095155 0.32519537 -0.63262099 9 6 8533 4.04400000 2688624267 2688624267 -9.00000000
8.14560890 0.66396618 1.00347221 90 7 8534 8.23400000 2688624269 2688624269 7.00000000
5.26494408 0.42823192 -0.64858866 8 8 8535 5.32200000 2688624271 2688624271 -7.00000000
6.62879944 0.53799856 -0.58185172 32 10 8536 6.67600000 2688624276 2688624276 -5.00000000
8.13428497 0.65732688 -0.42768943 17 12 8538 8.17200000 2688624281 2688624281 -3.00000000
8.12649727 0.65384245 -0.14230692 12 14 8540 8.15400000 2688624285 2688624285 -1.00000000
8.18584824 0.65861773 2.20047951 49 15 8540 8.50200000 2688624288 2688624288 15.00000000
2.23012662 0.17629808 -0.59942490 4 0 8548 2.31600000 2688624308 2688624308 -15.00000000
8.13947487 0.64201999 0.14251634 12 1 8549 8.16600000 2688624311 2688624311 1.00000000
2.62463212 0.20656303 -0.60781777 6 2 8550 2.70200000 2688624313 2688624313 -13.00000000
8.13774586 0.63902545 0.42779410 23 3 8551 8.17400000 2688624315 2688624315 3.00000000
3.15309620 0.24760033 -0.61478657 4 4 8551 3.22200000 2688624317 2688624317 -11.00000000
8.12993431 0.63698429 0.71345693 83 5 8552 8.18600000 2688624320 2688624320 5.00000000
3.98993993 0.31191310 -0.63387245 9 6 8553 4.05200000 2688624322 2688624322 -9.00000000
8.13996124 0.63491118 1.00249720 97 7 8554 8.22600000 2688624324 2688624324 7.00000000
5.29015589 0.41169950 -0.65151352 9 8 8555 5.34600000 2688624327 2688624327 -7.00000000
6.62070513 0.51408523 -0.58098018 52 10 8556 6.66600000 2688624331 2688624331 -5.00000000
8.13453865 0.62877500 -0.42758477 17 12 8558 8.17000000 2688624336 2688624336 -3.00000000
8.12474251 0.62516487 -0.14223711 12 14 8560 8.15000000 2688624341 2688624341 -1.00000000
8.18050289 0.62801915 2.19840908 56 15 8561 8.49400000 2688624343 2688624343 15.00000000
2.22681689 0.16899869 -0.59838963 4 0 8566 2.31200000 2688624364 2688624364 -15.00000000
8.11951828 0.61478519 0.14213240 12 1 8567 8.14400000 2688624366 2688624366 1.00000000
2.62915444 0.19861008 -0.60871756 6 2 8568 2.70600000 2688624368 2688624368 -13.00000000
8.13174725 0.61285645 0.42737541 21 3 8569 8.16600000 2688624370 2688624370 3.00000000
3.14211226 0.23680812 -0.61249685 4 4 8569 3.21000000 2688624373 2688624373 -11.00000000
8.11202717 0.60994637 0.71171379 76 5 8570 8.16600000 2688624375 2688624375 5.00000000
3.97317147 0.29804692 -0.63105661 6 6 8571 4.03400000 2688624377 2688624377 -9.00000000
8.14587402 0.60963196 1.00298464 95 7 8572 8.23000000 2688624380 2688624380 7.00000000
5.29142332 0.39507797 -0.65151352 9 8 8573 5.34600000 2688624382 2688624382 -7.00000000
6.62030029 0.49313515 -0.58080590 72 10 8574 6.66400000 2688624387 2688624387 -5.00000000
8.13647366 0.60321653 -0.42758477 17 12 8576 8.17000000 2688624391 2688624391 -3.00000000
8.11669445 0.59890145 -0.14206259 14 14 8578 8.14000000 2688624396 2688624396 -1.00000000
8.17077065 0.60289145 2.19530320 49 15 8578 8.48200000 2688624398 2688624398 15.00000000
2.22932005 0.16136408 -0.59890729 4 0 8586 2.31400000 2688624419 2688624419 -15.00000000
8.10765266 0.58543092 0.14188807 15 1 8587 8.13000000 2688624421 2688624421 1.00000000
2.62400055 0.18901138 -0.60736787 5 2 8588 2.70000000 2688624423 2688624423 -13.00000000
8.14579010 0.58532649 0.42800346 21 3 8589 8.17800000 2688624426 2688624426 3.00000000
3.15858531 0.22696432 -0.61554980 4 4 8589 3.22600000 2688624428 2688624428 -11.00000000
8.11410713 0.58162642 0.71171379 76 5 8590 8.16600000 2688624430 2688624430 5.00000000
3.96630621 0.28361258 -0.62980515 6 6 8591 4.02600000 2688624433 2688624433 -9.00000000
8.14003277 0.58062887 1.00200975 97 7 8592 8.22200000 2688624435 2688624435 7.00000000
5.28682995 0.37618238 -0.65078229 9 8 8593 5.34000000 2688624437 2688624437 -7.00000000
6.61005735 0.46917662 -0.57976002 36 10 8594 6.65200000 2688624442 2688624442 -5.00000000
8.12259102 0.57368553 -0.42674738 17 12 8596 8.15400000 2688624446 2688624446 -3.00000000
8.12272549 0.57084560 -0.14213240 16 14 8598 8.14400000 2688624451 2688624451 -1.00000000
8.17292500 0.57294005 2.19530320 56 15 8599 8.48200000 2688624453 2688624453 15.00000000
2.22794247 0.15344858 -0.59838963 4 0 8606 2.31200000 2688624474 2688624474 -15.00000000
8.11762714 0.55767459 0.14202769 21 1 8607 8.13800000 2688624476 2688624476 1.00000000
2.61297917 0.17905141 -0.60466844 5 2 8608 2.68800000 2688624479 2688624479 -13.00000000
8.13782024 0.55620784 0.42748010 21 3 8609 8.16800000 2688624481 2688624481 3.00000000
3.15152359 0.21540193 -0.61402333 4 4 8609 3.21800000 2688624483 2688624483 -11.00000000
8.11608791 0.55329937 0.71171379 76 5 8610 8.16600000 2688624486 2688624486 5.00000000
3.96727204 0.26976585 -0.62980515 6 6 8611 4.02600000 2688624488 2688624488 -9.00000000
8.13408756 0.55167401 1.00103474 95 7 8612 8.21400000 2688624490 2688624490 7.00000000
5.28811073 0.35772559 -0.65078229 6 8 8613 5.34000000 2688624493 2688624493 -7.00000000
8.23233414 0.55689389 1.30685353 7 9 8613 8.35400000 2688624495 2688624495 9.00000000
6.60966682 0.44596624 -0.57958567 16 10 8614 6.65000000 2688624497 2688624497 -5.00000000
8.21922493 0.55312496 1.60126913 6 11 8615 8.39200000 2688624499 2688624499 11.00000000
8.12852955 0.54559642 -0.42695674 17 12 8616 8.15800000 2688624502 2688624502 -3.00000000
8.12267303 0.54235530 -0.14209749 16 14 8618 8.14200000 2688624506 2688624506 -1.00000000
8.17863560 0.54609191 2.19633842 54 15 8618 8.48600000 2688624509 2688624509 15.00000000
2.23617554 0.14617473 -0.60046017 4 0 8626 2.32000000 2688624529 2688624529 -15.00000000
8.12351513 0.52959555 0.14209749 18 1 8627 8.14200000 2688624532 2688624532 1.00000000
2.61358833 0.16992933 -0.60466844 5 2 8628 2.68800000 2688624534 2688624534 -13.00000000
8.13173962 0.52728122 0.42706141 23 3 8629 8.16000000 2688624536 2688624536 3.00000000
3.16009283 0.20490789 -0.61554980 4 4 8629 3.22600000 2688624539 2688624539 -11.00000000
8.13188744 0.52586555 0.71293396 79 5 8630 8.18000000 2688624541 2688624541 5.00000000
3.97607470 0.25642437 -0.63105661 9 6 8631 4.03400000 2688624543 2688624543 -9.00000000
8.13200188 0.52302253 1.00054729 92 7 8632 8.21000000 2688624546 2688624546 7.00000000
5.27347898 0.33824795 -0.64883238 8 8 8633 5.32400000 2688624548 2688624548 -7.00000000
6.61714840 0.42327303 -0.58010864 16 10 8634 6.65600000 2688624552 2688624552 -5.00000000
8.13437080 0.51747286 -0.42716607 17 12 8636 8.16200000 2688624557 2688624557 -3.00000000
8.11853027 0.51361978 -0.14199278 16 14 8638 8.13600000 2688624562 2688624562 -1.00000000
8.18443775 0.51635534 2.19737363 51 15 8639 8.49000000 2688624564 2688624564 15.00000000
2.23088765 0.13801028 -0.59890729 4 0 8646 2.31400000 2688624585 2688624585 -15.00000000
8.13329792 0.50172848 0.14223711 18 1 8647 8.15000000 2688624587 2688624587 1.00000000
2.62389088 0.16140340 -0.60691792 6 2 8648 2.69800000 2688624589 2688624589 -13.00000000
8.13153744 0.49877068 0.42695674 21 3 8649 8.15800000 2688624592 2688624592 3.00000000
3.14511228 0.19291429 -0.61249685 4 4 8649 3.21000000 2688624594 2688624594 -11.00000000
8.13367367 0.49747679 0.71293396 79 5 8650 8.18000000 2688624596 2688624596 5.00000000
3.98286080 0.24290447 -0.63199526 9 6 8651 4.04000000 2688624599 2688624599 -9.00000000
8.13774109 0.49487439 1.00103474 97 7 8652 8.21400000 2688624601 2688624601 7.00000000
5.28255320 0.32031861 -0.64980733 8 8 8653 5.33200000 2688624603 2688624603 -7.00000000
6.61460781 0.39993179 -0.57976002 28 10 8654 6.65200000 2688624608 2688624608 -5.00000000
8.12815380 0.48859608 -0.42674738 17 12 8656 8.15400000 2688624612 2688624612 -3.00000000
8.11228848 0.48480055 -0.14185315 14 14 8658 8.12800000 2688624617 2688624617 -1.00000000
8.17067814 0.48828995 2.19323254 58 15 8658 8.47400000 2688624619 2688624619 15.00000000
2.22556996 0.12988453 -0.59735435 4 0 8666 2.30800000 2688624640 2688624640 -15.00000000
8.12701416 0.47287029 0.14209749 18 1 8667 8.14200000 2688624642 2688624642 1.00000000
2.63027477 0.15258190 -0.60826766 5 2 8668 2.70400000 2688624645 2688624645 -13.00000000
8.13123512 0.47026795 0.42685205 18 3 8669 8.15600000 2688624647 2688624647 3.00000000
3.14968657 0.18216135 -0.61326009 4 4 8669 3.21400000 2688624649 2688624649 -11.00000000
8.12143707 0.46827909 0.71171379 83 5 8670 8.16600000 2688624652 2688624652 5.00000000
3.97579575 0.22854674 -0.63074374 9 6 8671 4.03200000 2688624654 2688624654 -9.00000000
8.14338207 0.46669251 1.00152230 97 7 8672 8.21800000 2688624656 2688624656 7.00000000
5.28958511 0.30221680 -0.65053856 9 8 8673 5.33800000 2688624658 2688624658 -7.00000000
8.22201824 0.46831971 1.30435061 5 9 8674 8.33800000 2688624661 2688624661 9.00000000
6.61596346 0.37684008 -0.57976002 48 10 8674 6.65200000 2688624663 2688624663 -5.00000000
8.13180351 0.46033344 -0.42685205 17 12 8676 8.15600000 2688624668 2688624668 -3.00000000
8.11393166 0.45648041 -0.14185315 16 14 8678 8.12800000 2688624672 2688624672 -1.00000000
8.17241287 0.45833963 2.19323254 51 15 8679 8.47400000 2688624675 2688624675 15.00000000
2.22986770 0.12232669 -0.59838963 4 0 8686 2.31200000 2688624695 2688624695 -15.00000000
8.11863232 0.44395289 0.14192297 15 1 8687 8.13200000 2688624698 2688624698 1.00000000
2.62495375 0.14308140 -0.60691792 6 2 8688 2.69800000 2688624700 2688624700 -13.00000000
8.13681602 0.44209850 0.42706141 15 3 8689 8.16000000 2688624702 2688624702 3.00000000
3.15030313 0.17116578 -0.61326009 4 4 8689 3.21400000 2688624705 2688624705 -11.00000000
8.11705303 0.43960389 0.71119088 79 5 8690 8.16000000 2688624707 2688624707 5.00000000
3.96867943 0.21424130 -0.62949228 9 6 8691 4.02400000 2688624709 2688624709 -9.00000000
8.14099693 0.43805063 1.00103474 95 7 8692 8.21400000 2688624711 2688624711 7.00000000
5.29258966 0.28385717 -0.65078229 6 8 8693 5.34000000 2688624714 2688624714 -7.00000000
8.22352600 0.44105193 1.30435061 7 9 8693 8.33800000 2688624716 2688624716 9.00000000
6.62320709 0.35406283 -0.58028293 60 10 8694 6.65800000 2688624718 2688624718 -5.00000000
8.12737751 0.43162757 -0.42653805 17 12 8696 8.15000000 2688624723 2688624723 -3.00000000
8.11747265 0.42826009 -0.14188807 16 14 8698 8.13000000 2688624728 2688624728 -1.00000000
8.17388821 0.43123642 2.19323254 49 15 8698 8.47400000 2688624730 2688624730 15.00000000
2.23606896 0.11483950 -0.59994256 4 0 8706 2.31800000 2688624751 2688624751 -15.00000000
8.12013245 0.41561088 0.14192297 18 1 8707 8.13200000 2688624753 2688624753 1.00000000
2.61181378 0.13322283 -0.60376865 6 2 8708 2.68400000 2688624755 2688624755 -13.00000000
8.13432026 0.41349024 0.42685205 21 3 8709 8.15600000 2688624758 2688624758 3.00000000
3.15872431 0.16056679 -0.61478657 4 4 8709 3.22200000 2688624760 2688624760 -11.00000000
8.11853886 0.41126743 0.71119088 79 5 8710 8.16000000 2688624762 2688624762 5.00000000
3.96151161 0.19998834 -0.62824082 9 6 8711 4.01600000 2688624764 2688624764 -9.00000000
8.12661648 0.40883267 0.99908489 97 7 8712 8.19800000 2688624767 2688624767 7.00000000
5.27570486 0.26448631 -0.64858866 4 8 8713 5.32200000 2688624769 2688624769 -7.00000000
8.22107029 0.41214597 1.30372488 7 9 8713 8.33400000 2688624771 2688624771 9.00000000
6.61246347 0.33034489 -0.57923704 68 10 8714 6.64600000 2688624774 2688624774 -5.00000000
8.10689163 0.40216655 -0.42538664 25 12 8716 8.12800000 2688624778 2688624778 -3.00000000
8.12091541 0.40002057 -0.14192297 18 14 8718 8.13200000 2688624783 2688624783 -1.00000000
8.17920208 0.40289170 2.19426775 56 15 8718 8.47800000 2688624785 2688624785 15.00000000
2.23645639 0.10703347 -0.59994256 4 0 8726 2.31800000 2688624806 2688624806 -15.00000000
8.12153339 0.38726380 0.14192297 15 1 8727 8.13200000 2688624808 2688624808 1.00000000
2.61810255 0.12438252 -0.60511833 6 2 8728 2.69000000 2688624811 2688624811 -13.00000000
8.12773323 0.38471591 0.42643338 18 3 8729 8.14800000 2688624813 2688624813 3.00000000
3.15926552 0.14953981 -0.61478657 5 4 8729 3.22200000 2688624815 2688624815 -11.00000000
8.12589550 0.38320750 0.71171379 83 5 8730 8.16600000 2688624817 2688624817 5.00000000
3.97797108 0.18690053 -0.63074374 9 6 8731 4.03200000 2688624820 2688624820 -9.00000000
8.13592529 0.38083425 1.00005984 95 7 8732 8.20600000 2688624822 2688624822 7.00000000
5.27461338 0.24597658 -0.64834493 6 8 8733 5.32000000 2688624824 2688624824 -7.00000000
8.22252560 0.38201147 1.30372488 10 9 8734 8.33400000 2688624827 2688624827 9.00000000
6.61158609 0.30716860 -0.57906276 76 10 8734 6.64400000 2688624829 2688624829 -5.00000000
8.12620258 0.37469372 -0.42632869 17 12 8736 8.14600000 2688624834 2688624834 -3.00000000
8.12026501 0.37157944 -0.14188807 16 14 8738 8.13000000 2688624838 2688624838 -1.00000000
8.18055916 0.37433848 2.19426775 56 15 8738 8.47800000 2688624840 2688624840 15.00000000
2.22330666 0.09862683 -0.59631908 4 0 8746 2.30400000 2688624861 2688624861 -15.00000000
8.12882900 0.35917681 0.14202769 21 1 8747 8.13800000 2688624864 2688624864 1.00000000
2.62630820 0.11558561 -0.60691792 6 2 8748 2.69800000 2688624866 2688624866 -13.00000000
8.12304115 0.35608009 0.42611936 13 3 8749 8.14200000 2688624868 2688624868 3.00000000
3.14407730 0.13782318 -0.61173362 5 4 8749 3.20600000 2688624870 2688624870 -11.00000000
8.12519264 0.35475358 0.71153951 76 5 8750 8.16400000 2688624873 2688624873 5.00000000
3.97070527 0.17267041 -0.62949228 9 6 8751 4.02400000 2688624875 2688624875 -9.00000000
8.13720512 0.35243225 1.00005984 95 7 8752 8.20600000 2688624877 2688624877 7.00000000
5.29130554 0.22824766 -0.65029484 6 8 8753 5.33600000 2688624880 2688624880 -7.00000000
8.20802021 0.35262889 1.30122185 10 9 8754 8.31800000 2688624882 2688624882 9.00000000
6.60465574 0.28374591 -0.57836550 60 10 8754 6.63600000 2688624884 2688624884 -5.00000000
8.11748314 0.34590057 -0.42580533 21 12 8756 8.13600000 2688624889 2688624889 -3.00000000
8.11152267 0.34281000 -0.14171354 18 14 8758 8.12000000 2688624893 2688624893 -1.00000000
8.17801571 0.34419027 2.19323254 56 15 8759 8.47400000 2688624896 2688624896 15.00000000
2.22941208 0.09149118 -0.59787202 4 0 8765 2.31000000 2688624917 2688624917 -15.00000000
8.12198353 0.33189207 0.14188807 18 1 8766 8.13000000 2688624919 2688624919 1.00000000
2.63057137 0.10703427 -0.60781777 6 2 8767 2.70200000 2688624921 2688624921 -13.00000000
8.13814640 0.32970709 0.42685205 13 3 8768 8.15600000 2688624923 2688624923 3.00000000
3.14844036 0.12755524 -0.61249685 5 4 8768 3.21000000 2688624926 2688624926 -11.00000000
8.11039829 0.32716507 0.71014500 79 5 8769 8.14800000 2688624928 2688624928 5.00000000
3.95941329 0.15902647 -0.62761509 9 6 8770 4.01200000 2688624930 2688624930 -9.00000000
8.14229584 0.32560501 1.00054729 95 7 8771 8.21000000 2688624933 2688624933 7.00000000
5.27814865 0.21014699 -0.64858866 4 8 8772 5.32200000 2688624935 2688624935 -7.00000000
8.21704006 0.32572114 1.30247331 10 9 8773 8.32600000 2688624937 2688624937 9.00000000
6.60157871 0.26168472 -0.57801688 52 10 8773 6.63200000 2688624940 2688624940 -5.00000000
8.12656879 0.31929377 -0.42622402 25 12 8775 8.14400000 2688624944 2688624944 -3.00000000
8.10861874 0.31575370 -0.14164373 18 14 8777 8.11600000 2688624949 2688624949 -1.00000000
8.17133522 0.31819594 2.19116211 51 15 8777 8.46600000 2688624951 2688624951 15.00000000
2.22392654 0.08349109 -0.59631908 4 0 8785 2.30400000 2688624972 2688624972 -15.00000000
8.11310101 0.30316567 0.14171354 15 1 8786 8.12000000 2688624974 2688624974 1.00000000
2.62119198 0.09748907 -0.60556823 6 2 8787 2.69200000 2688624976 2688624976 -13.00000000
8.14323902 0.30144542 0.42706141 13 3 8788 8.16000000 2688624979 2688624979 3.00000000
3.15082836 0.11663698 -0.61287850 5 4 8788 3.21200000 2688624981 2688624981 -11.00000000
8.11348152 0.29892585 0.71031928 76 5 8789 8.15000000 2688624983 2688624983 5.00000000
3.96389246 0.14534934 -0.62824082 9 6 8790 4.01600000 2688624986 2688624986 -9.00000000
8.13941574 0.29703632 1.00005984 90 7 8791 8.20600000 2688624988 2688624988 7.00000000
5.30265570 0.19258611 -0.65151352 6 8 8792 5.34600000 2688624990 2688624990 -7.00000000
8.21812725 0.29703632 1.30247331 10 9 8793 8.32600000 2688624993 2688624993 9.00000000
6.60046101 0.23856734 -0.57784259 44 10 8793 6.63000000 2688624995 2688624995 -5.00000000
8.11565781 0.29049611 -0.42559600 21 12 8795 8.13200000 2688624999 2688624999 -3.00000000
8.10967159 0.28744742 -0.14164373 18 14 8797 8.11600000 2688625004 2688625004 -1.00000000
8.17239571 0.28967071 2.19116211 65 15 8797 8.46600000 2688625006 2688625006 15.00000000
2.23578882 0.07612205 -0.59942490 4 0 8805 2.31600000 2688625027 2688625027 -15.00000000
8.10611534 0.27457306 0.14157392 15 1 8806 8.11200000 2688625029 2688625029 1.00000000
2.60983038 0.08794502 -0.60286885 5 2 8807 2.68000000 2688625032 2688625032 -13.00000000
8.12423325 0.27376717 0.42601469 13 3 8807 8.14000000 2688625034 2688625034 3.00000000
3.15710282 0.10583515 -0.61402333 5 4 8808 3.21800000 2688625036 2688625036 -11.00000000
8.11447620 0.27060270 0.71031928 76 5 8809 8.15000000 2688625039 2688625039 5.00000000
3.96240139 0.13144639 -0.62792796 6 6 8810 4.01400000 2688625041 2688625041 -9.00000000
8.12849903 0.26822984 0.99859738 95 7 8811 8.19400000 2688625043 2688625043 7.00000000
5.26758337 0.17290300 -0.64712620 4 8 8812 5.31000000 2688625045 2688625045 -7.00000000
8.22696400 0.27004161 1.30372488 10 9 8812 8.33400000 2688625048 2688625048 9.00000000
6.60921860 0.21578604 -0.57853985 44 10 8813 6.63800000 2688625050 2688625050 -5.00000000
8.11063385 0.26197198 -0.42528197 17 12 8815 8.12600000 2688625055 2688625055 -3.00000000
8.12061882 0.25945693 -0.14181826 20 14 8817 8.12600000 2688625059 2688625059 -1.00000000
8.18108082 0.26138872 2.19323254 51 15 8817 8.47400000 2688625062 2688625062 15.00000000
2.23410988 0.06825823 -0.59890729 4 0 8825 2.31400000 2688625082 2688625082 -15.00000000
8.12301445 0.24676150 0.14185315 18 1 8826 8.12800000 2688625085 2688625085 1.00000000
2.61596513 0.07901098 -0.60421854 6 2 8827 2.68600000 2688625087 2688625087 -13.00000000
8.12318516 0.24392857 0.42591003 10 3 8828 8.13800000 2688625089 2688625089 3.00000000
3.15156603 0.09463738 -0.61287850 5 4 8828 3.21200000 2688625092 2688625092 -11.00000000
8.12532902 0.24257351 0.71119088 76 5 8829 8.16000000 2688625094 2688625094 5.00000000
3.96283603 0.11761422 -0.62792796 6 6 8830 4.01400000 2688625096 2688625096 -9.00000000
8.13335419 0.23997153 0.99908489 92 7 8831 8.19800000 2688625098 2688625098 7.00000000
5.26617050 0.15445645 -0.64688247 6 8 8832 5.30800000 2688625101 2688625101 -7.00000000
8.21210194 0.23942593 1.30122185 10 9 8833 8.31800000 2688625103 2688625103 9.00000000
6.62188101 0.19306263 -0.57958567 12 10 8833 6.65000000 2688625105 2688625105 -5.00000000
8.10550976 0.23348647 -0.42496797 17 12 8835 8.12000000 2688625110 2688625110 -3.00000000
8.11747742 0.23099534 -0.14174844 20 14 8837 8.12200000 2688625115 2688625115 -1.00000000
8.18391514 0.23145643 2.19375014 58 15 8838 8.47600000 2688625117 2688625117 15.00000000
2.23240328 0.06040706 -0.59838963 4 0 8845 2.31200000 2688625138 2688625138 -15.00000000
8.12782478 0.21851286 0.14192297 18 1 8846 8.13200000 2688625140 2688625140 1.00000000
2.62401700 0.07008720 -0.60601813 6 2 8847 2.69400000 2688625142 2688625142 -13.00000000
8.13193607 0.21720308 0.42632869 15 3 8847 8.14600000 2688625145 2688625145 3.00000000
3.15187716 0.08363578 -0.61287850 5 4 8848 3.21200000 2688625147 2688625147 -11.00000000
8.12612629 0.21420935 0.71119088 76 5 8849 8.16000000 2688625149 2688625149 5.00000000
3.96914649 0.10393576 -0.62886655 6 6 8850 4.02000000 2688625151 2688625151 -9.00000000
8.13414192 0.21157937 0.99908489 92 7 8851 8.19800000 2688625154 2688625154 7.00000000
5.26270866 0.13597059 -0.64639497 6 8 8852 5.30400000 2688625156 2688625156 -7.00000000
8.19906521 0.21040416 1.29903185 10 9 8853 8.30400000 2688625158 2688625158 9.00000000
6.59861374 0.16933343 -0.57749397 16 10 8853 6.62600000 2688625161 2688625161 -5.00000000
8.12025166 0.20554532 -0.42570066 21 12 8855 8.13400000 2688625165 2688625165 -3.00000000
8.10823822 0.20240913 -0.14157392 16 14 8857 8.11200000 2688625170 2688625170 -1.00000000
8.17691231 0.20412347 2.19167972 49 15 8857 8.46800000 2688625172 2688625172 15.00000000
2.22101283 0.05234107 -0.59528381 4 0 8865 2.30000000 2688625193 2688625193 -15.00000000
8.12054157 0.18995307 0.14178336 15 1 8866 8.12400000 2688625195 2688625195 1.00000000
2.62814212 0.06101771 -0.60691792 6 2 8867 2.69800000 2688625197 2688625197 -13.00000000
8.12266064 0.18858422 0.42580533 13 3 8867 8.13600000 2688625200 2688625200 3.00000000
3.15607524 0.07272362 -0.61364174 5 4 8868 3.21600000 2688625202 2688625202 -11.00000000
8.10690498 0.18538707 0.70944774 76 5 8869 8.14000000 2688625204 2688625204 5.00000000
3.97146010 0.09012504 -0.62917942 6 6 8870 4.02200000 2688625207 2688625207 -9.00000000
8.13880062 0.18327400 0.99957234 97 7 8871 8.20200000 2688625209 2688625209 7.00000000
5.27108955 0.11777686 -0.64736998 6 8 8872 5.31200000 2688625211 2688625211 -7.00000000
8.21949768 0.18222062 1.30216050 10 9 8873 8.32400000 2688625214 2688625214 9.00000000
6.61111593 0.14656390 -0.57853985 52 10 8873 6.63800000 2688625216 2688625216 -5.00000000
8.12691021 0.17732981 -0.42601469 25 12 8875 8.14000000 2688625221 2688625221 -3.00000000
8.10689640 0.17406194 -0.14153902 16 14 8877 8.11000000 2688625225 2688625225 -1.00000000
8.16791821 0.17537212 2.18909144 51 15 8877 8.45800000 2688625227 2688625227 15.00000000
2.22890782 0.04474305 -0.59735435 4 0 8885 2.30800000 2688625248 2688625248 -15.00000000
8.11115837 0.16140702 0.14160882 18 1 8886 8.11400000 2688625250 2688625250 1.00000000
2.62639093 0.05180497 -0.60646802 6 2 8887 2.69600000 2688625253 2688625253 -13.00000000
8.13527870 0.15904614 0.42643338 15 3 8888 8.14800000 2688625255 2688625255 3.00000000
3.15042114 0.06159130 -0.61249685 5 4 8888 3.21000000 2688625257 2688625257 -11.00000000
8.10949516 0.15712616 0.70962209 76 5 8889 8.14200000 2688625260 2688625260 5.00000000
3.95792532 0.07599605 -0.62698936 9 6 8890 4.00800000 2688625262 2688625262 -9.00000000
8.13542080 0.15478764 0.99908489 90 7 8891 8.19800000 2688625264 2688625264 7.00000000
5.27940750 0.09952627 -0.64834493 6 8 8892 5.32000000 2688625267 2688625267 -7.00000000
8.22005749 0.15496278 1.30216050 10 9 8892 8.32400000 2688625269 2688625269 9.00000000
6.61756325 0.12359752 -0.57906276 96 10 8893 6.64400000 2688625271 2688625271 -5.00000000
8.11350060 0.14870432 -0.42528197 17 12 8895 8.12600000 2688625276 2688625276 -3.00000000
8.11345291 0.14587037 -0.14164373 18 14 8897 8.11600000 2688625280 2688625280 -1.00000000
8.17623234 0.14557159 2.19116211 49 15 8898 8.46600000 2688625283 2688625283 15.00000000
2.22518730 0.03689838 -0.59631908 4 0 8905 2.30400000 2688625303 2688625303 -15.00000000
8.10967255 0.13306001 0.14157392 15 1 8906 8.11200000 2688625306 2688625306 1.00000000
2.61681318 0.04247870 -0.60421854 6 2 8907 2.68600000 2688625308 2688625308 -13.00000000
8.12178230 0.13184080 0.42570066 13 3 8907 8.13400000 2688625310 2688625310 3.00000000
3.15258002 0.05062542 -0.61287850 5 4 8908 3.21200000 2688625313 2688625313 -11.00000000
8.11995506 0.12897600 0.71049362 79 5 8909 8.15200000 2688625315 2688625315 5.00000000
3.95816660 0.06217985 -0.62698936 9 6 8910 4.00800000 2688625317 2688625317 -9.00000000
8.12598705 0.12623461 0.99786621 85 7 8911 8.18800000 2688625320 2688625320 7.00000000
5.26384401 0.08085319 -0.64639497 6 8 8912 5.30400000 2688625322 2688625322 -7.00000000
8.21859455 0.12480373 1.30184758 10 9 8913 8.32200000 2688625324 2688625324 9.00000000
6.60799360 0.10034589 -0.57819122 100 10 8913 6.63400000 2688625327 2688625327 -5.00000000
8.10398579 0.12023386 -0.42475861 17 12 8915 8.11600000 2688625331 2688625331 -3.00000000
8.10791397 0.11746135 -0.14153902 20 14 8917 8.11000000 2688625336 2688625336 -1.00000000
8.17669106 0.11703033 2.19116211 51 15 8918 8.46600000 2688625338 2688625338 15.00000000
2.23303413 0.02884222 -0.59838963 4 0 8926 2.31200000 2688625359 2688625359 -15.00000000
8.12210369 0.10348853 0.14178336 15 1 8927 8.12400000 2688625361 2688625361 1.00000000
2.61889982 0.03291180 -0.60466844 7 2 8928 2.68800000 2688625363 2688625363 -13.00000000
8.12420845 0.10209719 0.42580533 13 3 8928 8.13600000 2688625366 2688625366 3.00000000
3.14881825 0.03902164 -0.61211526 5 4 8929 3.20800000 2688625368 2688625368 -11.00000000
8.11838055 0.09918967 0.71031928 76 5 8930 8.15000000 2688625370 2688625370 5.00000000
3.96824408 0.04779097 -0.62855369 6 6 8931 4.01800000 2688625373 2688625373 -9.00000000
8.13234997 0.09652121 0.99859738 90 7 8932 8.19400000 2688625375 2688625375 7.00000000
5.26013517 0.06151327 -0.64590752 8 8 8933 5.30000000 2688625377 2688625377 -7.00000000
8.21898079 0.09611472 1.30184758 10 9 8933 8.32200000 2688625380 2688625380 9.00000000
6.60632515 0.07610276 -0.57801688 36 10 8934 6.63200000 2688625382 2688625382 -5.00000000
8.11435699 0.09064201 -0.42528197 17 12 8936 8.12600000 2688625386 2688625386 -3.00000000
8.10229111 0.08767865 -0.14143430 20 14 8938 8.10400000 2688625391 2688625391 -1.00000000
8.18092823 0.08710161 2.19219732 54 15 8939 8.47000000 2688625393 2688625393 15.00000000
2.22925782 0.02101088 -0.59735435 4 0 8946 2.30800000 2688625414 2688625414 -15.00000000
8.12241554 0.07513648 0.14178336 15 1 8947 8.12400000 2688625416 2688625416 1.00000000
2.62094760 0.02378762 -0.60511833 6 2 8948 2.69000000 2688625419 2688625419 -13.00000000
8.12451553 0.07373779 0.42580533 15 3 8948 8.13600000 2688625421 2688625421 3.00000000
3.13715625 0.02792513 -0.60982555 5 4 8949 3.19600000 2688625423 2688625423 -11.00000000
8.11070824 0.07078108 0.70962209 76 5 8950 8.14200000 2688625426 2688625426 5.00000000
3.94073248 0.03370241 -0.62417352 2 6 8951 3.99000000 2688625428 2688625428 -9.00000000
8.13263798 0.06813342 0.99859738 92 7 8952 8.19400000 2688625430 2688625430 7.00000000
5.25634766 0.04311904 -0.64542001 8 8 8953 5.29600000 2688625433 2688625433 -7.00000000
8.20346355 0.06729491 1.29934466 10 9 8953 8.30600000 2688625435 2688625435 9.00000000
6.59459639 0.05294595 -0.57697099 20 10 8954 6.62000000 2688625437 2688625437 -5.00000000
8.11462402 0.06231707 -0.42528197 21 12 8956 8.12600000 2688625442 2688625442 -3.00000000
8.08855057 0.05929323 -0.14118996 16 14 8958 8.09000000 2688625446 2688625446 -1.00000000
8.17345524 0.05848902 2.19012666 49 15 8959 8.46200000 2688625449 2688625449 15.00000000
2.22544909 0.01398309 -0.59631908 4 0 8964 2.30400000 2688625469 2688625469 -15.00000000
8.11061287 0.04954553 0.14157392 15 1 8965 8.11200000 2688625472 2688625472 1.00000000
2.62880421 0.01559982 -0.60691792 6 2 8966 2.69800000 2688625474 2688625474 -13.00000000
8.12470722 0.04821355 0.42580533 13 3 8966 8.13600000 2688625476 2688625476 3.00000000
3.14115500 0.01809195 -0.61058879 5 4 8967 3.20000000 2688625479 2688625479 -11.00000000
8.09893703 0.04523347 0.70857620 76 5 8968 8.13000000 2688625481 2688625481 5.00000000
3.95267081 0.02138622 -0.62605071 2 6 8969 4.00200000 2688625483 2688625483 -9.00000000
8.12685680 0.04255251 0.99786621 90 7 8970 8.18800000 2688625485 2688625485 7.00000000
5.25248718 0.02658545 -0.64493257 6 8 8971 5.29200000 2688625488 2688625488 -7.00000000
8.19770813 0.04149269 1.29840600 10 9 8971 8.30000000 2688625490 2688625490 9.00000000
6.59473038 0.03222819 -0.57697099 24 10 8972 6.62000000 2688625492 2688625492 -5.00000000
8.11677742 0.03683302 -0.42538664 25 12 8974 8.12800000 2688625497 2688625497 -3.00000000
8.10669422 0.03395744 -0.14150411 18 14 8976 8.10800000 2688625502 2688625502 -1.00000000
8.16393375 0.03419720 2.18753862 47 15 8976 8.45200000 2688625504 2688625504 15.00000000
2.22934818 0.00622553 -0.59735435 4 0 8984 2.30800000 2688625525 2688625525 -15.00000000
8.11073685 0.02123391 0.14157392 21 1 8985 8.11200000 2688625527 2688625527 1.00000000
2.62494516 0.00641396 -0.60601813 6 2 8986 2.69400000 2688625529 2688625529 -13.00000000
8.12482548 0.01985273 0.42580533 13 3 8986 8.13600000 2688625532 2688625532 3.00000000
3.14905190 0.00714498 -0.61211526 5 4 8987 3.20800000 2688625534 2688625534 -11.00000000
8.10303020 0.01697097 0.70892483 76 5 8988 8.13400000 2688625536 2688625536 5.00000000
3.94679523 0.00757731 -0.62511212 2 6 8989 3.99600000 2688625538 2688625538 -9.00000000
8.12894058 0.01418769 0.99810994 90 7 8990 8.19000000 2688625541 2688625541 7.00000000
5.25651789 0.00825693 -0.64542001 6 8 8991 5.29600000 2688625543 2688625543 -7.00000000
8.21953201 0.01291122 1.30184758 10 9 8991 8.32200000 2688625545 2688625545 9.00000000
6.58882523 0.00919974 -0.57644808 12 10 8992 6.61400000 2688625548 2688625548 -5.00000000
8.11086464 0.00849368 -0.42507264 17 12 8994 8.12200000 2688625552 2688625552 -3.00000000
8.11476231 0.00566517 -0.14164373 18 14 8996 8.11600000 2688625557 2688625557 -1.00000000
8.16400433 0.00427466 2.18753862 47 15 8997 8.45200000 2688625559 2688625559 15.00000000
2.23321986 -0.00155908 -0.59838963 4 0 9004 2.31200000 2688625580 2688625580 -15.00000000
8.10876179 -0.00707623 0.14153902 25 1 9005 8.11000000 2688625582 2688625582 1.00000000
2.61520791 -0.00273864 -0.60376865 7 2 9006 2.68400000 2688625585 2688625585 -13.00000000
8.12284660 -0.00992393 0.42570066 13 3 9007 8.13400000 2688625587 2688625587 3.00000000
3.15298414 -0.00385210 -0.61287850 5 4 9007 3.21200000 2688625589 2688625589 -11.00000000
8.10702419 -0.01131955 0.70927346 76 5 9008 8.13800000 2688625591 2688625591 5.00000000
3.94087172 -0.00619031 -0.62417352 4 6 9009 3.99000000 2688625594 2688625594 -9.00000000
8.12298489 -0.01417730 0.99737871 87 7 9010 8.18400000 2688625596 2688625596 7.00000000
5.24460411 -0.01006893 -0.64395761 6 8 9011 5.28400000 2688625598 2688625598 -7.00000000
8.21360111 -0.01576900 1.30090904 10 9 9011 8.31600000 2688625601 2688625601 9.00000000
6.59080982 -0.01380378 -0.57662237 16 10 9012 6.61600000 2688625603 2688625603 -5.00000000
8.10884762 -0.01981369 -0.42496797 17 12 9014 8.12000000 2688625608 2688625608 -3.00000000
8.11273289 -0.02265508 -0.14160882 16 14 9016 8.11400000 2688625612 2688625612 -1.00000000
8.16397285 -0.02279817 2.18753862 47 15 9016 8.45200000 2688625615 2688625615 15.00000000
2.22933722 -0.00933828 -0.59735435 4 0 9024 2.30800000 2688625635 2688625635 -15.00000000
8.11868572 -0.03542468 0.14171354 21 1 9025 8.12000000 2688625638 2688625638 1.00000000
2.61907983 -0.01188509 -0.60466844 7 2 9026 2.68800000 2688625640 2688625640 -13.00000000
8.10878181 -0.03821202 0.42496797 18 3 9027 8.12000000 2688625642 2688625642 3.00000000
3.14313531 -0.01481179 -0.61097038 5 4 9027 3.20200000 2688625644 2688625644 -11.00000000
8.11689758 -0.03966696 0.71014500 76 5 9028 8.14800000 2688625647 2688625647 5.00000000
3.92502308 -0.01986650 -0.62167054 4 6 9029 3.97400000 2688625649 2688625649 -9.00000000
8.12884140 -0.04256290 0.99810994 90 7 9030 8.19000000 2688625651 2688625651 7.00000000
5.24453688 -0.02837595 -0.64395761 6 8 9031 5.28400000 2688625654 2688625654 -7.00000000
8.21546364 -0.04588428 1.30122185 10 9 9032 8.31800000 2688625656 2688625656 9.00000000
6.61263704 -0.03693232 -0.57853985 16 10 9032 6.63800000 2688625658 2688625658 -5.00000000
8.10273743 -0.04808317 -0.42465395 17 12 9034 8.11400000 2688625663 2688625663 -3.00000000
8.09860611 -0.05088571 -0.14136449 18 14 9036 8.10000000 2688625668 2688625668 -1.00000000
8.17156219 -0.05277038 2.18960905 47 15 9037 8.46000000 2688625670 2688625670 15.00000000
2.22156382 -0.01706072 -0.59528381 4 0 9044 2.30000000 2688625691 2688625691 -15.00000000
8.11851311 -0.06376396 0.14171354 21 1 9045 8.12000000 2688625693 2688625693 1.00000000
2.61902237 -0.02102731 -0.60466844 7 2 9046 2.68800000 2688625695 2688625695 -13.00000000
8.11658764 -0.06658225 0.42538664 13 3 9047 8.12800000 2688625697 2688625697 3.00000000
3.12539577 -0.02563835 -0.60753584 6 4 9047 3.18400000 2688625700 2688625700 -11.00000000
8.11272526 -0.06796660 0.70979637 76 5 9048 8.14400000 2688625702 2688625702 5.00000000
3.93480635 -0.03365173 -0.62323493 6 6 9049 3.98400000 2688625704 2688625704 -9.00000000
8.13062859 -0.07095492 0.99835366 90 7 9050 8.19200000 2688625707 2688625707 7.00000000
5.23845100 -0.04662962 -0.64322639 6 8 9051 5.27800000 2688625709 2688625709 -7.00000000
8.19156265 -0.07291649 1.29746747 10 9 9051 8.29400000 2688625711 2688625711 9.00000000
6.63239098 -0.06019533 -0.58028293 8 10 9052 6.65800000 2688625714 2688625714 -5.00000000
8.10451698 -0.07638554 -0.42475861 17 12 9054 8.11600000 2688625718 2688625718 -3.00000000
8.10037899 -0.07917436 -0.14139940 20 14 9056 8.10200000 2688625723 2688625723 -1.00000000
8.17134190 -0.07986797 2.18960905 47 15 9056 8.46000000 2688625725 2688625725 15.00000000
2.21376395 -0.02472901 -0.59321326 4 0 9064 2.29200000 2688625746 2688625746 -15.00000000
8.11424160 -0.09205710 0.14164373 21 1 9065 8.11600000 2688625748 2688625748 1.00000000
2.62672734 -0.03025907 -0.60646802 7 2 9066 2.69600000 2688625750 2688625750 -13.00000000
8.12828827 -0.09505415 0.42601469 18 3 9067 8.14000000 2688625753 2688625753 3.00000000
3.13510275 -0.03666264 -0.60944390 6 4 9067 3.19400000 2688625755 2688625755 -11.00000000
8.10845375 -0.09623758 0.70944774 79 5 9068 8.14000000 2688625757 2688625757 5.00000000
3.93861556 -0.04743414 -0.62386066 8 6 9069 3.98800000 2688625760 2688625760 -9.00000000
8.13430119 -0.09938418 0.99884117 90 7 9070 8.19600000 2688625762 2688625762 7.00000000
5.24421120 -0.06498874 -0.64395761 8 8 9071 5.28400000 2688625764 2688625764 -7.00000000
8.20704174 -0.10313816 1.29997039 10 9 9072 8.31000000 2688625767 2688625767 9.00000000
8.07252407 -0.10144767 -0.70631015 17 10 9072 8.10400000 2688625769 2688625769 -5.00000000
8.10619831 -0.10470092 -0.42486328 17 12 9074 8.11800000 2688625773 2688625773 -3.00000000
8.10605240 -0.10752905 -0.14150411 22 14 9076 8.10800000 2688625778 2688625778 -1.00000000
8.16326809 -0.10971305 2.18753862 47 15 9077 8.45200000 2688625780 2688625780 15.00000000
2.22139072 -0.03256962 -0.59528381 4 0 9084 2.30000000 2688625801 2688625801 -15.00000000
8.09387589 -0.12008388 0.14129469 18 1 9085 8.09600000 2688625803 2688625803 1.00000000
2.61881161 -0.03931088 -0.60466844 7 2 9086 2.68800000 2688625806 2688625806 -13.00000000
8.13190174 -0.12348724 0.42622402 23 3 9087 8.14400000 2688625808 2688625808 3.00000000
3.13888192 -0.04766559 -0.61020714 8 4 9087 3.19800000 2688625810 2688625810 -11.00000000
8.09810734 -0.12438779 0.70857620 76 5 9088 8.13000000 2688625813 2688625813 5.00000000
3.93052530 -0.06105945 -0.62260920 8 6 9089 3.98000000 2688625815 2688625815 -9.00000000
8.12596512 -0.12765287 0.99786621 90 7 9090 8.18800000 2688625817 2688625817 7.00000000
5.24792194 -0.08335711 -0.64444506 8 8 9091 5.28800000 2688625820 2688625820 -7.00000000
8.20270443 -0.13029037 1.29934466 10 9 9091 8.30600000 2688625822 2688625822 9.00000000
8.08208179 -0.12978537 -0.70718169 17 10 9092 8.11400000 2688625824 2688625824 -5.00000000
8.09779549 -0.13286513 -0.42444462 17 12 9094 8.11000000 2688625829 2688625829 -3.00000000
8.10162830 -0.13575679 -0.14143430 20 14 9096 8.10400000 2688625833 2688625833 -1.00000000
8.16479111 -0.13681519 2.18805623 56 15 9096 8.45400000 2688625836 2688625836 15.00000000
2.22512650 -0.04039365 -0.59631908 4 0 9104 2.30400000 2688625856 2688625856 -15.00000000
8.10940266 -0.14862920 0.14157392 15 1 9105 8.11200000 2688625859 2688625859 1.00000000
2.60891652 -0.04827174 -0.60241890 9 2 9106 2.67800000 2688625861 2688625861 -13.00000000
8.11544514 -0.15157375 0.42538664 18 3 9107 8.12800000 2688625863 2688625863 3.00000000
3.13477039 -0.05854872 -0.60944390 8 4 9107 3.19400000 2688625866 2688625866 -11.00000000
8.10160828 -0.15272981 0.70892483 76 5 9108 8.13400000 2688625868 2688625868 5.00000000
3.93423820 -0.07485433 -0.62323493 8 6 9109 3.98400000 2688625870 2688625870 -9.00000000
8.11753082 -0.15586457 0.99689120 87 7 9110 8.18000000 2688625873 2688625873 7.00000000
5.23569059 -0.10144454 -0.64298266 8 8 9111 5.27600000 2688625875 2688625875 -7.00000000
8.21402168 -0.16058560 1.30122185 10 9 9112 8.31800000 2688625877 2688625877 9.00000000
8.09552383 -0.15826893 -0.70840186 17 10 9112 8.12800000 2688625879 2688625879 -5.00000000
8.09328842 -0.16105142 -0.42423525 17 12 9114 8.10600000 2688625884 2688625884 -3.00000000
8.10910225 -0.16419786 -0.14157392 22 14 9116 8.11200000 2688625889 2688625889 -1.00000000
8.17002869 -0.16685806 2.18960905 47 15 9117 8.46000000 2688625891 2688625891 15.00000000
2.22498035 -0.04777221 -0.59631908 4 0 9123 2.30400000 2688625912 2688625912 -15.00000000
8.11086464 -0.17556341 0.14160882 18 1 9124 8.11400000 2688625914 2688625914 1.00000000
2.60679388 -0.05688044 -0.60196900 7 2 9125 2.67600000 2688625916 2688625916 -13.00000000
8.11689472 -0.17852862 0.42549133 23 3 9126 8.13000000 2688625919 2688625919 3.00000000
3.13063359 -0.06885733 -0.60868067 8 4 9126 3.19000000 2688625921 2688625921 -11.00000000
8.11101627 -0.17981566 0.70979637 79 5 9127 8.14400000 2688625923 2688625923 5.00000000
3.91816950 -0.08754731 -0.62073195 8 6 9128 3.96800000 2688625926 2688625926 -9.00000000
8.12093925 -0.18287179 0.99737871 90 7 9129 8.18400000 2688625928 2688625928 7.00000000
5.22738743 -0.11862601 -0.64200771 8 8 9130 5.26800000 2688625930 2688625930 -7.00000000
8.20360279 -0.18616579 1.29965758 10 9 9130 8.30800000 2688625932 2688625932 9.00000000
8.09097004 -0.18502268 -0.70805323 17 10 9131 8.12400000 2688625935 2688625935 -5.00000000
8.09870052 -0.18802792 -0.42454928 17 12 9133 8.11200000 2688625939 2688625939 -3.00000000
8.09451962 -0.19075792 -0.14132959 20 14 9135 8.09800000 2688625944 2688625944 -1.00000000
8.16946411 -0.19252409 2.18960905 47 15 9135 8.46000000 2688625946 2688625946 15.00000000
2.22093749 -0.05544213 -0.59528381 4 0 9143 2.30000000 2688625967 2688625967 -15.00000000
8.11220074 -0.20392479 0.14164373 15 1 9144 8.11600000 2688625969 2688625969 1.00000000
2.61826801 -0.06627538 -0.60466844 7 2 9145 2.68800000 2688625972 2688625972 -13.00000000
8.11422539 -0.20680989 0.42538664 15 3 9146 8.12800000 2688625974 2688625974 3.00000000
3.12252355 -0.07958477 -0.60715425 8 4 9146 3.18200000 2688625976 2688625976 -11.00000000
8.10237312 -0.20792285 0.70909911 72 5 9147 8.13600000 2688625979 2688625979 5.00000000
3.93758702 -0.10173394 -0.62386066 8 6 9148 3.98800000 2688625981 2688625981 -9.00000000
8.12818909 -0.21142451 0.99835366 90 7 9149 8.19200000 2688625983 2688625983 7.00000000
5.22297239 -0.13676836 -0.64152020 6 8 9150 5.26400000 2688625985 2688625985 -7.00000000
8.19299221 -0.21597198 1.29809320 10 9 9151 8.29800000 2688625988 2688625988 9.00000000
8.08230877 -0.21305430 -0.70735604 17 10 9151 8.11600000 2688625990 2688625990 -5.00000000
8.10598087 -0.21650983 -0.42496797 17 12 9153 8.12000000 2688625995 2688625995 -3.00000000
8.09980106 -0.21917418 -0.14143430 18 14 9155 8.10400000 2688625999 2688625999 -1.00000000
8.16870403 -0.22246538 2.18960905 47 15 9156 8.46000000 2688626002 2688626002 15.00000000
2.21299505 -0.06336075 -0.59321326 4 0 9164 2.29200000 2688626022 2688626022 -15.00000000
8.10340405 -0.23342581 0.14150411 15 1 9165 8.10800000 2688626025 2688626025 1.00000000
2.61995554 -0.07592782 -0.60511833 9 2 9166 2.69000000 2688626027 2688626027 -13.00000000
8.12938499 -0.23701428 0.42622402 26 3 9167 8.14400000 2688626029 2688626029 3.00000000
3.13006067 -0.09125772 -0.60868067 6 4 9167 3.19000000 2688626032 2688626032 -11.00000000
8.09757328 -0.23750131 0.70875049 72 5 9168 8.13200000 2688626034 2688626034 5.00000000
3.93323874 -0.11604872 -0.62323493 8 6 9169 3.98400000 2688626036 2688626036 -9.00000000
8.12735939 -0.24121439 0.99835366 87 7 9170 8.19200000 2688626038 2688626038 7.00000000
5.22640467 -0.15602906 -0.64200771 6 8 9171 5.26800000 2688626041 2688626041 -7.00000000
8.20206070 -0.24486427 1.29965758 10 9 9171 8.30800000 2688626043 2688626043 9.00000000
8.07749081 -0.24255641 -0.70700741 17 10 9172 8.11200000 2688626045 2688626045 -5.00000000
8.11511421 -0.24652150 -0.42549133 17 12 9174 8.13000000 2688626050 2688626050 -3.00000000
8.09694481 -0.24879853 -0.14139940 16 14 9176 8.10200000 2688626055 2688626055 -1.00000000
8.16015339 -0.25074080 2.18753862 47 15 9176 8.45200000 2688626057 2688626057 15.00000000
2.22434568 -0.07145733 -0.59631908 4 0 9184 2.30400000 2688626078 2688626078 -15.00000000
8.10254002 -0.26171055 0.14150411 15 1 9185 8.10800000 2688626080 2688626080 1.00000000
2.60993600 -0.08475645 -0.60286885 7 2 9186 2.68000000 2688626082 2688626082 -13.00000000
8.12251949 -0.26519415 0.42591003 26 3 9187 8.13800000 2688626085 2688626085 3.00000000
3.12776089 -0.10211905 -0.60829908 6 4 9187 3.18800000 2688626087 2688626087 -11.00000000
8.09669495 -0.26576567 0.70875049 76 5 9188 8.13200000 2688626089 2688626089 5.00000000
3.92096376 -0.12938668 -0.62135768 8 6 9189 3.97200000 2688626091 2688626091 -9.00000000
8.12249947 -0.26945108 0.99786621 85 7 9190 8.18800000 2688626094 2688626094 7.00000000
5.23376417 -0.17453632 -0.64298266 8 8 9191 5.27600000 2688626096 2688626096 -7.00000000
8.19720745 -0.27336162 1.29903185 10 9 9191 8.30400000 2688626098 2688626098 9.00000000
8.07858562 -0.27081740 -0.70718169 17 10 9192 8.11400000 2688626101 2688626101 -5.00000000
8.11021233 -0.27471182 -0.42528197 17 12 9194 8.12600000 2688626105 2688626105 -3.00000000
8.10402107 -0.27733421 -0.14153902 16 14 9196 8.11000000 2688626110 2688626110 -1.00000000
8.16308975 -0.27935567 2.18857384 49 15 9196 8.45600000 2688626112 2688626112 15.00000000
2.22216582 -0.07876470 -0.59580141 4 0 9203 2.30200000 2688626133 2688626133 -15.00000000
8.10562420 -0.28872046 0.14157392 15 1 9204 8.11200000 2688626135 2688626135 1.00000000
2.60379791 -0.09320171 -0.60151911 9 2 9205 2.67400000 2688626138 2688626138 -13.00000000
8.10961914 -0.29169717 0.42528197 23 3 9206 8.12600000 2688626140 2688626140 3.00000000
3.13721490 -0.11284337 -0.61020714 5 4 9206 3.19800000 2688626142 2688626142 -11.00000000
8.10572433 -0.29297364 0.70962209 76 5 9207 8.14200000 2688626144 2688626144 5.00000000
3.91656518 -0.14224496 -0.62073195 8 6 9208 3.96800000 2688626147 2688626147 -9.00000000
8.11362648 -0.29609519 0.99689120 87 7 9209 8.18000000 2688626149 2688626149 7.00000000
5.22125387 -0.19145469 -0.64152020 8 8 9210 5.26400000 2688626151 2688626151 -7.00000000
8.21199512 -0.30255541 1.30153477 10 9 9211 8.32000000 2688626154 2688626154 9.00000000
6.63214922 -0.24434897 -0.58063155 4 10 9211 6.66200000 2688626156 2688626156 -5.00000000
8.09528542 -0.30108511 -0.42454928 17 12 9213 8.11200000 2688626161 2688626161 -3.00000000
8.10305691 -0.30420658 -0.14153902 16 14 9215 8.11000000 2688626165 2688626165 -1.00000000
8.16984081 -0.30671382 2.19064450 47 15 9215 8.46400000 2688626167 2688626167 15.00000000
2.22766852 -0.08674654 -0.59735435 4 0 9223 2.30800000 2688626188 2688626188 -15.00000000
8.11255932 -0.31732523 0.14171354 21 1 9224 8.12000000 2688626191 2688626191 1.00000000
2.60540414 -0.10236660 -0.60196900 7 2 9225 2.67600000 2688626193 2688626193 -13.00000000
8.10455990 -0.31984574 0.42507264 23 3 9226 8.12200000 2688626195 2688626195 3.00000000
3.12503147 -0.12332909 -0.60791749 6 4 9226 3.18600000 2688626197 2688626197 -11.00000000
8.10863400 -0.32142395 0.70997065 76 5 9227 8.14600000 2688626200 2688626200 5.00000000
3.91999245 -0.15607263 -0.62135768 8 6 9228 3.97200000 2688626202 2688626202 -9.00000000
8.12642765 -0.32497045 0.99859738 90 7 9229 8.19400000 2688626204 2688626204 7.00000000
5.21658707 -0.20951977 -0.64103276 8 8 9230 5.26000000 2688626207 2688626207 -7.00000000
8.20496750 -0.33097991 1.30059612 10 9 9231 8.31400000 2688626209 2688626209 9.00000000
6.59741306 -0.26613280 -0.57766825 16 10 9231 6.62800000 2688626211 2688626211 -5.00000000
8.10216808 -0.32966590 -0.42496797 17 12 9233 8.12000000 2688626216 2688626216 -3.00000000
8.10594177 -0.33265367 -0.14160882 16 14 9235 8.11400000 2688626220 2688626220 -1.00000000
8.17252254 -0.33681482 2.19167972 49 15 9236 8.46800000 2688626223 2688626223 15.00000000
2.22735214 -0.09452202 -0.59735435 4 0 9243 2.30800000 2688626244 2688626244 -15.00000000
8.11140251 -0.34564143 0.14171354 15 1 9244 8.12000000 2688626246 2688626246 1.00000000
2.60892487 -0.11162715 -0.60286885 7 2 9245 2.68000000 2688626248 2688626248 -13.00000000
8.11536694 -0.34864834 0.42570066 21 3 9246 8.13400000 2688626250 2688626250 3.00000000
3.12065911 -0.13406821 -0.60715425 8 4 9246 3.18200000 2688626253 2688626253 -11.00000000
8.10348129 -0.34955469 0.70962209 72 5 9247 8.14200000 2688626255 2688626255 5.00000000
3.92139721 -0.16984048 -0.62167054 4 6 9248 3.97400000 2688626257 2688626257 -9.00000000
8.12326145 -0.35324878 0.99835366 90 7 9249 8.19200000 2688626260 2688626260 7.00000000
5.21185732 -0.22755460 -0.64054525 8 8 9250 5.25600000 2688626262 2688626262 -7.00000000
8.19586849 -0.35927254 1.29934466 10 9 9251 8.30600000 2688626264 2688626264 9.00000000
6.58649111 -0.28872418 -0.57679671 16 10 9251 6.61800000 2688626267 2688626267 -5.00000000
8.09498215 -0.35768124 -0.42465395 17 12 9253 8.11400000 2688626271 2688626271 -3.00000000
8.08675098 -0.36014593 -0.14129469 14 14 9255 8.09600000 2688626276 2688626276 -1.00000000
8.16750050 -0.36374211 2.19064450 47 15 9255 8.46400000 2688626278 2688626278 15.00000000
2.21157002 -0.10158720 -0.59321326 4 0 9263 2.29200000 2688626299 2688626299 -15.00000000
8.10215664 -0.37358499 0.14157392 15 1 9264 8.11200000 2688626301 2688626301 1.00000000
2.60851932 -0.12073331 -0.60286885 7 2 9265 2.68000000 2688626303 2688626303 -13.00000000
8.11210537 -0.37688145 0.42559600 18 3 9266 8.13200000 2688626306 2688626306 3.00000000
3.12017202 -0.14496052 -0.60715425 8 4 9266 3.18200000 2688626308 2688626308 -11.00000000
8.09425068 -0.37746772 0.70892483 72 5 9267 8.13400000 2688626310 2688626310 5.00000000
3.91683412 -0.18334295 -0.62104481 4 6 9268 3.97000000 2688626313 2688626313 -9.00000000
8.12197876 -0.38160208 0.99835366 87 7 9269 8.19200000 2688626315 2688626315 7.00000000
5.22689438 -0.24649408 -0.64249516 8 8 9270 5.27200000 2688626317 2688626317 -7.00000000
8.20245743 -0.38825285 1.30059612 10 9 9271 8.31400000 2688626320 2688626320 9.00000000
6.58942366 -0.31190196 -0.57714534 16 10 9271 6.62200000 2688626322 2688626322 -5.00000000
8.25794983 -0.39232406 1.60699332 3 11 9272 8.42200000 2688626324 2688626324 11.00000000
8.09966850 -0.38622120 -0.42496797 17 12 9273 8.12000000 2688626326 2688626326 -3.00000000
8.09343433 -0.38875553 -0.14143430 14 14 9275 8.10400000 2688626331 2688626331 -1.00000000
8.15267372 -0.39160100 2.18702102 47 15 9275 8.45000000 2688626333 2688626333 15.00000000
2.21506095 -0.10949716 -0.59424853 4 0 9283 2.29600000 2688626354 2688626354 -15.00000000
8.10080242 -0.40186450 0.14157392 15 1 9284 8.11200000 2688626356 2688626356 1.00000000
2.60613561 -0.12974112 -0.60241890 9 2 9285 2.67800000 2688626359 2688626359 -13.00000000
8.12277985 -0.40437591 0.42622402 13 3 9285 8.14400000 2688626361 2688626361 3.00000000
3.12356877 -0.15604699 -0.60791749 6 4 9286 3.18600000 2688626363 2688626363 -11.00000000
8.09885406 -0.40601891 0.70944774 72 5 9287 8.14000000 2688626366 2688626366 5.00000000
3.90235996 -0.19631937 -0.61885476 2 6 9288 3.95600000 2688626368 2688626368 -9.00000000
8.12257957 -0.41005084 0.99859738 92 7 9289 8.19400000 2688626370 2688626370 7.00000000
5.22996712 -0.26493871 -0.64298266 6 8 9290 5.27600000 2688626372 2688626372 -7.00000000
8.20309734 -0.41555101 1.30090904 10 9 9290 8.31600000 2688626375 2688626375 9.00000000
