# .PCD v0.7 - Point Cloud Data file format
VERSION 0.7
FIELDS x y z intensity laser_id azimuth distance_m adjustedtime timestamp vertical_angle
SIZE 4 4 4 1 1 2 8 8 4 8
TYPE F F F U U U F U U F
COUNT 1 1 1 1 1 1 1 1 1 1
WIDTH 527
HEIGHT 1
VIEWPOINT 0 0 0 1 0 0 0
POINTS 527
DATA ascii
-4.74123716 0.55361193 0.25016588 4 3 27666 4.78000000 2688377197 2688377197 3.00000000
-2.61490488 0.30579275 -0.51174974 3 4 27667 2.68200000 2688377199 2688377199 -11.00000000
-3.16458726 0.37119362 -0.50465757 3 6 27669 3.22600000 2688377204 2688377204 -9.00000000
-3.95284748 0.46505228 -0.48869607 6 8 27671 4.01000000 2688377208 2688377208 -7.00000000
-4.72909641 0.55721474 -0.41660446 8 10 27672 4.78000000 2688377213 2688377213 -5.00000000
-4.59963417 0.54358858 -0.24273416 4 12 27674 4.63800000 2688377217 2688377217 -3.00000000
-4.51569414 0.53526682 -0.07937355 5 14 27676 4.54800000 2688377222 2688377222 -1.00000000
-10.06574821 1.19492280 2.71604705 45 15 27677 10.49400000 2688377224 2688377224 15.00000000
-1.94111907 0.23283899 -0.52384973 4 0 27684 2.02400000 2688377245 2688377245 -15.00000000
-4.54065800 0.54545993 0.07982731 6 1 27685 4.57400000 2688377247 2688377247 1.00000000
-2.24242043 0.26977441 -0.52143657 4 2 27686 2.31800000 2688377250 2688377250 -13.00000000
-4.70358276 0.56586450 0.24828178 4 3 27686 4.74400000 2688377252 2688377252 3.00000000
-2.62941480 0.31679732 -0.51480269 3 4 27687 2.69800000 2688377254 2688377254 -11.00000000
-5.36445141 0.64727008 0.47273275 2 5 27688 5.42400000 2688377257 2688377257 5.00000000
-3.14758325 0.38034204 -0.50215465 3 6 27689 3.21000000 2688377259 2688377259 -9.00000000
-3.95317054 0.47908628 -0.48893979 4 8 27691 4.01200000 2688377264 2688377264 -7.00000000
-4.73107815 0.57419908 -0.41695309 8 10 27692 4.78400000 2688377268 2688377268 -5.00000000
-4.59176111 0.55891699 -0.24242015 4 12 27694 4.63200000 2688377273 2688377273 -3.00000000
-4.46814394 0.54545301 -0.07857073 5 14 27696 4.50200000 2688377277 2688377277 -1.00000000
-10.06151581 1.23005152 2.71604705 42 15 27697 10.49400000 2688377280 2688377280 15.00000000
-1.94221187 0.23985010 -0.52436739 4 0 27704 2.02600000 2688377300 2688377300 -15.00000000
-4.50895786 0.55762500 0.07930373 4 1 27705 4.54400000 2688377303 2688377303 1.00000000
-2.22212553 0.27520511 -0.51693749 4 2 27706 2.29800000 2688377305 2688377305 -13.00000000
-4.65797234 0.57687908 0.24597900 2 3 27706 4.70000000 2688377307 2688377307 3.00000000
-2.61660290 0.32452390 -0.51251298 3 4 27707 2.68600000 2688377310 2688377310 -11.00000000
-5.26329947 0.65371299 0.46401718 2 5 27708 5.32400000 2688377312 2688377312 5.00000000
-3.15799809 0.39278975 -0.50403184 3 6 27709 3.22200000 2688377314 2688377314 -9.00000000
-3.96526313 0.49460244 -0.49064597 4 8 27711 4.02600000 2688377319 2688377319 -7.00000000
-4.71322870 0.58873451 -0.41555858 8 10 27712 4.76800000 2688377323 2688377323 -5.00000000
-4.68292522 0.58660948 -0.24733973 2 12 27714 4.72600000 2688377328 2688377328 -3.00000000
-4.47216511 0.56179416 -0.07867545 1 14 27716 4.50800000 2688377333 2688377333 -1.00000000
-10.06504822 1.26437306 2.71811771 45 15 27716 10.50200000 2688377335 2688377335 15.00000000
-1.94902861 0.24760208 -0.52643794 4 0 27724 2.03400000 2688377356 2688377356 -15.00000000
-4.46532631 0.56806123 0.07857073 4 1 27725 4.50200000 2688377358 2688377358 1.00000000
-2.23274994 0.28443769 -0.51963693 4 2 27726 2.31000000 2688377360 2688377360 -13.00000000
-4.58460522 0.58404857 0.24221081 3 3 27726 4.62800000 2688377363 2688377363 3.00000000
-2.61545420 0.33365557 -0.51251298 3 4 27727 2.68600000 2688377365 2688377365 -11.00000000
-5.23529339 0.66879916 0.46175113 7 5 27728 5.29800000 2688377367 2688377367 5.00000000
-3.15660787 0.40381083 -0.50403184 3 6 27729 3.22200000 2688377369 2688377369 -9.00000000
-3.95563650 0.50743049 -0.48967102 4 8 27731 4.01800000 2688377374 2688377374 -7.00000000
-4.72300196 0.60670626 -0.41660446 5 10 27732 4.78000000 2688377379 2688377379 -5.00000000
-4.40076447 0.56843561 -0.07745378 1 14 27736 4.43800000 2688377388 2688377388 -1.00000000
-10.06801033 1.30224609 2.72018814 45 15 27737 10.51000000 2688377390 2688377390 15.00000000
-1.94244981 0.25331450 -0.52488500 5 0 27743 2.02800000 2688377411 2688377411 -15.00000000
-4.41781187 0.57691014 0.07776792 4 1 27744 4.45600000 2688377413 2688377413 1.00000000
-2.23952365 0.29285088 -0.52143657 4 2 27745 2.31800000 2688377416 2688377416 -13.00000000
-4.50134420 0.58941650 0.23791926 1 3 27746 4.54600000 2688377418 2688377418 3.00000000
-2.60460019 0.34105241 -0.51060486 3 4 27746 2.67600000 2688377420 2688377420 -11.00000000
-5.17180681 0.67812663 0.45634747 7 5 27747 5.23600000 2688377422 2688377422 5.00000000
-3.15133429 0.41376197 -0.50340611 3 6 27748 3.21800000 2688377425 2688377425 -9.00000000
-5.73913908 0.75455302 0.71074200 2 7 27749 5.83200000 2688377427 2688377427 7.00000000
-3.93818712 0.51847219 -0.48772112 4 8 27750 4.00200000 2688377429 2688377429 -7.00000000
-4.71306276 0.62132335 -0.41590720 8 10 27751 4.77200000 2688377434 2688377434 -5.00000000
-4.33343697 0.57435548 -0.07630192 1 14 27755 4.37200000 2688377443 2688377443 -1.00000000
-10.04854870 1.33183861 2.71604705 45 15 27755 10.49400000 2688377446 2688377446 15.00000000
-1.93006527 0.25855434 -0.52177918 4 0 27763 2.01600000 2688377466 2688377466 -15.00000000
-4.36424065 0.58541536 0.07686040 3 1 27764 4.40400000 2688377469 2688377469 1.00000000
-2.24235058 0.30118534 -0.52233636 4 2 27765 2.32200000 2688377471 2688377471 -13.00000000
-4.45571184 0.59926862 0.23561648 3 3 27766 4.50200000 2688377473 2688377473 3.00000000
-2.62090540 0.35249731 -0.51403946 3 4 27766 2.69400000 2688377475 2688377475 -11.00000000
-5.10622215 0.68766606 0.45076951 7 5 27767 5.17200000 2688377478 2688377478 5.00000000
-3.16161656 0.42634362 -0.50528330 3 6 27768 3.23000000 2688377480 2688377480 -9.00000000
-5.61450148 0.75811261 0.69563019 2 7 27769 5.70800000 2688377482 2688377482 7.00000000
-3.95995975 0.53540754 -0.49064597 4 8 27770 4.02600000 2688377485 2688377485 -7.00000000
-4.71086550 0.63777125 -0.41590720 8 10 27771 4.77200000 2688377489 2688377489 -5.00000000
-4.28781462 0.58354592 -0.07553402 1 14 27775 4.32800000 2688377499 2688377499 -1.00000000
-10.03977108 1.36813772 2.71501184 45 15 27776 10.49000000 2688377501 2688377501 15.00000000
-1.93680644 0.26634270 -0.52384973 4 0 27783 2.02400000 2688377522 2688377522 -15.00000000
-4.31462669 0.59409934 0.07602268 5 1 27784 4.35600000 2688377524 2688377524 1.00000000
-2.23742461 0.30847844 -0.52143657 4 2 27785 2.31800000 2688377526 2688377526 -13.00000000
-4.42787218 0.61126757 0.23425575 5 3 27786 4.47600000 2688377528 2688377528 3.00000000
-2.62354851 0.36218080 -0.51480269 3 4 27786 2.69800000 2688377531 2688377531 -11.00000000
-5.07221270 0.70112097 0.44798052 10 5 27787 5.14000000 2688377533 2688377533 5.00000000
-3.14445543 0.43521053 -0.50278038 3 6 27788 3.21400000 2688377535 2688377535 -9.00000000
-5.56266356 0.77089381 0.68953675 2 7 27789 5.65800000 2688377538 2688377538 7.00000000
-3.95806670 0.54922712 -0.49064597 6 8 27790 4.02600000 2688377540 2688377540 -7.00000000
-4.71255732 0.65475971 -0.41625583 5 10 27791 4.77600000 2688377545 2688377545 -5.00000000
-4.37766790 0.60978812 -0.23163894 2 12 27793 4.42600000 2688377549 2688377549 -3.00000000
-4.25802469 0.59463757 -0.07504535 5 14 27795 4.30000000 2688377554 2688377554 -1.00000000
-10.03900623 1.40195763 2.71604705 47 15 27795 10.49400000 2688377556 2688377556 15.00000000
-1.94542944 0.27445111 -0.52643794 4 0 27803 2.03400000 2688377577 2688377577 -15.00000000
-4.28084564 0.60468155 0.07546420 5 1 27804 4.32400000 2688377579 2688377579 1.00000000
-2.21703887 0.31355768 -0.51693749 4 2 27805 2.29800000 2688377581 2688377581 -13.00000000
-4.36836290 0.61859900 0.23122026 5 3 27806 4.41800000 2688377584 2688377584 3.00000000
-2.61449289 0.37023541 -0.51327622 3 4 27806 2.69000000 2688377586 2688377586 -11.00000000
-5.05198050 0.71630472 0.44641173 10 5 27807 5.12200000 2688377588 2688377588 5.00000000
-3.14096141 0.44590643 -0.50246751 3 6 27808 3.21200000 2688377591 2688377591 -9.00000000
-5.59138393 0.79477620 0.69343656 2 7 27809 5.69000000 2688377593 2688377593 7.00000000
-3.95416021 0.56276035 -0.49040225 6 8 27810 4.02400000 2688377595 2688377595 -7.00000000
-4.72602272 0.67345423 -0.41765031 5 10 27811 4.79200000 2688377600 2688377600 -5.00000000
-4.32806063 0.61828643 -0.22912681 2 12 27813 4.37800000 2688377604 2688377604 -3.00000000
-4.23216915 0.60609537 -0.07462649 5 14 27815 4.27600000 2688377609 2688377609 -1.00000000
-10.03762436 1.43929148 2.71708226 42 15 27816 10.49800000 2688377611 2688377611 15.00000000
-1.95210743 0.28234640 -0.52850848 5 0 27823 2.04200000 2688377632 2688377632 -15.00000000
-4.24506521 0.61474872 0.07487082 5 1 27824 4.29000000 2688377634 2688377634 1.00000000
-2.21978784 0.32185394 -0.51783735 4 2 27825 2.30200000 2688377637 2688377637 -13.00000000
-4.33059931 0.62867880 0.22933616 5 3 27826 4.38200000 2688377639 2688377639 3.00000000
-2.61707044 0.37992352 -0.51403946 3 4 27826 2.69400000 2688377641 2688377641 -11.00000000
-5.03367615 0.73164243 0.44501722 10 5 27827 5.10600000 2688377644 2688377644 5.00000000
-3.14525008 0.45772114 -0.50340611 3 6 27828 3.21800000 2688377646 2688377646 -9.00000000
-5.58071852 0.81314403 0.69246161 2 7 27829 5.68200000 2688377648 2688377648 7.00000000
-3.94824314 0.57598639 -0.48991477 6 8 27830 4.02000000 2688377651 2688377651 -7.00000000
-4.71970034 0.68937111 -0.41730168 5 10 27831 4.78800000 2688377655 2688377655 -5.00000000
-4.31797123 0.63223302 -0.22870813 4 12 27833 4.37000000 2688377660 2688377660 -3.00000000
-4.18650055 0.61447603 -0.07385858 5 14 27835 4.23200000 2688377664 2688377664 -1.00000000
-10.03661919 1.47313058 2.71811771 47 15 27835 10.50200000 2688377667 2688377667 15.00000000
-1.94155502 0.28774273 -0.52592027 5 0 27843 2.03200000 2688377687 2688377687 -15.00000000
-4.23300314 0.62809551 0.07469630 7 1 27844 4.28000000 2688377690 2688377690 1.00000000
-2.23407173 0.33189136 -0.52143657 4 2 27845 2.31800000 2688377692 2688377692 -13.00000000
-4.30467224 0.64026552 0.22808009 5 3 27846 4.35800000 2688377694 2688377694 3.00000000
-2.60213494 0.38703468 -0.51136810 3 4 27846 2.68000000 2688377697 2688377697 -11.00000000
-5.00547314 0.74539375 0.44275117 10 5 27847 5.08000000 2688377699 2688377699 5.00000000
-3.15926337 0.47102770 -0.50590909 3 6 27848 3.23400000 2688377701 2688377701 -9.00000000
-5.60533285 0.83672243 0.69587398 2 7 27849 5.71000000 2688377704 2688377704 7.00000000
-3.95013499 0.59035164 -0.49040225 6 8 27850 4.02400000 2688377706 2688377706 -7.00000000
-4.72317648 0.70672625 -0.41782463 5 10 27851 4.79400000 2688377710 2688377710 -5.00000000
-4.28611040 0.64285797 -0.22713806 4 12 27853 4.34000000 2688377715 2688377715 -3.00000000
-4.19026279 0.62997782 -0.07396330 7 14 27855 4.23800000 2688377720 2688377720 -1.00000000
-10.02351093 1.50875652 2.71604705 45 15 27856 10.49400000 2688377722 2688377722 15.00000000
-1.93862879 0.29422840 -0.52540267 5 0 27863 2.03000000 2688377743 2688377743 -15.00000000
-4.21101475 0.63986355 0.07434725 7 1 27864 4.26000000 2688377745 2688377745 1.00000000
-2.23867917 0.34056696 -0.52278626 4 2 27865 2.32400000 2688377747 2688377747 -13.00000000
-4.29056406 0.65348339 0.22745207 7 3 27866 4.34600000 2688377750 2688377750 3.00000000
-2.60270905 0.39641106 -0.51174974 3 4 27866 2.68200000 2688377752 2688377752 -11.00000000
-4.96935701 0.75775582 0.43978786 9 5 27867 5.04600000 2688377754 2688377754 5.00000000
-3.14978886 0.48086026 -0.50465757 3 6 27868 3.22600000 2688377757 2688377757 -9.00000000
-5.60237789 0.85628361 0.69587398 2 7 27869 5.71000000 2688377759 2688377759 7.00000000
-3.93235230 0.60173446 -0.48845232 6 8 27870 4.00800000 2688377761 2688377761 -7.00000000
-5.22485018 0.80044776 -0.46244836 9 10 27871 5.30600000 2688377766 2688377766 -5.00000000
-4.26607323 0.65508711 -0.22619601 6 12 27873 4.32200000 2688377770 2688377770 -3.00000000
-4.17025042 0.64186293 -0.07364915 10 14 27875 4.22000000 2688377775 2688377775 -1.00000000
-10.01272488 1.54110575 2.71449423 47 15 27875 10.48800000 2688377777 2688377777 15.00000000
-1.93759000 0.30099368 -0.52540267 5 0 27883 2.03000000 2688377798 2688377798 -15.00000000
-4.19097233 0.65179306 0.07403311 7 1 27884 4.24200000 2688377800 2688377800 1.00000000
-2.23170018 0.34747991 -0.52143657 4 2 27885 2.31800000 2688377803 2688377803 -13.00000000
-4.29220390 0.66907150 0.22766142 13 3 27886 4.35000000 2688377805 2688377805 3.00000000
-2.61682820 0.40791285 -0.51480269 3 4 27886 2.69800000 2688377807 2688377807 -11.00000000
-4.96471310 0.77479029 0.43961358 9 5 27887 5.04400000 2688377810 2688377810 5.00000000
-3.14418769 0.49124229 -0.50403184 3 6 27888 3.22200000 2688377812 2688377812 -9.00000000
-5.59935474 0.87583435 0.69587398 2 7 27889 5.71000000 2688377814 2688377814 7.00000000
-3.94395614 0.61760706 -0.49015850 6 8 27890 4.02200000 2688377816 2688377816 -7.00000000
-5.22399282 0.81898957 -0.46262267 9 10 27891 5.30800000 2688377821 2688377821 -5.00000000
-4.22232628 0.66346389 -0.22399789 6 12 27893 4.28000000 2688377826 2688377826 -3.00000000
-4.15613222 0.65454930 -0.07343972 14 14 27895 4.20800000 2688377830 2688377830 -1.00000000
-10.01273441 1.57869649 2.71604705 42 15 27896 10.49400000 2688377833 2688377833 15.00000000
-1.94415915 0.30896813 -0.52747321 5 0 27903 2.03800000 2688377853 2688377853 -15.00000000
-4.18274689 0.66547573 0.07392839 7 1 27904 4.23600000 2688377856 2688377856 1.00000000
-2.22277570 0.35404176 -0.51963693 4 2 27905 2.31000000 2688377858 2688377858 -13.00000000
-4.28195286 0.68279201 0.22724272 24 3 27906 4.34200000 2688377860 2688377860 3.00000000
-2.60569453 0.41549906 -0.51289457 3 4 27906 2.68800000 2688377863 2688377863 -11.00000000
-4.94230366 0.78897482 0.43787044 9 5 27907 5.02400000 2688377865 2688377865 5.00000000
-3.13465142 0.50096762 -0.50278038 3 6 27908 3.21400000 2688377867 2688377867 -9.00000000
-5.59626341 0.89537442 0.69587398 2 7 27909 5.71000000 2688377869 2688377869 7.00000000
-3.95353699 0.63325399 -0.49162093 4 8 27910 4.03400000 2688377872 2688377872 -7.00000000
-5.24667645 0.84132063 -0.46488872 9 10 27911 5.33400000 2688377876 2688377876 -5.00000000
-4.21209717 0.67693084 -0.22357920 8 12 27913 4.27200000 2688377881 2688377881 -3.00000000
-4.14987373 0.66841698 -0.07336992 17 14 27915 4.20400000 2688377886 2688377886 -1.00000000
-10.00553608 1.61158407 2.71552944 47 15 27915 10.49200000 2688377888 2688377888 15.00000000
-1.93734825 0.31482303 -0.52592027 4 0 27923 2.03200000 2688377909 2688377909 -15.00000000
-4.19026756 0.68167764 0.07410292 7 1 27924 4.24600000 2688377911 2688377911 1.00000000
-2.22152638 0.36179852 -0.51963693 4 2 27925 2.31000000 2688377913 2688377913 -13.00000000
-4.24997473 0.69291383 0.22567265 5 3 27926 4.31200000 2688377916 2688377916 3.00000000
-2.60422826 0.42459211 -0.51289457 3 4 27926 2.68800000 2688377918 2688377918 -11.00000000
-4.92378855 0.80365425 0.43647596 9 5 27927 5.00800000 2688377920 2688377920 5.00000000
-3.13678265 0.51254362 -0.50340611 3 6 27928 3.21800000 2688377922 2688377922 -9.00000000
-5.59310389 0.91490358 0.69587398 2 7 27929 5.71000000 2688377925 2688377925 7.00000000
-3.94738436 0.64640898 -0.49113345 6 8 27930 4.03000000 2688377927 2688377927 -7.00000000
-5.23977566 0.85898519 -0.46454009 9 10 27931 5.33000000 2688377932 2688377932 -5.00000000
-4.19985437 0.69001073 -0.22305584 8 12 27933 4.26200000 2688377936 2688377936 -3.00000000
-4.13962269 0.68159914 -0.07323030 24 14 27935 4.19600000 2688377941 2688377941 -1.00000000
-9.99985027 1.64650011 2.71552944 45 15 27935 10.49200000 2688377943 2688377943 15.00000000
-1.93623757 0.32158372 -0.52592027 4 0 27943 2.03200000 2688377964 2688377964 -15.00000000
-4.20758867 0.69958007 0.07445197 5 1 27944 4.26600000 2688377966 2688377966 1.00000000
-2.22793913 0.37083074 -0.52143657 4 2 27945 2.31800000 2688377969 2688377969 -13.00000000
-4.27314138 0.71201223 0.22703338 7 3 27946 4.33800000 2688377971 2688377971 3.00000000
-2.60466671 0.43400264 -0.51327622 3 4 27946 2.69000000 2688377973 2688377973 -11.00000000
-4.91112709 0.81919754 0.43560439 9 5 27947 4.99800000 2688377975 2688377975 5.00000000
-3.14276791 0.52479130 -0.50465757 3 6 27948 3.22600000 2688377978 2688377978 -9.00000000
-3.95097756 0.66116691 -0.49186468 6 8 27950 4.03600000 2688377982 2688377982 -7.00000000
-5.22692013 0.87562430 -0.46366856 9 10 27951 5.32000000 2688377987 2688377987 -5.00000000
-4.20332909 0.70565873 -0.22336987 12 12 27953 4.26800000 2688377992 2688377992 -3.00000000
-4.12144232 0.69339085 -0.07295106 31 14 27955 4.18000000 2688377996 2688377996 -1.00000000
-9.99023151 1.68075502 2.71449423 42 15 27955 10.48800000 2688377998 2688377998 15.00000000
-1.92748463 0.32704782 -0.52384973 4 0 27963 2.02400000 2688378019 2688378019 -15.00000000
-4.20117807 0.71359330 0.07438216 5 1 27964 4.26200000 2688378022 2688378022 1.00000000
-2.24584270 0.38187209 -0.52593559 4 2 27965 2.33800000 2688378024 2688378024 -13.00000000
-4.28835058 0.72994024 0.22797543 15 3 27966 4.35600000 2688378026 2688378026 3.00000000
-2.59345889 0.44144478 -0.51136810 3 4 27966 2.68000000 2688378028 2688378028 -11.00000000
-4.89448881 0.83399290 0.43438423 9 5 27967 4.98400000 2688378031 2688378031 5.00000000
-3.15260053 0.53775132 -0.50653481 3 6 27968 3.23800000 2688378033 2688378033 -9.00000000
-3.94081879 0.67361647 -0.49088973 6 8 27970 4.02800000 2688378038 2688378038 -7.00000000
-5.22186804 0.89352828 -0.46349424 9 10 27971 5.31800000 2688378042 2688378042 -5.00000000
-4.20674610 0.72133946 -0.22368388 20 12 27973 4.27400000 2688378047 2688378047 -3.00000000
-4.11505508 0.70709580 -0.07288125 35 14 27975 4.17600000 2688378051 2688378051 -1.00000000
-9.97448444 1.71572232 2.71190596 42 15 27976 10.47800000 2688378054 2688378054 15.00000000
-1.92823482 0.33410382 -0.52436739 4 0 27983 2.02600000 2688378075 2688378075 -15.00000000
-4.19078016 0.72688681 0.07424254 5 1 27984 4.25400000 2688378077 2688378077 1.00000000
-2.22913599 0.38704225 -0.52233636 4 2 27985 2.32200000 2688378079 2688378079 -13.00000000
-4.27593756 0.74319488 0.22745207 7 3 27986 4.34600000 2688378081 2688378081 3.00000000
-2.61124468 0.45385686 -0.51518428 3 4 27986 2.70000000 2688378084 2688378084 -11.00000000
-4.87977076 0.84902364 0.43333834 9 5 27987 4.97200000 2688378086 2688378086 5.00000000
-3.14291978 0.54739690 -0.50528330 3 6 27988 3.23000000 2688378088 2688378088 -9.00000000
-7.14769030 1.24618626 0.89086491 2 7 27989 7.31000000 2688378091 2688378091 7.00000000
-3.94430995 0.68839228 -0.49162093 6 8 27990 4.03400000 2688378093 2688378093 -7.00000000
-5.22656775 0.91312212 -0.46419150 9 10 27991 5.32600000 2688378098 2688378098 -5.00000000
-4.18059444 0.73188633 -0.22242782 26 12 27993 4.25000000 2688378102 2688378102 -3.00000000
-4.11453152 0.72180128 -0.07291616 38 14 27995 4.17800000 2688378107 2688378107 -1.00000000
-9.96303177 1.74778807 2.71035314 45 15 27995 10.47200000 2688378109 2688378109 15.00000000
-1.93656850 0.34251487 -0.52695560 4 0 28003 2.03600000 2688378130 2688378130 -15.00000000
-4.19215584 0.74220818 0.07431234 5 1 28004 4.25800000 2688378132 2688378132 1.00000000
-4.11207056 0.72876960 -0.96414024 5 2 28005 4.28600000 2688378134 2688378134 -13.00000000
-4.27725029 0.75881392 0.22766142 7 3 28006 4.35000000 2688378137 2688378137 3.00000000
-2.60964465 0.46296906 -0.51518428 3 4 28006 2.70000000 2688378139 2688378139 -11.00000000
-4.87873888 0.86640042 0.43351266 9 5 28007 4.97400000 2688378141 2688378141 5.00000000
-3.14099002 0.55836439 -0.50528330 3 6 28008 3.23000000 2688378144 2688378144 -9.00000000
-3.93015695 0.70006758 -0.49015850 4 8 28010 4.02200000 2688378148 2688378148 -7.00000000
-5.24100161 0.93450832 -0.46576029 9 10 28011 5.34400000 2688378153 2688378153 -5.00000000
-4.16425133 0.74401587 -0.22169511 28 12 28013 4.23600000 2688378157 2688378157 -3.00000000
-4.11395550 0.73651165 -0.07295106 54 14 28015 4.18000000 2688378162 2688378162 -1.00000000
-9.96257496 1.78357613 2.71190596 42 15 28015 10.47800000 2688378164 2688378164 15.00000000
-1.93726218 0.34961578 -0.52747321 4 0 28023 2.03800000 2688378185 2688378185 -15.00000000
-4.18166780 0.75541508 0.07417273 5 1 28024 4.25000000 2688378187 2688378187 1.00000000
-4.11525440 0.74415928 -0.96548992 5 2 28025 4.29200000 2688378190 2688378190 -13.00000000
-4.26488352 0.77121663 0.22713806 7 3 28025 4.34000000 2688378192 2688378192 3.00000000
-2.60414886 0.47137621 -0.51442105 3 4 28026 2.69600000 2688378194 2688378194 -11.00000000
-4.87960577 0.88413560 0.43386129 9 5 28027 4.97800000 2688378197 2688378197 5.00000000
-3.12735987 0.56720996 -0.50340611 3 6 28028 3.21800000 2688378199 2688378199 -9.00000000
-3.92768931 0.71378213 -0.49015850 4 8 28030 4.02200000 2688378203 2688378203 -7.00000000
-5.24162817 0.95351034 -0.46610892 9 10 28031 5.34800000 2688378208 2688378208 -5.00000000
-4.16555834 0.75926358 -0.22190446 32 12 28033 4.24000000 2688378213 2688378213 -3.00000000
-9.81551361 1.79086089 2.30349874 5 13 28034 10.24000000 2688378215 2688378215 13.00000000
-4.10742521 0.75014901 -0.07288125 66 14 28035 4.17600000 2688378217 2688378217 -1.00000000
-9.95438862 1.81799412 2.71138835 45 15 28035 10.47600000 2688378220 2688378220 15.00000000
-1.93223011 0.35567647 -0.52643794 4 0 28043 2.03400000 2688378240 2688378240 -15.00000000
-4.20260477 0.77435547 0.07459158 5 1 28044 4.27400000 2688378243 2688378243 1.00000000
-4.10304976 0.75675237 -0.96324039 5 2 28045 4.28200000 2688378245 2688378245 -13.00000000
-4.26006460 0.78648043 0.22703338 7 3 28046 4.33800000 2688378247 2688378247 3.00000000
-2.58704257 0.47761211 -0.51136810 3 4 28046 2.68000000 2688378250 2688378250 -11.00000000
-4.85493851 0.89718056 0.43194386 9 5 28047 4.95600000 2688378252 2688378252 5.00000000
-3.14866996 0.58243471 -0.50716054 3 6 28048 3.24200000 2688378254 2688378254 -9.00000000
-7.13424873 1.32096696 0.89086491 2 7 28049 7.31000000 2688378256 2688378256 7.00000000
-3.94078875 0.73038203 -0.49210840 4 8 28050 4.03800000 2688378259 2688378259 -7.00000000
-5.22455502 0.96925724 -0.46488872 9 10 28051 5.33400000 2688378263 2688378263 -5.00000000
-4.16091919 0.77343446 -0.22179978 24 12 28053 4.23800000 2688378268 2688378268 -3.00000000
-9.74981117 1.81406200 2.28955173 4 13 28054 10.17800000 2688378270 2688378270 13.00000000
-4.08905458 0.76155299 -0.07260201 71 14 28055 4.16000000 2688378273 2688378273 -1.00000000
-9.94765854 1.85446656 2.71138835 45 15 28056 10.47600000 2688378275 2688378275 15.00000000
-1.92528069 0.36134997 -0.52488500 4 0 28063 2.02800000 2688378296 2688378296 -15.00000000
-4.18218803 0.78569764 0.07427744 5 1 28064 4.25600000 2688378298 2688378298 1.00000000
-4.10804415 0.77251065 -0.96504003 5 2 28065 4.29000000 2688378300 2688378300 -13.00000000
-4.25939560 0.80097210 0.22713806 5 3 28065 4.34000000 2688378303 2688378303 3.00000000
-2.58535957 0.48663965 -0.51136810 5 4 28066 2.68000000 2688378305 2688378305 -11.00000000
-4.84002972 0.91190863 0.43089798 9 5 28067 4.94400000 2688378307 2688378307 5.00000000
-3.12720609 0.58976120 -0.50403184 3 6 28068 3.22200000 2688378309 2688378309 -9.00000000
-3.93431401 0.74339634 -0.49162093 6 8 28070 4.03400000 2688378314 2688378314 -7.00000000
-5.22701263 0.98859924 -0.46541166 9 10 28071 5.34000000 2688378319 2688378319 -5.00000000
-4.16408110 0.78906965 -0.22211380 30 12 28073 4.24400000 2688378323 2688378323 -3.00000000
-4.08833599 0.77619481 -0.07263692 82 14 28075 4.16200000 2688378328 2688378328 -1.00000000
-9.92627048 1.88456130 2.70724726 45 15 28075 10.46000000 2688378330 2688378330 15.00000000
-1.92780256 0.36879423 -0.52592027 4 0 28083 2.03200000 2688378351 2688378351 -15.00000000
-4.18727636 0.80179572 0.07441706 5 1 28084 4.26400000 2688378353 2688378353 1.00000000
-4.11106396 0.78794616 -0.96638972 5 2 28085 4.29600000 2688378355 2688378355 -13.00000000
-4.24480438 0.81357950 0.22651002 5 3 28085 4.32800000 2688378358 2688378358 3.00000000
-2.59135747 0.49714088 -0.51289457 3 4 28086 2.68800000 2688378360 2688378360 -11.00000000
-4.84268665 0.92992508 0.43142092 9 5 28087 4.95000000 2688378362 2688378362 5.00000000
-3.12512827 0.60067362 -0.50403184 3 6 28088 3.22200000 2688378365 2688378365 -9.00000000
-3.94144154 0.75900197 -0.49283963 6 8 28090 4.04400000 2688378369 2688378369 -7.00000000
-5.22744274 1.00759304 -0.46576029 9 10 28091 5.34400000 2688378374 2688378374 -5.00000000
-4.15149593 0.80170667 -0.22159044 34 12 28093 4.23400000 2688378379 2688378379 -3.00000000
-4.10523415 0.79425949 -0.07298596 80 14 28095 4.18200000 2688378383 2688378383 -1.00000000
-9.91963100 1.91919899 2.70724726 42 15 28095 10.46000000 2688378385 2688378385 15.00000000
-1.93605018 0.37703142 -0.52850848 4 0 28102 2.04200000 2688378406 2688378406 -15.00000000
-4.16496658 0.81185091 0.07406801 5 1 28103 4.24400000 2688378408 2688378408 1.00000000
-4.07591295 0.79523069 -0.95874137 5 2 28104 4.26200000 2688378411 2688378411 -13.00000000
-4.22233629 0.82456362 0.22546330 7 3 28105 4.30800000 2688378413 2688378413 3.00000000
-2.60896325 0.50949425 -0.51671076 3 4 28105 2.70800000 2688378415 2688378415 -11.00000000
-4.84348726 0.94674337 0.43176955 9 5 28106 4.95400000 2688378418 2688378418 5.00000000
-3.12699652 0.61179221 -0.50465757 3 6 28107 3.22600000 2688378420 2688378420 -9.00000000
-3.93500686 0.77130443 -0.49235216 6 8 28109 4.04000000 2688378425 2688378425 -7.00000000
-5.23580360 1.02722383 -0.46680614 9 10 28110 5.35600000 2688378429 2688378429 -5.00000000
-4.13901615 0.81354314 -0.22106709 36 12 28112 4.22400000 2688378434 2688378434 -3.00000000
-4.09472990 0.80632317 -0.07284635 84 14 28114 4.17400000 2688378438 2688378438 -1.00000000
-9.18504333 1.81035924 2.50847411 15 15 28115 9.69200000 2688378441 2688378441 15.00000000
-1.93851209 0.38453898 -0.52954376 4 0 28122 2.04600000 2688378461 2688378461 -15.00000000
-4.17191458 0.82833159 0.07424254 5 1 28123 4.25400000 2688378464 2688378464 1.00000000
-4.08266926 0.81135267 -0.96099091 8 2 28124 4.27200000 2688378466 2688378466 -13.00000000
-4.19803047 0.83427852 0.22431190 14 3 28124 4.28600000 2688378468 2688378468 3.00000000
-2.60331798 0.51783210 -0.51594752 3 4 28125 2.70400000 2688378471 2688378471 -11.00000000
-4.85773945 0.96714580 0.43333834 9 5 28126 4.97200000 2688378473 2688378473 5.00000000
-3.12871647 0.62347579 -0.50528330 3 6 28127 3.23000000 2688378475 2688378475 -9.00000000
-3.92645049 0.78386956 -0.49162093 4 8 28129 4.03400000 2688378480 2688378480 -7.00000000
-5.23609352 1.04627478 -0.46715477 9 10 28130 5.36000000 2688378485 2688378485 -5.00000000
-4.14594316 0.82994622 -0.22159044 32 12 28132 4.23400000 2688378489 2688378489 -3.00000000
-4.08404779 0.81903869 -0.07270672 92 14 28134 4.16600000 2688378494 2688378494 -1.00000000
-9.90409756 1.98802352 2.70672965 35 15 28135 10.45800000 2688378496 2688378496 15.00000000
-1.93147719 0.39015579 -0.52799088 4 0 28142 2.04000000 2688378517 2688378517 -15.00000000
-4.17683792 0.84447438 0.07438216 5 1 28143 4.26200000 2688378519 2688378519 1.00000000
-4.08745241 0.82714498 -0.96279049 6 2 28144 4.28000000 2688378521 2688378521 -13.00000000
-4.19313526 0.84853113 0.22420724 15 3 28144 4.28400000 2688378524 2688378524 3.00000000
-2.59379768 0.52535731 -0.51442105 3 4 28145 2.69600000 2688378526 2688378526 -11.00000000
-4.86214447 0.98568004 0.43403560 9 5 28146 4.98000000 2688378528 2688378528 5.00000000
-3.14200854 0.63753581 -0.50778627 3 6 28147 3.24600000 2688378531 2688378531 -9.00000000
-3.93341684 0.79954779 -0.49283963 6 8 28149 4.04400000 2688378535 2688378535 -7.00000000
-5.22850466 1.06375134 -0.46680614 9 10 28150 5.35600000 2688378540 2688378540 -5.00000000
-4.13910675 0.84361547 -0.22138110 22 12 28152 4.23000000 2688378544 2688378544 -3.00000000
-4.06940794 0.83088946 -0.07249729 94 14 28154 4.15400000 2688378549 2688378549 -1.00000000
-1.92442679 0.39572820 -0.52643794 4 0 28162 2.03400000 2688378572 2688378572 -15.00000000
-4.16211271 0.85663038 0.07417273 5 1 28163 4.25000000 2688378574 2688378574 1.00000000
-4.08072281 0.84062141 -0.96189070 6 2 28164 4.27600000 2688378577 2688378577 -13.00000000
-4.19210386 0.86356574 0.22431190 17 3 28164 4.28600000 2688378579 2688378579 3.00000000
-2.59579372 0.53520107 -0.51518428 3 4 28165 2.70000000 2688378581 2688378581 -11.00000000
-4.85086918 1.00103545 0.43333834 9 5 28166 4.97200000 2688378584 2688378584 5.00000000
-3.12815666 0.64610213 -0.50590909 3 6 28167 3.23400000 2688378586 2688378586 -9.00000000
-3.93060207 0.81327313 -0.49283963 6 8 28169 4.04400000 2688378591 2688378591 -7.00000000
-5.22866154 1.08280373 -0.46715477 6 10 28170 5.36000000 2688378595 2688378595 -5.00000000
-4.14591455 0.86008704 -0.22190446 18 12 28172 4.24000000 2688378600 2688378600 -3.00000000
-4.06060934 0.84386861 -0.07239258 100 14 28174 4.14800000 2688378604 2688378604 -1.00000000
-8.49981976 1.76796496 2.32626557 9 15 28175 8.98800000 2688378607 2688378607 15.00000000
-1.93059719 0.40402615 -0.52850848 4 0 28182 2.04200000 2688378627 2688378627 -15.00000000
-4.15518284 0.87033373 0.07410292 5 1 28183 4.24600000 2688378630 2688378630 1.00000000
-4.07585621 0.85446084 -0.96144080 5 2 28184 4.27400000 2688378632 2688378632 -13.00000000
-4.19101858 0.87860346 0.22441658 14 3 28184 4.28800000 2688378634 2688378634 3.00000000
-2.60543823 0.54667771 -0.51747400 3 4 28185 2.71200000 2688378637 2688378637 -11.00000000
-4.85709429 1.02000940 0.43420991 9 5 28186 4.98200000 2688378639 2688378639 5.00000000
-3.11814976 0.65539223 -0.50465757 3 6 28187 3.22600000 2688378641 2688378641 -9.00000000
-3.92773914 0.82698852 -0.49283963 6 8 28189 4.04400000 2688378646 2688378646 -7.00000000
-5.22485018 1.10104859 -0.46715477 6 10 28190 5.36000000 2688378650 2688378650 -5.00000000
-4.13702440 0.87331617 -0.22159044 14 12 28192 4.23400000 2688378655 2688378655 -3.00000000
-4.07133389 0.86093366 -0.07263692 94 14 28194 4.16200000 2688378660 2688378660 -1.00000000
-8.29923439 1.75497508 2.27294874 9 15 28194 8.78200000 2688378662 2688378662 15.00000000
-1.93862259 0.41277429 -0.53109670 4 0 28202 2.05200000 2688378683 2688378683 -15.00000000
-4.15211964 0.88483274 0.07410292 5 1 28203 4.24600000 2688378685 2688378685 1.00000000
-4.06903696 0.86787003 -0.96054101 5 2 28204 4.27000000 2688378687 2688378687 -13.00000000
-4.18597269 0.89281082 0.22431190 14 3 28204 4.28600000 2688378690 2688378690 3.00000000
-2.61503410 0.55822825 -0.51976371 3 4 28205 2.72400000 2688378692 2688378692 -11.00000000
-4.86324644 1.03903902 0.43508148 9 5 28206 4.99200000 2688378694 2688378694 5.00000000
-3.12743330 0.66875100 -0.50653481 3 6 28207 3.23800000 2688378696 2688378696 -9.00000000
-3.94035697 0.84402007 -0.49478954 6 8 28209 4.06000000 2688378701 2688378701 -7.00000000
-5.21318245 1.11760950 -0.46645755 6 10 28210 5.35200000 2688378706 2688378706 -5.00000000
-4.12809277 0.88649374 -0.22127642 10 12 28212 4.22800000 2688378710 2688378710 -3.00000000
-4.06634903 0.87471944 -0.07260201 100 14 28214 4.16000000 2688378715 2688378715 -1.00000000
-8.28519154 1.78375518 2.27087831 9 15 28215 8.77400000 2688378717 2688378717 15.00000000
-1.94101942 0.42001790 -0.53213197 4 0 28221 2.05600000 2688378738 2688378738 -15.00000000
-4.14916229 0.89859682 0.07410292 5 1 28222 4.24600000 2688378740 2688378740 1.00000000
-4.05851889 0.87970740 -0.95874137 5 2 28223 4.26200000 2688378743 2688378743 -13.00000000
-4.16916800 0.90445316 0.22357920 14 3 28224 4.27200000 2688378745 2688378745 3.00000000
-2.59781957 0.56356716 -0.51671076 3 4 28224 2.70800000 2688378747 2688378747 -11.00000000
-4.85393286 1.05389214 0.43455854 9 5 28225 4.98600000 2688378749 2688378749 5.00000000
-3.11747718 0.67744040 -0.50528330 3 6 28226 3.23000000 2688378752 2688378752 -9.00000000
-3.91813970 0.85286003 -0.49235216 6 8 28228 4.04000000 2688378756 2688378756 -7.00000000
-5.24448872 1.14252460 -0.46959513 10 10 28229 5.38800000 2688378761 2688378761 -5.00000000
-4.12122774 0.89932644 -0.22106709 8 12 28231 4.22400000 2688378766 2688378766 -3.00000000
-4.06537962 0.88862616 -0.07263692 100 14 28233 4.16200000 2688378770 2688378770 -1.00000000
-9.87619591 2.15877652 2.70880008 45 15 28233 10.46600000 2688378773 2688378773 15.00000000
-1.91690099 0.42180875 -0.52592027 4 0 28241 2.03200000 2688378793 2688378793 -15.00000000
-4.13818884 0.91135424 0.07396330 11 1 28242 4.23800000 2688378796 2688378796 1.00000000
-4.07445383 0.89806354 -0.96324039 5 2 28243 4.28200000 2688378798 2688378798 -13.00000000
-4.17183638 0.92029148 0.22389323 14 3 28244 4.27800000 2688378800 2688378800 3.00000000
-2.58816791 0.57094014 -0.51518428 3 4 28244 2.70000000 2688378802 2688378802 -11.00000000
-4.84827900 1.07039964 0.43438423 9 5 28245 4.98400000 2688378805 2688378805 5.00000000
-3.12666655 0.69087553 -0.50716054 3 6 28246 3.24200000 2688378807 2688378807 -9.00000000
-3.92289162 0.86824757 -0.49332711 6 8 28248 4.04800000 2688378812 2688378812 -7.00000000
-5.22490692 1.15737724 -0.46820065 9 10 28249 5.37200000 2688378816 2688378816 -5.00000000
-4.12586260 0.91543722 -0.22148576 8 12 28251 4.23200000 2688378821 2688378821 -3.00000000
-4.05054045 0.90020859 -0.07242749 100 14 28253 4.15000000 2688378826 2688378826 -1.00000000
-9.85124493 2.19118500 2.70414138 47 15 28254 10.44800000 2688378828 2688378828 15.00000000
-1.92665315 0.43136418 -0.52902615 4 0 28262 2.04400000 2688378849 2688378849 -15.00000000
-4.11335659 0.92170572 0.07357935 7 1 28263 4.21600000 2688378851 2688378851 1.00000000
-4.06923342 0.91256469 -0.96279049 6 2 28264 4.28000000 2688378853 2688378853 -13.00000000
-4.16648674 0.93513846 0.22378854 12 3 28265 4.27600000 2688378855 2688378855 3.00000000
-2.58605790 0.58042240 -0.51518428 3 4 28265 2.70000000 2688378858 2688378858 -11.00000000
-4.84043550 1.08728898 0.43403560 9 5 28266 4.98000000 2688378860 2688378860 5.00000000
-3.13567686 0.70493031 -0.50903773 3 6 28267 3.25400000 2688378862 2688378862 -9.00000000
-3.92549276 0.88392812 -0.49405831 4 8 28269 4.05400000 2688378867 2688378867 -7.00000000
-5.22062969 1.17651975 -0.46820065 9 10 28270 5.37200000 2688378872 2688378872 -5.00000000
-4.12247992 0.93055314 -0.22148576 8 12 28272 4.23200000 2688378876 2688378876 -3.00000000
-4.05501556 0.91681248 -0.07256711 100 14 28274 4.15800000 2688378881 2688378881 -1.00000000
-9.83599949 2.22385478 2.70207071 45 15 28274 10.44000000 2688378883 2688378883 15.00000000
-1.92513561 0.43808684 -0.52902615 4 0 28282 2.04400000 2688378904 2688378904 -15.00000000
-4.08866644 0.93117380 0.07319539 8 1 28283 4.19400000 2688378906 2688378906 1.00000000
-4.05842304 0.92503113 -0.96099091 13 2 28284 4.27200000 2688378908 2688378908 -13.00000000
-4.16514444 0.95012069 0.22389323 12 3 28285 4.27800000 2688378911 2688378911 3.00000000
-2.59932876 0.59293890 -0.51823723 3 4 28285 2.71600000 2688378913 2688378913 -11.00000000
-4.84243774 1.10550892 0.43455854 9 5 28286 4.98600000 2688378915 2688378915 5.00000000
-3.10238504 0.70883167 -0.50403184 3 6 28287 3.22200000 2688378918 2688378918 -9.00000000
-3.92625356 0.89851093 -0.49454579 4 8 28289 4.05800000 2688378922 2688378922 -7.00000000
-5.22620153 1.19695997 -0.46907219 9 10 28290 5.38200000 2688378927 2688378927 -5.00000000
-4.12115288 0.94538420 -0.22159044 8 12 28292 4.23400000 2688378931 2688378931 -3.00000000
-4.05179071 0.93096149 -0.07256711 100 14 28294 4.15800000 2688378936 2688378936 -1.00000000
-9.83531284 2.26162243 2.70414138 45 15 28295 10.44800000 2688378938 2688378938 15.00000000
-1.91802549 0.44316369 -0.52747321 4 0 28301 2.03800000 2688378959 2688378959 -15.00000000
-4.10114241 0.94833130 0.07347463 17 1 28302 4.21000000 2688378961 2688378961 1.00000000
-4.05153608 0.93760556 -0.96009111 17 2 28303 4.26800000 2688378964 2688378964 -13.00000000
-4.16391659 0.96437824 0.22399789 10 3 28304 4.28000000 2688378966 2688378966 3.00000000
-2.60117340 0.60244125 -0.51900047 3 4 28304 2.72000000 2688378968 2688378968 -11.00000000
-4.83874512 1.12156093 0.43455854 9 5 28305 4.98600000 2688378971 2688378971 5.00000000
-3.10386610 0.72000837 -0.50465757 3 6 28306 3.22600000 2688378973 2688378973 -9.00000000
-3.92518592 0.91197515 -0.49478954 4 8 28308 4.06000000 2688378978 2688378978 -7.00000000
-5.22802544 1.21563780 -0.46959513 10 10 28309 5.38800000 2688378982 2688378982 -5.00000000
-4.10826921 0.95678014 -0.22106709 6 12 28311 4.22400000 2688378987 2688378987 -3.00000000
-4.05647087 0.94620961 -0.07270672 100 14 28313 4.16600000 2688378991 2688378991 -1.00000000
-9.84321022 2.29602051 2.70828247 45 15 28313 10.46400000 2688378994 2688378994 15.00000000
-1.92775130 0.45250496 -0.53057903 4 0 28321 2.05000000 2688379014 2688379014 -15.00000000
-4.08612680 0.95989734 0.07326520 19 1 28322 4.19800000 2688379017 2688379017 1.00000000
-4.05203247 0.95263427 -0.96099091 15 2 28323 4.27200000 2688379019 2688379019 -13.00000000
-4.15469217 0.97753483 0.22368388 10 3 28324 4.27400000 2688379021 2688379021 3.00000000
-2.59714365 0.61106771 -0.51861882 3 4 28324 2.71800000 2688379024 2688379024 -11.00000000
-4.84255838 1.14027107 0.43525577 9 5 28325 4.99400000 2688379026 2688379026 5.00000000
-3.11287022 0.73355705 -0.50653481 3 6 28326 3.23800000 2688379028 2688379028 -9.00000000
-3.91038656 0.92293507 -0.49332711 4 8 28328 4.04800000 2688379033 2688379033 -7.00000000
-5.22181129 1.23342156 -0.46942082 10 10 28329 5.38600000 2688379037 2688379037 -5.00000000
-4.09129906 0.96789616 -0.22033438 14 12 28331 4.21000000 2688379042 2688379042 -3.00000000
-4.04146862 0.95759732 -0.07249729 100 14 28333 4.15400000 2688379047 2688379047 -1.00000000
-9.83472919 2.33208227 2.70828247 45 15 28334 10.46400000 2688379049 2688379049 15.00000000
-1.92044258 0.45822242 -0.52902615 4 0 28342 2.04400000 2688379070 2688379070 -15.00000000
-4.08647108 0.97579616 0.07333501 17 1 28343 4.20200000 2688379072 2688379072 1.00000000
-4.04851389 0.96747935 -0.96099091 16 2 28344 4.27200000 2688379074 2688379074 -13.00000000
-4.15302372 0.99322057 0.22378854 8 3 28345 4.27600000 2688379077 2688379077 3.00000000
-2.59297705 0.62012601 -0.51823723 3 4 28345 2.71600000 2688379079 2688379079 -11.00000000
-4.83640862 1.15754855 0.43508148 9 5 28346 4.99200000 2688379081 2688379081 5.00000000
-3.11784482 0.74680191 -0.50778627 3 6 28347 3.24600000 2688379084 2688379084 -9.00000000
-3.92048979 0.94050270 -0.49503326 4 8 28349 4.06200000 2688379088 2688379088 -7.00000000
-5.22694206 1.25487781 -0.47029239 10 10 28350 5.39600000 2688379093 2688379093 -5.00000000
-4.09937572 0.98568660 -0.22096241 18 12 28352 4.22200000 2688379097 2688379097 -3.00000000
-4.02626705 0.96959454 -0.07228786 100 14 28354 4.14200000 2688379102 2688379102 -1.00000000
-9.82652855 2.36639762 2.70828247 47 15 28354 10.46400000 2688379104 2688379104 15.00000000
-1.91507626 0.46401340 -0.52799088 4 0 28362 2.04000000 2688379125 2688379125 -15.00000000
-4.07915354 0.98911220 0.07326520 19 1 28363 4.19800000 2688379127 2688379127 1.00000000
-4.04889965 0.98252451 -0.96189070 15 2 28364 4.27600000 2688379130 2688379130 -13.00000000
-4.14953184 1.00771129 0.22378854 8 3 28365 4.27600000 2688379132 2688379132 3.00000000
-2.58698106 0.62824678 -0.51747400 3 4 28365 2.71200000 2688379134 2688379134 -11.00000000
-4.83040285 1.17395318 0.43490717 9 5 28366 4.99000000 2688379137 2688379137 5.00000000
-3.12289667 0.75954807 -0.50903773 3 6 28367 3.25400000 2688379139 2688379139 -9.00000000
-7.04968596 1.71592140 0.89086491 2 7 28368 7.31000000 2688379141 2688379141 7.00000000
-3.91332555 0.95324242 -0.49454579 4 8 28369 4.05800000 2688379143 2688379143 -7.00000000
-5.21091557 1.27028430 -0.46924651 9 10 28370 5.38400000 2688379148 2688379148 -5.00000000
-4.09979057 1.00093746 -0.22117175 18 12 28372 4.22600000 2688379153 2688379153 -3.00000000
-11.31478882 2.76452541 2.68906498 55 13 28373 11.95400000 2688379155 2688379155 13.00000000
-4.03062773 0.98554277 -0.07242749 100 14 28374 4.15000000 2688379157 2688379157 -1.00000000
-9.81403637 2.40147948 2.70724726 45 15 28375 10.46000000 2688379160 2688379160 15.00000000
-1.91727901 0.47128373 -0.52902615 4 0 28381 2.04400000 2688379180 2688379180 -15.00000000
-4.07585096 1.00263369 0.07326520 17 1 28382 4.19800000 2688379183 2688379183 1.00000000
-4.04751158 0.99641156 -0.96234059 16 2 28383 4.27800000 2688379185 2688379185 -13.00000000
-4.15392399 1.02337706 0.22420724 10 3 28384 4.28400000 2688379187 2688379187 3.00000000
-2.59250855 0.63870060 -0.51900047 3 4 28384 2.72000000 2688379190 2688379190 -11.00000000
-4.82261419 1.18901110 0.43455854 9 5 28385 4.98600000 2688379192 2688379192 5.00000000
-3.09734631 0.76422137 -0.50528330 3 6 28386 3.23000000 2688379194 2688379194 -9.00000000
-3.90628886 0.96526182 -0.49405831 4 8 28388 4.05400000 2688379199 2688379199 -7.00000000
-5.21827936 1.29042709 -0.47029239 10 10 28389 5.39600000 2688379203 2688379203 -5.00000000
-4.10032606 1.01548767 -0.22138110 8 12 28391 4.23000000 2688379208 2688379208 -3.00000000
-11.14288902 2.76171446 2.65037322 55 13 28392 11.78200000 2688379210 2688379210 13.00000000
-4.03121901 0.99986619 -0.07249729 100 14 28393 4.15400000 2688379213 2688379213 -1.00000000
-9.81581879 2.43462443 2.70983529 42 15 28393 10.47000000 2688379215 2688379215 15.00000000
-1.92499423 0.48031184 -0.53161430 4 0 28401 2.05400000 2688379236 2688379236 -15.00000000
-4.07620668 1.01782393 0.07333501 22 1 28402 4.20200000 2688379238 2688379238 1.00000000
-4.03833675 1.00911665 -0.96099091 20 2 28403 4.27200000 2688379240 2688379240 -13.00000000
-4.15032673 1.03787076 0.22420724 8 3 28404 4.28400000 2688379243 2688379243 3.00000000
-2.59788156 0.64965135 -0.52052695 3 4 28404 2.72800000 2688379245 2688379245 -11.00000000
-4.83389664 1.20970738 0.43595302 9 5 28405 5.00200000 2688379247 2688379247 5.00000000
-3.11573815 0.78030729 -0.50872487 4 6 28406 3.25200000 2688379249 2688379249 -9.00000000
-3.91637373 0.98227191 -0.49576449 4 8 28408 4.06800000 2688379254 2688379254 -7.00000000
-5.21954060 1.31008947 -0.47081533 10 10 28409 5.40200000 2688379259 2688379259 -5.00000000
-4.09675646 1.02979434 -0.22138110 6 12 28411 4.23000000 2688379263 2688379263 -3.00000000
-10.94797421 2.75400424 2.60628295 56 13 28412 11.58600000 2688379266 2688379266 13.00000000
-4.02770424 1.01393163 -0.07249729 100 14 28413 4.15400000 2688379268 2688379268 -1.00000000
-9.81850052 2.47170305 2.71294117 47 15 28413 10.48200000 2688379270 2688379270 15.00000000
-1.92143309 0.48655418 -0.53109670 4 0 28421 2.05200000 2688379291 2688379291 -15.00000000
-4.07650566 1.03302872 0.07340482 22 1 28422 4.20600000 2688379293 2688379293 1.00000000
-4.03101206 1.02224886 -0.96009111 13 2 28423 4.26800000 2688379296 2688379296 -13.00000000
-4.13893509 1.05038667 0.22378854 8 3 28424 4.27600000 2688379298 2688379298 3.00000000
-2.59940386 0.65968156 -0.52129018 3 4 28424 2.73200000 2688379300 2688379300 -11.00000000
-4.84316206 1.23000646 0.43717322 9 5 28425 5.01600000 2688379302 2688379302 5.00000000
-3.11873889 0.79263824 -0.50966346 3 6 28426 3.25800000 2688379305 2688379305 -9.00000000
-3.91869235 0.99740553 -0.49649569 4 8 28428 4.07400000 2688379309 2688379309 -7.00000000
-5.21300507 1.32780933 -0.47064102 10 10 28429 5.40000000 2688379314 2688379314 -5.00000000
-4.09894276 1.04556930 -0.22169511 6 12 28431 4.23600000 2688379319 2688379319 -3.00000000
-10.76835728 2.74882340 2.56579161 55 13 28432 11.40600000 2688379321 2688379321 13.00000000
-4.02801561 1.02897465 -0.07256711 100 14 28433 4.15800000 2688379323 2688379323 -1.00000000
-9.82104397 2.50882983 2.71604705 47 15 28433 10.49400000 2688379325 2688379325 15.00000000
-1.91223872 0.49133524 -0.52902615 4 0 28441 2.04400000 2688379346 2688379346 -15.00000000
-4.07674837 1.04824805 0.07347463 22 1 28442 4.21000000 2688379349 2688379349 1.00000000
-4.03874254 1.03922725 -0.96279049 8 2 28443 4.28000000 2688379351 2688379351 -13.00000000
-4.13330889 1.06432974 0.22368388 10 3 28444 4.27400000 2688379353 2688379353 3.00000000
-2.58567786 0.66581374 -0.51900047 3 4 28444 2.72000000 2688379355 2688379355 -11.00000000
-4.83305120 1.24541330 0.43665028 9 5 28445 5.01000000 2688379358 2688379358 5.00000000
-3.11595297 0.80351979 -0.50966346 3 6 28446 3.25800000 2688379360 2688379360 -9.00000000
-3.91326499 1.01058185 -0.49625197 4 8 28448 4.07200000 2688379365 2688379365 -7.00000000
-5.20448017 1.34500098 -0.47029239 10 10 28449 5.39600000 2688379369 2688379369 -5.00000000
-4.09333467 1.05937052 -0.22159044 6 12 28451 4.23400000 2688379374 2688379374 -3.00000000
-10.58513832 2.74144530 2.52440071 56 13 28452 11.22200000 2688379376 2688379376 13.00000000
-4.01278496 1.04001868 -0.07235768 100 14 28453 4.14600000 2688379378 2688379378 -1.00000000
-9.80804253 2.54383874 2.71501184 47 15 28454 10.49000000 2688379381 2688379381 15.00000000
-1.90490389 0.49654534 -0.52747321 4 0 28461 2.03800000 2688379402 2688379402 -15.00000000
-4.07112932 1.06196749 0.07343972 19 1 28462 4.20800000 2688379404 2688379404 1.00000000
-4.04074717 1.05479538 -0.96414024 5 2 28463 4.28600000 2688379406 2688379406 -13.00000000
-4.13536596 1.08026564 0.22399789 8 3 28464 4.28000000 2688379408 2688379408 3.00000000
-2.59093618 0.67682022 -0.52052695 3 4 28464 2.72800000 2688379411 2688379411 -11.00000000
-4.82481909 1.26126838 0.43630165 9 5 28465 5.00600000 2688379413 2688379413 5.00000000
-3.11312914 0.81439161 -0.50966346 3 6 28466 3.25800000 2688379415 2688379415 -9.00000000
-3.90971351 1.02423561 -0.49625197 4 8 28468 4.07200000 2688379420 2688379420 -7.00000000
-5.19589901 1.36214936 -0.46994376 10 10 28469 5.39200000 2688379425 2688379425 -5.00000000
-4.10506630 1.07770979 -0.22242782 6 12 28471 4.25000000 2688379429 2688379429 -3.00000000
-10.42095280 2.73777413 2.48750877 55 13 28472 11.05800000 2688379431 2688379431 13.00000000
-4.01686573 1.05605328 -0.07249729 100 14 28473 4.15400000 2688379434 2688379434 -1.00000000
-9.79581642 2.57536697 2.71397662 47 15 28473 10.48600000 2688379436 2688379436 15.00000000
-1.91436505 0.50615454 -0.53057903 4 0 28481 2.05000000 2688379457 2688379457 -15.00000000
-4.05773211 1.07361448 0.07326520 19 1 28482 4.19800000 2688379459 2688379459 1.00000000
-4.03704023 1.06889379 -0.96414024 5 2 28483 4.28600000 2688379461 2688379461 -13.00000000
-4.14894581 1.09929800 0.22493994 7 3 28484 4.29800000 2688379464 2688379464 3.00000000
-2.58855772 0.68586016 -0.52052695 3 4 28484 2.72800000 2688379466 2688379466 -11.00000000
-4.84349728 1.28422999 0.43839338 9 5 28485 5.03000000 2688379468 2688379468 5.00000000
-3.09881163 0.82221389 -0.50778627 3 6 28486 3.24600000 2688379471 2688379471 -9.00000000
-3.93297362 1.04501343 -0.49966431 6 8 28488 4.10000000 2688379475 2688379475 -7.00000000
-5.20073986 1.38283801 -0.47081533 10 10 28489 5.40200000 2688379480 2688379480 -5.00000000
-4.07618904 1.08535182 -0.22106709 6 12 28491 4.22400000 2688379484 2688379484 -3.00000000
-10.29081821 2.74202180 2.45871496 64 13 28492 10.93000000 2688379487 2688379487 13.00000000
-4.02088404 1.07212913 -0.07263692 100 14 28493 4.16200000 2688379489 2688379489 -1.00000000
-9.79796600 2.61253142 2.71708226 47 15 28493 10.49800000 2688379491 2688379491 15.00000000
-1.91996038 0.51517022 -0.53264958 4 0 28502 2.05800000 2688379512 2688379512 -15.00000000
-4.06149483 1.09055388 0.07340482 22 1 28503 4.20600000 2688379514 2688379514 1.00000000
-4.02933168 1.08267176 -0.96324039 5 2 28504 4.28200000 2688379517 2688379517 -13.00000000
-4.13158131 1.11014593 0.22420724 8 3 28504 4.28400000 2688379519 2688379519 3.00000000
-2.59740210 0.69840175 -0.52281666 3 4 28505 2.74000000 2688379521 2688379521 -11.00000000
-4.84068155 1.30249131 0.43856770 9 5 28506 5.03200000 2688379524 2688379524 5.00000000
-3.10722184 0.83664769 -0.50966346 3 6 28507 3.25800000 2688379526 2688379526 -9.00000000
-7.00565815 1.88764834 0.89086491 2 7 28508 7.31000000 2688379528 2688379528 7.00000000
-3.89845085 1.05115283 -0.49576449 6 8 28509 4.06800000 2688379530 2688379530 -7.00000000
