# .PCD v0.7 - Point Cloud Data file format
VERSION 0.7
FIELDS x y z intensity laser_id azimuth distance_m adjustedtime timestamp vertical_angle
SIZE 4 4 4 1 1 2 8 8 4 8
TYPE F F F U U U F U U F
COUNT 1 1 1 1 1 1 1 1 1 1
WIDTH 526
HEIGHT 1
VIEWPOINT 0 0 0 1 0 0 0
POINTS 526
DATA ascii
0.79845458 -2.47058868 0.69570559 45 15 16209 2.68800000 2682245664 2682245664 15.00000000
0.61459029 -1.91078675 -0.53782600 4 0 16217 2.07800000 2682245684 2682245684 -15.00000000
0.81635737 -2.53960943 0.04656302 63 1 16218 2.66800000 2682245687 2682245687 1.00000000
0.76055282 -2.36742496 -0.57407510 4 2 16219 2.55200000 2682245689 2682245689 -13.00000000
0.81264567 -2.53109479 0.13931832 56 3 16220 2.66200000 2682245691 2682245691 3.00000000
0.80841237 -2.51790953 -0.51403946 43 4 16220 2.69400000 2682245694 2682245694 -11.00000000
0.79987514 -2.49281406 0.22904529 49 5 16221 2.62800000 2682245696 2682245696 5.00000000
1.02545154 -3.19774222 -0.53187716 1 6 16222 3.40000000 2682245698 2682245698 -9.00000000
0.79729027 -2.48774290 0.32076010 39 7 16223 2.63200000 2682245700 2682245700 7.00000000
0.85559088 -2.67125940 -0.34440276 23 8 16224 2.82600000 2682245703 2682245703 -7.00000000
0.79975057 -2.49842024 0.41548994 40 9 16225 2.65600000 2682245705 2682245705 9.00000000
0.83883101 -2.62050724 -0.24072416 35 10 16225 2.76200000 2682245707 2682245707 -5.00000000
0.80816793 -2.52623439 0.51556593 38 11 16226 2.70200000 2682245710 2682245710 11.00000000
0.84483004 -2.64242458 -0.14538929 36 12 16227 2.77800000 2682245712 2682245712 -3.00000000
0.80546975 -2.52083206 0.61096704 49 13 16228 2.71600000 2682245714 2682245714 13.00000000
0.81330514 -2.54688692 -0.04666774 59 14 16229 2.67400000 2682245717 2682245717 -1.00000000
0.78763205 -2.46797729 0.69415265 51 15 16230 2.68200000 2682245719 2682245719 15.00000000
0.61209881 -1.92375362 -0.54093182 4 0 16235 2.09000000 2682245740 2682245740 -15.00000000
0.80716300 -2.53835034 0.04649321 65 1 16236 2.66400000 2682245742 2682245742 1.00000000
0.71297711 -2.24351215 -0.54348177 3 2 16237 2.41600000 2682245744 2682245744 -13.00000000
0.80573708 -2.53539848 0.13942298 64 3 16237 2.66400000 2682245747 2682245747 3.00000000
0.80109239 -2.52230811 -0.51442105 52 4 16238 2.69600000 2682245749 2682245749 -11.00000000
0.79686195 -2.51050687 0.23043978 51 5 16239 2.64400000 2682245751 2682245751 5.00000000
1.01241410 -3.19153357 -0.53031284 1 6 16240 3.39000000 2682245753 2682245753 -9.00000000
0.79187047 -2.49780464 0.32173505 42 7 16241 2.64000000 2682245756 2682245756 7.00000000
0.79547548 -2.51221967 0.41736716 40 9 16243 2.66800000 2682245760 2682245760 9.00000000
0.83961594 -2.65162134 -0.24333884 9 10 16243 2.79200000 2682245763 2682245763 -5.00000000
0.81148171 -2.56432462 0.52281666 46 11 16244 2.74000000 2682245765 2682245765 11.00000000
0.83772898 -2.64887428 -0.14559864 25 12 16245 2.78200000 2682245767 2682245767 -3.00000000
0.79754639 -2.52335000 0.61096704 34 13 16246 2.71600000 2682245770 2682245770 13.00000000
0.80529982 -2.54942942 -0.04666774 57 14 16247 2.67400000 2682245772 2682245772 -1.00000000
0.78205156 -2.47582984 0.69570559 51 15 16247 2.68800000 2682245774 2682245774 15.00000000
0.60537994 -1.92587852 -0.54093182 4 0 16255 2.09000000 2682245795 2682245795 -15.00000000
0.80069488 -2.54878354 0.04663283 65 1 16256 2.67200000 2682245797 2682245797 1.00000000
0.69930422 -2.22739482 -0.53898275 3 2 16257 2.39600000 2682245799 2682245799 -13.00000000
0.79748029 -2.54010105 0.13952766 56 3 16257 2.66600000 2682245802 2682245802 3.00000000
0.78875655 -2.51384974 -0.51213133 33 4 16258 2.68400000 2682245804 2682245804 -11.00000000
0.79345906 -2.53038311 0.23200859 45 5 16259 2.66200000 2682245806 2682245806 5.00000000
1.00422096 -3.20447302 -0.53187716 1 6 16260 3.40000000 2682245809 2682245809 -9.00000000
0.78314668 -2.50055361 0.32173505 34 7 16261 2.64000000 2682245811 2682245811 7.00000000
1.28791416 -4.11477184 -0.52940041 2 8 16262 4.34400000 2682245813 2682245813 -7.00000000
0.79495758 -2.54137516 0.42174733 41 9 16263 2.69600000 2682245816 2682245816 9.00000000
0.82430834 -2.63843775 -0.14486593 12 12 16265 2.76800000 2682245823 2682245823 -3.00000000
0.78408694 -2.51123714 0.60736787 35 13 16266 2.70000000 2682245825 2682245825 13.00000000
0.80116105 -2.56749630 -0.04694697 36 14 16267 2.69000000 2682245827 2682245827 -1.00000000
0.77513093 -2.48407698 0.69725853 50 15 16267 2.69400000 2682245829 2682245829 15.00000000
0.60026956 -1.93556941 -0.54300237 4 0 16277 2.09800000 2682245850 2682245850 -15.00000000
0.79090238 -2.55183911 0.04663283 60 1 16278 2.67200000 2682245852 2682245852 1.00000000
0.69074649 -2.23006344 -0.53898275 3 2 16279 2.39600000 2682245855 2682245855 -13.00000000
0.78727722 -2.54328179 0.13952766 49 3 16280 2.66600000 2682245857 2682245857 3.00000000
0.77561498 -2.50560713 -0.50984162 17 4 16280 2.67200000 2682245859 2682245859 -11.00000000
0.78962559 -2.55244493 0.23375170 42 5 16281 2.68200000 2682245862 2682245862 5.00000000
0.99074233 -3.20453072 -0.53125143 1 6 16282 3.39600000 2682245864 2682245864 -9.00000000
0.78467381 -2.53957796 0.32636610 31 7 16283 2.67800000 2682245866 2682245866 7.00000000
1.26624823 -4.10071945 -0.52696306 2 8 16284 4.32400000 2682245869 2682245869 -7.00000000
0.78622049 -2.54615927 0.42206019 31 9 16284 2.69800000 2682245871 2682245871 9.00000000
1.79423857 -5.81420469 -0.53234726 3 10 16285 6.10800000 2682245873 2682245873 -5.00000000
0.77214408 -2.50677967 0.60556823 37 13 16288 2.69200000 2682245880 2682245880 13.00000000
0.80012155 -2.59922147 -0.04747055 43 14 16289 2.72000000 2682245882 2682245882 -1.00000000
0.76742512 -2.49455428 0.69932908 47 15 16290 2.70200000 2682245885 2682245885 15.00000000
0.59011477 -1.92657006 -0.53989655 4 0 16297 2.08600000 2682245905 2682245905 -15.00000000
0.79018450 -2.58135390 0.04712150 42 1 16298 2.70000000 2682245908 2682245908 1.00000000
0.68523824 -2.23991489 -0.54078233 3 2 16299 2.40400000 2682245910 2682245910 -13.00000000
0.78351331 -2.56115770 0.14036503 55 3 16299 2.68200000 2682245912 2682245912 3.00000000
0.76858604 -2.51393175 -0.51098651 8 4 16300 2.67800000 2682245915 2682245915 -11.00000000
0.78071105 -2.55518579 0.23375170 36 5 16301 2.68200000 2682245917 2682245917 5.00000000
0.97781974 -3.20230174 -0.53031284 1 6 16302 3.39000000 2682245919 2682245919 -9.00000000
0.78449512 -2.57078147 0.33002219 33 7 16303 2.70800000 2682245922 2682245922 7.00000000
1.25655890 -4.12030458 -0.52891296 2 8 16304 4.34000000 2682245924 2682245924 -7.00000000
0.78206611 -2.56602979 0.42487600 21 9 16305 2.71600000 2682245926 2682245926 9.00000000
1.75999165 -5.77469254 -0.52816379 3 10 16305 6.06000000 2682245929 2682245929 -5.00000000
0.80485129 -2.64244390 0.53693652 5 11 16306 2.81400000 2682245931 2682245931 11.00000000
2.77019954 -9.10066605 -0.49855232 8 12 16307 9.52600000 2682245933 2682245933 -3.00000000
0.76395625 -2.51132417 0.60601813 41 13 16308 2.69400000 2682245935 2682245935 13.00000000
0.79104370 -2.60199857 -0.04747055 42 14 16309 2.72000000 2682245938 2682245938 -1.00000000
0.75702804 -2.49167275 0.69777614 45 15 16310 2.69600000 2682245940 2682245940 15.00000000
0.58114886 -1.92122185 -0.53782600 4 0 16317 2.07800000 2682245961 2682245961 -15.00000000
0.78406227 -2.59366727 0.04729602 38 1 16318 2.71000000 2682245963 2682245963 1.00000000
0.67628813 -2.23856235 -0.53988254 3 2 16319 2.40000000 2682245965 2682245965 -13.00000000
0.77803403 -2.57534862 0.14099306 47 3 16319 2.69400000 2682245968 2682245968 3.00000000
0.76321077 -2.52787590 -0.51327622 5 4 16320 2.69000000 2682245970 2682245970 -11.00000000
0.77351362 -2.56361771 0.23427464 21 5 16321 2.68800000 2682245972 2682245972 5.00000000
0.96891683 -3.21326065 -0.53156430 3 6 16322 3.39800000 2682245975 2682245975 -9.00000000
0.78410798 -2.60201406 0.33367828 24 7 16323 2.73800000 2682245977 2682245977 7.00000000
1.23987889 -4.11706257 -0.52793801 2 8 16324 4.33200000 2682245979 2682245979 -7.00000000
1.75360429 -5.82658911 -0.53234726 3 10 16325 6.10800000 2682245984 2682245984 -5.00000000
0.79505712 -2.64335728 0.53655487 11 11 16326 2.81200000 2682245986 2682245986 11.00000000
2.73439074 -9.09689140 -0.49781960 4 12 16327 9.51200000 2682245988 2682245988 -3.00000000
0.75350350 -2.50837636 0.60466844 42 13 16328 2.68800000 2682245991 2682245991 13.00000000
0.74721563 -2.49059939 0.69674087 42 15 16330 2.69200000 2682245995 2682245995 15.00000000
0.57443905 -1.92323864 -0.53782600 4 0 16337 2.07800000 2682246016 2682246016 -15.00000000
0.78301132 -2.62321448 0.04778469 18 1 16338 2.73800000 2682246018 2682246018 1.00000000
0.66958410 -2.24464417 -0.54078233 3 2 16339 2.40400000 2682246021 2682246021 -13.00000000
0.77646172 -2.60292959 0.14235380 40 3 16339 2.72000000 2682246023 2682246023 3.00000000
0.75999093 -2.54933906 -0.51709241 10 4 16340 2.71000000 2682246025 2682246025 -11.00000000
0.77138668 -2.58921552 0.23636638 10 5 16341 2.71200000 2682246028 2682246028 5.00000000
0.95769453 -3.21662307 -0.53156430 3 6 16342 3.39800000 2682246030 2682246030 -9.00000000
1.22267115 -4.11185169 -0.52671933 4 8 16344 4.32200000 2682246035 2682246035 -7.00000000
1.73325503 -5.83267498 -0.53234726 3 10 16345 6.10800000 2682246039 2682246039 -5.00000000
0.78135395 -2.63106012 0.53350192 15 11 16346 2.79600000 2682246041 2682246041 11.00000000
2.69295979 -9.07383060 -0.49604020 8 12 16347 9.47800000 2682246044 2682246044 -3.00000000
0.74695957 -2.51846457 0.60646802 47 13 16348 2.69600000 2682246046 2682246046 13.00000000
0.74126065 -2.50245380 0.69932908 38 15 16350 2.70200000 2682246051 2682246051 15.00000000
0.57243204 -1.93995595 -0.54196709 4 0 16356 2.09400000 2682246071 2682246071 -15.00000000
0.65772998 -2.23189831 -0.53718311 3 2 16358 2.38800000 2682246076 2682246076 -13.00000000
0.76839042 -2.60740590 0.14245847 26 3 16358 2.72200000 2682246078 2682246078 3.00000000
0.75541532 -2.56502819 -0.51976371 21 4 16359 2.72400000 2682246081 2682246081 -11.00000000
0.94479299 -3.21220088 -0.53031284 3 6 16361 3.39000000 2682246085 2682246085 -9.00000000
1.20511270 -4.10255146 -0.52501315 4 8 16363 4.30800000 2682246090 2682246090 -7.00000000
1.70829165 -5.81927347 -0.53060418 3 10 16364 6.08800000 2682246094 2682246094 -5.00000000
0.77151942 -2.62986898 0.53273869 23 11 16365 2.79200000 2682246097 2682246097 11.00000000
2.65555024 -9.05779457 -0.49467945 8 12 16366 9.45200000 2682246099 2682246099 -3.00000000
0.73641223 -2.51344728 0.60466844 43 13 16367 2.68800000 2682246101 2682246101 13.00000000
0.73665243 -2.51589441 0.70243490 27 15 16368 2.71400000 2682246106 2682246106 15.00000000
0.56565684 -1.94194233 -0.54196709 4 0 16376 2.09400000 2682246127 2682246127 -15.00000000
0.65320122 -2.24540758 -0.53988254 3 2 16378 2.40000000 2682246131 2682246131 -13.00000000
0.74371678 -2.55822349 -0.51785558 30 4 16379 2.71400000 2682246136 2682246136 -11.00000000
0.93192220 -3.20978808 -0.52937424 3 6 16381 3.38400000 2682246140 2682246140 -9.00000000
1.19852436 -4.13342476 -0.52842546 4 8 16383 4.33600000 2682246145 2682246145 -7.00000000
1.68685913 -5.82137346 -0.53025556 3 10 16384 6.08400000 2682246150 2682246150 -5.00000000
0.76997995 -2.65894699 0.53808135 19 11 16385 2.82000000 2682246152 2682246152 11.00000000
2.62336135 -9.06509113 -0.49457479 4 12 16386 9.45000000 2682246154 2682246154 -3.00000000
0.72655135 -2.51225853 0.60376865 35 13 16387 2.68400000 2682246157 2682246157 13.00000000
0.73010653 -2.52785730 0.70502305 17 15 16389 2.72400000 2682246161 2682246161 15.00000000
0.55780721 -1.94019175 -0.54093182 4 0 16396 2.09000000 2682246182 2682246182 -15.00000000
0.64320815 -2.24018168 -0.53808290 3 2 16398 2.39200000 2682246187 2682246187 -13.00000000
0.72990912 -2.54381990 -0.51442105 37 4 16399 2.69600000 2682246191 2682246191 -11.00000000
3.29121733 -11.47783947 1.04464877 17 5 16400 11.98600000 2682246193 2682246193 5.00000000
0.92560965 -3.23011208 -0.53219002 3 6 16401 3.40200000 2682246196 2682246196 -9.00000000
1.18408871 -4.13758326 -0.52842546 2 8 16403 4.33600000 2682246200 2682246200 -7.00000000
1.65228462 -5.77742100 -0.52572346 3 10 16404 6.03200000 2682246205 2682246205 -5.00000000
2.58676553 -9.05690861 -0.49363273 4 12 16406 9.43200000 2682246210 2682246210 -3.00000000
0.72098666 -2.52602267 0.60646802 18 13 16407 2.69600000 2682246212 2682246212 13.00000000
3.28171301 -11.50529861 -0.20883550 2 14 16408 11.96600000 2682246214 2682246214 -1.00000000
2.68975759 -9.42997265 2.62753105 33 15 16408 10.15200000 2682246217 2682246217 15.00000000
0.54786748 -1.93097603 -0.53782600 4 0 16416 2.07800000 2682246237 2682246237 -15.00000000
3.26418209 -11.51236343 0.20887040 3 1 16417 11.96800000 2682246240 2682246240 1.00000000
0.64069706 -2.26116252 -0.54258192 3 2 16418 2.41200000 2682246242 2682246242 -13.00000000
3.25074983 -11.48025799 0.62531000 2 3 16419 11.94800000 2682246244 2682246244 3.00000000
0.72316462 -2.55390811 -0.51594752 33 4 16419 2.70400000 2682246246 2682246246 -11.00000000
3.24679232 -11.47392082 1.04325426 21 5 16420 11.97000000 2682246249 2682246249 5.00000000
0.91002864 -3.21811676 -0.52968711 3 6 16421 3.38600000 2682246251 2682246251 -9.00000000
1.16532266 -4.12640858 -0.52647555 2 8 16423 4.32000000 2682246256 2682246256 -7.00000000
1.62994301 -5.77548361 -0.52502620 3 10 16424 6.02400000 2682246260 2682246260 -5.00000000
2.56326246 -9.09471893 -0.49520281 4 12 16426 9.46200000 2682246265 2682246265 -3.00000000
2.60774875 -9.25874996 2.22071671 19 13 16427 9.87200000 2682246267 2682246267 13.00000000
3.24261570 -11.52053356 -0.20890531 2 14 16428 11.97000000 2682246270 2682246270 -1.00000000
2.66406941 -9.47138309 2.63633084 42 15 16429 10.18600000 2682246272 2682246272 15.00000000
0.54250336 -1.93650270 -0.53886127 4 0 16435 2.08200000 2682246293 2682246293 -15.00000000
0.63004506 -2.25201464 -0.53988254 3 2 16437 2.40000000 2682246297 2682246297 -13.00000000
0.72579259 -2.59599805 -0.52396148 8 4 16438 2.74600000 2682246302 2682246302 -11.00000000
3.20550871 -11.47311115 1.04220831 21 5 16439 11.95800000 2682246304 2682246304 5.00000000
0.89403981 -3.20209074 -0.52655840 3 6 16440 3.36600000 2682246306 2682246306 -9.00000000
1.15376520 -4.13789892 -0.52745050 2 8 16442 4.32800000 2682246311 2682246311 -7.00000000
1.61826897 -5.80772686 -0.52746654 3 10 16443 6.05200000 2682246316 2682246316 -5.00000000
2.52773499 -9.08392715 -0.49415609 4 12 16445 9.44200000 2682246320 2682246320 -3.00000000
2.57911968 -9.27485657 2.22251630 16 13 16446 9.88000000 2682246323 2682246323 13.00000000
2.63947344 -9.49831867 2.64150715 42 15 16447 10.20600000 2682246327 2682246327 15.00000000
0.53779894 -1.94583273 -0.54093182 4 0 16455 2.09000000 2682246348 2682246348 -15.00000000
0.62114322 -2.25044322 -0.53898275 3 2 16457 2.39600000 2682246352 2682246352 -13.00000000
0.72873276 -2.64204502 -0.53273869 3 4 16458 2.79200000 2682246357 2682246357 -11.00000000
3.16014647 -11.46502304 1.04046524 17 5 16459 11.93800000 2682246359 2682246359 5.00000000
0.88705355 -3.22042751 -0.52906138 3 6 16460 3.38200000 2682246362 2682246362 -9.00000000
1.13826132 -4.13807297 -0.52696306 2 8 16462 4.32400000 2682246366 2682246366 -7.00000000
1.60221100 -5.82870913 -0.52886105 3 10 16463 6.06800000 2682246371 2682246371 -5.00000000
2.49072361 -9.07343483 -0.49310938 4 12 16465 9.42200000 2682246375 2682246375 -3.00000000
2.54260445 -9.26876831 2.21891713 16 13 16466 9.86400000 2682246378 2682246378 13.00000000
2.60158014 -9.49674988 2.63840127 42 15 16468 10.19400000 2682246382 2682246382 15.00000000
0.53066349 -1.94779086 -0.54093182 4 0 16476 2.09000000 2682246403 2682246403 -15.00000000
0.61289078 -2.25270462 -0.53898275 3 2 16478 2.39600000 2682246408 2682246408 -13.00000000
3.11830068 -11.46934128 0.62290257 2 3 16479 11.90200000 2682246410 2682246410 3.00000000
0.71749908 -2.63901472 -0.53159386 3 4 16479 2.78600000 2682246412 2682246412 -11.00000000
3.11653662 -11.47076035 1.03994226 21 5 16480 11.93200000 2682246415 2682246415 5.00000000
0.87576175 -3.22556353 -0.52937424 3 6 16481 3.38400000 2682246417 2682246417 -9.00000000
1.11685324 -4.11922598 -0.52403820 2 8 16483 4.30000000 2682246422 2682246422 -7.00000000
1.59125781 -5.87300348 -0.53234726 3 10 16484 6.10800000 2682246426 2682246426 -5.00000000
2.45171309 -9.06129551 -0.49195799 4 12 16486 9.40000000 2682246431 2682246431 -3.00000000
2.50505519 -9.26485634 2.21576786 6 13 16487 9.85000000 2682246433 2682246433 13.00000000
3.11136532 -11.51524925 -0.20820720 2 14 16488 11.93000000 2682246435 2682246435 -1.00000000
2.56992626 -9.51136780 2.63995433 40 15 16488 10.20000000 2682246438 2682246438 15.00000000
0.52285862 -1.94589996 -0.53989655 4 0 16496 2.08600000 2682246458 2682246458 -15.00000000
0.60603368 -2.25859475 -0.53988254 3 2 16498 2.40000000 2682246463 2682246463 -13.00000000
0.70929974 -2.64529586 -0.53235710 3 4 16499 2.79000000 2682246468 2682246468 -11.00000000
3.06771088 -11.44885254 1.03697908 17 5 16500 11.89800000 2682246470 2682246470 5.00000000
0.86551893 -3.23241711 -0.52999997 1 6 16501 3.38800000 2682246472 2682246472 -9.00000000
1.10041654 -4.11542845 -0.52306324 2 8 16503 4.29200000 2682246477 2682246477 -7.00000000
1.57074749 -5.87852240 -0.53234726 3 10 16504 6.10800000 2682246481 2682246481 -5.00000000
2.42676210 -9.09488487 -0.49331874 8 12 16506 9.42600000 2682246486 2682246486 -3.00000000
2.54399371 -9.54092407 2.27965403 10 13 16507 10.13400000 2682246488 2682246488 13.00000000
2.53405380 -9.51698971 2.63891888 42 15 16509 10.19600000 2682246493 2682246493 15.00000000
0.51392734 -1.93828642 -0.53730834 4 0 16515 2.07600000 2682246514 2682246514 -15.00000000
0.60053575 -2.26812720 -0.54168212 3 2 16517 2.40800000 2682246518 2682246518 -13.00000000
0.69751072 -2.63624573 -0.53006738 3 4 16518 2.77800000 2682246523 2682246523 -11.00000000
3.02412605 -11.43777466 1.03506160 21 5 16519 11.87600000 2682246525 2682246525 5.00000000
0.85479510 -3.23526955 -0.52999997 3 6 16520 3.38800000 2682246528 2682246528 -9.00000000
1.09284019 -4.14208794 -0.52598810 2 8 16522 4.31600000 2682246532 2682246532 -7.00000000
1.53092742 -5.80663633 -0.52537483 3 10 16523 6.02800000 2682246537 2682246537 -5.00000000
2.39557195 -9.09902000 -0.49310938 8 12 16525 9.42200000 2682246541 2682246541 -3.00000000
2.50119567 -9.51369381 2.63581324 42 15 16527 10.18400000 2682246548 2682246548 15.00000000
0.50960129 -1.94941378 -0.53989655 4 0 16535 2.08600000 2682246569 2682246569 -15.00000000
2.99406528 -11.46158409 0.20677611 6 1 16536 11.84800000 2682246571 2682246571 1.00000000
0.58867723 -2.25512528 -0.53808290 4 2 16537 2.39200000 2682246574 2682246574 -13.00000000
2.98995018 -11.46219158 0.62080914 2 3 16538 11.86200000 2682246576 2682246576 3.00000000
0.69425070 -2.66146064 -0.53464681 3 4 16538 2.80200000 2682246578 2682246578 -11.00000000
2.98267460 -11.44247723 1.03453863 17 5 16539 11.87000000 2682246581 2682246581 5.00000000
0.83901531 -3.22102928 -0.52718413 1 6 16540 3.37000000 2682246583 2682246583 -9.00000000
1.08337212 -4.16508913 -0.52842546 2 8 16542 4.33600000 2682246587 2682246587 -7.00000000
1.50563705 -5.79266167 -0.52363169 3 10 16543 6.00800000 2682246592 2682246592 -5.00000000
2.35275722 -9.06479645 -0.49080661 8 12 16545 9.37800000 2682246597 2682246597 -3.00000000
2.67713547 -10.32198143 2.46186423 50 13 16546 10.94400000 2682246599 2682246599 13.00000000
2.98961449 -11.53506279 -0.20799778 19 14 16547 11.91800000 2682246601 2682246601 -1.00000000
2.46582508 -9.52092648 2.63529563 40 15 16548 10.18200000 2682246604 2682246604 15.00000000
0.50279349 -1.95118082 -0.53989655 4 0 16555 2.08600000 2682246624 2682246624 -15.00000000
0.57983053 -2.25339174 -0.53718311 3 2 16557 2.38800000 2682246629 2682246629 -13.00000000
0.68202281 -2.65245938 -0.53235710 3 4 16558 2.79000000 2682246634 2682246634 -11.00000000
0.83267927 -3.24307156 -0.53031284 1 6 16560 3.39000000 2682246638 2682246638 -9.00000000
1.05995262 -4.13423347 -0.52403820 2 8 16562 4.30000000 2682246643 2682246643 -7.00000000
1.47947395 -5.77472162 -0.52153999 3 10 16563 5.98400000 2682246647 2682246647 -5.00000000
2.32060575 -9.07101822 -0.49070191 4 12 16565 9.37600000 2682246652 2682246652 -3.00000000
2.66570401 -10.42755318 2.48480940 32 13 16566 11.04600000 2682246654 2682246654 13.00000000
2.43376088 -9.52717972 2.63477778 42 15 16567 10.18000000 2682246659 2682246659 15.00000000
0.49693057 -1.95666885 -0.54093182 4 0 16575 2.09000000 2682246680 2682246680 -15.00000000
0.57291925 -2.25918007 -0.53808290 3 2 16577 2.39200000 2682246684 2682246684 -13.00000000
0.67083079 -2.64721155 -0.53083062 3 4 16578 2.78200000 2682246689 2682246689 -11.00000000
0.82474577 -3.25936365 -0.53250289 1 6 16580 3.40400000 2682246693 2682246693 -9.00000000
1.04162467 -4.12251091 -0.52208829 2 8 16582 4.28400000 2682246698 2682246698 -7.00000000
1.45638096 -5.76826000 -0.52049410 3 10 16583 5.97200000 2682246703 2682246703 -5.00000000
2.28209233 -9.05195045 -0.48923653 4 12 16585 9.34800000 2682246707 2682246707 -3.00000000
2.66689777 -10.58608055 2.52035165 45 13 16586 11.20400000 2682246710 2682246710 13.00000000
2.40520620 -9.55435085 2.63995433 38 15 16587 10.20000000 2682246714 2682246714 15.00000000
0.48694369 -1.94723213 -0.53782600 4 0 16596 2.07800000 2682246735 2682246735 -15.00000000
2.86605453 -11.46953011 0.20635726 37 1 16597 11.82400000 2682246737 2682246737 1.00000000
0.56652349 -2.26882744 -0.53988254 3 2 16598 2.40000000 2682246740 2682246740 -13.00000000
2.85808039 -11.45461750 0.61871570 28 3 16599 11.82200000 2682246742 2682246742 3.00000000
0.66397548 -2.66108155 -0.53312033 3 4 16599 2.79400000 2682246744 2682246744 -11.00000000
0.69890380 -2.80314994 0.25275165 4 5 16600 2.90000000 2682246746 2682246746 5.00000000
0.80467570 -3.22977924 -0.52718413 1 6 16601 3.37000000 2682246749 2682246749 -9.00000000
1.02459097 -4.11859560 -0.52111334 2 8 16603 4.27600000 2682246753 2682246753 -7.00000000
1.43042290 -5.75422382 -0.51875097 3 10 16604 5.95200000 2682246758 2682246758 -5.00000000
2.25419259 -9.08157635 -0.49038792 4 12 16606 9.37000000 2682246763 2682246763 -3.00000000
2.66420317 -10.74142361 2.55499411 51 13 16607 11.35800000 2682246765 2682246765 13.00000000
2.83921885 -11.45560169 -0.20600821 21 14 16608 11.80400000 2682246767 2682246767 -1.00000000
2.36273575 -9.53310013 2.63167214 14 15 16608 10.16800000 2682246769 2682246769 15.00000000
0.47829512 -1.94141698 -0.53575540 4 0 16616 2.07000000 2682246790 2682246790 -15.00000000
2.82695699 -11.48334789 0.20642707 10 1 16617 11.82800000 2682246793 2682246793 1.00000000
0.55860037 -2.27079105 -0.53988254 3 2 16618 2.40000000 2682246795 2682246795 -13.00000000
0.65561980 -2.66719604 -0.53388357 3 4 16619 2.79800000 2682246799 2682246799 -11.00000000
0.79904705 -3.25558972 -0.53093857 1 6 16621 3.39400000 2682246804 2682246804 -9.00000000
2.81374621 -11.48147106 -1.45146394 2 8 16623 11.91000000 2682246809 2682246809 -7.00000000
1.40653706 -5.74370003 -0.51735651 3 10 16624 5.93600000 2682246813 2682246813 -5.00000000
2.22010636 -9.07968903 -0.48986456 4 12 16626 9.36000000 2682246818 2682246818 -3.00000000
2.66276956 -10.89831638 2.59008646 55 13 16627 11.51400000 2682246820 2682246820 13.00000000
2.32777929 -9.54169655 2.63167214 26 15 16629 10.16800000 2682246825 2682246825 15.00000000
0.47493100 -1.95417321 -0.53886127 4 0 16634 2.08200000 2682246846 2682246846 -15.00000000
0.54962552 -2.26495981 -0.53808290 3 2 16636 2.39200000 2682246850 2682246850 -13.00000000
0.64631206 -2.66542673 -0.53312033 3 4 16637 2.79400000 2682246855 2682246855 -11.00000000
0.67607486 -2.79029632 0.25118285 31 5 16638 2.88200000 2682246857 2682246857 5.00000000
0.78323746 -3.23504496 -0.52718413 1 6 16639 3.37000000 2682246859 2682246859 -9.00000000
1.00751483 -4.16774988 -0.52647555 2 8 16641 4.32000000 2682246864 2682246864 -7.00000000
1.38942134 -5.75196409 -0.51770508 3 10 16642 5.94000000 2682246869 2682246869 -5.00000000
2.18080020 -9.04196262 -0.48745710 4 12 16644 9.31400000 2682246873 2682246873 -3.00000000
2.66458797 -11.05629349 2.62562871 54 13 16645 11.67200000 2682246875 2682246875 13.00000000
2.30126739 -9.55607414 2.63374257 33 15 16646 10.17600000 2682246880 2682246880 15.00000000
0.46900609 -1.95957673 -0.53989655 4 0 16654 2.08600000 2682246901 2682246901 -15.00000000
0.54081011 -2.26307368 -0.53718311 3 2 16656 2.38800000 2682246905 2682246905 -13.00000000
0.63700408 -2.66766644 -0.53312033 3 4 16657 2.79400000 2682246910 2682246910 -11.00000000
0.66540593 -2.78876328 0.25083423 20 5 16658 2.87800000 2682246912 2682246912 5.00000000
0.77377278 -3.24544525 -0.52843565 1 6 16659 3.37800000 2682246915 2682246915 -9.00000000
0.67534018 -2.83478117 0.35780838 1 7 16660 2.93600000 2682246917 2682246917 7.00000000
0.98192763 -4.12489414 -0.52062583 2 8 16661 4.27200000 2682246919 2682246919 -7.00000000
1.36841273 -5.75290251 -0.51735651 3 10 16662 5.93600000 2682246924 2682246924 -5.00000000
2.15291667 -9.06506538 -0.48829448 4 12 16664 9.33000000 2682246928 2682246928 -3.00000000
2.65702534 -11.19635677 2.65667200 55 13 16665 11.81000000 2682246931 2682246931 13.00000000
2.27190804 -9.58096600 2.63840127 40 15 16666 10.19400000 2682246935 2682246935 15.00000000
0.46359187 -1.96880424 -0.54196709 4 0 16675 2.09400000 2682246956 2682246956 -15.00000000
0.53251189 -2.26504064 -0.53718311 3 2 16677 2.38800000 2682246961 2682246961 -13.00000000
0.65335894 -2.78342485 0.25013697 16 5 16679 2.87000000 2682246968 2682246968 5.00000000
0.76006806 -3.24056673 -0.52718413 1 6 16680 3.37000000 2682246970 2682246970 -9.00000000
0.97132874 -4.14779329 -0.52306324 2 8 16682 4.29200000 2682246974 2682246974 -7.00000000
1.34731805 -5.75787926 -0.51735651 3 10 16683 5.93600000 2682246979 2682246979 -5.00000000
2.12512970 -9.09623432 -0.48955053 4 12 16685 9.35400000 2682246984 2682246984 -3.00000000
2.61951494 -11.22120190 2.66027117 50 13 16686 11.82600000 2682246986 2682246986 13.00000000
2.23940992 -9.60051632 2.64150715 38 15 16687 10.20600000 2682246991 2682246991 15.00000000
0.45322692 -1.95535481 -0.53782600 4 0 16695 2.07800000 2682247011 2682247011 -15.00000000
0.52372342 -2.26308870 -0.53628331 4 2 16697 2.38400000 2682247016 2682247016 -13.00000000
0.61701387 -2.66833091 -0.53235710 3 4 16698 2.79000000 2682247021 2682247021 -11.00000000
0.64005077 -2.77015853 0.24874249 25 5 16699 2.85400000 2682247023 2682247023 5.00000000
0.75230670 -3.25859809 -0.52968711 1 6 16700 3.38600000 2682247025 2682247025 -9.00000000
0.65369916 -2.83373833 0.35707718 36 7 16701 2.93000000 2682247027 2682247027 7.00000000
0.95506084 -4.14342117 -0.52208829 2 8 16702 4.28400000 2682247030 2682247030 -7.00000000
1.32721114 -5.76254702 -0.51735651 3 10 16703 5.93600000 2682247034 2682247034 -5.00000000
2.08620358 -9.07245350 -0.48787579 4 12 16705 9.32200000 2682247039 2682247039 -3.00000000
2.58076596 -11.23217678 2.66072106 48 13 16706 11.82800000 2682247041 2682247041 13.00000000
2.20334339 -9.60489368 2.64047194 38 15 16708 10.20200000 2682247046 2682247046 15.00000000
0.44382083 -1.94562423 -0.53472012 4 0 16715 2.06600000 2682247067 2682247067 -15.00000000
0.51884973 -2.27820349 -0.53943264 4 2 16717 2.39800000 2682247071 2682247071 -13.00000000
0.63302767 -2.78403258 0.24978836 16 5 16719 2.86600000 2682247078 2682247078 5.00000000
0.73655105 -3.24194145 -0.52655840 1 6 16720 3.36600000 2682247080 2682247080 -9.00000000
0.64336413 -2.83406711 0.35683343 37 7 16721 2.92800000 2682247083 2682247083 7.00000000
0.94059181 -4.14672947 -0.52208829 2 8 16722 4.28400000 2682247085 2682247085 -7.00000000
0.64621693 -2.85124397 0.46304601 8 9 16723 2.96000000 2682247087 2682247087 9.00000000
1.30444562 -5.75548601 -0.51631063 3 10 16723 5.92400000 2682247090 2682247090 -5.00000000
0.64739376 -2.85875082 0.56975567 9 11 16724 2.98600000 2682247092 2682247092 11.00000000
2.05804825 -9.09526443 -0.48871315 4 12 16725 9.33800000 2682247094 2682247094 -3.00000000
2.54498076 -11.25632286 2.66432023 37 13 16726 11.84400000 2682247097 2682247097 13.00000000
2.17190599 -9.61403179 2.64098954 7 15 16727 10.20400000 2682247101 2682247101 15.00000000
0.43871891 -1.95470142 -0.53679073 4 0 16735 2.07400000 2682247122 2682247122 -15.00000000
0.50918978 -2.27239442 -0.53763300 4 2 16737 2.39000000 2682247126 2682247126 -13.00000000
0.72393733 -3.23870945 -0.52561980 1 6 16740 3.36000000 2682247136 2682247136 -9.00000000
0.63260204 -2.83242083 0.35634595 34 7 16741 2.92400000 2682247138 2682247138 7.00000000
0.92351711 -4.13836288 -0.52062583 2 8 16742 4.27200000 2682247140 2682247140 -7.00000000
0.63368088 -2.84191418 0.46116880 19 9 16743 2.94800000 2682247143 2682247143 9.00000000
1.28608167 -5.76778316 -0.51700789 3 10 16743 5.93200000 2682247145 2682247145 -5.00000000
0.63100690 -2.83224916 0.56403136 22 11 16744 2.95600000 2682247147 2682247147 11.00000000
2.02975917 -9.11798954 -0.48955053 4 12 16745 9.35400000 2682247150 2682247150 -3.00000000
0.63789564 -2.87024832 0.78784519 1 15 16747 3.04400000 2682247156 2682247156 15.00000000
0.43272603 -1.95999372 -0.53782600 4 0 16755 2.07800000 2682247177 2682247177 -15.00000000
0.49957669 -2.26654577 -0.53583342 4 2 16757 2.38200000 2682247182 2682247182 -13.00000000
0.71432441 -3.24893379 -0.52687126 1 6 16760 3.36800000 2682247191 2682247191 -9.00000000
0.62441492 -2.84236717 0.35732090 25 7 16761 2.93200000 2682247193 2682247193 7.00000000
0.90651238 -4.12992811 -0.51916343 2 8 16762 4.26000000 2682247196 2682247196 -7.00000000
0.62467676 -2.84592938 0.46148166 36 9 16762 2.95000000 2682247198 2682247198 9.00000000
1.26167238 -5.75277567 -0.51526475 3 10 16763 5.91200000 2682247200 2682247200 -5.00000000
0.61649406 -2.81333923 0.55983359 46 11 16764 2.93400000 2682247203 2682247203 11.00000000
1.99108434 -9.09380245 -0.48787579 4 12 16765 9.32200000 2682247205 2682247205 -3.00000000
0.61595917 -2.81559849 0.66540521 7 13 16766 2.95800000 2682247207 2682247207 13.00000000
0.61706632 -2.82538295 0.77490419 13 15 16768 2.99400000 2682247212 2682247212 15.00000000
0.42752132 -1.96904373 -0.53989655 4 0 16775 2.08600000 2682247232 2682247232 -15.00000000
0.49331316 -2.27589393 -0.53763300 4 2 16777 2.39000000 2682247237 2682247237 -13.00000000
0.70005709 -3.23789215 -0.52468121 1 6 16780 3.35400000 2682247246 2682247246 -9.00000000
0.61910015 -2.86587334 0.36000204 15 7 16781 2.95400000 2682247249 2682247249 7.00000000
0.89209068 -4.13306713 -0.51916343 2 8 16782 4.26000000 2682247251 2682247251 -7.00000000
0.61257601 -2.84047580 0.46023020 39 9 16783 2.94200000 2682247253 2682247253 9.00000000
1.24410391 -5.76883030 -0.51631063 3 10 16783 5.92400000 2682247256 2682247256 -5.00000000
0.60832405 -2.82315087 0.56136006 66 11 16784 2.94200000 2682247258 2682247258 11.00000000
0.41937482 -1.96289372 -0.53782600 4 0 16794 2.07800000 2682247288 2682247288 -15.00000000
0.48616982 -2.27942300 -0.53808290 3 2 16796 2.39200000 2682247292 2682247292 -13.00000000
0.56631756 -2.65747166 -0.52815932 3 4 16797 2.76800000 2682247297 2682247297 -11.00000000
0.69507056 -3.26724577 -0.52906138 1 6 16799 3.38200000 2682247302 2682247302 -9.00000000
0.88167912 -4.15153694 -0.52111334 2 8 16801 4.27600000 2682247306 2682247306 -7.00000000
0.60159755 -2.83272481 0.45866585 40 9 16801 2.93200000 2682247309 2682247309 9.00000000
1.22496688 -5.77292442 -0.51631063 3 10 16802 5.92400000 2682247311 2682247311 -5.00000000
0.60180908 -2.83859658 0.56403136 64 11 16803 2.95600000 2682247313 2682247313 11.00000000
0.59314835 -2.80256724 0.66135609 59 13 16805 2.94000000 2682247318 2682247318 13.00000000
0.59662235 -2.82384729 0.77335131 55 15 16807 2.98800000 2682247322 2682247322 15.00000000
0.40974125 -1.95111144 -0.53420252 4 0 16814 2.06400000 2682247343 2682247343 -15.00000000
0.47861004 -2.28301358 -0.53853285 4 2 16816 2.39400000 2682247348 2682247348 -13.00000000
0.67678851 -3.23678160 -0.52374262 1 6 16819 3.34800000 2682247357 2682247357 -9.00000000
0.85988128 -4.11961126 -0.51672602 4 8 16821 4.24000000 2682247362 2682247362 -7.00000000
0.59291667 -2.84060860 0.45960447 39 9 16821 2.93800000 2682247364 2682247364 9.00000000
1.20155418 -5.76156187 -0.51491612 3 10 16822 5.90800000 2682247366 2682247366 -5.00000000
0.58709121 -2.81761622 0.55945200 67 11 16823 2.93200000 2682247368 2682247368 11.00000000
0.58534616 -2.81416011 0.66360563 55 13 16825 2.95000000 2682247373 2682247373 13.00000000
0.58204871 -2.80321455 0.76713967 38 15 16827 2.96400000 2682247378 2682247378 15.00000000
0.40488029 -1.96198976 -0.53679073 4 0 16834 2.07400000 2682247398 2682247398 -15.00000000
0.46827883 -2.27321839 -0.53583342 4 2 16836 2.38200000 2682247403 2682247403 -13.00000000
0.56919962 -2.77292442 0.34757137 4 7 16840 2.85200000 2682247414 2682247414 7.00000000
0.84749001 -4.13231087 -0.51794469 4 8 16841 4.25000000 2682247417 2682247417 -7.00000000
0.58577555 -2.85620666 0.46179456 33 9 16841 2.95200000 2682247419 2682247419 9.00000000
1.18463480 -5.78133535 -0.51631063 3 10 16842 5.92400000 2682247421 2682247421 -5.00000000
0.57213342 -2.79464483 0.55449092 46 11 16843 2.90600000 2682247424 2682247424 11.00000000
0.56459421 -2.76272655 0.65100837 31 13 16845 2.89400000 2682247428 2682247428 13.00000000
0.56154203 -2.75023818 0.75212812 49 15 16846 2.90600000 2682247433 2682247433 15.00000000
0.39841300 -1.96528447 -0.53730834 4 0 16854 2.07600000 2682247454 2682247454 -15.00000000
0.45995444 -2.27292895 -0.53538352 4 2 16856 2.38000000 2682247458 2682247458 -13.00000000
0.55978429 -2.77122808 0.24734800 2 5 16858 2.83800000 2682247465 2682247465 5.00000000
0.65378439 -3.23949122 -0.52342969 1 6 16859 3.34600000 2682247467 2682247467 -9.00000000
0.82835609 -4.11189222 -0.51501983 4 8 16861 4.22600000 2682247472 2682247472 -7.00000000
0.55590636 -2.75947404 0.44583821 23 9 16861 2.85000000 2682247474 2682247474 9.00000000
1.16130197 -5.76980972 -0.51491612 3 10 16862 5.90800000 2682247477 2682247477 -5.00000000
0.55115050 -2.74080777 0.54342401 55 11 16863 2.84800000 2682247479 2682247479 11.00000000
0.54996139 -2.73984218 0.64515960 33 13 16865 2.86800000 2682247484 2682247484 13.00000000
0.54918098 -2.74091268 0.74902231 49 15 16867 2.89400000 2682247488 2682247488 15.00000000
0.39117324 -1.96476853 -0.53679073 4 0 16874 2.07400000 2682247509 2682247509 -15.00000000
0.45353702 -2.28216624 -0.53718311 3 2 16876 2.38800000 2682247514 2682247514 -13.00000000
0.53221697 -2.68052506 -0.53121227 3 4 16877 2.78400000 2682247518 2682247518 -11.00000000
0.64669675 -3.26306820 -0.52687126 1 6 16879 3.36800000 2682247523 2682247523 -9.00000000
0.54635710 -2.75930500 0.34537771 36 7 16880 2.83400000 2682247525 2682247525 7.00000000
0.81515354 -4.12060070 -0.51575106 4 8 16881 4.23200000 2682247527 2682247527 -7.00000000
0.54320383 -2.74589491 0.44333526 68 9 16881 2.83400000 2682247530 2682247530 9.00000000
1.14115441 -5.77382803 -0.51491612 3 10 16882 5.90800000 2682247532 2682247532 -5.00000000
0.54043901 -2.73693681 0.54227918 72 11 16883 2.84200000 2682247534 2682247534 11.00000000
0.53474152 -2.71306586 0.63841110 42 13 16885 2.83800000 2682247539 2682247539 13.00000000
0.53896904 -2.73703241 0.74746943 63 15 16886 2.88800000 2682247544 2682247544 15.00000000
0.38394195 -1.96422601 -0.53627306 4 0 16894 2.07200000 2682247564 2682247564 -15.00000000
0.44444850 -2.27799749 -0.53583342 4 2 16896 2.38200000 2682247569 2682247569 -13.00000000
0.52285695 -2.68236661 -0.53121227 3 4 16897 2.78400000 2682247573 2682247573 -11.00000000
0.53775805 -2.76137900 0.24612781 30 5 16898 2.82400000 2682247576 2682247576 5.00000000
0.63303906 -3.25367165 -0.52499408 3 6 16899 3.35600000 2682247578 2682247578 -9.00000000
0.53407061 -2.74755502 0.34367156 50 7 16900 2.82000000 2682247580 2682247580 7.00000000
0.80379248 -4.13901043 -0.51770097 4 8 16901 4.24800000 2682247583 2682247583 -7.00000000
0.53050226 -2.73429298 0.44114518 62 9 16902 2.82000000 2682247585 2682247585 9.00000000
1.11492133 -5.74648190 -0.51212716 3 10 16902 5.87600000 2682247587 2682247587 -5.00000000
0.53200281 -2.74458885 0.54342401 71 11 16903 2.84800000 2682247590 2682247590 11.00000000
0.52193642 -2.69769669 0.63436198 49 13 16905 2.82000000 2682247594 2682247594 13.00000000
0.52673590 -2.72760844 0.74436355 52 15 16907 2.87600000 2682247599 2682247599 15.00000000
0.37744716 -1.96745145 -0.53679073 4 0 16914 2.07400000 2682247620 2682247620 -15.00000000
0.43869305 -2.29101872 -0.53853285 4 2 16916 2.39400000 2682247624 2682247624 -13.00000000
0.51053947 -2.66874909 -0.52815932 3 4 16917 2.76800000 2682247629 2682247629 -11.00000000
0.52213144 -2.73192763 0.24333884 26 5 16918 2.79200000 2682247631 2682247631 5.00000000
0.62278920 -3.26168251 -0.52593267 1 6 16919 3.36200000 2682247633 2682247633 -9.00000000
0.52112883 -2.73185325 0.34147790 46 7 16920 2.80200000 2682247636 2682247636 7.00000000
0.78785318 -4.13399076 -0.51672602 4 8 16921 4.24000000 2682247638 2682247638 -7.00000000
0.51921326 -2.72439456 0.43926796 47 9 16921 2.80800000 2682247640 2682247640 9.00000000
1.09634626 -5.75816727 -0.51282442 3 10 16922 5.88400000 2682247643 2682247643 -5.00000000
0.52168542 -2.74257183 0.54266077 60 11 16923 2.84400000 2682247645 2682247645 11.00000000
1.72829545 -9.09453201 -0.48515430 4 12 16924 9.27000000 2682247647 2682247647 -3.00000000
0.51178950 -2.69567299 0.63346219 49 13 16925 2.81600000 2682247650 2682247650 13.00000000
0.51444787 -2.71225810 0.73970485 39 15 16926 2.85800000 2682247654 2682247654 15.00000000
0.37021983 -1.96685851 -0.53627306 4 0 16934 2.07200000 2682247675 2682247675 -15.00000000
0.43069324 -2.29253602 -0.53853285 4 2 16936 2.39400000 2682247679 2682247679 -13.00000000
0.50339359 -2.68209219 -0.53044903 3 4 16937 2.78000000 2682247684 2682247684 -11.00000000
0.51038897 -2.72198415 0.24229297 31 5 16938 2.78000000 2682247686 2682247686 5.00000000
0.60812664 -3.24636197 -0.52311683 1 6 16939 3.34400000 2682247689 2682247689 -9.00000000
0.50793815 -2.71414351 0.33904052 37 7 16940 2.78200000 2682247691 2682247691 7.00000000
0.77560699 -4.14842367 -0.51818848 2 8 16941 4.25200000 2682247693 2682247693 -7.00000000
0.50958705 -2.72822094 0.43958086 34 9 16942 2.81000000 2682247696 2682247696 9.00000000
1.07404482 -5.75020838 -0.51177853 3 10 16942 5.87200000 2682247698 2682247698 -5.00000000
0.50814742 -2.72314668 0.53846300 34 11 16943 2.82200000 2682247700 2682247700 11.00000000
0.50094956 -2.68978000 0.63166255 51 13 16945 2.80800000 2682247705 2682247705 13.00000000
0.50273824 -2.70462894 0.73711663 61 15 16947 2.84800000 2682247709 2682247709 15.00000000
0.36335194 -1.96813881 -0.53627306 4 0 16954 2.07200000 2682247730 2682247730 -15.00000000
0.42127568 -2.28635955 -0.53673321 4 2 16956 2.38600000 2682247735 2682247735 -13.00000000
0.50945497 -2.76763940 0.14748272 12 3 16957 2.81800000 2682247737 2682247737 3.00000000
0.49402827 -2.68383312 -0.53044903 3 4 16957 2.78000000 2682247739 2682247739 -11.00000000
0.50160503 -2.72766805 0.24264158 36 5 16958 2.78400000 2682247742 2682247742 5.00000000
0.59572017 -3.24263644 -0.52217823 1 6 16959 3.33800000 2682247744 2682247744 -9.00000000
0.49666917 -2.70613742 0.33782181 34 7 16960 2.77200000 2682247746 2682247746 7.00000000
0.76040554 -4.14720058 -0.51770097 2 8 16961 4.24800000 2682247749 2682247749 -7.00000000
0.49661836 -2.70852304 0.43613929 21 9 16961 2.78800000 2682247751 2682247751 9.00000000
1.05253041 -5.74608326 -0.51108128 3 10 16962 5.86400000 2682247753 2682247753 -5.00000000
0.48839036 -2.66889954 0.52739608 46 11 16963 2.76400000 2682247755 2682247755 11.00000000
0.48945674 -2.68001008 0.62896317 54 13 16965 2.79600000 2682247760 2682247760 13.00000000
0.49411336 -2.70818162 0.73763430 64 15 16966 2.85000000 2682247765 2682247765 15.00000000
0.35751191 -1.97509813 -0.53782600 4 0 16974 2.07800000 2682247785 2682247785 -15.00000000
0.49994519 -2.76473331 0.04904126 1 1 16975 2.81000000 2682247788 2682247788 1.00000000
0.41329223 -2.28781629 -0.53673321 4 2 16976 2.38600000 2682247790 2682247790 -13.00000000
0.49447033 -2.73991847 0.14591265 20 3 16977 2.78800000 2682247792 2682247792 3.00000000
0.48326224 -2.67781305 -0.52892256 3 4 16977 2.77200000 2682247795 2682247795 -11.00000000
0.48925260 -2.71371627 0.24124710 32 5 16978 2.76800000 2682247797 2682247797 5.00000000
0.58754897 -3.26219296 -0.52499408 1 6 16979 3.35600000 2682247799 2682247799 -9.00000000
0.48440772 -2.69222498 0.33587191 37 7 16980 2.75600000 2682247802 2682247802 7.00000000
0.74381739 -4.13810682 -0.51623851 2 8 16981 4.23600000 2682247804 2682247804 -7.00000000
0.48075256 -2.67727232 0.43082052 38 9 16982 2.75400000 2682247806 2682247806 9.00000000
1.03246641 -5.74972200 -0.51108128 3 10 16982 5.86400000 2682247808 2682247808 -5.00000000
0.47837788 -2.66672325 0.52663285 59 11 16983 2.76000000 2682247811 2682247811 11.00000000
0.47975534 -2.67978382 0.62851322 57 13 16985 2.79400000 2682247815 2682247815 13.00000000
0.48418406 -2.70997453 0.73763430 64 15 16987 2.85000000 2682247820 2682247820 15.00000000
0.34960914 -1.96866441 -0.53575540 4 0 16993 2.07000000 2682247841 2682247841 -15.00000000
0.48763052 -2.74865532 0.04872712 24 1 16994 2.79200000 2682247843 2682247843 1.00000000
0.40570328 -2.28917408 -0.53673321 4 2 16995 2.38600000 2682247845 2682247845 -13.00000000
0.48712268 -2.75137639 0.14643601 30 3 16996 2.79800000 2682247848 2682247848 3.00000000
0.47198379 -2.66586852 -0.52625120 3 4 16996 2.75800000 2682247850 2682247850 -11.00000000
0.48233292 -2.72709537 0.24229297 30 5 16997 2.78000000 2682247852 2682247852 5.00000000
0.57569683 -3.25828767 -0.52405548 1 6 16998 3.35000000 2682247855 2682247855 -9.00000000
0.47409713 -2.68599701 0.33489695 40 7 16999 2.74800000 2682247857 2682247857 7.00000000
0.73146963 -4.14837074 -0.51721346 2 8 17000 4.24400000 2682247859 2682247859 -7.00000000
0.47062421 -2.66904259 0.42925617 40 9 17000 2.74400000 2682247861 2682247861 9.00000000
1.02099788 -5.79628229 -0.51491612 3 10 17001 5.90800000 2682247864 2682247864 -5.00000000
0.47191375 -2.68182969 0.52930415 66 11 17002 2.77400000 2682247866 2682247866 11.00000000
0.47491089 -2.70439267 0.63391209 75 13 17004 2.81800000 2682247871 2682247871 13.00000000
0.49099070 -2.79882693 -0.04959974 1 14 17005 2.84200000 2682247873 2682247873 -1.00000000
0.47366524 -2.70006537 0.73452842 66 15 17005 2.83800000 2682247875 2682247875 15.00000000
0.34174165 -1.96416306 -0.53420252 4 0 17013 2.06400000 2682247896 2682247896 -15.00000000
0.47597837 -2.73851967 0.04851769 25 1 17014 2.78000000 2682247898 2682247898 1.00000000
0.39871019 -2.29633641 -0.53808290 4 2 17015 2.39200000 2682247901 2682247901 -13.00000000
0.47615030 -2.74518847 0.14601731 37 3 17016 2.79000000 2682247903 2682247903 3.00000000
0.46603042 -2.68684363 -0.53006738 3 4 17016 2.77800000 2682247905 2682247905 -11.00000000
0.47145003 -2.72090983 0.24159572 25 5 17017 2.77200000 2682247908 2682247908 5.00000000
0.56229836 -3.24859881 -0.52217823 1 6 17018 3.33800000 2682247910 2682247910 -9.00000000
0.46573302 -2.69350386 0.33562818 45 7 17019 2.75400000 2682247912 2682247912 7.00000000
0.72306657 -4.18610907 -0.52160078 2 8 17020 4.28000000 2682247914 2682247914 -7.00000000
0.46218207 -2.67853594 0.43050766 40 9 17021 2.75200000 2682247917 2682247917 9.00000000
1.00075889 -5.79981089 -0.51491612 3 10 17021 5.90800000 2682247919 2682247919 -5.00000000
0.46588445 -2.70280790 0.53312033 81 11 17022 2.79400000 2682247921 2682247921 11.00000000
0.46546790 -2.70603395 0.63391209 71 13 17024 2.81800000 2682247926 2682247926 13.00000000
0.46834940 -2.72563291 -0.04827335 13 14 17025 2.76600000 2682247928 2682247928 -1.00000000
0.46376583 -2.70178342 0.73452842 59 15 17026 2.83800000 2682247931 2682247931 15.00000000
0.33454034 -1.96540236 -0.53420252 4 0 17034 2.06400000 2682247951 2682247951 -15.00000000
0.46124509 -2.71264625 0.04802902 27 1 17035 2.75200000 2682247954 2682247954 1.00000000
0.38800672 -2.28433371 -0.53493363 4 2 17036 2.37800000 2682247956 2682247956 -13.00000000
0.46374673 -2.73313141 0.14528461 23 3 17037 2.77600000 2682247958 2682247958 3.00000000
0.45782164 -2.69821143 -0.53197551 5 4 17037 2.78800000 2682247961 2682247961 -11.00000000
0.46047539 -2.71672630 0.24107279 21 5 17038 2.76600000 2682247963 2682247963 5.00000000
0.54807943 -3.23700428 -0.51998818 1 6 17039 3.32400000 2682247965 2682247965 -9.00000000
0.45287827 -2.67757702 0.33343452 50 7 17040 2.73600000 2682247967 2682247967 7.00000000
0.70375031 -4.16524267 -0.51867592 2 8 17041 4.25600000 2682247970 2682247970 -7.00000000
0.45085487 -2.66844630 0.42863044 51 9 17041 2.74000000 2682247972 2682247972 9.00000000
0.45662782 -2.70836902 0.53388357 77 11 17043 2.79800000 2682247977 2682247977 11.00000000
0.47599739 -2.82626343 -0.15020420 4 12 17044 2.87000000 2682247979 2682247979 -3.00000000
0.45716324 -2.71733046 0.63616157 58 13 17045 2.82800000 2682247981 2682247981 13.00000000
0.45570493 -2.71155477 -0.04799412 23 14 17046 2.75000000 2682247984 2682247984 -1.00000000
0.45433202 -2.70338583 0.73452842 56 15 17046 2.83800000 2682247986 2682247986 15.00000000
0.32894784 -1.97418046 -0.53627306 4 0 17054 2.07200000 2682248007 2682248007 -15.00000000
0.45341501 -2.72410274 0.04820355 24 1 17055 2.76200000 2682248009 2682248009 1.00000000
0.38003054 -2.28567433 -0.53493363 4 2 17056 2.37800000 2682248011 2682248011 -13.00000000
0.45551243 -2.74261451 0.14570330 26 3 17057 2.78400000 2682248014 2682248014 3.00000000
0.44904366 -2.70366669 -0.53273869 5 4 17057 2.79200000 2682248016 2682248016 -11.00000000
0.44968504 -2.71045518 0.24037553 21 5 17058 2.75800000 2682248018 2682248018 5.00000000
0.53968358 -3.25643706 -0.52280396 1 6 17059 3.34200000 2682248020 2682248020 -9.00000000
0.44255635 -2.67326617 0.33270332 42 7 17060 2.73000000 2682248023 2682248023 7.00000000
0.68661565 -4.15200615 -0.51672602 2 8 17061 4.24000000 2682248025 2682248025 -7.00000000
0.44218209 -2.67390156 0.42925617 51 9 17061 2.74400000 2682248027 2682248027 9.00000000
0.46987385 -2.84443927 -0.25222871 4 10 17062 2.89400000 2682248030 2682248030 -5.00000000
0.44749069 -2.71188354 0.53426516 66 11 17063 2.80000000 2682248032 2682248032 11.00000000
0.46547931 -2.82396650 -0.14999485 13 12 17064 2.86600000 2682248034 2682248034 -3.00000000
0.44355938 -2.69391251 0.63031286 47 13 17065 2.80200000 2682248037 2682248037 13.00000000
0.44980696 -2.73483396 -0.04837807 22 14 17066 2.77200000 2682248039 2682248039 -1.00000000
0.44426563 -2.70114279 0.73349315 56 15 17066 2.83400000 2682248041 2682248041 15.00000000
0.32395539 -1.98479354 -0.53886127 4 0 17073 2.08200000 2682248062 2682248062 -15.00000000
0.44630975 -2.73743296 0.04841297 24 1 17074 2.77400000 2682248064 2682248064 1.00000000
0.37119591 -2.27922821 -0.53313398 4 2 17075 2.37000000 2682248067 2682248067 -13.00000000
0.44577369 -2.74016738 0.14549395 26 3 17076 2.78000000 2682248069 2682248069 3.00000000
0.43912980 -2.69932747 -0.53159386 5 4 17076 2.78600000 2682248071 2682248071 -11.00000000
0.44197267 -2.71979785 0.24107279 20 5 17077 2.76600000 2682248073 2682248073 5.00000000
0.52729934 -3.24845934 -0.52123964 1 6 17078 3.33200000 2682248076 2682248076 -9.00000000
0.43273589 -2.66884065 0.33197209 52 7 17079 2.72400000 2682248078 2682248078 7.00000000
0.45829517 -2.82959962 -0.35195866 1 8 17080 2.88800000 2682248080 2682248080 -7.00000000
0.43221477 -2.67152882 0.42863044 49 9 17081 2.74000000 2682248083 2682248083 9.00000000
0.46075696 -2.84794879 -0.25240302 16 10 17081 2.89600000 2682248085 2682248085 -5.00000000
0.43473676 -2.69009542 0.52968580 68 11 17082 2.77600000 2682248087 2682248087 11.00000000
0.44274390 -2.74268174 -0.14559864 19 12 17083 2.78200000 2682248090 2682248090 -3.00000000
0.43183157 -2.67805362 0.62626374 54 13 17084 2.78400000 2682248092 2682248092 13.00000000
0.44073543 -2.73631072 -0.04837807 22 14 17085 2.77200000 2682248094 2682248094 -1.00000000
0.43530586 -2.70260096 0.73349315 59 15 17085 2.83400000 2682248096 2682248096 15.00000000
0.31580704 -1.97828150 -0.53679073 4 0 17093 2.07400000 2682248117 2682248117 -15.00000000
