# .PCD v0.7 - Point Cloud Data file format
VERSION 0.7
FIELDS x y z intensity laser_id azimuth distance_m adjustedtime timestamp vertical_angle
SIZE 4 4 4 1 1 2 8 8 4 8
TYPE F F F U U U F U U F
COUNT 1 1 1 1 1 1 1 1 1 1
WIDTH 527
HEIGHT 1
VIEWPOINT 0 0 0 1 0 0 0
POINTS 527
DATA ascii
-2.62672091 0.17769018 -0.51174974 3 4 27387 2.68200000 2687676432 2687676432 -11.00000000
-3.16317511 0.21508901 -0.50215465 3 6 27389 3.21000000 2687676436 2687676436 -9.00000000
-3.97084594 0.27140141 -0.48869607 4 8 27391 4.01000000 2687676441 2687676441 -7.00000000
-5.20784760 0.35686183 -0.45669609 6 10 27392 5.24000000 2687676446 2687676446 -5.00000000
-7.64935589 0.52684611 -0.40183547 32 12 27394 7.67800000 2687676450 2687676450 -3.00000000
-10.12944794 0.70299047 2.72070575 42 15 27397 10.51200000 2687676457 2687676457 15.00000000
-1.94439471 0.13732947 -0.52229685 4 0 27404 2.01800000 2687676478 2687676478 -15.00000000
-2.22959566 0.15825492 -0.51603770 4 2 27406 2.29400000 2687676482 2687676482 -13.00000000
-2.61433482 0.18602200 -0.50946003 3 4 27407 2.67000000 2687676487 2687676487 -11.00000000
-3.15846443 0.22584747 -0.50152892 3 6 27409 3.20600000 2687676492 2687676492 -9.00000000
-3.94413447 0.28341100 -0.48552746 5 8 27411 3.98400000 2687676496 2687676496 -7.00000000
-5.21849394 0.37589729 -0.45774198 6 10 27412 5.25200000 2687676501 2687676501 -5.00000000
-7.64348602 0.55325574 -0.40162614 28 12 27414 7.67400000 2687676505 2687676505 -3.00000000
-10.11922550 0.73778266 2.71863532 45 15 27417 10.50400000 2687676512 2687676512 15.00000000
-1.94197690 0.14397301 -0.52177918 4 0 27424 2.01600000 2687676533 2687676533 -15.00000000
-2.22902966 0.16603671 -0.51603770 4 2 27426 2.29400000 2687676538 2687676538 -13.00000000
-2.62541628 0.19602366 -0.51174974 3 4 27427 2.68200000 2687676542 2687676542 -11.00000000
-3.16159654 0.23716672 -0.50215465 3 6 27429 3.21000000 2687676547 2687676547 -9.00000000
-3.97083402 0.29926547 -0.48893979 6 8 27431 4.01200000 2687676552 2687676552 -7.00000000
-5.20324278 0.39306039 -0.45652178 6 10 27432 5.23800000 2687676556 2687676556 -5.00000000
-7.65146589 0.58068883 -0.40214950 48 12 27434 7.68400000 2687676561 2687676561 -3.00000000
-10.11273575 0.77280647 2.71759987 47 15 27437 10.50000000 2687676568 2687676568 15.00000000
-1.93763661 0.15011360 -0.52074391 4 0 27443 2.01200000 2687676588 2687676588 -15.00000000
-2.24789548 0.17493953 -0.52053672 4 2 27445 2.31400000 2687676593 2687676593 -13.00000000
-2.61496520 0.20396544 -0.50984162 3 4 27446 2.67200000 2687676598 2687676598 -11.00000000
-3.16079259 0.24764965 -0.50215465 3 6 27448 3.21000000 2687676602 2687676602 -9.00000000
-3.95398784 0.31118560 -0.48698989 5 8 27450 3.99600000 2687676607 2687676607 -7.00000000
-5.18204832 0.40874612 -0.45477867 3 10 27451 5.21800000 2687676611 2687676611 -5.00000000
-7.64949846 0.60605884 -0.40214950 20 12 27453 7.68400000 2687676616 2687676616 -3.00000000
-10.10640621 0.80426615 2.71656466 45 15 27455 10.49600000 2687676623 2687676623 15.00000000
-1.93710077 0.15687631 -0.52074391 4 0 27463 2.01200000 2687676644 2687676644 -15.00000000
-2.23950171 0.18215315 -0.51873714 4 2 27465 2.30600000 2687676648 2687676648 -13.00000000
-2.62402129 0.21388963 -0.51174974 3 4 27466 2.68200000 2687676653 2687676653 -11.00000000
-3.14809632 0.25771433 -0.50027740 3 6 27468 3.19800000 2687676657 2687676657 -9.00000000
-3.97068334 0.32644960 -0.48918355 4 8 27470 4.01400000 2687676662 2687676662 -7.00000000
-5.19846106 0.42830476 -0.45634747 6 10 27471 5.23600000 2687676667 2687676667 -5.00000000
-7.65131712 0.63308626 -0.40235883 24 12 27473 7.68800000 2687676671 2687676671 -3.00000000
-10.11494160 0.84226447 2.71967053 45 15 27476 10.50800000 2687676678 2687676678 15.00000000
-1.94616640 0.16445039 -0.52333212 4 0 27483 2.02200000 2687676699 2687676699 -15.00000000
-2.22331810 0.18865128 -0.51513791 4 2 27485 2.29000000 2687676704 2687676704 -13.00000000
-2.61543393 0.22238255 -0.51022327 3 4 27486 2.67400000 2687676708 2687676708 -11.00000000
-3.15111399 0.26903775 -0.50090313 3 6 27488 3.20200000 2687676713 2687676713 -9.00000000
-3.96160817 0.33962962 -0.48820859 4 8 27490 4.00600000 2687676717 2687676717 -7.00000000
-5.20288944 0.44695973 -0.45687041 6 10 27491 5.24200000 2687676722 2687676722 -5.00000000
-7.64707088 0.65961885 -0.40225416 32 12 27493 7.68600000 2687676727 2687676727 -3.00000000
-10.11401749 0.87596887 2.72018814 47 15 27495 10.51000000 2687676734 2687676734 15.00000000
-1.94750488 0.17141217 -0.52384973 4 0 27503 2.02400000 2687676754 2687676754 -15.00000000
-2.23041081 0.19709711 -0.51693749 4 2 27505 2.29800000 2687676759 2687676759 -13.00000000
-2.61855292 0.23185708 -0.51098651 3 4 27506 2.67800000 2687676763 2687676763 -11.00000000
-5.60846281 0.49758214 0.49260426 2 5 27507 5.65200000 2687676766 2687676766 5.00000000
-3.15015554 0.28003556 -0.50090313 3 6 27508 3.20200000 2687676768 2687676768 -9.00000000
-3.96237588 0.35363263 -0.48845232 6 8 27510 4.00800000 2687676773 2687676773 -7.00000000
-5.21320438 0.46618325 -0.45791626 6 10 27511 5.25400000 2687676777 2687676777 -5.00000000
-7.64671087 0.68648666 -0.40235883 36 12 27513 7.68800000 2687676782 2687676782 -3.00000000
-10.11651134 0.91355395 2.72174096 45 15 27516 10.51600000 2687676789 2687676789 15.00000000
-1.94881845 0.17838527 -0.52436739 4 0 27523 2.02600000 2687676810 2687676810 -15.00000000
-2.23359036 0.20523812 -0.51783735 4 2 27525 2.30200000 2687676814 2687676814 -13.00000000
-2.61968255 0.24117610 -0.51136810 3 4 27526 2.68000000 2687676819 2687676819 -11.00000000
-5.56106091 0.51294732 0.48859510 8 5 27527 5.60600000 2687676821 2687676821 5.00000000
-3.17276287 0.29321131 -0.50465757 3 6 27528 3.22600000 2687676823 2687676823 -9.00000000
-3.95321083 0.36672828 -0.48747736 6 8 27530 4.00000000 2687676828 2687676828 -7.00000000
-5.19567490 0.48290282 -0.45652178 3 10 27531 5.23800000 2687676833 2687676833 -5.00000000
-7.52097321 0.70167166 -0.39586917 8 12 27533 7.56400000 2687676837 2687676837 -3.00000000
-7.15360594 0.66991693 -0.12541299 2 14 27535 7.18600000 2687676842 2687676842 -1.00000000
-10.10573292 0.94637597 2.71967053 47 15 27535 10.50800000 2687676844 2687676844 15.00000000
-1.93664479 0.18408997 -0.52126157 4 0 27543 2.01400000 2687676865 2687676865 -15.00000000
-7.05699205 0.67205322 0.12373756 3 1 27544 7.09000000 2687676867 2687676867 1.00000000
-2.24062014 0.21377389 -0.51963693 4 2 27545 2.31000000 2687676869 2687676869 -13.00000000
-2.61882472 0.25031903 -0.51136810 3 4 27546 2.68000000 2687676874 2687676874 -11.00000000
-5.54733658 0.53121638 0.48754922 11 5 27547 5.59400000 2687676876 2687676876 5.00000000
-3.16385460 0.30352995 -0.50340611 3 6 27548 3.21800000 2687676879 2687676879 -9.00000000
-3.96376228 0.38166690 -0.48893979 6 8 27550 4.01200000 2687676883 2687676883 -7.00000000
-5.19395733 0.50103617 -0.45652178 3 10 27551 5.23800000 2687676888 2687676888 -5.00000000
-7.32763386 0.70944339 -0.38582066 3 12 27553 7.37200000 2687676892 2687676892 -3.00000000
-7.06563997 0.68656737 -0.12391209 4 14 27555 7.10000000 2687676897 2687676897 -1.00000000
-10.09642792 0.98284745 2.71811771 47 15 27556 10.50200000 2687676899 2687676899 15.00000000
-1.94560313 0.19179662 -0.52384973 4 0 27563 2.02400000 2687676920 2687676920 -15.00000000
-5.93621445 0.58623528 0.10412106 2 1 27564 5.96600000 2687676922 2687676922 1.00000000
-2.23210311 0.22082639 -0.51783735 4 2 27565 2.30200000 2687676925 2687676925 -13.00000000
-6.46342087 0.64057821 0.34039307 2 3 27566 6.50400000 2687676927 2687676927 3.00000000
-2.62770343 0.26042703 -0.51327622 3 4 27566 2.69000000 2687676929 2687676929 -11.00000000
-5.53950024 0.54998642 0.48702630 11 5 27567 5.58800000 2687676932 2687676932 5.00000000
-3.14705038 0.31300795 -0.50090313 3 6 27568 3.20200000 2687676934 2687676934 -9.00000000
-3.95450497 0.39471206 -0.48796484 6 8 27570 4.00400000 2687676939 2687676939 -7.00000000
-5.21596718 0.52154213 -0.45861351 6 10 27571 5.26200000 2687676943 2687676943 -5.00000000
-7.27543068 0.73003209 -0.38320386 3 12 27573 7.32200000 2687676948 2687676948 -3.00000000
-6.36483908 0.64090562 -0.11166050 6 14 27575 6.39800000 2687676952 2687676952 -1.00000000
-10.10272312 1.01729071 2.72070575 47 15 27575 10.51200000 2687676955 2687676955 15.00000000
-1.93915617 0.19799818 -0.52229685 4 0 27583 2.01800000 2687676975 2687676975 -15.00000000
-5.68546724 0.58151919 0.09975795 5 1 27584 5.71600000 2687676978 2687676978 1.00000000
-2.23131871 0.22861654 -0.51783735 4 2 27585 2.30200000 2687676980 2687676980 -13.00000000
-5.89688778 0.60522360 0.31066623 4 3 27586 5.93600000 2687676982 2687676982 3.00000000
-2.62287235 0.26919696 -0.51251298 3 4 27586 2.68600000 2687676985 2687676985 -11.00000000
-5.53358269 0.56891203 0.48667768 11 5 27587 5.58400000 2687676987 2687676987 5.00000000
-3.15379858 0.32480079 -0.50215465 3 6 27588 3.21000000 2687676989 2687676989 -9.00000000
-3.96297574 0.40953371 -0.48918355 4 8 27590 4.01400000 2687676994 2687676994 -7.00000000
-5.18835115 0.53707916 -0.45634747 3 10 27591 5.23600000 2687676998 2687676998 -5.00000000
-5.19091129 0.53917563 -0.27350771 2 12 27593 5.22600000 2687677003 2687677003 -3.00000000
-5.18114328 0.53998917 -0.09092703 2 14 27595 5.21000000 2687677008 2687677008 -1.00000000
-10.03359890 1.04749215 2.70310616 42 15 27596 10.44400000 2687677010 2687677010 15.00000000
-1.95190132 0.20618646 -0.52592027 4 0 27603 2.03200000 2687677031 2687677031 -15.00000000
-5.17631149 0.54770619 0.09085723 7 1 27604 5.20600000 2687677033 2687677033 1.00000000
-2.22663116 0.23599313 -0.51693749 4 2 27605 2.29800000 2687677035 2687677035 -13.00000000
-5.52333879 0.58637488 0.29109257 2 3 27606 5.56200000 2687677038 2687677038 3.00000000
-2.62191677 0.27835086 -0.51251298 3 4 27606 2.68600000 2687677040 2687677040 -11.00000000
-5.52958202 0.58801365 0.48650336 14 5 27607 5.58200000 2687677042 2687677042 5.00000000
-3.14871693 0.33538917 -0.50152892 3 6 27608 3.20600000 2687677045 2687677045 -9.00000000
-3.94967914 0.42209893 -0.48772112 4 8 27610 4.00200000 2687677049 2687677049 -7.00000000
-4.82390881 0.51637870 -0.42444846 2 10 27611 4.87000000 2687677054 2687677054 -5.00000000
-5.03807354 0.54108298 -0.26555264 2 12 27613 5.07400000 2687677058 2687677058 -3.00000000
-5.04800653 0.54393220 -0.08862332 2 14 27615 5.07800000 2687677063 2687677063 -1.00000000
-10.10305786 1.08862352 2.72277641 47 15 27615 10.52000000 2687677065 2687677065 15.00000000
-1.93964708 0.21174075 -0.52281445 4 0 27623 2.02000000 2687677086 2687677086 -15.00000000
-5.04118204 0.55120885 0.08851860 4 1 27624 5.07200000 2687677088 2687677088 1.00000000
-2.23741698 0.24503700 -0.51963693 4 2 27625 2.31000000 2687677091 2687677091 -13.00000000
-5.08646679 0.55795711 0.26816943 2 3 27626 5.12400000 2687677093 2687677093 3.00000000
-2.61312294 0.28664505 -0.51098651 3 4 27626 2.67800000 2687677095 2687677095 -11.00000000
-5.52551556 0.60709435 0.48632905 34 5 27627 5.58000000 2687677098 2687677098 5.00000000
-3.16716242 0.34853899 -0.50465757 3 6 27628 3.22600000 2687677100 2687677100 -9.00000000
-3.96396637 0.43762597 -0.48967102 4 8 27630 4.01800000 2687677104 2687677104 -7.00000000
-4.75276566 0.52554989 -0.41834757 5 10 27631 4.80000000 2687677109 2687677109 -5.00000000
-4.66295862 0.51726687 -0.24587432 2 12 27633 4.69800000 2687677114 2687677114 -3.00000000
-4.70026445 0.52306616 -0.08254988 1 14 27635 4.73000000 2687677118 2687677118 -1.00000000
-10.08172035 1.12371981 2.71811771 47 15 27636 10.50200000 2687677121 2687677121 15.00000000
-1.93889618 0.21851009 -0.52281445 4 0 27643 2.02000000 2687677141 2687677141 -15.00000000
-4.59412193 0.51856124 0.08069993 6 1 27644 4.62400000 2687677144 2687677144 1.00000000
-2.24429345 0.25372121 -0.52143657 4 2 27645 2.31800000 2687677146 2687677146 -13.00000000
-4.82252407 0.54604703 0.25435275 6 3 27646 4.86000000 2687677148 2687677148 3.00000000
-2.61210632 0.29576480 -0.51098651 3 4 27646 2.67800000 2687677151 2687677151 -11.00000000
-3.15022445 0.35780886 -0.50215465 3 6 27648 3.21000000 2687677155 2687677155 -9.00000000
-3.94466376 0.44943765 -0.48747736 4 8 27650 4.00000000 2687677160 2687677160 -7.00000000
-4.72516823 0.53920037 -0.41608152 2 10 27651 4.77400000 2687677164 2687677164 -5.00000000
-4.63731337 0.53081483 -0.24461827 4 12 27653 4.67400000 2687677169 2687677169 -3.00000000
-4.62887764 0.53148627 -0.08132821 1 14 27655 4.66000000 2687677174 2687677174 -1.00000000
-10.07793903 1.15714586 2.71811771 47 15 27655 10.50200000 2687677176 2687677176 15.00000000
-1.93812168 0.22527677 -0.52281445 4 0 27663 2.02000000 2687677197 2687677197 -15.00000000
-4.56248999 0.53112620 0.08017635 8 1 27664 4.59400000 2687677199 2687677199 1.00000000
-2.24339414 0.26155370 -0.52143657 4 2 27665 2.31800000 2687677201 2687677201 -13.00000000
-4.75909138 0.55569667 0.25110793 4 3 27666 4.79800000 2687677204 2687677204 3.00000000
-2.62275815 0.30624712 -0.51327622 3 4 27666 2.69000000 2687677206 2687677206 -11.00000000
-3.13718438 0.36742431 -0.50027740 3 6 27668 3.19800000 2687677210 2687677210 -9.00000000
-3.94701385 0.46366757 -0.48796484 6 8 27670 4.00400000 2687677215 2687677215 -7.00000000
-4.72127867 0.55545819 -0.41590720 5 10 27671 4.77200000 2687677220 2687677220 -5.00000000
-4.60567951 0.54348797 -0.24304818 4 12 27673 4.64400000 2687677224 2687677224 -3.00000000
-4.51578760 0.53447866 -0.07937355 5 14 27675 4.54800000 2687677229 2687677229 -1.00000000
-10.07575703 1.19254446 2.71863532 42 15 27675 10.50400000 2687677231 2687677231 15.00000000
-1.94307792 0.23272993 -0.52436739 4 0 27683 2.02600000 2687677252 2687677252 -15.00000000
-4.55663729 0.54657269 0.08010655 6 1 27684 4.59000000 2687677254 2687677254 1.00000000
-2.22698903 0.26752362 -0.51783735 4 2 27685 2.30200000 2687677257 2687677257 -13.00000000
-4.70953131 0.56658018 0.24859579 4 3 27686 4.75000000 2687677259 2687677259 3.00000000
-2.63336825 0.31680739 -0.51556593 3 4 27686 2.70200000 2687677261 2687677261 -11.00000000
-5.38434553 0.64871705 0.47447586 2 5 27687 5.44400000 2687677263 2687677263 5.00000000
-3.13980508 0.37884617 -0.50090313 3 6 27688 3.20200000 2687677266 2687677266 -9.00000000
-3.94142985 0.47696543 -0.48747736 4 8 27690 4.00000000 2687677270 2687677270 -7.00000000
-4.71931076 0.57193512 -0.41590720 5 10 27691 4.77200000 2687677275 2687677275 -5.00000000
-4.59185839 0.55811560 -0.24242015 4 12 27693 4.63200000 2687677280 2687677280 -3.00000000
-4.49801445 0.54830271 -0.07909431 5 14 27695 4.53200000 2687677284 2687677284 -1.00000000
-10.06961536 1.22747433 2.71811771 45 15 27695 10.50200000 2687677286 2687677286 15.00000000
-1.94992292 0.24045688 -0.52643794 4 0 27703 2.03400000 2687677307 2687677307 -15.00000000
-4.52691650 0.55904377 0.07961788 4 1 27704 4.56200000 2687677310 2687677310 1.00000000
-2.24151349 0.27720904 -0.52143657 4 2 27705 2.31800000 2687677312 2687677312 -13.00000000
-4.65599012 0.57663357 0.24587432 2 3 27706 4.69800000 2687677314 2687677314 3.00000000
-2.62055612 0.32454982 -0.51327622 3 4 27706 2.69000000 2687677316 2687677316 -11.00000000
-5.28318596 0.65524662 0.46576029 2 5 27707 5.34400000 2687677319 2687677319 5.00000000
-3.15806651 0.39223856 -0.50403184 3 6 27708 3.22200000 2687677321 2687677321 -9.00000000
-3.95353007 0.49243820 -0.48918355 4 8 27710 4.01400000 2687677326 2687677326 -7.00000000
-4.71333170 0.58791190 -0.41555858 5 10 27711 4.76800000 2687677330 2687677330 -5.00000000
-4.68302774 0.58579212 -0.24733973 2 12 27713 4.72600000 2687677335 2687677335 -3.00000000
-4.45440578 0.55877352 -0.07836130 1 14 27715 4.49000000 2687677339 2687677339 -1.00000000
-10.06888199 1.26485467 2.71915293 42 15 27716 10.50600000 2687677342 2687677342 15.00000000
-1.93957508 0.24536924 -0.52384973 4 0 27721 2.02400000 2687677363 2687677363 -15.00000000
-4.49339676 0.56924158 0.07905940 4 1 27722 4.53000000 2687677365 2687677365 1.00000000
-2.23289871 0.28326857 -0.51963693 4 2 27723 2.31000000 2687677367 2687677367 -13.00000000
-4.57886505 0.58169311 0.24189679 1 3 27724 4.62200000 2687677369 2687677369 3.00000000
-2.61562848 0.33228609 -0.51251298 3 4 27724 2.68600000 2687677372 2687677372 -11.00000000
-5.22576046 0.66480070 0.46087956 7 5 27725 5.28800000 2687677374 2687677374 5.00000000
-3.16269732 0.40290686 -0.50497043 1 6 27726 3.22800000 2687677376 2687677376 -9.00000000
-3.95196342 0.50485611 -0.48918355 4 8 27728 4.01400000 2687677381 2687677381 -7.00000000
-4.71936655 0.60372758 -0.41625583 5 10 27729 4.77600000 2687677386 2687677386 -5.00000000
-4.40899467 0.56715184 -0.07759340 1 14 27733 4.44600000 2687677395 2687677395 -1.00000000
-10.06125259 1.29423106 2.71811771 45 15 27733 10.50200000 2687677397 2687677397 15.00000000
-1.92912817 0.25089237 -0.52126157 4 0 27741 2.01400000 2687677418 2687677418 -15.00000000
-4.40611553 0.57381850 0.07755850 3 1 27742 4.44400000 2687677420 2687677420 1.00000000
-2.24735522 0.29307714 -0.52323616 4 2 27743 2.32600000 2687677422 2687677422 -13.00000000
-4.52927589 0.59146589 0.23938467 1 3 27744 4.57400000 2687677425 2687677425 3.00000000
-2.61250591 0.34116009 -0.51213133 3 4 27744 2.68400000 2687677427 2687677427 -11.00000000
-5.15623903 0.67425460 0.45495299 7 5 27745 5.22000000 2687677429 2687677429 5.00000000
-3.15147853 0.41266194 -0.50340611 3 6 27746 3.21800000 2687677432 2687677432 -9.00000000
-6.31019354 0.82739168 0.78142625 2 7 27747 6.41200000 2687677434 2687677434 7.00000000
-3.96198630 0.52019852 -0.49064597 4 8 27748 4.02600000 2687677436 2687677436 -7.00000000
-4.69747639 0.61760044 -0.41451272 8 10 27749 4.75600000 2687677441 2687677441 -5.00000000
-4.34156704 0.57389098 -0.07644154 1 14 27753 4.38000000 2687677450 2687677450 -1.00000000
-10.04901314 1.32833087 2.71604705 45 15 27753 10.49400000 2687677452 2687677452 15.00000000
-1.93394005 0.25872982 -0.52281445 4 0 27762 2.02000000 2687677473 2687677473 -15.00000000
-4.34848690 0.58252960 0.07658116 3 1 27763 4.38800000 2687677475 2687677475 1.00000000
-2.23081446 0.29923949 -0.51963693 4 2 27764 2.31000000 2687677478 2687677478 -13.00000000
-4.47571564 0.60036856 0.23666319 1 3 27764 4.52200000 2687677480 2687677480 3.00000000
-2.61707520 0.35151717 -0.51327622 3 4 27765 2.69000000 2687677482 2687677482 -11.00000000
-5.10634232 0.68677485 0.45076951 7 5 27766 5.17200000 2687677485 2687677485 5.00000000
-3.14602947 0.42368260 -0.50278038 3 6 27767 3.21400000 2687677487 2687677487 -9.00000000
-5.57922268 0.75235748 0.69124293 2 7 27768 5.67200000 2687677489 2687677489 7.00000000
-3.96005321 0.53471643 -0.49064597 4 8 27769 4.02600000 2687677491 2687677491 -7.00000000
-4.69913006 0.63534731 -0.41486132 8 10 27770 4.76000000 2687677496 2687677496 -5.00000000
-4.29187918 0.58333617 -0.07560383 3 14 27774 4.33200000 2687677505 2687677505 -1.00000000
-10.04790497 1.36567378 2.71708226 47 15 27774 10.49800000 2687677508 2687677508 15.00000000
-1.94259453 0.26679319 -0.52540267 5 0 27782 2.03000000 2687677528 2687677528 -15.00000000
-4.31473017 0.59334624 0.07602268 5 1 27783 4.35600000 2687677531 2687677531 1.00000000
-2.22203422 0.30596137 -0.51783735 4 2 27784 2.30200000 2687677533 2687677533 -13.00000000
-4.41610765 0.60885805 0.23362771 3 3 27785 4.46400000 2687677535 2687677535 3.00000000
-2.61777711 0.36091846 -0.51365781 3 4 27785 2.69200000 2687677538 2687677538 -11.00000000
-5.08417702 0.70187044 0.44902638 10 5 27786 5.15200000 2687677540 2687677540 5.00000000
-3.15627193 0.43628460 -0.50465757 3 6 27787 3.22600000 2687677542 2687677542 -9.00000000
-5.56083155 0.76965076 0.68929303 2 7 27788 5.65600000 2687677544 2687677544 7.00000000
-3.94439840 0.54662883 -0.48893979 6 8 27789 4.01200000 2687677547 2687677547 -7.00000000
-4.70083046 0.65229416 -0.41520995 5 10 27790 4.76400000 2687677551 2687677551 -5.00000000
-4.47668505 0.62278420 -0.23687254 2 12 27792 4.52600000 2687677556 2687677556 -3.00000000
-4.27199221 0.59582800 -0.07528968 5 14 27794 4.31400000 2687677561 2687677561 -1.00000000
-10.04665947 1.40302646 2.71811771 45 15 27795 10.50200000 2687677563 2687677563 15.00000000
-1.94356430 0.27384204 -0.52592027 4 0 27802 2.03200000 2687677584 2687677584 -15.00000000
-4.27699137 0.60337573 0.07539440 5 1 27803 4.32000000 2687677586 2687677586 1.00000000
-2.22867107 0.31480607 -0.51963693 4 2 27804 2.31000000 2687677588 2687677588 -13.00000000
-4.35671282 0.61539805 0.23059222 5 3 27804 4.40600000 2687677591 2687677591 3.00000000
-2.61066961 0.36922923 -0.51251298 3 4 27805 2.68600000 2687677593 2687677593 -11.00000000
-5.05605078 0.71598166 0.44676033 10 5 27806 5.12600000 2687677595 2687677595 5.00000000
-3.15472984 0.44729939 -0.50465757 3 6 27807 3.22600000 2687677597 2687677597 -9.00000000
-5.58366108 0.79268420 0.69246161 2 7 27808 5.68200000 2687677600 2687677600 7.00000000
-3.94639707 0.56095272 -0.48942727 6 8 27809 4.01600000 2687677602 2687677602 -7.00000000
-4.71825027 0.67150646 -0.41695309 5 10 27810 4.78400000 2687677607 2687677607 -5.00000000
-4.31630468 0.61583841 -0.22849879 2 12 27812 4.36600000 2687677611 2687677611 -3.00000000
-4.21643829 0.60309160 -0.07434725 5 14 27814 4.26000000 2687677616 2687677616 -1.00000000
-10.03812599 1.43578756 2.71708226 45 15 27814 10.49800000 2687677618 2687677618 15.00000000
-1.93303657 0.27924362 -0.52333212 4 0 27822 2.02200000 2687677639 2687677639 -15.00000000
-4.24517250 0.61400777 0.07487082 5 1 27823 4.29000000 2687677641 2687677641 1.00000000
-2.23141575 0.32314226 -0.52053672 4 2 27824 2.31400000 2687677643 2687677643 -13.00000000
-4.32291222 0.62602210 0.22891748 5 3 27824 4.37400000 2687677646 2687677646 3.00000000
-2.60159326 0.37721306 -0.51098651 3 4 27825 2.67800000 2687677648 2687677648 -11.00000000
-5.02591705 0.72961891 0.44431996 10 5 27826 5.09800000 2687677650 2687677650 5.00000000
-3.16096854 0.45944527 -0.50590909 3 6 27827 3.23400000 2687677653 2687677653 -9.00000000
-5.60050440 0.81502879 0.69489902 2 7 27828 5.70200000 2687677655 2687677655 7.00000000
-3.94441485 0.57472485 -0.48942727 6 8 27829 4.01600000 2687677657 2687677657 -7.00000000
-4.71982050 0.68854737 -0.41730168 5 10 27830 4.78800000 2687677662 2687677662 -5.00000000
-4.32203388 0.63205743 -0.22891748 4 12 27832 4.37400000 2687677667 2687677667 -3.00000000
-4.20045757 0.61577570 -0.07410292 5 14 27834 4.24600000 2687677671 2687677671 -1.00000000
-10.02923012 1.47025800 2.71604705 45 15 27834 10.49400000 2687677673 2687677673 15.00000000
-1.93396115 0.28627238 -0.52384973 5 0 27842 2.02400000 2687677694 2687677694 -15.00000000
-4.23113489 0.62706351 0.07466140 7 1 27843 4.27800000 2687677696 2687677696 1.00000000
-2.23798490 0.33207348 -0.52233636 4 2 27844 2.32200000 2687677699 2687677699 -13.00000000
-4.31268644 0.64068818 0.22849879 5 3 27845 4.36600000 2687677701 2687677701 3.00000000
-2.60414457 0.38686901 -0.51174974 3 4 27845 2.68200000 2687677703 2687677703 -11.00000000
-4.99377871 0.74276143 0.44170532 9 5 27846 5.06800000 2687677706 2687677706 5.00000000
-3.13980722 0.46756673 -0.50278038 3 6 27847 3.21400000 2687677708 2687677708 -9.00000000
-5.62903929 0.83925688 0.69879884 2 7 27848 5.73400000 2687677710 2687677710 7.00000000
-3.95809126 0.59083450 -0.49137720 6 8 27849 4.03200000 2687677713 2687677713 -7.00000000
-4.72329998 0.70590186 -0.41782463 5 10 27850 4.79400000 2687677717 2687677717 -5.00000000
-4.29807377 0.64388531 -0.22776608 4 12 27852 4.35200000 2687677722 2687677722 -3.00000000
-4.18444014 0.62835562 -0.07385858 7 14 27854 4.23200000 2687677726 2687677726 -1.00000000
-10.01995373 1.50643265 2.71501184 45 15 27855 10.49000000 2687677729 2687677729 15.00000000
-1.93486011 0.29331094 -0.52436739 5 0 27862 2.02600000 2687677749 2687677749 -15.00000000
-4.20124149 0.63762826 0.07417273 7 1 27863 4.25000000 2687677752 2687677752 1.00000000
-2.23681211 0.33988348 -0.52233636 4 2 27864 2.32200000 2687677754 2687677754 -13.00000000
-4.29671574 0.65288579 0.22776608 7 3 27864 4.35200000 2687677756 2687677756 3.00000000
-2.60860109 0.39684263 -0.51289457 3 4 27865 2.68800000 2687677759 2687677759 -11.00000000
-4.96751928 0.75658846 0.43961358 9 5 27866 5.04400000 2687677761 2687677761 5.00000000
-3.14596725 0.47971496 -0.50403184 3 6 27867 3.22200000 2687677763 2687677763 -9.00000000
-5.60252714 0.85530579 0.69587398 2 7 27868 5.71000000 2687677766 2687677766 7.00000000
-3.95600486 0.60464722 -0.49137720 6 8 27869 4.03200000 2687677768 2687677768 -7.00000000
-5.21120358 0.79742622 -0.46122819 9 10 27870 5.29200000 2687677773 2687677773 -5.00000000
-4.26618767 0.65434253 -0.22619601 6 12 27872 4.32200000 2687677777 2687677777 -3.00000000
-4.17036247 0.64113504 -0.07364915 8 14 27874 4.22000000 2687677782 2687677782 -1.00000000
-10.02227211 1.54257512 2.71708226 45 15 27875 10.49800000 2687677784 2687677784 15.00000000
-1.93578589 0.30002144 -0.52488500 4 0 27881 2.02800000 2687677805 2687677805 -15.00000000
-4.20107985 0.65186322 0.07420763 7 1 27882 4.25200000 2687677807 2687677807 1.00000000
-2.23182130 0.34670088 -0.52143657 4 2 27883 2.31800000 2687677809 2687677809 -13.00000000
-4.28268576 0.66529107 0.22713806 11 3 27883 4.34000000 2687677812 2687677812 3.00000000
-2.61697030 0.40699938 -0.51480269 3 4 27884 2.69800000 2687677814 2687677814 -11.00000000
-4.95710850 0.77183110 0.43891633 9 5 27885 5.03600000 2687677816 2687677816 5.00000000
-3.14045548 0.48953623 -0.50340611 3 6 27886 3.21800000 2687677819 2687677819 -9.00000000
-5.59965992 0.87387973 0.69587398 2 7 27887 5.71000000 2687677821 2687677821 7.00000000
-3.94417143 0.61623031 -0.49015850 6 8 27888 4.02200000 2687677823 2687677823 -7.00000000
-5.23018360 0.81808972 -0.46314561 9 10 27889 5.31400000 2687677828 2687677828 -5.00000000
-4.22650433 0.66260862 -0.22420724 6 12 27891 4.28400000 2687677832 2687677832 -3.00000000
-4.16821337 0.65496093 -0.07364915 14 14 27893 4.22000000 2687677837 2687677837 -1.00000000
-10.01519299 1.57550156 2.71656466 42 15 27894 10.49600000 2687677839 2687677839 15.00000000
-1.94808292 0.30889457 -0.52850848 5 0 27901 2.04200000 2687677860 2687677860 -15.00000000
-4.18692923 0.66464269 0.07399821 7 1 27902 4.24000000 2687677862 2687677862 1.00000000
-2.22674823 0.35387757 -0.52053672 4 2 27903 2.31400000 2687677865 2687677865 -13.00000000
-4.28033733 0.68023640 0.22713806 26 3 27903 4.34000000 2687677867 2687677867 3.00000000
-2.61553359 0.41613185 -0.51480269 3 4 27904 2.69800000 2687677869 2687677869 -11.00000000
-4.93667603 0.78630936 0.43734753 9 5 27905 5.01800000 2687677872 2687677872 5.00000000
-3.14653039 0.50173974 -0.50465757 3 6 27906 3.22600000 2687677874 2687677874 -9.00000000
-5.59657574 0.89342088 0.69587398 2 7 27907 5.71000000 2687677876 2687677876 7.00000000
-3.93415546 0.62874120 -0.48918355 4 8 27908 4.01400000 2687677879 2687677879 -7.00000000
-5.23910046 0.83823007 -0.46419150 9 10 27909 5.32600000 2687677883 2687677883 -5.00000000
-4.20641661 0.67451185 -0.22326519 8 12 27911 4.26600000 2687677888 2687677888 -3.00000000
-4.15405560 0.66760296 -0.07343972 17 14 27913 4.20800000 2687677892 2687677892 -1.00000000
-10.02489090 1.61290646 2.72070575 47 15 27914 10.51200000 2687677895 2687677895 15.00000000
-1.93364418 0.31352836 -0.52488500 4 0 27921 2.02800000 2687677915 2687677915 -15.00000000
-4.19050503 0.68021494 0.07410292 7 1 27922 4.24600000 2687677918 2687677918 1.00000000
-2.22165251 0.36102307 -0.51963693 4 2 27923 2.31000000 2687677920 2687677920 -13.00000000
-4.26019430 0.69229025 0.22619601 5 3 27923 4.32200000 2687677922 2687677922 3.00000000
-2.59081173 0.42147633 -0.51022327 3 4 27924 2.67400000 2687677925 2687677925 -11.00000000
-4.92800140 0.80257601 0.43682459 9 5 27925 5.01200000 2687677927 2687677927 5.00000000
-3.14865923 0.51335585 -0.50528330 3 6 27926 3.23000000 2687677929 2687677929 -9.00000000
-5.59342289 0.91295111 0.69587398 2 7 27927 5.71000000 2687677931 2687677931 7.00000000
-3.95348716 0.64599138 -0.49186468 6 8 27928 4.03600000 2687677934 2687677934 -7.00000000
-5.23614264 0.85651284 -0.46419150 9 10 27929 5.32600000 2687677938 2687677938 -5.00000000
-4.19812393 0.68822151 -0.22295117 8 12 27931 4.26000000 2687677943 2687677943 -3.00000000
-4.13394070 0.67918152 -0.07312559 22 14 27933 4.19000000 2687677948 2687677948 -1.00000000
-10.00042439 1.64300931 2.71552944 47 15 27933 10.49200000 2687677950 2687677950 15.00000000
-1.92682040 0.31932858 -0.52333212 4 0 27941 2.02200000 2687677971 2687677971 -15.00000000
-4.19205046 0.69549298 0.07417273 7 1 27942 4.25000000 2687677973 2687677973 1.00000000
-2.24344754 0.37260732 -0.52503574 4 2 27943 2.33400000 2687677975 2687677975 -13.00000000
-4.27154350 0.70944750 0.22692871 7 3 27943 4.33600000 2687677978 2687677978 3.00000000
-2.60869145 0.43373743 -0.51403946 3 4 27944 2.69400000 2687677980 2687677980 -11.00000000
-4.89765501 0.81519336 0.43438423 9 5 27945 4.98400000 2687677982 2687677982 5.00000000
-3.14295101 0.52369422 -0.50465757 3 6 27946 3.22600000 2687677984 2687677984 -9.00000000
-3.94729209 0.65913379 -0.49137720 6 8 27948 4.03200000 2687677989 2687677989 -7.00000000
-5.21543455 0.87182873 -0.46262267 9 10 27949 5.30800000 2687677994 2687677994 -5.00000000
-4.20751476 0.70485145 -0.22357920 10 12 27951 4.27200000 2687677998 2687677998 -3.00000000
-4.12562847 0.69261426 -0.07302087 31 14 27953 4.18400000 2687678003 2687678003 -1.00000000
-9.99052525 1.67901134 2.71449423 45 15 27954 10.48800000 2687678005 2687678005 15.00000000
-1.92950344 0.32669750 -0.52436739 4 0 27961 2.02600000 2687678026 2687678026 -15.00000000
-4.19354057 0.71079004 0.07424254 5 1 27962 4.25400000 2687678028 2687678028 1.00000000
-2.22292042 0.37717620 -0.52053672 4 2 27963 2.31400000 2687678031 2687678031 -13.00000000
-4.30238867 0.73078448 0.22870813 16 3 27964 4.37000000 2687678033 2687678033 3.00000000
-2.60329056 0.44218329 -0.51327622 3 4 27964 2.69000000 2687678035 2687678035 -11.00000000
-4.88888741 0.83128244 0.43386129 9 5 27965 4.97800000 2687678037 2687678037 5.00000000
-3.14499855 0.53532493 -0.50528330 3 6 27966 3.23000000 2687678040 2687678040 -9.00000000
-7.15242290 1.21873200 0.89086491 2 7 27967 7.31000000 2687678042 2687678042 7.00000000
-3.93909669 0.67190707 -0.49064597 4 8 27968 4.02600000 2687678044 2687678044 -7.00000000
-5.21628761 0.89069939 -0.46297130 9 10 27969 5.31200000 2687678049 2687678049 -5.00000000
-4.20306015 0.71919727 -0.22347453 20 12 27971 4.27000000 2687678054 2687678054 -3.00000000
-4.12318563 0.70701116 -0.07302087 35 14 27973 4.18400000 2687678058 2687678058 -1.00000000
-9.97157383 1.70984638 2.71087074 42 15 27973 10.47400000 2687678061 2687678061 15.00000000
-1.93596578 0.33474731 -0.52643794 4 0 27981 2.03400000 2687678081 2687678081 -15.00000000
-4.20285606 0.72747028 0.07445197 5 1 27982 4.26600000 2687678084 2687678084 1.00000000
-2.22159028 0.38493332 -0.52053672 4 2 27983 2.31400000 2687678086 2687678086 -13.00000000
-4.27816486 0.74204355 0.22755674 7 3 27984 4.34800000 2687678088 2687678088 3.00000000
-2.60946870 0.45260984 -0.51480269 3 4 27984 2.69800000 2687678090 2687678090 -11.00000000
-4.88988161 0.84902442 0.43420991 9 5 27985 4.98200000 2687678093 2687678093 5.00000000
-3.13921833 0.54562324 -0.50465757 3 6 27986 3.22600000 2687678095 2687678095 -9.00000000
-3.92108226 0.68292809 -0.48869607 4 8 27988 4.01000000 2687678100 2687678100 -7.00000000
-5.23670006 0.91300869 -0.46506304 9 10 27989 5.33600000 2687678104 2687678104 -5.00000000
-4.17101240 0.72870833 -0.22190446 26 12 27991 4.24000000 2687678109 2687678109 -3.00000000
-4.12660170 0.72243398 -0.07312559 42 14 27993 4.19000000 2687678114 2687678114 -1.00000000
-9.98236561 1.74938381 2.71552944 45 15 27994 10.49200000 2687678116 2687678116 15.00000000
-1.94810259 0.34385362 -0.53006142 4 0 28001 2.04800000 2687678137 2687678137 -15.00000000
-4.18847609 0.74004894 0.07424254 5 1 28002 4.25400000 2687678139 2687678139 1.00000000
-2.22790909 0.39404339 -0.52233636 4 2 28003 2.32200000 2687678141 2687678141 -13.00000000
-4.26571512 0.75523168 0.22703338 9 3 28004 4.33800000 2687678143 2687678143 3.00000000
-2.60787272 0.46171582 -0.51480269 3 4 28004 2.69800000 2687678146 2687678146 -11.00000000
-4.88296461 0.86539274 0.43386129 9 5 28005 4.97800000 2687678148 2687678148 5.00000000
-3.13340473 0.55588770 -0.50403184 3 6 28006 3.22200000 2687678150 2687678150 -9.00000000
-3.93430996 0.69939053 -0.49064597 6 8 28008 4.02600000 2687678155 2687678155 -7.00000000
-5.24721241 0.93372601 -0.46628323 9 10 28009 5.35000000 2687678160 2687678160 -5.00000000
-4.16844320 0.74326342 -0.22190446 26 12 28011 4.24000000 2687678164 2687678164 -3.00000000
-4.11027527 0.73437214 -0.07288125 50 14 28013 4.17600000 2687678169 2687678169 -1.00000000
-9.96319771 1.78009844 2.71190596 40 15 28013 10.47800000 2687678171 2687678171 15.00000000
-1.93168032 0.34791222 -0.52592027 4 0 28021 2.03200000 2687678192 2687678192 -15.00000000
-4.20161104 0.75750339 0.07452177 5 1 28022 4.27000000 2687678194 2687678194 1.00000000
-4.10976076 0.74168444 -0.96414024 5 2 28023 4.28600000 2687678196 2687678196 -13.00000000
-4.27288008 0.77189249 0.22755674 9 3 28024 4.34800000 2687678199 2687678199 3.00000000
-2.61010933 0.47151420 -0.51556593 3 4 28024 2.70200000 2687678201 2687678201 -11.00000000
-4.86618996 0.87995046 0.43264112 9 5 28025 4.96400000 2687678203 2687678203 5.00000000
-3.13533282 0.56752563 -0.50465757 3 6 28026 3.22600000 2687678206 2687678206 -9.00000000
-7.13926840 1.29356372 0.89086491 2 7 28027 7.31000000 2687678208 2687678208 7.00000000
-3.93965769 0.71453661 -0.49162093 4 8 28028 4.03400000 2687678210 2687678210 -7.00000000
-5.23607969 0.95061290 -0.46558598 9 10 28029 5.34200000 2687678215 2687678215 -5.00000000
-4.17368317 0.75923932 -0.22232315 30 12 28031 4.24800000 2687678219 2687678219 -3.00000000
-9.82572460 1.78918004 2.30574822 6 13 28032 10.25000000 2687678222 2687678222 13.00000000
-4.10375214 0.74799806 -0.07281144 64 14 28033 4.17200000 2687678224 2687678224 -1.00000000
-9.94520283 1.81452298 2.70880008 42 15 28034 10.46600000 2687678226 2687678226 15.00000000
-1.92665398 0.35395479 -0.52488500 4 0 28041 2.02800000 2687678247 2687678247 -15.00000000
-4.19107437 0.77071846 0.07438216 5 1 28042 4.26200000 2687678249 2687678249 1.00000000
-4.11864614 0.75814235 -0.96683961 5 2 28043 4.29800000 2687678252 2687678252 -13.00000000
-4.26033878 0.78499329 0.22703338 7 3 28044 4.33800000 2687678254 2687678254 3.00000000
-2.58913994 0.47706479 -0.51174974 3 4 28044 2.68200000 2687678256 2687678256 -11.00000000
-4.85721064 0.89584720 0.43211818 9 5 28045 4.95800000 2687678259 2687678259 5.00000000
-3.13333249 0.57846653 -0.50465757 3 6 28046 3.22600000 2687678261 2687678261 -9.00000000
-3.94885135 0.73045069 -0.49308336 4 8 28048 4.04600000 2687678266 2687678266 -7.00000000
-5.21901560 0.96634525 -0.46436581 9 10 28049 5.32800000 2687678270 2687678270 -5.00000000
-4.17100763 0.77380359 -0.22232315 26 12 28051 4.24800000 2687678275 2687678275 -3.00000000
-9.75810719 1.81208181 2.29135156 4 13 28052 10.18600000 2687678277 2687678277 13.00000000
-4.09718418 0.76158738 -0.07274163 70 14 28053 4.16800000 2687678279 2687678279 -1.00000000
-9.93913078 1.84749246 2.70880008 42 15 28053 10.46600000 2687678282 2687678282 15.00000000
-1.93110323 0.36174500 -0.52643794 4 0 28061 2.03400000 2687678302 2687678302 -15.00000000
-4.16870403 0.78165799 0.07403311 5 1 28062 4.24200000 2687678305 2687678305 1.00000000
-4.11214399 0.77179557 -0.96593982 5 2 28063 4.29400000 2687678307 2687678307 -13.00000000
-4.25168371 0.79875356 0.22671936 5 3 28064 4.33200000 2687678309 2687678309 3.00000000
-2.60289478 0.48899958 -0.51480269 3 4 28064 2.69800000 2687678312 2687678312 -11.00000000
-4.84230566 0.91058731 0.43107229 9 5 28065 4.94600000 2687678314 2687678314 5.00000000
-3.13129425 0.58940041 -0.50465757 3 6 28066 3.22600000 2687678316 2687678316 -9.00000000
-3.94432688 0.74386239 -0.49283963 6 8 28068 4.04400000 2687678321 2687678321 -7.00000000
-5.23323107 0.98788333 -0.46593460 9 10 28069 5.34600000 2687678325 2687678325 -5.00000000
-4.15650654 0.78613138 -0.22169511 26 12 28071 4.23600000 2687678330 2687678330 -3.00000000
-4.09646559 0.77625686 -0.07277653 85 14 28073 4.17000000 2687678335 2687678335 -1.00000000
-9.93039513 1.88354886 2.70828247 45 15 28074 10.46400000 2687678337 2687678337 15.00000000
-1.92976439 0.36882043 -0.52643794 4 0 28082 2.03400000 2687678358 2687678358 -15.00000000
-4.18348789 0.80031341 0.07434725 5 1 28083 4.26000000 2687678360 2687678360 1.00000000
-4.09206200 0.78356367 -0.96189070 5 2 28084 4.27600000 2687678362 2687678362 -13.00000000
-4.24480438 0.81357950 0.22651002 5 3 28085 4.32800000 2687678365 2687678365 3.00000000
-2.60879779 0.50001460 -0.51632917 3 4 28085 2.70600000 2687678367 2687678367 -11.00000000
-4.84676266 0.92983067 0.43176955 9 5 28086 4.95400000 2687678369 2687678369 5.00000000
-3.12911296 0.60087317 -0.50465757 3 6 28087 3.22600000 2687678372 2687678372 -9.00000000
-3.93767524 0.75756401 -0.49235216 6 8 28089 4.04000000 2687678376 2687678376 -7.00000000
-5.23935747 1.00894117 -0.46680614 9 10 28090 5.35600000 2687678381 2687678381 -5.00000000
-4.14183044 0.79909033 -0.22106709 30 12 28092 4.22400000 2687678385 2687678385 -3.00000000
-4.10929966 0.79430199 -0.07305577 78 14 28094 4.18600000 2687678390 2687678390 -1.00000000
-9.92375946 1.91820085 2.70828247 45 15 28094 10.46400000 2687678392 2687678392 15.00000000
-1.93605018 0.37703142 -0.52850848 4 0 28102 2.04200000 2687678413 2687678413 -15.00000000
-4.17478037 0.81376386 0.07424254 5 1 28103 4.25400000 2687678415 2687678415 1.00000000
-4.09695244 0.79933560 -0.96369034 5 2 28104 4.28400000 2687678418 2687678418 -13.00000000
-4.21645594 0.82341522 0.22514929 7 3 28105 4.30200000 2687678420 2687678420 3.00000000
-2.60703635 0.50911796 -0.51632917 3 4 28105 2.70600000 2687678422 2687678422 -11.00000000
-4.84935331 0.94788998 0.43229249 9 5 28106 4.96000000 2687678425 2687678425 5.00000000
-3.11536479 0.60951644 -0.50278038 3 6 28107 3.21400000 2687678427 2687678427 -9.00000000
-3.92721486 0.76977712 -0.49137720 6 8 28109 4.03200000 2687678431 2687678431 -7.00000000
-5.23775864 1.02760744 -0.46698046 9 10 28110 5.35800000 2687678436 2687678436 -5.00000000
-4.15077448 0.81585437 -0.22169511 38 12 28112 4.23600000 2687678441 2687678441 -3.00000000
-4.09080601 0.80555046 -0.07277653 82 14 28114 4.17000000 2687678445 2687678445 -1.00000000
-9.18504333 1.81035924 2.50847411 15 15 28115 9.69200000 2687678448 2687678448 15.00000000
-1.93099916 0.38269839 -0.52747321 4 0 28121 2.03800000 2687678468 2687678468 -15.00000000
-4.17205906 0.82760346 0.07424254 5 1 28122 4.25400000 2687678471 2687678471 1.00000000
-4.09045649 0.81215811 -0.96279049 8 2 28123 4.28000000 2687678473 2687678473 -13.00000000
-4.20782518 0.83622503 0.22483526 14 3 28124 4.29600000 2687678475 2687678475 3.00000000
-2.59378028 0.51546437 -0.51403946 3 4 28124 2.69400000 2687678478 2687678478 -11.00000000
-4.85009146 0.96474320 0.43264112 9 5 28125 4.96400000 2687678480 2687678480 5.00000000
-3.12107587 0.62138689 -0.50403184 3 6 28126 3.22200000 2687678482 2687678482 -9.00000000
-3.93826771 0.78551406 -0.49308336 6 8 28128 4.04600000 2687678487 2687678487 -7.00000000
-5.23236847 1.04458070 -0.46680614 9 10 28129 5.35600000 2687678491 2687678491 -5.00000000
-4.14608765 0.82922262 -0.22159044 34 12 28131 4.23400000 2687678496 2687678496 -3.00000000
-4.07634783 0.81675446 -0.07256711 94 14 28133 4.15800000 2687678501 2687678501 -1.00000000
-9.88963699 1.98152995 2.70258856 35 15 28133 10.44200000 2687678503 2687678503 15.00000000
-1.92586422 0.38867214 -0.52643794 4 0 28141 2.03400000 2687678524 2687678524 -15.00000000
-4.16326427 0.84097379 0.07413782 5 1 28142 4.24800000 2687678526 2687678526 1.00000000
-4.09523678 0.82797629 -0.96459013 6 2 28143 4.28800000 2687678528 2687678528 -13.00000000
-4.19509268 0.84892732 0.22431190 15 3 28144 4.28600000 2687678531 2687678531 3.00000000
-2.60735917 0.52763039 -0.51709241 3 4 28144 2.71000000 2687678533 2687678533 -11.00000000
-4.85645819 0.98364484 0.43351266 9 5 28145 4.97400000 2687678535 2687678535 5.00000000
-3.11888766 0.63227767 -0.50403184 3 6 28146 3.22200000 2687678537 2687678537 -9.00000000
-3.93744707 0.79965144 -0.49332711 6 8 28148 4.04800000 2687678542 2687678542 -7.00000000
-5.22869015 1.06283879 -0.46680614 9 10 28149 5.35600000 2687678547 2687678547 -5.00000000
-4.14316797 0.84369010 -0.22159044 22 12 28151 4.23400000 2687678551 2687678551 -3.00000000
-4.07739067 0.83177799 -0.07263692 92 14 28153 4.16200000 2687678556 2687678556 -1.00000000
-1.92456472 0.39505640 -0.52643794 4 0 28160 2.03400000 2687678579 2687678579 -15.00000000
-4.15849400 0.85437262 0.07410292 5 1 28161 4.24600000 2687678581 2687678581 1.00000000
-4.08101606 0.83919692 -0.96189070 6 2 28162 4.27600000 2687678584 2687678584 -13.00000000
-4.20007944 0.86444455 0.22473060 15 3 28163 4.29400000 2687678586 2687678586 3.00000000
-2.60559511 0.53627378 -0.51709241 3 4 28163 2.71000000 2687678588 2687678588 -11.00000000
-4.85707235 1.00054801 0.43386129 9 5 28164 4.97800000 2687678590 2687678590 5.00000000
-3.12838197 0.64501017 -0.50590909 3 6 28165 3.23400000 2687678593 2687678593 -9.00000000
-3.94254994 0.81431025 -0.49430206 6 8 28167 4.05600000 2687678597 2687678597 -7.00000000
-5.22903919 1.08097851 -0.46715477 9 10 28168 5.36000000 2687678602 2687678602 -5.00000000
-4.13056850 0.85539961 -0.22106709 20 12 28170 4.22400000 2687678607 2687678607 -3.00000000
-4.07265186 0.84488833 -0.07260201 100 14 28172 4.16000000 2687678611 2687678611 -1.00000000
-8.52533436 1.76861572 2.33299494 11 15 28172 9.01400000 2687678613 2687678613 15.00000000
-1.92695606 0.40256211 -0.52747321 4 0 28180 2.03800000 2687678634 2687678634 -15.00000000
-4.15940094 0.86970180 0.07417273 5 1 28181 4.25000000 2687678637 2687678637 1.00000000
-4.07424688 0.85263890 -0.96099091 5 2 28182 4.27200000 2687678639 2687678639 -13.00000000
-4.18726206 0.87705302 0.22420724 14 3 28183 4.28400000 2687678641 2687678641 3.00000000
-2.59986424 0.54456079 -0.51632917 3 4 28183 2.70600000 2687678643 2687678643 -11.00000000
-4.84575033 1.01586115 0.43316403 9 5 28184 4.97000000 2687678646 2687678646 5.00000000
-3.12611151 0.65592635 -0.50590909 3 6 28185 3.23400000 2687678648 2687678648 -9.00000000
-3.93191290 0.82643408 -0.49332711 6 8 28187 4.04800000 2687678653 2687678653 -7.00000000
-5.22913361 1.10004508 -0.46750340 6 10 28188 5.36400000 2687678657 2687678657 -5.00000000
-4.13146639 0.87063646 -0.22127642 16 12 28190 4.22800000 2687678662 2687678662 -3.00000000
-4.07163429 0.85951245 -0.07263692 98 14 28192 4.16200000 2687678666 2687678666 -1.00000000
-8.31844139 1.75752008 2.27812529 9 15 28193 8.80200000 2687678669 2687678669 15.00000000
-1.93106461 0.41116503 -0.52902615 4 0 28202 2.04400000 2687678690 2687678690 -15.00000000
-4.16776562 0.88816702 0.07438216 5 1 28203 4.26200000 2687678692 2687678692 1.00000000
-4.06903696 0.86787003 -0.96054101 5 2 28204 4.27000000 2687678694 2687678694 -13.00000000
-4.17605066 0.89145666 0.22378854 14 3 28205 4.27600000 2687678696 2687678696 3.00000000
-2.60159397 0.55535924 -0.51709241 3 4 28205 2.71000000 2687678699 2687678699 -11.00000000
-4.86129808 1.03862274 0.43490717 9 5 28206 4.99000000 2687678701 2687678701 5.00000000
-3.11970639 0.66709876 -0.50528330 3 6 28207 3.23000000 2687678703 2687678703 -9.00000000
-3.92094636 0.83986229 -0.49235216 6 8 28209 4.04000000 2687678708 2687678708 -7.00000000
-5.24045610 1.12345648 -0.46889791 6 10 28210 5.38000000 2687678713 2687678713 -5.00000000
-4.13590384 0.88817108 -0.22169511 12 12 28212 4.23600000 2687678717 2687678717 -3.00000000
-4.05852938 0.87303734 -0.07246239 100 14 28214 4.15200000 2687678722 2687678722 -1.00000000
-8.28172588 1.78149652 2.26984310 9 15 28214 8.77000000 2687678724 2687678724 15.00000000
-1.92206538 0.41626757 -0.52695560 4 0 28222 2.03600000 2687678745 2687678745 -15.00000000
-4.15682268 0.90101540 0.07424254 7 1 28223 4.25400000 2687678747 2687678747 1.00000000
-4.06598282 0.88206834 -0.96054101 5 2 28224 4.27000000 2687678749 2687678749 -13.00000000
-4.17486525 0.90645212 0.22389323 14 3 28225 4.27800000 2687678752 2687678752 3.00000000
-2.59963965 0.56443709 -0.51709241 3 4 28225 2.71000000 2687678754 2687678754 -11.00000000
-4.84985495 1.05389321 0.43420991 9 5 28226 4.98200000 2687678756 2687678756 5.00000000
-3.12894034 0.68050331 -0.50716054 3 6 28227 3.24200000 2687678759 2687678759 -9.00000000
-3.92186999 0.85438895 -0.49283963 6 8 28229 4.04400000 2687678763 2687678763 -7.00000000
-5.21314287 1.13664889 -0.46680614 9 10 28230 5.35600000 2687678768 2687678768 -5.00000000
-4.13082695 0.90217650 -0.22159044 10 12 28232 4.23400000 2687678772 2687678772 -3.00000000
-4.05741024 0.88762629 -0.07249729 100 14 28234 4.15400000 2687678777 2687678777 -1.00000000
-9.86826992 2.15884876 2.70672965 45 15 28234 10.45800000 2687678779 2687678779 15.00000000
-1.92060053 0.42297429 -0.52695560 4 0 28242 2.03600000 2687678800 2687678800 -15.00000000
-4.13021851 0.91035479 0.07382368 9 1 28243 4.23000000 2687678802 2687678802 1.00000000
-2.22839880 0.49157640 -0.52683538 4 2 28244 2.34200000 2687678805 2687678805 -13.00000000
-4.17573738 0.92115200 0.22410257 14 3 28244 4.28200000 2687678807 2687678807 3.00000000
-2.59765363 0.57350808 -0.51709241 3 4 28245 2.71000000 2687678809 2687678809 -11.00000000
-4.83641958 1.06866658 0.43333834 9 5 28246 4.97200000 2687678812 2687678812 5.00000000
-3.12654591 0.69142121 -0.50716054 3 6 28247 3.24200000 2687678814 2687678814 -9.00000000
-3.94599724 0.87408400 -0.49625197 6 8 28249 4.07200000 2687678818 2687678818 -7.00000000
-5.20525312 1.15397680 -0.46645755 9 10 28250 5.35200000 2687678823 2687678823 -5.00000000
-4.13350201 0.91788918 -0.22190446 8 12 28252 4.24000000 2687678828 2687678828 -3.00000000
-4.05428743 0.90178388 -0.07249729 100 14 28254 4.15400000 2687678832 2687678832 -1.00000000
-9.83804512 2.18824887 2.70051789 45 15 28254 10.43400000 2687678835 2687678835 15.00000000
-1.92099762 0.43009794 -0.52747321 4 0 28262 2.03800000 2687678855 2687678855 -15.00000000
-4.10555124 0.91995674 0.07343972 7 1 28263 4.20800000 2687678858 2687678858 1.00000000
-4.06543016 0.91171181 -0.96189070 6 2 28264 4.27600000 2687678860 2687678860 -13.00000000
-4.17817926 0.93776280 0.22441658 14 3 28265 4.28800000 2687678862 2687678862 3.00000000
-2.58797336 0.58085233 -0.51556593 3 4 28265 2.70200000 2687678865 2687678865 -11.00000000
-4.84237957 1.08772564 0.43420991 9 5 28266 4.98200000 2687678867 2687678867 5.00000000
-3.10869503 0.69886452 -0.50465757 3 6 28267 3.22600000 2687678869 2687678869 -9.00000000
-3.93711233 0.88654459 -0.49552074 4 8 28269 4.06600000 2687678874 2687678874 -7.00000000
-5.22257328 1.17695773 -0.46837497 9 10 28270 5.37400000 2687678878 2687678878 -5.00000000
-4.12053156 0.93011338 -0.22138110 8 12 28272 4.23000000 2687678883 2687678883 -3.00000000
-4.05501556 0.91681248 -0.07256711 100 14 28274 4.15800000 2687678888 2687678888 -1.00000000
-9.84503174 2.22770333 2.70465899 42 15 28275 10.45000000 2687678890 2687678890 15.00000000
-1.91963696 0.43613082 -0.52747321 4 0 28280 2.03800000 2687678911 2687678911 -15.00000000
-4.09484100 0.93107665 0.07330011 7 1 28281 4.20000000 2687678913 2687678913 1.00000000
-4.05494547 0.92274964 -0.96009111 13 2 28282 4.26800000 2687678915 2687678915 -13.00000000
-4.17343092 0.94971240 0.22431190 12 3 28282 4.28600000 2687678918 2687678918 3.00000000
-2.60144973 0.59246749 -0.51861882 3 4 28283 2.71800000 2687678920 2687678920 -11.00000000
-4.84476614 1.10426128 0.43473285 9 5 28284 4.98800000 2687678922 2687678922 5.00000000
-3.10648417 0.70862728 -0.50465757 3 6 28285 3.22600000 2687678924 2687678924 -9.00000000
-3.93237257 0.89846683 -0.49527702 4 8 28287 4.06400000 2687678929 2687678929 -7.00000000
-5.22467661 1.19469142 -0.46889791 9 10 28288 5.38000000 2687678934 2687678934 -5.00000000
-4.11369562 0.94216204 -0.22117175 8 12 28290 4.22600000 2687678938 2687678938 -3.00000000
-4.05601358 0.93044132 -0.07263692 100 14 28292 4.16200000 2687678943 2687678943 -1.00000000
