# .PCD v0.7 - Point Cloud Data file format
VERSION 0.7
FIELDS x y z intensity laser_id azimuth distance_m adjustedtime timestamp vertical_angle
SIZE 4 4 4 1 1 2 8 8 4 8
TYPE F F F U U U F U U F
COUNT 1 1 1 1 1 1 1 1 1 1
WIDTH 528
HEIGHT 1
VIEWPOINT 0 0 0 1 0 0 0
POINTS 528
DATA ascii
6.05020952 -2.85604620 0.58533800 37 5 11527 6.71600000 2683232399 2683232399 5.00000000
3.37412834 -1.59350240 -0.59100944 4 6 11528 3.77800000 2683232402 2683232402 -9.00000000
8.05881023 -3.80766177 1.09438670 71 7 11529 8.98000000 2683232404 2683232404 7.00000000
4.42928839 -2.09371495 -0.60154706 6 8 11530 4.93600000 2683232406 2683232406 -7.00000000
6.09504366 -2.88241553 -0.58987010 8 10 11531 6.76800000 2683232411 2683232411 -5.00000000
6.01867008 -2.84886861 -0.34897617 7 12 11533 6.66800000 2683232415 2683232415 -3.00000000
8.43634033 -3.99504781 2.15503120 45 13 11534 9.58000000 2683232418 2683232418 13.00000000
5.89490128 -2.79280329 -0.11385950 33 14 11535 6.52400000 2683232420 2683232420 -1.00000000
8.09126282 -3.83509421 2.39925265 47 15 11536 9.27000000 2683232422 2683232422 15.00000000
1.93833470 -0.92163301 -0.57509589 4 0 11543 2.22200000 2683232443 2683232443 -15.00000000
6.00607824 -2.85703564 0.11609340 80 1 11544 6.65200000 2683232445 2683232445 1.00000000
2.28576660 -1.08780730 -0.58442283 4 2 11545 2.59800000 2683232448 2683232448 -13.00000000
8.04991531 -3.83271646 0.46725541 7 3 11546 8.92800000 2683232450 2683232450 3.00000000
2.70320606 -1.28704739 -0.58196741 5 4 11546 3.05000000 2683232452 2683232452 -11.00000000
5.99343586 -2.85487103 0.58080590 58 5 11547 6.66400000 2683232455 2683232455 5.00000000
3.36497903 -1.60357106 -0.59038365 4 6 11548 3.77400000 2683232457 2683232457 -9.00000000
4.43628645 -2.11600018 -0.60349697 6 8 11550 4.95200000 2683232462 2683232462 -7.00000000
6.08854151 -2.90538979 -0.59021866 4 10 11551 6.77200000 2683232466 2683232466 -5.00000000
5.94561005 -2.83973289 -0.34531263 3 12 11553 6.59800000 2683232471 2683232471 -3.00000000
8.42586040 -4.02615213 2.15593100 44 13 11554 9.58400000 2683232473 2683232473 13.00000000
5.86346674 -2.80301380 -0.11344064 54 14 11555 6.50000000 2683232475 2683232475 -1.00000000
8.08895874 -3.86690378 2.40235829 47 15 11555 9.28200000 2683232478 2683232478 15.00000000
1.93858933 -0.93006474 -0.57613117 4 0 11563 2.22600000 2683232498 2683232498 -15.00000000
5.99246311 -2.87625289 0.11602360 100 1 11564 6.64800000 2683232501 2683232501 1.00000000
2.28546906 -1.09746659 -0.58532262 4 2 11565 2.60200000 2683232503 2683232503 -13.00000000
8.05088997 -3.86771154 0.46809280 7 3 11566 8.94400000 2683232505 2683232505 3.00000000
2.70400596 -1.29902589 -0.58311230 5 4 11566 3.05600000 2683232508 2683232508 -11.00000000
5.98522949 -2.87663770 0.58098018 68 5 11567 6.66600000 2683232510 2683232510 5.00000000
3.34511876 -1.60845912 -0.58788073 4 6 11568 3.75800000 2683232512 2683232512 -9.00000000
5.95873022 -2.86646247 0.81189358 10 7 11569 6.66200000 2683232515 2683232515 7.00000000
4.42171860 -2.12802935 -0.60252202 6 8 11570 4.94400000 2683232517 2683232517 -7.00000000
6.09272385 -2.93353963 -0.59161317 4 10 11571 6.78800000 2683232521 2683232521 -5.00000000
5.87088919 -2.82925510 -0.34154445 3 12 11573 6.52600000 2683232526 2683232526 -3.00000000
8.41877651 -4.05892467 2.15773058 45 13 11574 9.59200000 2683232528 2683232528 13.00000000
5.86625481 -2.82954550 -0.11368497 51 14 11575 6.51400000 2683232531 2683232531 -1.00000000
8.09039021 -3.90408182 2.40701723 47 15 11576 9.30000000 2683232533 2683232533 15.00000000
1.93706977 -0.93766773 -0.57664883 4 0 11583 2.22800000 2683232554 2683232554 -15.00000000
5.96258926 -2.88756537 0.11563964 43 1 11584 6.62600000 2683232556 2683232556 1.00000000
2.25882554 -1.09439182 -0.57947391 3 2 11585 2.57600000 2683232558 2683232558 -13.00000000
8.04812336 -3.90101790 0.46872082 7 3 11586 8.95600000 2683232561 2683232561 3.00000000
2.70298815 -1.31016934 -0.58387554 5 4 11586 3.06000000 2683232563 2683232563 -11.00000000
8.04395580 -3.90073180 0.78213561 33 5 11587 8.97400000 2683232565 2683232565 5.00000000
3.35014749 -1.62529933 -0.58975792 6 6 11588 3.77000000 2683232568 2683232568 -9.00000000
5.89154053 -2.85950780 0.80409396 31 7 11589 6.59800000 2683232570 2683232570 7.00000000
4.38926363 -2.13131189 -0.59910971 6 8 11590 4.91600000 2683232572 2683232572 -7.00000000
6.08603096 -2.95653057 -0.59196180 4 10 11591 6.79200000 2683232577 2683232577 -5.00000000
5.84660769 -2.84274435 -0.34070706 3 12 11593 6.51000000 2683232581 2683232581 -3.00000000
8.39404202 -4.08317232 2.15503120 45 13 11594 9.58000000 2683232584 2683232584 13.00000000
8.09824467 -3.94103312 2.41322875 47 15 11595 9.32400000 2683232588 2683232588 15.00000000
1.93725669 -0.94611919 -0.57768410 4 0 11603 2.23200000 2683232609 2683232609 -15.00000000
5.93809986 -2.90133834 0.11536041 57 1 11604 6.61000000 2683232611 2683232611 1.00000000
2.26549625 -1.10740471 -0.58217335 3 2 11605 2.58800000 2683232614 2683232614 -13.00000000
8.03086948 -3.92733240 0.46851149 7 3 11606 8.95200000 2683232616 2683232616 3.00000000
2.69487119 -1.31787169 -0.58311230 5 4 11606 3.05600000 2683232618 2683232618 -11.00000000
8.06071568 -3.94367170 0.78509891 45 5 11607 9.00800000 2683232621 2683232621 5.00000000
3.33735657 -1.63350987 -0.58850646 6 6 11608 3.76200000 2683232623 2683232623 -9.00000000
5.86191225 -2.87045264 0.80141282 76 7 11609 6.57600000 2683232625 2683232625 7.00000000
4.38892794 -2.15011358 -0.60008466 6 8 11610 4.92400000 2683232627 2683232627 -7.00000000
5.87479591 -2.87930441 1.03622186 5 9 11611 6.62400000 2683232630 2683232630 9.00000000
6.24742413 -3.06193376 -0.60869569 4 10 11611 6.98400000 2683232632 2683232632 -5.00000000
5.77568293 -2.83322859 -0.33714822 3 12 11613 6.44200000 2683232637 2683232637 -3.00000000
8.37973785 -4.11244822 2.15503120 47 13 11614 9.58000000 2683232639 2683232639 13.00000000
5.94328880 -2.91802120 -0.11556984 2 14 11615 6.62200000 2683232641 2683232641 -1.00000000
8.09761715 -3.97750187 2.41736984 47 15 11616 9.34000000 2683232644 2683232644 15.00000000
1.93394232 -0.95287573 -0.57768410 4 0 11623 2.23200000 2683232664 2683232664 -15.00000000
5.91179323 -2.91409135 0.11504626 69 1 11624 6.59200000 2683232667 2683232667 1.00000000
2.27210355 -1.12047744 -0.58487272 3 2 11625 2.60000000 2683232669 2683232669 -13.00000000
8.03681374 -3.96506190 0.46966287 7 3 11626 8.97400000 2683232671 2683232671 3.00000000
2.68321204 -1.32379591 -0.58158582 5 4 11626 3.04800000 2683232674 2683232674 -11.00000000
8.03975391 -3.96825743 0.78440166 37 5 11627 9.00000000 2683232676 2683232676 5.00000000
3.33340549 -1.64602411 -0.58881932 8 6 11628 3.76400000 2683232678 2683232678 -9.00000000
5.86609507 -2.89793086 0.80336273 47 7 11629 6.59200000 2683232680 2683232680 7.00000000
4.37783623 -2.16366148 -0.59959716 6 8 11630 4.92000000 2683232683 2683232683 -7.00000000
5.82094288 -2.87688923 1.02840018 10 9 11630 6.57400000 2683232685 2683232685 9.00000000
6.50816917 -3.21795106 -0.63519102 8 10 11631 7.28800000 2683232687 2683232687 -5.00000000
5.75143719 -2.84628534 -0.33631086 3 12 11633 6.42600000 2683232692 2683232692 -3.00000000
8.37581062 -4.14686155 2.15773058 45 13 11634 9.59200000 2683232694 2683232694 13.00000000
5.95994568 -2.95206285 -0.11609340 2 14 11635 6.65200000 2683232697 2683232697 -1.00000000
8.09130669 -4.00776243 2.41944051 47 15 11635 9.34800000 2683232699 2683232699 15.00000000
1.90984523 -0.94930214 -0.57147247 4 0 11643 2.20800000 2683232720 2683232720 -15.00000000
5.89263248 -2.93025756 0.11487174 66 1 11644 6.58200000 2683232722 2683232722 1.00000000
2.27166796 -1.13013768 -0.58577257 3 2 11645 2.60400000 2683232724 2683232724 -13.00000000
8.04438114 -4.00377083 0.47091892 7 3 11646 8.99800000 2683232727 2683232727 3.00000000
2.67857456 -1.33315408 -0.58158582 5 4 11646 3.04800000 2683232729 2683232729 -11.00000000
8.03477097 -4.00073767 0.78527325 37 5 11647 9.01000000 2683232731 2683232731 5.00000000
3.33471203 -1.66117299 -0.59007078 6 6 11648 3.77200000 2683232733 2683232733 -9.00000000
8.05369854 -4.01367140 1.10486746 35 7 11649 9.06600000 2683232736 2683232736 7.00000000
4.37203360 -2.17981553 -0.59984088 4 8 11650 4.92200000 2683232738 2683232738 -7.00000000
5.75959826 -2.87162971 1.01932693 20 9 11650 6.51600000 2683232740 2683232740 9.00000000
6.47193623 -3.22819877 -0.63275069 8 10 11651 7.26000000 2683232743 2683232743 -5.00000000
5.68071079 -2.83601260 -0.33275202 3 12 11653 6.35800000 2683232747 2683232747 -3.00000000
8.36477089 -4.17781496 2.15863037 45 13 11654 9.59600000 2683232750 2683232750 13.00000000
5.94602680 -2.97106123 -0.11602360 4 14 11655 6.64800000 2683232752 2683232752 -1.00000000
8.08763695 -4.04116297 2.42254615 47 15 11655 9.36000000 2683232754 2683232754 15.00000000
1.91860831 -0.96202433 -0.57509589 4 0 11663 2.22200000 2683232775 2683232775 -15.00000000
5.88594294 -2.95260215 0.11494155 69 1 11664 6.58600000 2683232777 2683232777 1.00000000
2.25725889 -1.13281596 -0.58307314 3 2 11665 2.59200000 2683232780 2683232780 -13.00000000
8.04285049 -4.03809929 0.47165164 7 3 11666 9.01200000 2683232782 2683232782 3.00000000
2.67741394 -1.34425771 -0.58234906 5 4 11666 3.05200000 2683232784 2683232784 -11.00000000
8.03856087 -4.03770256 0.78701633 37 5 11667 9.03000000 2683232786 2683232786 5.00000000
3.30771255 -1.66215968 -0.58631635 6 6 11668 3.74800000 2683232789 2683232789 -9.00000000
8.05028057 -4.04710913 1.10632992 38 7 11669 9.07800000 2683232791 2683232791 7.00000000
4.37326527 -2.19952321 -0.60105962 6 8 11670 4.93200000 2683232793 2683232793 -7.00000000
5.71903658 -2.87762642 1.01400816 45 9 11671 6.48200000 2683232796 2683232796 9.00000000
6.45350933 -3.24718833 -0.63205343 12 10 11671 7.25200000 2683232798 2683232798 -5.00000000
5.64223528 -2.84145117 -0.33107725 3 12 11673 6.32600000 2683232803 2683232803 -3.00000000
8.35709763 -4.21049500 2.16042995 45 13 11674 9.60400000 2683232805 2683232805 13.00000000
5.97669077 -3.01250005 -0.11682641 2 14 11675 6.69400000 2683232807 2683232807 -1.00000000
8.09418297 -4.07980394 2.42875791 47 15 11675 9.38400000 2683232809 2683232809 15.00000000
1.92385793 -0.97307527 -0.57768410 4 0 11683 2.23200000 2683232830 2683232830 -15.00000000
5.88630629 -2.97854710 0.11515098 63 1 11684 6.59800000 2683232833 2683232833 1.00000000
2.24981356 -1.13892806 -0.58217335 3 2 11685 2.58800000 2683232835 2683232835 -13.00000000
8.02336025 -4.06344271 0.47133762 7 3 11686 9.00600000 2683232837 2683232837 3.00000000
2.66920233 -1.35182142 -0.58158582 5 4 11686 3.04800000 2683232839 2683232839 -11.00000000
8.05107689 -4.07924557 0.78963101 37 5 11687 9.06000000 2683232842 2683232842 5.00000000
3.30189037 -1.67369556 -0.58631635 6 6 11688 3.74800000 2683232844 2683232844 -9.00000000
8.04318714 -4.07877636 1.10730481 38 7 11689 9.08600000 2683232846 2683232846 7.00000000
4.33546591 -2.19950724 -0.59691602 4 8 11690 4.89800000 2683232849 2683232849 -7.00000000
5.76708555 -2.92707515 1.02433288 22 9 11691 6.54800000 2683232851 2683232851 9.00000000
6.47589159 -3.28682852 -0.63536537 12 10 11691 7.29000000 2683232853 2683232853 -5.00000000
10.26152039 -5.21047115 2.23704457 9 11 11692 11.72400000 2683232856 2683232856 11.00000000
5.63228226 -2.86112905 -0.33107725 3 12 11693 6.32600000 2683232858 2683232858 -3.00000000
8.33887482 -4.23787546 2.15953016 46 13 11694 9.60000000 2683232860 2683232860 13.00000000
5.98752880 -3.04421973 -0.11724526 2 14 11695 6.71800000 2683232862 2683232862 -1.00000000
8.09467220 -4.11732578 2.43341660 47 15 11696 9.40200000 2683232865 2683232865 15.00000000
1.92595494 -0.98174649 -0.57923704 4 0 11701 2.23800000 2683232886 2683232886 -15.00000000
5.89829683 -3.00792623 0.11556984 66 1 11702 6.62200000 2683232888 2683232888 1.00000000
2.23928094 -1.14244795 -0.58037370 3 2 11703 2.58000000 2683232890 2683232890 -13.00000000
8.01945019 -4.09316826 0.47186098 7 3 11704 9.01600000 2683232892 2683232892 3.00000000
2.66319370 -1.35930777 -0.58120418 5 4 11704 3.04600000 2683232895 2683232895 -11.00000000
8.04886818 -4.10995483 0.79067689 37 5 11705 9.07200000 2683232897 2683232897 5.00000000
3.30717087 -1.68945241 -0.58819360 6 6 11706 3.76000000 2683232899 2683232899 -9.00000000
8.05508041 -4.11667204 1.11071718 38 7 11707 9.11400000 2683232902 2683232902 7.00000000
4.32676697 -2.21221304 -0.59667230 6 8 11708 4.89600000 2683232904 2683232904 -7.00000000
6.01110888 -3.07471609 1.06938601 12 9 11709 6.83600000 2683232906 2683232906 9.00000000
6.47972393 -3.31441545 -0.63675988 12 10 11709 7.30600000 2683232909 2683232909 -5.00000000
10.16994858 -5.20422554 2.22063518 3 11 11710 11.63800000 2683232911 2683232911 11.00000000
5.56637573 -2.84968424 -0.32772776 3 12 11711 6.26200000 2683232913 2683232913 -3.00000000
8.32205105 -4.26227522 2.15863037 47 13 11712 9.59600000 2683232915 2683232915 13.00000000
6.04734325 -3.09857845 -0.11860655 4 14 11713 6.79600000 2683232918 2683232918 -1.00000000
8.10305214 -4.15189648 2.43962836 45 15 11713 9.42600000 2683232920 2683232920 15.00000000
1.90705359 -0.98051322 -0.57457829 4 0 11721 2.22000000 2683232941 2683232941 -15.00000000
5.90020895 -3.03489971 0.11581417 69 1 11722 6.63600000 2683232943 2683232943 1.00000000
2.24221063 -1.15382421 -0.58217335 3 2 11723 2.58800000 2683232945 2683232945 -13.00000000
8.04417992 -4.14124870 0.47416377 7 3 11724 9.06000000 2683232948 2683232948 3.00000000
2.65668702 -1.36769712 -0.58082259 5 4 11724 3.04400000 2683232950 2683232950 -11.00000000
8.03978729 -4.14076233 0.79119980 37 5 11725 9.07800000 2683232952 2683232952 5.00000000
3.29774141 -1.69917679 -0.58756787 6 6 11726 3.75600000 2683232955 2683232955 -9.00000000
8.05124760 -4.15022182 1.11217964 38 7 11727 9.12600000 2683232957 2683232957 7.00000000
4.33136845 -2.23367167 -0.59837848 4 8 11728 4.91000000 2683232959 2683232959 -7.00000000
6.02316141 -3.10745406 1.07345331 15 9 11729 6.86200000 2683232962 2683232962 9.00000000
6.45217943 -3.32879210 -0.63519102 12 10 11729 7.28800000 2683232964 2683232964 -5.00000000
10.13776398 -5.23249006 2.21758223 3 11 11730 11.62200000 2683232966 2683232966 11.00000000
5.52445078 -2.85260296 -0.32584366 3 12 11731 6.22600000 2683232968 2683232968 -3.00000000
8.30712223 -4.29129839 2.15863037 47 13 11732 9.59600000 2683232971 2683232971 13.00000000
6.11287928 -3.15914655 -0.12010746 2 14 11733 6.88200000 2683232973 2683232973 -1.00000000
8.09194183 -4.18192959 2.44066358 45 15 11733 9.43000000 2683232975 2683232975 15.00000000
1.89675951 -0.98360676 -0.57250774 4 0 11741 2.21200000 2683232996 2683232996 -15.00000000
5.88780451 -3.05455589 0.11577927 28 1 11742 6.63400000 2683232998 2683232998 1.00000000
2.24508786 -1.16523480 -0.58397293 3 2 11743 2.59600000 2683233001 2683233001 -13.00000000
8.04635715 -4.17618179 0.47510582 7 3 11743 9.07800000 2683233003 2683233003 3.00000000
2.64841199 -1.37515295 -0.58005935 5 4 11744 3.04000000 2683233005 2683233005 -11.00000000
8.03766060 -4.17523050 0.79242003 37 5 11745 9.09200000 2683233008 2683233008 5.00000000
3.28127313 -1.70521224 -0.58569062 6 6 11746 3.74400000 2683233010 2683233010 -9.00000000
8.06136990 -4.19112015 1.11559200 35 7 11747 9.15400000 2683233012 2683233012 7.00000000
4.31650066 -2.24511337 -0.59740353 4 8 11748 4.90200000 2683233014 2683233014 -7.00000000
6.02509069 -3.13379121 1.07564342 15 9 11748 6.87600000 2683233017 2683233017 9.00000000
6.41754389 -3.33933830 -0.63292503 12 10 11749 7.26200000 2683233019 2683233019 -5.00000000
8.19341850 -4.26522350 1.79551268 3 11 11750 9.41000000 2683233021 2683233021 11.00000000
5.44005966 -2.83312273 -0.32144743 3 12 11751 6.14200000 2683233024 2683233024 -3.00000000
8.29900551 -4.32387161 2.16042995 47 13 11752 9.60400000 2683233026 2683233026 13.00000000
6.15146589 -3.20634532 -0.12108479 2 14 11753 6.93800000 2683233028 2683233028 -1.00000000
8.08586025 -4.21461487 2.44325185 47 15 11753 9.44000000 2683233031 2683233031 15.00000000
1.89673829 -0.99201232 -0.57354301 4 0 11761 2.21600000 2683233051 2683233051 -15.00000000
2.24100685 -1.17306447 -0.58397293 3 2 11763 2.59600000 2683233056 2683233056 -13.00000000
8.04338169 -4.21213102 0.47583851 7 3 11764 9.09200000 2683233058 2683233058 3.00000000
2.64707398 -1.38621080 -0.58082259 5 4 11764 3.04400000 2683233061 2683233061 -11.00000000
8.04068565 -4.21250772 0.79416311 37 5 11765 9.11200000 2683233063 2683233063 5.00000000
3.27355123 -1.71573865 -0.58537775 6 6 11766 3.74200000 2683233065 2683233065 -9.00000000
8.06075573 -4.22660875 1.11754191 35 7 11767 9.17000000 2683233067 2683233067 7.00000000
4.32270098 -2.26754427 -0.59935343 4 8 11768 4.91800000 2683233070 2683233070 -7.00000000
6.04504919 -3.17237592 1.08127499 12 9 11769 6.91200000 2683233072 2683233072 9.00000000
6.38644218 -3.35153532 -0.63100755 12 10 11769 7.24000000 2683233074 2683233074 -5.00000000
8.15414429 -4.28102160 1.79016995 3 11 11770 9.38200000 2683233077 2683233077 11.00000000
5.38593245 -2.82887697 -0.31883064 3 12 11771 6.09200000 2683233079 2683233079 -3.00000000
8.28731251 -4.35462713 2.16132975 47 13 11772 9.60800000 2683233081 2683233081 13.00000000
6.19864702 -3.25850391 -0.12223665 6 14 11773 7.00400000 2683233084 2683233084 -1.00000000
8.08745670 -4.25321484 2.44842815 47 15 11774 9.46000000 2683233086 2683233086 15.00000000
1.89479816 -0.99985915 -0.57406062 4 0 11782 2.21800000 2683233107 2683233107 -15.00000000
5.89232206 -3.11061287 0.11630283 71 1 11783 6.66400000 2683233109 2683233109 1.00000000
2.22979951 -1.17763007 -0.58217335 3 2 11784 2.58800000 2683233111 2683233111 -13.00000000
8.04629040 -4.24950933 0.47688523 7 3 11784 9.11200000 2683233114 2683233114 3.00000000
2.64544725 -1.39773774 -0.58158582 5 4 11785 3.04800000 2683233116 2683233116 -11.00000000
8.03928375 -4.24939823 0.79555762 37 5 11786 9.12800000 2683233118 2683233118 5.00000000
3.26724076 -1.72772527 -0.58537775 4 6 11787 3.74200000 2683233120 2683233120 -9.00000000
8.05222893 -4.25983763 1.11851680 35 7 11788 9.17800000 2683233123 2683233123 7.00000000
4.28979778 -2.27037239 -0.59594107 4 8 11789 4.89000000 2683233125 2683233125 -7.00000000
6.06305933 -3.21022463 1.08659375 15 9 11790 6.94600000 2683233127 2683233127 9.00000000
6.37763691 -3.37678480 -0.63135618 12 10 11790 7.24400000 2683233130 2683233130 -5.00000000
8.14533806 -4.31455517 1.79169643 3 11 11791 9.39000000 2683233132 2683233132 11.00000000
5.29787731 -2.80744982 -0.31422508 6 12 11792 6.00400000 2683233134 2683233134 -3.00000000
8.26440907 -4.38132095 2.15953016 48 13 11793 9.60000000 2683233137 2683233137 13.00000000
6.18489599 -3.28026414 -0.12220175 2 14 11794 7.00200000 2683233139 2683233139 -1.00000000
8.08962822 -4.29047108 2.45360446 47 15 11794 9.48000000 2683233141 2683233141 15.00000000
1.90323424 -1.01282001 -0.57768410 4 0 11802 2.23200000 2683233162 2683233162 -15.00000000
5.90084457 -3.14149880 0.11668679 57 1 11803 6.68600000 2683233164 2683233164 1.00000000
2.21879530 -1.18174207 -0.58037370 3 2 11804 2.58000000 2683233166 2683233166 -13.00000000
8.03140831 -4.27757025 0.47688523 7 3 11804 9.11200000 2683233169 2683233169 3.00000000
2.63015628 -1.40142441 -0.57929611 5 4 11805 3.03600000 2683233171 2683233171 -11.00000000
8.05077457 -4.29149294 0.79817230 37 5 11806 9.15800000 2683233173 2683233173 5.00000000
3.25770402 -1.73726046 -0.58475202 4 6 11807 3.73800000 2683233176 2683233176 -9.00000000
8.05132198 -4.29539442 1.12046671 35 7 11808 9.19400000 2683233178 2683233178 7.00000000
4.28534889 -2.28720212 -0.59642857 4 8 11809 4.89400000 2683233180 2683233180 -7.00000000
6.06575680 -3.23881245 1.08909678 15 9 11810 6.96200000 2683233183 2683233183 9.00000000
6.36229563 -3.39714956 -0.63100755 12 10 11810 7.24000000 2683233185 2683233185 -5.00000000
8.14061832 -4.34851122 1.79398620 3 11 11811 9.40200000 2683233187 2683233187 11.00000000
5.31094503 -2.83816338 -0.31558582 6 12 11812 6.03000000 2683233190 2683233190 -3.00000000
8.24390888 -4.40738630 2.15818048 51 13 11813 9.59400000 2683233192 2683233192 13.00000000
5.45926046 -2.91987348 -0.10806530 6 14 11814 6.19200000 2683233194 2683233194 -1.00000000
8.09334087 -4.32870531 2.45929861 51 15 11814 9.50200000 2683233196 2683233196 15.00000000
1.88436723 -1.01123583 -0.57302535 4 0 11822 2.21400000 2683233217 2683233217 -15.00000000
5.89512825 -3.16491508 0.11679150 60 1 11823 6.69200000 2683233219 2683233219 1.00000000
2.22152376 -1.19316816 -0.58217335 3 2 11824 2.58800000 2683233222 2683233222 -13.00000000
8.03678894 -4.31832218 0.47814131 7 3 11825 9.13600000 2683233224 2683233224 3.00000000
2.61833072 -1.40687978 -0.57776964 6 4 11825 3.02800000 2683233226 2683233226 -11.00000000
8.04452038 -4.32428598 0.79904383 37 5 11826 9.16800000 2683233229 2683233229 5.00000000
3.26901770 -1.75797737 -0.58788073 4 6 11827 3.75800000 2683233231 2683233231 -9.00000000
8.05026436 -4.33099651 1.12241662 35 7 11828 9.21000000 2683233233 2683233233 7.00000000
4.27209520 -2.29932451 -0.59569734 6 8 11829 4.88800000 2683233236 2683233236 -7.00000000
6.05150414 -3.25703716 1.08847106 15 9 11829 6.95800000 2683233238 2683233238 9.00000000
6.33987284 -3.41366982 -0.62996173 12 10 11830 7.22800000 2683233240 2683233240 -5.00000000
8.13921738 -4.38434935 1.79703915 3 11 11831 9.41800000 2683233243 2683233243 11.00000000
5.28166533 -2.84626222 -0.31443444 6 12 11832 6.00800000 2683233245 2683233245 -3.00000000
8.23018932 -4.43706083 2.15863037 50 13 11833 9.59600000 2683233247 2683233247 13.00000000
5.40151453 -2.91328192 -0.10712287 24 14 11834 6.13800000 2683233249 2683233249 -1.00000000
8.08082104 -4.36017466 2.46033382 56 15 11835 9.50600000 2683233252 2683233252 15.00000000
1.87742782 -1.01596856 -0.57199007 4 0 11842 2.21000000 2683233272 2683233272 -15.00000000
5.88404465 -3.18547368 0.11679150 60 1 11843 6.69200000 2683233275 2683233275 1.00000000
2.21734524 -1.20091546 -0.58217335 3 2 11844 2.58800000 2683233277 2683233277 -13.00000000
8.02769279 -4.34780312 0.47845531 2 3 11844 9.14200000 2683233279 2683233279 3.00000000
2.62548685 -1.42255783 -0.58044094 6 4 11845 3.04200000 2683233282 2683233282 -11.00000000
8.03638268 -4.35613823 0.79974109 41 5 11846 9.17600000 2683233284 2683233284 5.00000000
3.25591516 -1.76561093 -0.58662927 4 6 11847 3.75000000 2683233286 2683233286 -9.00000000
8.05952549 -4.37232304 1.12582898 38 7 11848 9.23800000 2683233289 2683233289 7.00000000
4.26229811 -2.31327605 -0.59545362 6 8 11849 4.88600000 2683233291 2683233291 -7.00000000
6.04647017 -3.28296542 1.08972251 15 9 11850 6.96600000 2683233293 2683233293 9.00000000
6.31391096 -3.42817402 -0.62856722 12 10 11850 7.21200000 2683233296 2683233296 -5.00000000
5.12550402 -2.78408003 1.13378704 3 11 11851 5.94200000 2683233298 2683233298 11.00000000
5.25590372 -2.85609865 -0.31349239 9 12 11852 5.99000000 2683233300 2683233300 -3.00000000
8.22149944 -4.46948576 2.16042995 48 13 11853 9.60400000 2683233302 2683233302 13.00000000
5.36496162 -2.91778803 -0.10659930 27 14 11854 6.10800000 2683233305 2683233305 -1.00000000
8.06724930 -4.38927841 2.46085143 49 15 11855 9.50800000 2683233307 2683233307 15.00000000
1.87235248 -1.02126372 -0.57147247 4 0 11861 2.20800000 2683233328 2683233328 -15.00000000
5.89451313 -3.21646261 0.11721036 43 1 11862 6.71600000 2683233330 2683233330 1.00000000
2.21335077 -1.20826185 -0.58217335 3 2 11863 2.58800000 2683233332 2683233332 -13.00000000
2.62075520 -1.43125653 -0.58044094 6 4 11864 3.04200000 2683233337 2683233337 -11.00000000
8.02538967 -4.38467455 0.80008972 33 5 11865 9.18000000 2683233339 2683233339 5.00000000
3.23964214 -1.77071381 -0.58475202 4 6 11866 3.73800000 2683233342 2683233342 -9.00000000
8.04846478 -4.40092993 1.12631643 35 7 11867 9.24200000 2683233344 2683233344 7.00000000
4.23892975 -2.31882334 -0.59325999 6 8 11868 4.86800000 2683233346 2683233346 -7.00000000
6.05692291 -3.31332088 1.09347689 17 9 11868 6.99000000 2683233349 2683233349 9.00000000
6.30250788 -3.44909263 -0.62856722 12 10 11869 7.21200000 2683233351 2683233351 -5.00000000
5.02841806 -2.75297856 1.11432457 24 11 11870 5.84000000 2683233353 2683233353 11.00000000
5.21837616 -2.85816121 -0.31181762 9 12 11871 5.95800000 2683233355 2683233355 -3.00000000
8.20663357 -4.49672461 2.16042995 48 13 11872 9.60400000 2683233358 2683233358 13.00000000
5.32018614 -2.91633844 -0.10590120 31 14 11873 6.06800000 2683233360 2683233360 -1.00000000
8.07466984 -4.42808199 2.46758080 47 15 11874 9.53400000 2683233362 2683233362 15.00000000
1.88062525 -1.03430998 -0.57509589 4 0 11881 2.22200000 2683233383 2683233383 -15.00000000
5.88500166 -3.23798275 0.11724526 37 1 11882 6.71800000 2683233385 2683233385 1.00000000
2.19546199 -1.20846283 -0.57857412 3 2 11883 2.57200000 2683233388 2683233388 -13.00000000
5.10039711 -2.80744576 0.30511862 2 3 11883 5.83000000 2683233390 2683233390 3.00000000
2.62090230 -1.44323695 -0.58158582 9 4 11884 3.04800000 2683233392 2683233392 -11.00000000
8.03970242 -4.42900467 0.80305302 41 5 11885 9.21400000 2683233395 2683233395 5.00000000
3.23344159 -1.78201151 -0.58475202 4 6 11886 3.73800000 2683233397 2683233397 -9.00000000
8.04000759 -4.43283129 1.12729144 35 7 11887 9.25000000 2683233399 2683233399 7.00000000
4.23428583 -2.33552337 -0.59374744 6 8 11888 4.87200000 2683233402 2683233402 -7.00000000
6.06607676 -3.34589195 1.09723139 22 9 11888 7.01400000 2683233404 2683233404 9.00000000
6.30787420 -3.48069739 -0.63031036 12 10 11889 7.23200000 2683233406 2683233406 -5.00000000
4.99299669 -2.75628209 1.10860026 30 11 11890 5.81000000 2683233408 2683233408 11.00000000
5.18913555 -2.86573839 -0.31066623 9 12 11891 5.93600000 2683233411 2683233411 -3.00000000
8.19088650 -4.52534342 2.16042995 48 13 11892 9.60400000 2683233413 2683233413 13.00000000
5.28022099 -2.91844678 -0.10530782 31 14 11893 6.03400000 2683233415 2683233415 -1.00000000
8.07606983 -4.46558905 2.47275710 45 15 11894 9.55400000 2683233418 2683233418 15.00000000
1.88901258 -1.04709673 -0.57871938 4 0 11900 2.23600000 2683233438 2683233438 -15.00000000
5.88472462 -3.26329899 0.11745469 34 1 11901 6.73000000 2683233441 2683233441 1.00000000
2.18462634 -1.21195519 -0.57677448 3 2 11902 2.56400000 2683233443 2683233443 -13.00000000
5.04914331 -2.80109024 0.30260649 2 3 11902 5.78200000 2683233445 2683233445 3.00000000
2.60923553 -1.44810939 -0.58005935 5 4 11903 3.04000000 2683233448 2683233448 -11.00000000
8.04935837 -4.46918106 0.80549335 37 5 11904 9.24200000 2683233450 2683233450 5.00000000
3.24132943 -1.80039763 -0.58725500 4 6 11905 3.75400000 2683233452 2683233452 -9.00000000
8.04955578 -4.47296762 1.13070381 38 7 11906 9.27800000 2683233454 2683233454 7.00000000
4.20916748 -2.33990693 -0.59131008 6 8 11907 4.85200000 2683233457 2683233457 -7.00000000
6.06358051 -3.37078834 1.09879565 25 9 11907 7.02400000 2683233459 2683233459 9.00000000
6.28585005 -3.49578571 -0.62926447 12 10 11908 7.22000000 2683233461 2683233461 -5.00000000
4.98211336 -2.77186990 1.10821867 33 11 11909 5.80800000 2683233464 2683233464 11.00000000
5.15691662 -2.87030315 -0.30930549 12 12 11910 5.91000000 2683233466 2683233466 -3.00000000
8.17583466 -4.55248070 2.16042995 50 13 11911 9.60400000 2683233468 2683233468 13.00000000
5.23906898 -2.91842437 -0.10467953 31 14 11912 5.99800000 2683233471 2683233471 -1.00000000
8.06875134 -4.49469948 2.47482777 45 15 11912 9.56200000 2683233473 2683233473 15.00000000
1.87016881 -1.04520202 -0.57406062 4 0 11920 2.21800000 2683233494 2683233494 -15.00000000
5.88900661 -3.29260349 0.11776884 43 1 11921 6.74800000 2683233496 2683233496 1.00000000
2.19398856 -1.22718406 -0.58037370 3 2 11922 2.58000000 2683233498 2683233498 -13.00000000
4.98704147 -2.78944826 0.29946634 2 3 11922 5.72200000 2683233501 2683233501 3.00000000
2.59559846 -1.45241511 -0.57815129 6 4 11923 3.03000000 2683233503 2683233503 -11.00000000
8.03892422 -4.50017118 0.80601633 37 5 11924 9.24800000 2683233505 2683233505 5.00000000
3.21778989 -1.80204892 -0.58412629 4 6 11925 3.73400000 2683233507 2683233507 -9.00000000
8.04774761 -4.50880051 1.13265371 40 7 11926 9.29400000 2683233510 2683233510 7.00000000
4.20790100 -2.35846758 -0.59228504 6 8 11927 4.86000000 2683233512 2683233512 -7.00000000
6.06039333 -3.39676285 1.10036004 32 9 11927 7.03400000 2683233514 2683233514 9.00000000
6.26665783 -3.51380849 -0.62856722 12 10 11928 7.21200000 2683233517 2683233517 -5.00000000
4.95699692 -2.78059936 1.10478413 12 11 11929 5.79000000 2683233519 2683233519 11.00000000
5.14860773 -2.88926387 -0.30941018 12 12 11930 5.91200000 2683233521 2683233521 -3.00000000
8.16669083 -4.58480787 2.16222954 50 13 11931 9.61200000 2683233524 2683233524 13.00000000
5.19223595 -2.91613054 -0.10394653 36 14 11932 5.95600000 2683233526 2683233526 -1.00000000
8.04885483 -4.52234983 2.47379231 40 15 11933 9.55800000 2683233528 2683233528 15.00000000
1.85959375 -1.04825485 -0.57199007 4 0 11941 2.21000000 2683233549 2683233549 -15.00000000
5.88909149 -3.32104158 0.11801317 51 1 11942 6.76200000 2683233551 2683233551 1.00000000
2.19287038 -1.23713219 -0.58127350 3 2 11943 2.58400000 2683233554 2683233554 -13.00000000
4.97803354 -2.80955815 0.29957101 40 3 11944 5.72400000 2683233556 2683233556 3.00000000
2.59196734 -1.46288359 -0.57853287 6 4 11944 3.03200000 2683233558 2683233558 -11.00000000
8.03105068 -4.53450298 0.80688787 41 5 11945 9.25800000 2683233560 2683233560 5.00000000
3.20772362 -1.81188762 -0.58350056 4 6 11946 3.73000000 2683233563 2683233563 -9.00000000
8.05709171 -4.55291605 1.13630974 40 7 11947 9.32400000 2683233565 2683233565 7.00000000
4.19922829 -2.37387443 -0.59228504 6 8 11948 4.86000000 2683233567 2683233567 -7.00000000
6.05822039 -3.42478514 1.10223722 30 9 11948 7.04600000 2683233570 2683233570 9.00000000
6.24333143 -3.53086853 -0.62752134 12 10 11949 7.20000000 2683233572 2683233572 -5.00000000
5.12581635 -2.90122867 -0.30867746 21 12 11951 5.89800000 2683233577 2683233577 -3.00000000
8.16848564 -4.62527180 2.16717839 51 13 11952 9.63400000 2683233579 2683233579 13.00000000
5.15367413 -2.91937184 -0.10338806 42 14 11953 5.92400000 2683233581 2683233581 -1.00000000
1.85928249 -1.05664873 -0.57302535 4 0 11961 2.21400000 2683233604 2683233604 -15.00000000
5.87920141 -3.34256625 0.11804808 48 1 11962 6.76400000 2683233607 2683233607 1.00000000
2.18853879 -1.24477923 -0.58127350 3 2 11963 2.58400000 2683233609 2683233609 -13.00000000
4.97166777 -2.82889318 0.29978037 7 3 11964 5.72800000 2683233611 2683233611 3.00000000
2.59025788 -1.47386420 -0.57929611 5 4 11964 3.03600000 2683233613 2683233613 -11.00000000
8.03248882 -4.57236528 0.80863100 37 5 11965 9.27800000 2683233616 2683233616 5.00000000
3.19794631 -1.82111859 -0.58287483 4 6 11966 3.72600000 2683233618 2683233618 -9.00000000
8.04977417 -4.58592606 1.13752842 33 7 11967 9.33400000 2683233620 2683233620 7.00000000
4.18746710 -2.38655210 -0.59179753 6 8 11968 4.85600000 2683233623 2683233623 -7.00000000
6.05249166 -3.45088029 1.10348868 12 9 11969 7.05400000 2683233625 2683233625 9.00000000
6.21712160 -3.54474545 -0.62612689 12 10 11969 7.18400000 2683233627 2683233627 -5.00000000
5.11091805 -2.91521597 1.14370906 3 11 11970 5.99400000 2683233630 2683233630 11.00000000
5.09831095 -2.90920472 -0.30763075 25 12 11971 5.87800000 2683233632 2683233632 -3.00000000
8.16413784 -4.66051960 2.17032766 53 13 11972 9.64800000 2683233634 2683233634 13.00000000
5.13303328 -2.93139362 -0.10317863 45 14 11973 5.91200000 2683233637 2683233637 -1.00000000
6.95113993 -3.97129440 2.14509225 9 15 11974 8.28800000 2683233639 2683233639 15.00000000
1.86228764 -1.06697392 -0.57509589 4 0 11981 2.22200000 2683233660 2683233660 -15.00000000
5.87790728 -3.36903477 0.11825751 46 1 11982 6.77600000 2683233662 2683233662 1.00000000
2.17065597 -1.24465621 -0.57767433 3 2 11983 2.56800000 2683233664 2683233664 -13.00000000
4.97215748 -2.85219312 0.30040839 7 3 11984 5.74000000 2683233666 2683233666 3.00000000
2.58339453 -1.48192000 -0.57891446 6 4 11984 3.03400000 2683233669 2683233669 -11.00000000
8.03721619 -4.61227608 0.81072271 37 5 11985 9.30200000 2683233671 2683233671 5.00000000
3.18814349 -1.83030331 -0.58224910 4 6 11986 3.72200000 2683233673 2683233673 -9.00000000
8.04404545 -4.61992884 1.13899088 38 7 11987 9.34600000 2683233676 2683233676 7.00000000
4.17222595 -2.39719892 -0.59082258 6 8 11988 4.84800000 2683233678 2683233678 -7.00000000
7.26223469 -4.17259789 1.32656431 7 9 11988 8.48000000 2683233680 2683233680 9.00000000
6.20471001 -3.56642580 -0.62612689 16 10 11989 7.18400000 2683233683 2683233683 -5.00000000
5.08369112 -2.92325211 1.13989294 3 11 11990 5.97400000 2683233685 2683233685 11.00000000
5.07427502 -2.91901612 -0.30679336 31 12 11991 5.86200000 2683233687 2683233687 -3.00000000
8.14613056 -4.68801737 2.16987777 50 13 11992 9.64600000 2683233690 2683233690 13.00000000
5.11757040 -2.94630027 -0.10307391 58 14 11993 5.90600000 2683233692 2683233692 -1.00000000
7.99603415 -4.60349607 2.47223949 29 15 11993 9.55200000 2683233694 2683233694 15.00000000
1.86858904 -1.07926524 -0.57820177 4 0 12001 2.23400000 2683233715 2683233715 -15.00000000
5.89035177 -3.40353823 0.11874618 40 1 12002 6.80400000 2683233717 2683233717 1.00000000
2.16967249 -1.25417614 -0.57857412 3 2 12003 2.57200000 2683233719 2683233719 -13.00000000
4.94142342 -2.85753369 0.29915231 2 3 12004 5.71600000 2683233722 2683233722 3.00000000
2.58160496 -1.49289441 -0.57967770 5 4 12004 3.03800000 2683233724 2683233724 -11.00000000
8.03313923 -4.64728689 0.81194288 33 5 12005 9.31600000 2683233726 2683233726 5.00000000
3.18515468 -1.84339988 -0.58287483 6 6 12006 3.72600000 2683233729 2683233729 -9.00000000
8.05192089 -4.66190434 1.14240324 33 7 12007 9.37400000 2683233731 2683233731 7.00000000
4.14665556 -2.40179849 -0.58838516 6 8 12008 4.82800000 2683233733 2683233733 -7.00000000
7.24176502 -4.19621611 1.32562566 7 9 12009 8.47400000 2683233736 2683233736 9.00000000
6.20601416 -3.59605384 -0.62752134 16 10 12009 7.20000000 2683233738 2683233738 -5.00000000
5.03608894 -2.91931868 1.13149738 3 11 12010 5.93000000 2683233740 2683233740 11.00000000
5.07614899 -2.94372439 -0.30752608 46 12 12011 5.87600000 2683233742 2683233742 -3.00000000
8.12803078 -4.71544600 2.16942787 50 13 12012 9.64400000 2683233745 2683233745 13.00000000
5.09687757 -2.95812321 -0.10286448 72 14 12013 5.89400000 2683233747 2683233747 -1.00000000
7.99414349 -4.64150238 2.47689819 33 15 12014 9.57000000 2683233749 2683233749 15.00000000
1.85145450 -1.07800496 -0.57406062 4 0 12021 2.21800000 2683233770 2683233770 -15.00000000
5.88361883 -3.42709804 0.11885089 28 1 12022 6.81000000 2683233772 2683233772 1.00000000
2.16864872 -1.26370430 -0.57947391 3 2 12023 2.57600000 2683233775 2683233775 -13.00000000
4.87620354 -2.84257722 0.29580283 15 3 12024 5.65200000 2683233777 2683233777 3.00000000
2.56789756 -1.49695301 -0.57776964 6 4 12024 3.02800000 2683233779 2683233779 -11.00000000
8.02375317 -4.67931414 0.81264013 23 5 12025 9.32400000 2683233782 2683233782 5.00000000
3.17528796 -1.85251606 -0.58224910 4 6 12026 3.72200000 2683233784 2683233784 -9.00000000
8.04931450 -4.69798756 1.14435315 31 7 12027 9.39000000 2683233786 2683233786 7.00000000
4.14510345 -2.42026210 -0.58936012 6 8 12028 4.83600000 2683233789 2683233789 -7.00000000
7.23463392 -4.22419167 1.32687712 7 9 12028 8.48200000 2683233791 2683233791 9.00000000
6.17621994 -3.60764575 -0.62577826 16 10 12029 7.18000000 2683233793 2683233793 -5.00000000
5.00213718 -2.92301297 1.12615466 12 11 12030 5.90200000 2683233795 2683233795 11.00000000
5.05722141 -2.95638585 -0.30700272 34 12 12031 5.86600000 2683233798 2683233798 -3.00000000
8.11993217 -4.74870825 2.17167759 51 13 12032 9.65400000 2683233800 2683233800 13.00000000
5.07616472 -2.96983767 -0.10265505 74 14 12033 5.88200000 2683233802 2683233802 -1.00000000
1.83768380 -1.07859385 -0.57095480 4 0 12041 2.20600000 2683233825 2683233825 -15.00000000
4.79903650 -2.81783032 0.09714010 26 1 12042 5.56600000 2683233828 2683233828 1.00000000
2.16758490 -1.27324069 -0.58037370 3 2 12043 2.58000000 2683233830 2683233830 -13.00000000
4.83009005 -2.83833170 0.29360470 27 3 12044 5.61000000 2683233832 2683233832 3.00000000
2.56434917 -1.50690222 -0.57815129 5 4 12044 3.03000000 2683233835 2683233835 -11.00000000
3.17561316 -1.86759412 -0.58350056 4 6 12046 3.73000000 2683233839 2683233839 -9.00000000
8.05168724 -4.73712921 1.14703429 33 7 12047 9.41200000 2683233842 2683233842 7.00000000
4.13320827 -2.43270278 -0.58887267 6 8 12048 4.83200000 2683233844 2683233844 -7.00000000
7.22591162 -4.25468874 1.32812858 10 9 12049 8.49000000 2683233846 2683233846 9.00000000
6.14470387 -3.61806273 -0.62386084 16 10 12049 7.15800000 2683233848 2683233848 -5.00000000
5.02573538 -2.96038437 1.13378704 3 11 12050 5.94200000 2683233851 2683233851 11.00000000
5.06235743 -2.98314667 -0.30794477 28 12 12051 5.88400000 2683233853 2683233853 -3.00000000
8.11337948 -4.78296137 2.17437696 53 13 12052 9.66600000 2683233855 2683233855 13.00000000
5.07610226 -2.99363375 -0.10286448 65 14 12053 5.89400000 2683233858 2683233858 -1.00000000
6.69867945 -3.95212555 2.08401084 9 15 12054 8.05200000 2683233860 2683233860 15.00000000
1.83742261 -1.08664870 -0.57199007 4 0 12060 2.21000000 2683233881 2683233881 -15.00000000
4.75180292 -2.81132793 0.09637219 42 1 12061 5.52200000 2683233883 2683233883 1.00000000
2.15664268 -1.27645135 -0.57857412 3 2 12062 2.57200000 2683233885 2683233885 -13.00000000
4.77768660 -2.82889342 0.29098791 6 3 12063 5.56000000 2683233888 2683233888 3.00000000
2.56102729 -1.51639783 -0.57853287 5 4 12063 3.03200000 2683233890 2683233890 -11.00000000
4.89754009 -2.90101409 0.49800792 15 5 12064 5.71400000 2683233892 2683233892 5.00000000
3.15580726 -1.87005830 -0.58099759 3 6 12065 3.71400000 2683233895 2683233895 -9.00000000
8.04105663 -4.76684046 1.14776552 33 7 12066 9.41800000 2683233897 2683233897 7.00000000
4.13194799 -2.45044589 -0.58984762 6 8 12067 4.84000000 2683233899 2683233899 -7.00000000
7.21930552 -4.28139877 1.32938004 10 9 12067 8.49800000 2683233901 2683233901 9.00000000
6.13952589 -3.64248586 -0.62455803 16 10 12068 7.16600000 2683233904 2683233904 -5.00000000
5.02939701 -2.98505020 1.13683999 3 11 12069 5.95800000 2683233906 2683233906 11.00000000
5.02667665 -2.98462224 -0.30637470 21 12 12070 5.85400000 2683233908 2683233908 -3.00000000
8.10920238 -4.81680632 2.17752624 53 13 12071 9.68000000 2683233911 2683233911 13.00000000
5.08677578 -3.02270865 -0.10328334 58 14 12072 5.91800000 2683233913 2683233913 -1.00000000
6.65965843 -3.95736051 2.07572865 9 15 12072 8.02000000 2683233915 2683233915 15.00000000
1.82864022 -1.09008837 -0.57043719 4 0 12080 2.20400000 2683233936 2683233936 -15.00000000
2.13878560 -1.27598429 -0.57497489 3 2 12082 2.55600000 2683233941 2683233941 -13.00000000
4.57055426 -2.72784162 0.27895066 2 3 12083 5.33000000 2683233943 2683233943 3.00000000
2.55740428 -1.52633440 -0.57891446 5 4 12083 3.03400000 2683233945 2683233945 -11.00000000
4.90620136 -2.92932725 0.49992535 36 5 12084 5.73600000 2683233948 2683233948 5.00000000
3.16282749 -1.88916636 -0.58350056 4 6 12085 3.73000000 2683233950 2683233950 -9.00000000
8.03800106 -4.80302572 1.14971542 33 7 12086 9.43400000 2683233952 2683233952 7.00000000
4.11996126 -2.46281719 -0.58936012 6 8 12087 4.83600000 2683233954 2683233954 -7.00000000
7.21712780 -4.31594086 1.33188307 10 9 12088 8.51400000 2683233957 2683233957 9.00000000
6.12335396 -3.66184950 -0.62420940 16 10 12088 7.16200000 2683233959 2683233959 -5.00000000
5.02231598 -3.00460386 1.13760328 3 11 12089 5.96200000 2683233961 2683233961 11.00000000
5.02479696 -3.00727892 -0.30689806 18 12 12090 5.86400000 2683233964 2683233964 -3.00000000
8.10404301 -4.85209084 2.18067551 55 13 12091 9.69400000 2683233966 2683233966 13.00000000
5.08648682 -3.04661155 -0.10349277 56 14 12092 5.93000000 2683233968 2683233968 -1.00000000
6.63350916 -3.97479224 2.07210517 2 15 12093 8.00600000 2683233971 2683233971 15.00000000
1.83992004 -1.10509849 -0.57509589 4 0 12099 2.22200000 2683233991 2683233991 -15.00000000
4.70513153 -2.82712841 0.09581371 22 1 12100 5.49000000 2683233994 2683233994 1.00000000
2.14790440 -1.29110146 -0.57857412 3 2 12101 2.57200000 2683233996 2683233996 -13.00000000
4.55121374 -2.73680758 0.27832261 2 3 12102 5.31800000 2683233998 2683233998 3.00000000
2.54223394 -1.52873623 -0.57662481 5 4 12102 3.02200000 2683234001 2683234001 -11.00000000
4.90328932 -2.94968891 0.50062257 30 5 12103 5.74400000 2683234003 2683234003 5.00000000
3.13623524 -1.88742137 -0.57974613 3 6 12104 3.70600000 2683234005 2683234005 -9.00000000
8.03903580 -4.83989334 1.15215278 36 7 12105 9.45400000 2683234007 2683234007 7.00000000
4.09476709 -2.46622396 -0.58692276 6 8 12106 4.81600000 2683234010 2683234010 -7.00000000
7.20353365 -4.33859301 1.33188307 10 9 12106 8.51400000 2683234012 2683234012 9.00000000
6.10947084 -3.68110681 -0.62403512 16 10 12107 7.16000000 2683234014 2683234014 -5.00000000
5.01568794 -3.02326894 1.13836646 3 11 12108 5.96600000 2683234017 2683234017 11.00000000
5.00282431 -3.01670575 -0.30616534 12 12 12109 5.85000000 2683234019 2683234019 -3.00000000
8.09124565 -4.88095093 2.18157530 62 13 12110 9.69800000 2683234021 2683234021 13.00000000
5.08320427 -3.06759501 -0.10363239 56 14 12111 5.93800000 2683234024 2683234024 -1.00000000
7.90780640 -4.77217627 2.47482777 29 15 12111 9.56200000 2683234026 2683234026 15.00000000
1.82613575 -1.10551155 -0.57199007 4 0 12119 2.21000000 2683234047 2683234047 -15.00000000
4.71062899 -2.85285830 0.09612785 35 1 12120 5.50800000 2683234049 2683234049 1.00000000
2.15338469 -1.30464983 -0.58127350 3 2 12121 2.58400000 2683234051 2683234051 -13.00000000
4.75513554 -2.88208151 0.29140660 4 3 12122 5.56800000 2683234054 2683234054 3.00000000
2.52680850 -1.53149533 -0.57433510 5 4 12122 3.01000000 2683234056 2683234056 -11.00000000
4.89977789 -2.97091866 0.50131983 30 5 12123 5.75200000 2683234058 2683234058 5.00000000
3.14651728 -1.90860224 -0.58287483 4 6 12124 3.72600000 2683234060 2683234060 -9.00000000
8.00681877 -4.85865688 1.14995909 11 7 12125 9.43600000 2683234063 2683234063 7.00000000
4.08952713 -2.48256254 -0.58741021 6 8 12126 4.82000000 2683234065 2683234065 -7.00000000
7.19003344 -4.36473656 1.33219588 12 9 12126 8.51600000 2683234067 2683234067 9.00000000
6.07955456 -3.69206858 -0.62229198 16 10 12127 7.14000000 2683234070 2683234070 -5.00000000
5.03195000 -3.05706835 1.14447236 3 11 12128 5.99800000 2683234072 2683234072 11.00000000
4.98202276 -3.02792645 -0.30553731 12 12 12129 5.83800000 2683234074 2683234074 -3.00000000
8.09414005 -4.92131424 2.18697405 70 13 12130 9.72200000 2683234077 2683234077 13.00000000
5.07929945 -3.08947682 -0.10377201 56 14 12131 5.94600000 2683234079 2683234079 -1.00000000
7.89110041 -4.79975080 2.47482777 38 15 12131 9.56200000 2683234081 2683234081 15.00000000
1.81712472 -1.10917771 -0.57043719 4 0 12140 2.20400000 2683234102 2683234102 -15.00000000
4.71208763 -2.87739944 0.09637219 25 1 12141 5.52200000 2683234104 2683234104 1.00000000
2.14526248 -1.31050193 -0.58037370 3 2 12142 2.58000000 2683234107 2683234107 -13.00000000
4.81952572 -2.94531584 0.29601216 18 3 12143 5.65600000 2683234109 2683234109 3.00000000
2.53457999 -1.54893637 -0.57738805 6 4 12143 3.02600000 2683234111 2683234111 -11.00000000
4.89565563 -2.99301434 0.50201708 33 5 12144 5.76000000 2683234113 2683234113 5.00000000
3.13276005 -1.91599929 -0.58162332 4 6 12145 3.71800000 2683234116 2683234116 -9.00000000
7.92122507 -4.84652948 1.14020956 6 7 12146 9.35600000 2683234118 2683234118 7.00000000
4.08378696 -2.49960756 -0.58789772 6 8 12147 4.82400000 2683234120 2683234120 -7.00000000
7.17995977 -4.39643812 1.33344734 12 9 12148 8.52400000 2683234123 2683234123 9.00000000
6.05238819 -3.70600295 -0.62089753 16 10 12148 7.12400000 2683234125 2683234125 -5.00000000
5.02071142 -3.07549071 1.14447236 3 11 12149 5.99800000 2683234127 2683234127 11.00000000
4.95386219 -3.03573060 -0.30449060 12 12 12150 5.81800000 2683234130 2683234130 -3.00000000
8.10262966 -4.96724367 2.19417262 66 13 12151 9.75400000 2683234132 2683234132 13.00000000
5.08157873 -3.11643600 -0.10405125 49 14 12152 5.96200000 2683234134 2683234134 -1.00000000
7.86686802 -4.82460117 2.47275710 42 15 12152 9.55400000 2683234136 2683234136 15.00000000
1.81159651 -1.11450160 -0.56991953 4 0 12160 2.20200000 2683234157 2683234157 -15.00000000
4.71223307 -2.90011883 0.09658162 25 1 12161 5.53400000 2683234160 2683234160 1.00000000
2.13071823 -1.31185210 -0.57767433 3 2 12162 2.56800000 2683234162 2683234162 -13.00000000
4.81941843 -2.96840572 0.29664019 21 3 12163 5.66800000 2683234164 2683234164 3.00000000
2.53082919 -1.55880380 -0.57776964 6 4 12163 3.02800000 2683234166 2683234166 -11.00000000
4.90892553 -3.02471733 0.50445741 36 5 12164 5.78800000 2683234169 2683234169 5.00000000
3.11260009 -1.91863072 -0.57912040 3 6 12165 3.70200000 2683234171 2683234171 -9.00000000
8.03774261 -4.95646286 1.15946496 27 7 12166 9.51400000 2683234173 2683234173 7.00000000
4.08179474 -2.51801634 -0.58887267 6 8 12167 4.83200000 2683234176 2683234176 -7.00000000
7.18138027 -4.43184853 1.33657610 7 9 12168 8.54400000 2683234178 2683234178 9.00000000
6.03602409 -3.72501445 -0.62054890 16 10 12168 7.12000000 2683234180 2683234180 -5.00000000
5.00326347 -3.08887219 1.14294589 3 11 12169 5.99000000 2683234183 2683234183 11.00000000
4.84297705 -2.99108362 -0.29831496 9 12 12170 5.70000000 2683234185 2683234185 -3.00000000
8.06369019 -4.98218107 2.18832397 27 13 12171 9.72800000 2683234187 2683234187 13.00000000
5.09108162 -3.14677143 -0.10447010 49 14 12172 5.98600000 2683234189 2683234189 -1.00000000
7.85406160 -4.85645008 2.47431016 42 15 12173 9.56000000 2683234192 2683234192 15.00000000
1.81590450 -1.12590849 -0.57250774 4 0 12180 2.21200000 2683234213 2683234213 -15.00000000
4.70208073 -2.91654992 0.09658162 25 1 12181 5.53400000 2683234215 2683234215 1.00000000
2.12281442 -1.31722677 -0.57677448 3 2 12182 2.56400000 2683234217 2683234217 -13.00000000
4.81581545 -2.98942399 0.29705888 21 3 12183 5.67600000 2683234219 2683234219 3.00000000
2.52704072 -1.56866395 -0.57815129 6 4 12183 3.03000000 2683234222 2683234222 -11.00000000
4.91187811 -3.05024290 0.50585192 36 5 12184 5.80400000 2683234224 2683234224 5.00000000
3.10252810 -1.92739916 -0.57849467 3 6 12185 3.69800000 2683234226 2683234226 -9.00000000
8.01533508 -4.98134613 1.15873373 6 7 12186 9.50800000 2683234229 2683234229 7.00000000
4.06623697 -2.52805662 -0.58789772 6 8 12187 4.82400000 2683234231 2683234231 -7.00000000
5.77026701 -3.58888078 1.07626915 2 9 12188 6.88000000 2683234233 2683234233 9.00000000
6.01960087 -3.74395680 -0.62020028 16 10 12188 7.11600000 2683234236 2683234236 -5.00000000
4.98911667 -3.10424376 1.14218259 3 11 12189 5.98600000 2683234238 2683234238 11.00000000
4.52220917 -2.81482720 -0.27915999 33 12 12190 5.33400000 2683234240 2683234240 -3.00000000
7.92879820 -4.93716240 2.15638089 16 13 12191 9.58600000 2683234242 2683234242 13.00000000
4.48940039 -2.79658031 -0.09232323 27 14 12192 5.29000000 2683234245 2683234245 -1.00000000
7.84611225 -4.88757563 2.47689819 40 15 12192 9.57000000 2683234247 2683234247 15.00000000
1.82015479 -1.13735890 -0.57509589 4 0 12200 2.22200000 2683234268 2683234268 -15.00000000
4.71391487 -2.94672513 0.09703538 23 1 12201 5.56000000 2683234270 2683234270 1.00000000
2.11820340 -1.32462871 -0.57677448 3 2 12202 2.56400000 2683234272 2683234272 -13.00000000
4.80873728 -3.00833464 0.29726824 23 3 12203 5.68000000 2683234275 2683234275 3.00000000
2.50823450 -1.56914556 -0.57509834 5 4 12203 3.01400000 2683234277 2683234277 -11.00000000
4.91977882 -3.07899690 0.50776935 39 5 12204 5.82600000 2683234279 2683234279 5.00000000
3.10917568 -1.94660330 -0.58099759 3 6 12205 3.71400000 2683234282 2683234282 -9.00000000
7.92723894 -4.96503925 1.14849675 6 7 12206 9.42400000 2683234284 2683234284 7.00000000
4.04393005 -2.53380299 -0.58594781 6 8 12207 4.80800000 2683234286 2683234286 -7.00000000
5.75770426 -3.60900092 1.07626915 5 9 12208 6.88000000 2683234289 2683234289 9.00000000
