# .PCD v0.7 - Point Cloud Data file format
VERSION 0.7
FIELDS x y z intensity laser_id azimuth distance_m adjustedtime timestamp vertical_angle
SIZE 4 4 4 1 1 2 8 8 4 8
TYPE F F F U U U F U U F
COUNT 1 1 1 1 1 1 1 1 1 1
WIDTH 528
HEIGHT 1
VIEWPOINT 0 0 0 1 0 0 0
POINTS 528
DATA ascii
8.03320885 -3.68637347 -0.15427928 8 14 11465 8.84000000 2688532382 2688532382 -1.00000000
8.09537697 -3.71661210 2.38682914 45 15 11466 9.22200000 2688532385 2688532385 15.00000000
1.96173239 -0.90354085 -0.57871938 4 0 11473 2.23600000 2688532405 2688532405 -15.00000000
8.02559280 -3.69815063 0.15424436 9 1 11474 8.83800000 2688532408 2688532408 1.00000000
2.28649759 -1.05408990 -0.58127350 3 2 11475 2.58400000 2688532410 2688532410 -13.00000000
6.18686199 -2.85218263 0.35703591 32 3 11475 6.82200000 2688532412 2688532412 3.00000000
2.73120761 -1.25968194 -0.58463877 5 4 11476 3.06400000 2688532415 2688532415 -11.00000000
6.09661150 -2.81315732 0.58742970 3 5 11477 6.74000000 2688532417 2688532417 5.00000000
3.38431859 -1.56234145 -0.59038365 4 6 11478 3.77400000 2688532419 2688532419 -9.00000000
8.05749035 -3.72137690 1.08975565 80 7 11479 8.94200000 2688532422 2688532422 7.00000000
4.46541071 -2.06330943 -0.60398448 6 8 11480 4.95600000 2688532424 2688532424 -7.00000000
9.45479393 -4.37073088 1.64975786 23 9 11481 10.54600000 2688532426 2688532426 9.00000000
6.17060328 -2.85252595 -0.59475076 12 10 11481 6.82400000 2688532429 2688532429 -5.00000000
6.15930986 -2.84991503 -0.35567516 10 12 11483 6.79600000 2688532433 2688532433 -3.00000000
8.47972393 -3.92536879 2.15728068 38 13 11484 9.59000000 2688532435 2688532435 13.00000000
8.03117943 -3.71943426 -0.15448870 6 14 11485 8.85200000 2688532438 2688532438 -1.00000000
8.09988213 -3.75296926 2.39200568 45 15 11486 9.24200000 2688532440 2688532440 15.00000000
1.96031833 -0.91119736 -0.57923704 4 0 11493 2.23800000 2688532461 2688532461 -15.00000000
6.04891348 -2.81294680 0.11644246 14 1 11494 6.67200000 2688532463 2688532463 1.00000000
2.28987169 -1.06535292 -0.58307314 3 2 11495 2.59200000 2688532465 2688532465 -13.00000000
6.13340759 -2.85354137 0.35452378 65 3 11495 6.77400000 2688532468 2688532468 3.00000000
2.71611452 -1.26423717 -0.58234906 5 4 11496 3.05200000 2688532470 2688532470 -11.00000000
6.09939766 -2.84030867 0.58864987 10 5 11497 6.75400000 2688532472 2688532472 5.00000000
3.37884450 -1.57414532 -0.59038365 6 6 11498 3.77400000 2688532475 2688532475 -9.00000000
8.05524635 -3.75451183 1.09121811 78 7 11499 8.95400000 2688532477 2688532477 7.00000000
4.44198942 -2.07133365 -0.60179085 4 8 11500 4.93800000 2688532479 2688532479 -7.00000000
9.47426414 -4.41792154 1.65570235 11 9 11500 10.58400000 2688532482 2688532482 9.00000000
6.14255285 -2.86562467 -0.59300768 12 10 11501 6.80400000 2688532484 2688532484 -5.00000000
6.16380167 -2.87815785 -0.35651255 10 12 11503 6.81200000 2688532488 2688532488 -3.00000000
8.45361137 -3.94917107 2.15413141 42 13 11504 9.57600000 2688532491 2688532491 13.00000000
5.97647285 -2.79322720 -0.11515098 13 14 11505 6.59800000 2688532493 2688532493 -1.00000000
8.09723282 -3.78612995 2.39511156 45 15 11506 9.25400000 2688532495 2688532495 15.00000000
1.95537674 -0.91721416 -0.57871938 4 0 11513 2.23600000 2688532516 2688532516 -15.00000000
6.01190376 -2.82130122 0.11591888 40 1 11514 6.64200000 2688532518 2688532518 1.00000000
2.27908301 -1.07002687 -0.58127350 3 2 11515 2.58400000 2688532521 2688532521 -13.00000000
6.12340975 -2.87493348 0.35452378 67 3 11515 6.77400000 2688532523 2688532523 3.00000000
2.71346188 -1.27454519 -0.58273065 5 4 11516 3.05400000 2688532525 2688532525 -11.00000000
6.09124947 -2.86242962 0.58882421 20 5 11517 6.75600000 2688532528 2688532528 5.00000000
3.37690425 -1.58761108 -0.59100944 4 6 11518 3.77800000 2688532530 2688532530 -9.00000000
8.05825901 -3.79021096 1.09341180 71 7 11519 8.97200000 2688532532 2688532532 7.00000000
4.43652821 -2.08767176 -0.60203457 6 8 11520 4.94000000 2688532535 2688532535 -7.00000000
9.48917007 -4.46526432 1.66102111 11 9 11520 10.61800000 2688532537 2688532537 9.00000000
6.10727549 -2.87516785 -0.59056729 12 10 11521 6.77600000 2688532539 2688532539 -5.00000000
6.05976725 -2.85538650 -0.35106960 10 12 11523 6.70800000 2688532544 2688532544 -3.00000000
8.43977451 -3.97865558 2.15413141 43 13 11524 9.57600000 2688532546 2688532546 13.00000000
5.91242695 -2.78848171 -0.11410383 24 14 11525 6.53800000 2688532548 2688532548 -1.00000000
8.09095573 -3.81766891 2.39718199 45 15 11526 9.26200000 2688532551 2688532551 15.00000000
1.93502140 -0.91509366 -0.57354301 4 0 11531 2.21600000 2688532571 2688532571 -15.00000000
6.01385641 -2.84530544 0.11612831 63 1 11532 6.65400000 2688532574 2688532574 1.00000000
2.28980136 -1.08385134 -0.58487272 3 2 11533 2.60000000 2688532576 2688532576 -13.00000000
2.70944452 -1.28306353 -0.58273065 5 4 11534 3.05400000 2688532581 2688532581 -11.00000000
6.01380634 -2.84913635 0.58220035 40 5 11535 6.68000000 2688532583 2688532583 5.00000000
3.36119008 -1.59313571 -0.58913219 4 6 11536 3.76600000 2688532585 2688532585 -9.00000000
8.05527973 -3.81976080 1.09463048 19 7 11537 8.98200000 2688532587 2688532587 7.00000000
4.41918659 -2.09649396 -0.60057211 6 8 11538 4.92800000 2688532590 2688532590 -7.00000000
6.08381319 -2.88750577 -0.58917284 4 10 11539 6.76000000 2688532594 2688532594 -5.00000000
6.01107836 -2.85555553 -0.34876680 7 12 11541 6.66400000 2688532599 2688532599 -3.00000000
8.43779373 -4.01016903 2.15683079 44 13 11542 9.58800000 2688532601 2688532601 13.00000000
5.87293673 -2.79244471 -0.11351045 42 14 11543 6.50400000 2688532604 2688532604 -1.00000000
8.09355068 -3.84829473 2.40132308 45 15 11543 9.27800000 2688532606 2688532606 15.00000000
1.93878949 -0.92517054 -0.57561356 4 0 11551 2.22400000 2688532627 2688532627 -15.00000000
6.00569201 -2.86714196 0.11616322 100 1 11552 6.65600000 2688532629 2688532629 1.00000000
2.28776240 -1.09267747 -0.58532262 4 2 11553 2.60200000 2688532631 2688532631 -13.00000000
8.04522705 -3.84254861 0.46725541 7 3 11553 8.92800000 2688532634 2688532634 3.00000000
2.70672059 -1.29335988 -0.58311230 5 4 11554 3.05600000 2688532636 2688532636 -11.00000000
5.98764610 -2.86237741 0.58063155 71 5 11555 6.66200000 2688532638 2688532638 5.00000000
3.34848022 -1.60144961 -0.58788073 4 6 11556 3.75800000 2688532640 2688532640 -9.00000000
4.43690872 -2.12390661 -0.60398448 6 8 11558 4.95600000 2688532645 2688532645 -7.00000000
6.07729101 -2.91044593 -0.58952147 4 10 11559 6.76400000 2688532650 2688532650 -5.00000000
5.93803740 -2.84630513 -0.34510329 3 12 11561 6.59400000 2688532654 2688532654 -3.00000000
8.43077278 -4.04296875 2.15863037 44 13 11562 9.59600000 2688532657 2688532657 13.00000000
5.85954762 -2.81119800 -0.11344064 54 14 11563 6.50000000 2688532659 2688532659 -1.00000000
8.08635807 -3.88127708 2.40339375 47 15 11564 9.28600000 2688532661 2688532661 15.00000000
1.94566464 -0.93764019 -0.57871938 4 0 11573 2.23600000 2688532682 2688532682 -15.00000000
5.98923492 -2.88757563 0.11605851 54 1 11574 6.65000000 2688532684 2688532684 1.00000000
2.27126360 -1.09552741 -0.58217335 4 2 11575 2.58800000 2688532687 2688532687 -13.00000000
8.04952335 -3.88436127 0.46840680 7 3 11576 8.95000000 2688532689 2688532689 3.00000000
2.70880723 -1.30715632 -0.58463877 5 4 11576 3.06400000 2688532691 2688532691 -11.00000000
5.98558235 -2.88967824 0.58150309 37 5 11577 6.67200000 2688532693 2688532693 5.00000000
3.34586382 -1.61601317 -0.58850646 4 6 11578 3.76200000 2688532696 2688532696 -9.00000000
5.92512035 -2.86303949 0.80799377 23 7 11579 6.63000000 2688532698 2688532698 7.00000000
4.39655113 -2.12537575 -0.59959716 6 8 11580 4.92000000 2688532700 2688532700 -7.00000000
6.05172157 -2.92681980 -0.58812696 4 10 11581 6.74800000 2688532705 2688532705 -5.00000000
5.86594200 -2.83949733 -0.34154445 3 12 11583 6.52600000 2688532710 2688532710 -3.00000000
8.40466404 -4.07021427 2.15593100 46 13 11584 9.58400000 2688532712 2688532712 13.00000000
5.88290262 -2.85024238 -0.11410383 15 14 11585 6.53800000 2688532714 2688532714 -1.00000000
8.09467888 -3.92183924 2.41012287 47 15 11585 9.31200000 2688532717 2688532717 15.00000000
1.94585454 -0.94611561 -0.57975465 4 0 11593 2.24000000 2688532737 2688532737 -15.00000000
5.94495249 -2.89184451 0.11539531 48 1 11594 6.61200000 2688532740 2688532740 1.00000000
2.26742554 -1.10344899 -0.58217335 3 2 11595 2.58800000 2688532742 2688532742 -13.00000000
8.03591537 -3.91243577 0.46840680 7 3 11596 8.95000000 2688532744 2688532744 3.00000000
2.69010639 -1.30972862 -0.58158582 5 4 11596 3.04800000 2688532746 2688532746 -11.00000000
8.04250908 -3.91738248 0.78265858 37 5 11597 8.98000000 2688532749 2688532749 5.00000000
3.35263300 -1.63373995 -0.59069651 6 6 11598 3.77600000 2688532751 2688532751 -9.00000000
5.87761927 -2.86543679 0.80287522 49 7 11599 6.58800000 2688532753 2688532753 7.00000000
4.38910532 -2.14070964 -0.59959716 6 8 11600 4.92000000 2688532756 2688532756 -7.00000000
6.10592985 -2.97938037 -0.59440219 4 10 11601 6.82000000 2688532760 2688532760 -5.00000000
5.79138660 -2.82840276 -0.33777627 3 12 11603 6.45400000 2688532765 2688532765 -3.00000000
8.38690281 -4.09781647 2.15503120 47 13 11604 9.58000000 2688532767 2688532767 13.00000000
8.09760475 -3.95996809 2.41529942 47 15 11606 9.33200000 2688532772 2688532772 15.00000000
1.93593383 -0.94882321 -0.57768410 4 0 11611 2.23200000 2688532793 2688532793 -15.00000000
5.92327023 -2.90434432 0.11515098 63 1 11612 6.59800000 2688532795 2688532795 1.00000000
2.26394773 -1.11056685 -0.58217335 3 2 11613 2.58800000 2688532797 2688532797 -13.00000000
8.03434277 -3.94294143 0.46903485 7 3 11614 8.96200000 2688532799 2688532799 3.00000000
2.68950343 -1.31990325 -0.58234906 5 4 11614 3.05200000 2688532802 2688532802 -11.00000000
8.03910542 -3.94701982 0.78353012 37 5 11615 8.99000000 2688532804 2688532804 5.00000000
3.34216475 -1.64165175 -0.58975792 8 6 11616 3.77000000 2688532806 2688532806 -9.00000000
5.87215137 -2.88563871 0.80336273 78 7 11617 6.59200000 2688532809 2688532809 7.00000000
4.38235855 -2.15448785 -0.59959716 6 8 11618 4.92000000 2688532811 2688532811 -7.00000000
5.87304640 -2.88735104 1.03653479 7 9 11618 6.62600000 2688532813 2688532813 9.00000000
6.46483517 -3.17969179 -0.63031036 4 10 11619 7.23200000 2688532816 2688532816 -5.00000000
5.78605652 -2.84834719 -0.33798561 3 12 11621 6.45800000 2688532820 2688532820 -3.00000000
8.37748432 -4.12586641 2.15593100 45 13 11622 9.58400000 2688532823 2688532823 13.00000000
5.93741465 -2.92543292 -0.11553493 2 14 11623 6.62000000 2688532825 2688532825 -1.00000000
8.09621716 -3.98909974 2.41840506 49 15 11623 9.34400000 2688532827 2688532827 15.00000000
1.91529274 -0.94701260 -0.57250774 4 0 11631 2.21200000 2688532848 2688532848 -15.00000000
5.89875698 -2.91790962 0.11487174 74 1 11632 6.58200000 2688532850 2688532850 1.00000000
2.27402997 -1.12537754 -0.58577257 3 2 11633 2.60400000 2688532852 2688532852 -13.00000000
8.03842926 -3.97982430 0.47008157 7 3 11634 8.98200000 2688532855 2688532855 3.00000000
2.67960143 -1.32667005 -0.58120418 5 4 11634 3.04600000 2688532857 2688532857 -11.00000000
8.02527905 -3.97505760 0.78353012 37 5 11635 8.99000000 2688532859 2688532859 5.00000000
3.32933402 -1.64979970 -0.58850646 6 6 11636 3.76200000 2688532862 2688532862 -9.00000000
8.06742287 -3.99943995 1.10559869 30 7 11637 9.07200000 2688532864 2688532864 7.00000000
4.37481117 -2.16977215 -0.59959716 6 8 11638 4.92000000 2688532866 2688532866 -7.00000000
5.79341316 -2.87461495 1.02433288 22 9 11639 6.54800000 2688532869 2688532869 9.00000000
6.47868299 -3.21463704 -0.63275069 8 10 11639 7.26000000 2688532871 2688532871 -5.00000000
5.71883631 -2.84009933 -0.33463609 3 12 11641 6.39400000 2688532875 2688532875 -3.00000000
8.37350273 -4.16028643 2.15863037 46 13 11642 9.59600000 2688532878 2688532878 13.00000000
5.94865513 -2.95682120 -0.11595379 2 14 11643 6.64400000 2688532880 2688532880 -1.00000000
8.08846092 -4.02218771 2.42047572 47 15 11644 9.35200000 2688532882 2688532882 15.00000000
1.91370404 -0.95455474 -0.57302535 4 0 11651 2.21400000 2688532903 2688532903 -15.00000000
5.89211416 -2.94026804 0.11494155 71 1 11652 6.58600000 2688532905 2688532905 1.00000000
2.26660061 -1.13156760 -0.58487272 3 2 11653 2.60000000 2688532908 2688532908 -13.00000000
8.04592991 -4.01856852 0.47133762 7 3 11654 9.00600000 2688532910 2688532910 3.00000000
2.68197966 -1.33952439 -0.58273065 5 4 11654 3.05400000 2688532912 2688532912 -11.00000000
8.04878235 -4.02174854 0.78719068 41 5 11655 9.03200000 2688532915 2688532915 5.00000000
3.32532167 -1.66229451 -0.58881932 6 6 11656 3.76400000 2688532917 2688532917 -9.00000000
8.05873966 -4.03024006 1.10632992 35 7 11657 9.07800000 2688532919 2688532919 7.00000000
4.37076092 -2.18680620 -0.60008466 6 8 11658 4.92400000 2688532922 2688532922 -7.00000000
5.74321699 -2.87348175 1.01713693 35 9 11658 6.50200000 2688532924 2688532924 9.00000000
6.47454929 -3.24079943 -0.63344795 8 10 11659 7.26800000 2688532926 2688532926 -5.00000000
5.66245937 -2.83678484 -0.33191463 3 12 11661 6.34200000 2688532931 2688532931 -3.00000000
8.36589813 -4.19298315 2.16042995 45 13 11662 9.60400000 2688532933 2688532933 13.00000000
5.95438576 -2.98563480 -0.11626793 2 14 11663 6.66200000 2688532935 2688532935 -1.00000000
8.09580231 -4.05937910 2.42668748 49 15 11663 9.37600000 2688532938 2688532938 15.00000000
1.92761743 -0.96991217 -0.57820177 4 0 11671 2.23400000 2688532958 2688532958 -15.00000000
5.88538694 -2.96261573 0.11501136 63 1 11672 6.59000000 2688532961 2688532961 1.00000000
2.24871302 -1.13246047 -0.58127350 4 2 11673 2.58400000 2688532963 2688532963 -13.00000000
8.04612255 -4.05381870 0.47217500 7 3 11674 9.02200000 2688532965 2688532965 3.00000000
2.67904091 -1.34976149 -0.58311230 5 4 11674 3.05600000 2688532968 2688532968 -11.00000000
8.03825283 -4.05161285 0.78753930 37 5 11675 9.03600000 2688532970 2688532970 5.00000000
3.31244373 -1.67033422 -0.58756787 6 6 11676 3.75600000 2688532972 2688532972 -9.00000000
8.04107761 -4.05655718 1.10584247 40 7 11677 9.07400000 2688532975 2688532975 7.00000000
4.35601234 -2.19847202 -0.59910971 6 8 11678 4.91600000 2688532977 2688532977 -7.00000000
5.73264647 -2.89451241 1.01713693 60 9 11679 6.50200000 2688532979 2688532979 9.00000000
6.48098278 -3.27236032 -0.63519102 12 10 11679 7.28800000 2688532981 2688532981 -5.00000000
5.63826227 -2.84932661 -0.33107725 3 12 11681 6.32600000 2688532986 2688532986 -3.00000000
8.34773254 -4.22040129 2.15953016 46 13 11682 9.60000000 2688532988 2688532988 13.00000000
5.96355629 -3.01632953 -0.11665189 2 14 11683 6.68400000 2688532991 2688532991 -1.00000000
8.09983063 -4.09861898 2.43238139 47 15 11684 9.39800000 2688532993 2688532993 15.00000000
1.92249739 -0.97576058 -0.57768410 4 0 11691 2.23200000 2688533014 2688533014 -15.00000000
5.89640570 -2.99400592 0.11543021 63 1 11692 6.61400000 2688533016 2688533016 1.00000000
2.23779655 -1.13677275 -0.57947391 3 2 11693 2.57600000 2688533018 2688533018 -13.00000000
8.04616737 -4.08911943 0.47301236 7 3 11694 9.03800000 2688533021 2688533021 3.00000000
2.67081261 -1.35732591 -0.58234906 5 4 11694 3.05200000 2688533023 2688533023 -11.00000000
8.04359722 -4.08957958 0.78945673 37 5 11695 9.05800000 2688533025 2688533025 5.00000000
3.30659294 -1.68188655 -0.58756787 6 6 11696 3.75600000 2688533028 2688533028 -9.00000000
8.04102230 -4.09180355 1.10779238 38 7 11697 9.09000000 2688533030 2688533030 7.00000000
4.32885218 -2.20375752 -0.59642857 4 8 11698 4.89400000 2688533032 2688533032 -7.00000000
6.47307110 -3.29677153 -0.63553965 12 10 11699 7.29200000 2688533037 2688533037 -5.00000000
10.23324394 -5.21409798 2.23246527 6 11 11700 11.70000000 2688533039 2688533039 11.00000000
5.55710554 -2.83270836 -0.32689038 3 12 11701 6.24600000 2688533041 2688533041 -3.00000000
8.33294964 -4.24951458 2.15953016 46 13 11702 9.60000000 2688533044 2688533044 13.00000000
6.02246046 -3.07257009 -0.11801317 2 14 11703 6.76200000 2688533046 2688533046 -1.00000000
8.10340214 -4.13423586 2.43755770 47 15 11703 9.41800000 2688533048 2688533048 15.00000000
1.91736007 -0.98158503 -0.57716650 4 0 11711 2.23000000 2688533069 2688533069 -15.00000000
5.90015745 -3.02186251 0.11570945 66 1 11712 6.63000000 2688533071 2688533071 1.00000000
2.24768949 -1.15168631 -0.58307314 3 2 11713 2.59200000 2688533074 2688533074 -13.00000000
8.04250908 -4.12264729 0.47364041 7 3 11714 9.05000000 2688533076 2688533076 3.00000000
2.66081715 -1.36395383 -0.58120418 5 4 11714 3.04600000 2688533078 2688533078 -11.00000000
8.04168320 -4.12399626 0.79067689 37 5 11715 9.07200000 2688533081 2688533081 5.00000000
3.30421710 -1.69522190 -0.58819360 6 6 11716 3.76000000 2688533083 2688533083 -9.00000000
8.05847931 -4.13616323 1.11217964 38 7 11717 9.12600000 2688533085 2688533085 7.00000000
4.32466507 -2.22066808 -0.59691602 4 8 11718 4.89800000 2688533087 2688533087 -7.00000000
6.01276159 -3.08881330 1.07063746 12 9 11719 6.84400000 2688533090 2688533090 9.00000000
6.44380188 -3.31024265 -0.63379657 12 10 11719 7.27200000 2688533092 2688533092 -5.00000000
10.15735817 -5.22017288 2.21987176 3 11 11720 11.63400000 2688533094 2688533094 11.00000000
5.52942133 -2.84295654 -0.32584366 3 12 11721 6.22600000 2688533097 2688533097 -3.00000000
8.31806564 -4.27857637 2.15953016 47 13 11722 9.60000000 2688533099 2688533099 13.00000000
6.05081654 -3.11370325 -0.11878107 2 14 11723 6.80600000 2688533101 2688533101 -1.00000000
8.09850121 -4.16921377 2.44066358 45 15 11724 9.43000000 2688533104 2688533104 15.00000000
1.89486945 -0.97885287 -0.57147247 4 0 11732 2.20800000 2688533124 2688533124 -15.00000000
5.89259529 -3.04530358 0.11577927 63 1 11733 6.63400000 2688533127 2688533127 1.00000000
2.24345326 -1.15991676 -0.58307314 3 2 11734 2.59200000 2688533129 2688533129 -13.00000000
8.03621483 -4.15668488 0.47416377 7 3 11735 9.06000000 2688533131 2688533131 3.00000000
2.65056872 -1.37099111 -0.58005935 5 4 11735 3.04000000 2688533134 2688533134 -11.00000000
8.03005314 -4.15527439 0.79102552 37 5 11736 9.07600000 2688533136 2688533136 5.00000000
3.29622746 -1.70641291 -0.58788073 6 6 11737 3.75800000 2688533138 2688533138 -9.00000000
8.06089211 -4.17480040 1.11461699 35 7 11738 9.14600000 2688533140 2688533140 7.00000000
4.31649685 -2.23650384 -0.59691602 4 8 11739 4.89800000 2688533143 2688533143 -7.00000000
6.01948261 -3.11887050 1.07376611 15 9 11739 6.86400000 2688533145 2688533145 9.00000000
6.42808819 -3.33200431 -0.63344795 12 10 11740 7.26800000 2688533147 2688533147 -5.00000000
8.22799397 -4.26680899 1.80161858 3 11 11741 9.44200000 2688533150 2688533150 11.00000000
5.45868635 -2.83193207 -0.32228482 3 12 11742 6.15800000 2688533152 2688533152 -3.00000000
8.30924702 -4.31262541 2.16132975 47 13 11743 9.60800000 2688533154 2688533154 13.00000000
6.15649462 -3.19667864 -0.12108479 2 14 11744 6.93800000 2688533157 2688533157 -1.00000000
8.09075642 -4.20101833 2.44273424 45 15 11744 9.43800000 2688533159 2688533159 15.00000000
1.89658093 -0.98813909 -0.57302535 4 0 11752 2.21400000 2688533180 2688533180 -15.00000000
2.23939085 -1.16774082 -0.58307314 3 2 11754 2.59200000 2688533184 2688533184 -13.00000000
8.05175877 -4.20041513 0.47594318 7 3 11755 9.09400000 2688533187 2688533187 3.00000000
2.64750767 -1.38114297 -0.58044094 5 4 11755 3.04200000 2688533189 2688533189 -11.00000000
8.04376030 -4.19802856 0.79381448 37 5 11756 9.10800000 2688533191 2688533191 5.00000000
3.26923800 -1.70693731 -0.58412629 6 6 11757 3.73400000 2688533193 2688533193 -9.00000000
8.05682755 -4.20842743 1.11607945 35 7 11758 9.15800000 2688533196 2688533196 7.00000000
4.34033203 -2.26810646 -0.60130334 4 8 11759 4.93400000 2688533198 2688533198 -7.00000000
6.04532433 -3.15907598 1.08033645 15 9 11759 6.90600000 2688533200 2688533200 9.00000000
6.39876127 -3.34519148 -0.63170481 12 10 11760 7.24800000 2688533203 2688533203 -5.00000000
8.18521404 -4.28094578 1.79551268 3 11 11761 9.41000000 2688533205 2688533205 11.00000000
5.42045355 -2.83615422 -0.32061008 3 12 11762 6.12600000 2688533207 2688533207 -3.00000000
8.29759502 -4.34341145 2.16222954 48 13 11763 9.61200000 2688533210 2688533210 13.00000000
6.17009974 -3.23113704 -0.12157346 2 14 11764 6.96600000 2688533212 2688533212 -1.00000000
8.08802223 -4.23550844 2.44635773 47 15 11764 9.45200000 2688533214 2688533214 15.00000000
1.89859855 -0.99678653 -0.57457829 4 0 11770 2.22000000 2688533235 2688533235 -15.00000000
5.87580919 -3.08617711 0.11584907 40 1 11771 6.63800000 2688533237 2688533237 1.00000000
2.22881079 -1.17114449 -0.58127350 3 2 11772 2.58400000 2688533240 2688533240 -13.00000000
8.04205894 -4.22754860 0.47615254 7 3 11773 9.09800000 2688533242 2688533242 3.00000000
2.65010667 -1.39310765 -0.58196741 5 4 11773 3.05000000 2688533244 2688533244 -11.00000000
8.04992962 -4.23347902 0.79573190 41 5 11774 9.13000000 2688533246 2688533246 5.00000000
3.27085209 -1.72087860 -0.58537775 4 6 11775 3.74200000 2688533249 2688533249 -9.00000000
8.05059338 -4.23741627 1.11705434 35 7 11776 9.16600000 2688533251 2688533251 7.00000000
4.30859470 -2.26878214 -0.59789097 4 8 11777 4.90600000 2688533253 2688533253 -7.00000000
6.06277847 -3.19383645 1.08534229 17 9 11778 6.93800000 2688533256 2688533256 9.00000000
6.38116932 -3.36156297 -0.63100755 12 10 11778 7.24000000 2688533258 2688533258 -5.00000000
8.16130447 -4.30114746 1.79322290 3 11 11779 9.39800000 2688533260 2688533260 11.00000000
5.34968090 -2.82056665 -0.31694654 3 12 11780 6.05600000 2688533263 2688533263 -3.00000000
8.27356720 -4.36400270 2.15953016 50 13 11781 9.60000000 2688533265 2688533265 13.00000000
6.20590115 -3.27476931 -0.12248099 6 14 11782 7.01800000 2688533267 2688533267 -1.00000000
8.09005356 -4.26901102 2.45101643 47 15 11782 9.47000000 2688533269 2688533269 15.00000000
1.90705872 -1.00973558 -0.57820177 4 0 11790 2.23400000 2688533290 2688533290 -15.00000000
5.90034246 -3.12538934 0.11654717 57 1 11791 6.67800000 2688533293 2688533293 1.00000000
2.22126532 -1.17709243 -0.58037370 3 2 11792 2.58000000 2688533295 2688533295 -13.00000000
8.03607655 -4.26027203 0.47667590 7 3 11793 9.10800000 2688533297 2688533297 3.00000000
2.63828921 -1.39867139 -0.58044094 5 4 11793 3.04200000 2688533299 2688533299 -11.00000000
8.04390335 -4.26622057 0.79660350 37 5 11794 9.14000000 2688533302 2688533302 5.00000000
3.27878499 -1.73969233 -0.58788073 4 6 11795 3.75800000 2688533304 2688533304 -9.00000000
8.04977989 -4.27293777 1.11900437 35 7 11796 9.18200000 2688533306 2688533306 7.00000000
4.28662348 -2.27635980 -0.59594107 4 8 11797 4.89000000 2688533309 2688533309 -7.00000000
6.05857086 -3.21868706 1.08659375 15 9 11798 6.94600000 2688533311 2688533311 9.00000000
6.36587763 -3.38194728 -0.63065898 12 10 11798 7.23600000 2688533313 2688533313 -5.00000000
8.14970779 -4.33145237 1.79398620 3 11 11799 9.40200000 2688533316 2688533316 11.00000000
5.32745838 -2.83265972 -0.31621385 6 12 11800 6.04200000 2688533318 2688533318 -3.00000000
8.25312233 -4.39011049 2.15818048 51 13 11801 9.59400000 2688533320 2688533320 13.00000000
6.18030977 -3.28889680 -0.12220175 2 14 11802 7.00200000 2688533322 2688533322 -1.00000000
8.09311008 -4.30861998 2.45671034 47 15 11803 9.49200000 2688533325 2688533325 15.00000000
1.88836110 -1.00786746 -0.57354301 4 0 11809 2.21600000 2688533346 2688533346 -15.00000000
5.89876604 -3.14964771 0.11672170 60 1 11810 6.68800000 2688533348 2688533348 1.00000000
2.22766304 -1.18996096 -0.58307314 3 2 11811 2.59200000 2688533350 2688533350 -13.00000000
8.04656601 -4.30007648 0.47814131 7 3 11812 9.13600000 2688533352 2688533352 3.00000000
2.63017368 -1.40556204 -0.57967770 5 4 11812 3.03800000 2688533355 2688533355 -11.00000000
8.04903984 -4.30320454 0.79852092 37 5 11813 9.16200000 2688533357 2688533357 5.00000000
3.26603031 -1.74682903 -0.58662927 4 6 11814 3.75000000 2688533359 2688533359 -9.00000000
8.04956818 -4.30710077 1.12095428 35 7 11815 9.19800000 2688533362 2688533362 7.00000000
4.28255129 -2.29243588 -0.59642857 4 8 11816 4.89400000 2688533364 2688533364 -7.00000000
6.05134678 -3.24062538 1.08721948 17 9 11817 6.95000000 2688533366 2688533366 9.00000000
6.35111475 -3.40115762 -0.63031036 12 10 11817 7.23200000 2688533369 2688533369 -5.00000000
8.15952682 -4.37143373 1.79932880 3 11 11818 9.43000000 2688533371 2688533371 11.00000000
5.29515076 -2.83804512 -0.31485310 6 12 11819 6.01600000 2688533373 2688533373 -3.00000000
8.24882317 -4.42298031 2.16087985 56 13 11820 9.60600000 2688533375 2688533375 13.00000000
5.42044544 -2.90763569 -0.10736720 18 14 11821 6.15200000 2688533378 2688533378 -1.00000000
8.09145069 -4.34041643 2.46033382 51 15 11821 9.50600000 2688533380 2688533380 15.00000000
1.88142931 -1.01262176 -0.57250774 4 0 11829 2.21200000 2688533401 2688533401 -15.00000000
5.89125681 -3.17211509 0.11679150 57 1 11830 6.69200000 2688533403 2688533403 1.00000000
2.22349572 -1.19772971 -0.58307314 3 2 11831 2.59200000 2688533405 2688533405 -13.00000000
8.03502274 -4.33003283 0.47835064 7 3 11832 9.14000000 2688533408 2688533408 3.00000000
2.63216448 -1.41845989 -0.58120418 6 4 11832 3.04600000 2688533410 2688533410 -11.00000000
8.04273891 -4.33600187 0.79939246 41 5 11833 9.17200000 2688533412 2688533412 5.00000000
3.25991297 -1.75821900 -0.58662927 6 6 11834 3.75000000 2688533415 2688533415 -9.00000000
8.05894279 -4.34836960 1.12436652 35 7 11835 9.22600000 2688533417 2688533417 7.00000000
4.26404190 -2.30171323 -0.59496611 6 8 11836 4.88200000 2688533419 2688533419 -7.00000000
6.05390310 -3.26923800 1.08972251 15 9 11837 6.96600000 2688533422 2688533422 9.00000000
6.33219147 -3.41951966 -0.62961310 12 10 11837 7.22400000 2688533424 2688533424 -5.00000000
8.17876434 -4.41855240 1.80696118 3 11 11838 9.47000000 2688533426 2688533426 11.00000000
5.27115536 -2.84891438 -0.31401575 9 12 11839 6.00000000 2688533428 2688533428 -3.00000000
8.23676205 -4.45360088 2.16177964 55 13 11840 9.61000000 2688533431 2688533431 13.00000000
5.38739777 -2.91417050 -0.10691344 24 14 11841 6.12600000 2688533433 2688533433 -1.00000000
8.08134842 -4.37139177 2.46188664 47 15 11841 9.51200000 2688533435 2688533435 15.00000000
1.87958097 -1.02010453 -0.57302535 4 0 11849 2.21400000 2688533457 2688533457 -15.00000000
5.88366318 -3.19456840 0.11686131 54 1 11850 6.69600000 2688533459 2688533459 1.00000000
2.21245170 -1.20176327 -0.58127350 3 2 11851 2.58400000 2688533462 2688533462 -13.00000000
8.09608746 -4.39764690 0.48285154 2 3 11851 9.22600000 2688533464 2688533464 3.00000000
2.62719703 -1.42763925 -0.58120418 6 4 11852 3.04600000 2688533466 2688533466 -11.00000000
8.04330826 -4.37261438 0.80096126 41 5 11853 9.19000000 2688533469 2688533469 5.00000000
3.24681425 -1.76581240 -0.58537775 4 6 11854 3.74200000 2688533471 2688533471 -9.00000000
8.04720211 -4.37837124 1.12485409 38 7 11855 9.23000000 2688533473 2688533473 7.00000000
4.25772524 -2.31753254 -0.59520990 6 8 11856 4.88400000 2688533475 2688533475 -7.00000000
6.06384897 -3.30062795 1.09347689 17 9 11856 6.99000000 2688533478 2688533478 9.00000000
6.30971766 -3.43588519 -0.62856722 12 10 11857 7.21200000 2688533480 2688533480 -5.00000000
5.04968929 -2.75089383 1.11775911 9 11 11858 5.85800000 2688533482 2688533482 11.00000000
5.23487282 -2.85296035 -0.31244567 9 12 11859 5.97000000 2688533485 2688533485 -3.00000000
8.23143196 -4.48792219 2.16447902 55 13 11860 9.62200000 2688533487 2688533487 13.00000000
5.34910440 -2.91763759 -0.10635497 27 14 11861 6.09400000 2688533489 2688533489 -1.00000000
8.07960796 -4.40697479 2.46602798 47 15 11861 9.52800000 2688533492 2688533492 15.00000000
1.87939811 -1.02851415 -0.57406062 4 0 11869 2.21800000 2688533512 2688533512 -15.00000000
5.89001656 -3.22468972 0.11721036 43 1 11870 6.71600000 2688533515 2688533515 1.00000000
2.20482492 -1.20760655 -0.58037370 3 2 11871 2.58000000 2688533517 2688533517 -13.00000000
5.10577774 -2.79764843 0.30511862 2 3 11872 5.83000000 2688533519 2688533519 3.00000000
2.62219763 -1.43680120 -0.58120418 6 4 11872 3.04600000 2688533522 2688533522 -11.00000000
8.04197311 -4.40832567 0.80235577 41 5 11873 9.20600000 2688533524 2688533524 5.00000000
3.23370266 -1.77333581 -0.58412629 4 6 11874 3.73400000 2688533526 2688533526 -9.00000000
8.04927349 -4.41598272 1.12729144 35 7 11875 9.25000000 2688533528 2688533528 7.00000000
4.24612904 -2.33047056 -0.59472239 6 8 11876 4.88000000 2688533531 2688533531 -7.00000000
6.06729460 -3.33138752 1.09629273 17 9 11877 7.00800000 2688533533 2688533533 9.00000000
6.31165743 -3.46556067 -0.62996173 12 10 11877 7.22800000 2688533535 2688533535 -5.00000000
5.02284861 -2.75905156 1.11394286 36 11 11878 5.83800000 2688533538 2688533538 11.00000000
5.20037699 -2.85774970 -0.31098026 9 12 11879 5.94200000 2688533540 2688533540 -3.00000000
8.21230030 -4.51475048 2.16357923 55 13 11880 9.61800000 2688533542 2688533542 13.00000000
5.31260443 -2.92183661 -0.10583139 31 14 11881 6.06400000 2688533545 2688533545 -1.00000000
8.07863426 -4.44493961 2.47068667 45 15 11882 9.54600000 2688533547 2688533547 15.00000000
1.87917936 -1.03693485 -0.57509589 4 0 11889 2.22200000 2688533568 2688533568 -15.00000000
5.88922834 -3.25102854 0.11741979 34 1 11890 6.72800000 2688533570 2688533570 1.00000000
2.19718432 -1.21341133 -0.57947391 3 2 11891 2.57600000 2688533572 2688533572 -13.00000000
2.61029243 -1.44214797 -0.57967770 8 4 11892 3.03800000 2688533577 2688533577 -11.00000000
8.04920483 -4.44890022 0.80462182 41 5 11893 9.23200000 2688533579 2688533579 5.00000000
3.22749281 -1.78461277 -0.58412629 4 6 11894 3.73400000 2688533581 2688533581 -9.00000000
8.04423237 -4.44981861 1.12875390 40 7 11895 9.26200000 2688533584 2688533584 7.00000000
4.22059965 -2.33566618 -0.59228504 6 8 11896 4.86000000 2688533586 2688533586 -7.00000000
6.05908537 -3.35445976 1.09691846 25 9 11897 7.01200000 2688533588 2688533588 9.00000000
6.29603577 -3.48564148 -0.62961310 12 10 11897 7.22400000 2688533591 2688533591 -5.00000000
4.98055601 -2.75849509 1.10669219 30 11 11898 5.80000000 2688533593 2688533593 11.00000000
5.18163490 -2.87104511 -0.31045690 12 12 11899 5.93200000 2688533595 2688533595 -3.00000000
8.19308186 -4.54149961 2.16267943 56 13 11900 9.61400000 2688533598 2688533598 13.00000000
5.26564837 -2.91999793 -0.10509839 29 14 11901 6.02200000 2688533600 2688533600 -1.00000000
8.07398701 -4.47732639 2.47379231 45 15 11901 9.55800000 2688533602 2688533602 15.00000000
1.86710751 -1.03879189 -0.57250774 4 0 11909 2.21200000 2688533623 2688533623 -15.00000000
5.88483334 -3.27545619 0.11755941 40 1 11910 6.73600000 2688533625 2688533625 1.00000000
2.19634056 -1.22296965 -0.58037370 3 2 11911 2.58000000 2688533627 2688533627 -13.00000000
5.00634766 -2.78764176 0.30030373 2 3 11911 5.73800000 2688533630 2688533630 3.00000000
2.60181236 -1.44933999 -0.57891446 6 4 11912 3.03400000 2688533632 2688533632 -11.00000000
8.02318382 -4.47115088 0.80357593 33 5 11913 9.22000000 2688533634 2688533634 5.00000000
3.22814512 -1.79971552 -0.58537775 4 6 11914 3.74200000 2688533637 2688533637 -9.00000000
8.04945469 -4.48947430 1.13167870 38 7 11915 9.28600000 2688533639 2688533639 7.00000000
4.20548677 -2.34651566 -0.59131008 6 8 11916 4.85200000 2688533641 2688533641 -7.00000000
6.06458759 -3.38521743 1.10004711 27 9 11917 7.03200000 2688533644 2688533644 9.00000000
6.27687168 -3.50371313 -0.62891585 12 10 11917 7.21600000 2688533646 2688533646 -5.00000000
4.97603893 -2.77873516 1.10783708 24 11 11918 5.80600000 2688533648 2688533648 11.00000000
5.15414524 -2.87937403 -0.30941018 12 12 11919 5.91200000 2688533651 2688533651 -3.00000000
8.18568516 -4.57482481 2.16492891 54 13 11920 9.62400000 2688533653 2688533653 13.00000000
5.21702433 -2.91689134 -0.10433049 31 14 11921 5.97800000 2688533655 2688533655 -1.00000000
8.05662251 -4.50453997 2.47327471 42 15 11921 9.55600000 2688533657 2688533657 15.00000000
1.86178517 -1.04435790 -0.57199007 4 0 11929 2.21000000 2688533678 2688533678 -15.00000000
5.88731480 -3.30380702 0.11783865 46 1 11930 6.75200000 2688533680 2688533680 1.00000000
2.19545674 -1.23253679 -0.58127350 3 2 11931 2.58400000 2688533683 2688533683 -13.00000000
4.98042393 -2.79716992 0.29936168 7 3 11932 5.72000000 2688533685 2688533685 3.00000000
2.59160209 -1.45552897 -0.57776964 6 4 11932 3.02800000 2688533687 2688533687 -11.00000000
8.03184509 -4.51279306 0.80601633 37 5 11933 9.24800000 2688533690 2688533690 5.00000000
3.21495533 -1.80710125 -0.58412629 4 6 11934 3.73400000 2688533692 2688533692 -9.00000000
8.06141949 -4.53311253 1.13557851 38 7 11935 9.31800000 2688533694 2688533694 7.00000000
4.20419073 -2.36507440 -0.59228504 6 8 11936 4.86000000 2688533697 2688533697 -7.00000000
6.06365824 -3.41112089 1.10192442 35 9 11936 7.04400000 2688533699 2688533699 9.00000000
6.25071239 -3.51778483 -0.62752134 12 10 11937 7.20000000 2688533701 2688533701 -5.00000000
4.95262289 -2.78838253 1.10478413 6 11 11938 5.79000000 2688533704 2688533704 11.00000000
5.13362169 -2.89146686 -0.30878213 18 12 11939 5.90000000 2688533706 2688533706 -3.00000000
8.17645741 -4.60719681 2.16672850 52 13 11940 9.63200000 2688533708 2688533708 13.00000000
5.18416500 -2.92231894 -0.10387672 38 14 11941 5.95200000 2688533710 2688533710 -1.00000000
8.03501034 -4.53119183 2.47172189 40 15 11942 9.55000000 2688533713 2688533713 15.00000000
1.86149144 -1.05275238 -0.57302535 4 0 11949 2.21400000 2688533733 2688533733 -15.00000000
5.88270855 -3.32827616 0.11797827 51 1 11950 6.76000000 2688533736 2688533736 1.00000000
2.18435717 -1.23635316 -0.57947391 3 2 11951 2.57600000 2688533738 2688533738 -13.00000000
4.99371672 -2.82645965 0.30072239 42 3 11951 5.74600000 2688533740 2688533740 3.00000000
2.59846425 -1.47133803 -0.58044094 6 4 11952 3.04200000 2688533743 2688533743 -11.00000000
8.03164577 -4.54963970 0.80758512 37 5 11953 9.26600000 2688533745 2688533745 5.00000000
3.20862770 -1.81831253 -0.58412629 4 6 11954 3.73400000 2688533747 2688533747 -9.00000000
8.05245399 -4.56514025 1.13655353 33 7 11955 9.32600000 2688533750 2688533750 7.00000000
4.19590950 -2.37973547 -0.59228504 6 8 11956 4.86000000 2688533752 2688533752 -7.00000000
6.05626965 -3.43624687 1.10286295 32 9 11957 7.05000000 2688533754 2688533754 9.00000000
6.24186087 -3.54154873 -0.62786996 12 10 11957 7.20400000 2688533757 2688533757 -5.00000000
5.15798950 -2.92776465 1.15286791 3 11 11958 6.04200000 2688533759 2688533759 11.00000000
5.11134005 -2.90246534 -0.30804944 25 12 11959 5.88600000 2688533761 2688533761 -3.00000000
8.16710281 -4.63956022 2.16852808 52 13 11960 9.64000000 2688533763 2688533763 13.00000000
5.13916159 -2.92063665 -0.10317863 45 14 11961 5.91200000 2688533766 2688533766 -1.00000000
6.95272446 -3.95290804 2.14302158 11 15 11962 8.28000000 2688533768 2688533768 15.00000000
1.86451828 -1.06307113 -0.57509589 4 0 11969 2.22200000 2688533789 2688533789 -15.00000000
5.88147688 -3.35473514 0.11818770 48 1 11970 6.77200000 2688533791 2688533791 1.00000000
2.17664313 -1.24203885 -0.57857412 3 2 11971 2.57200000 2688533793 2688533793 -13.00000000
2.59501767 -1.48137271 -0.58082259 6 4 11972 3.04400000 2688533798 2688533798 -11.00000000
8.03820801 -4.59049273 0.80985117 37 5 11973 9.29200000 2688533800 2688533800 5.00000000
3.20226121 -1.82950163 -0.58412629 4 6 11974 3.73400000 2688533803 2688533803 -9.00000000
8.05025768 -4.60110092 1.13850343 36 7 11975 9.34200000 2688533805 2688533805 7.00000000
4.17896080 -2.38944054 -0.59106630 6 8 11976 4.85000000 2688533807 2688533807 -7.00000000
6.21216631 -3.55342293 -0.62612689 16 10 11977 7.18400000 2688533812 2688533812 -5.00000000
5.08980274 -2.91259837 1.13989294 3 11 11978 5.97400000 2688533814 2688533814 11.00000000
5.07344437 -2.90441298 -0.30637470 25 12 11979 5.85400000 2688533816 2688533816 -3.00000000
8.15762234 -4.67191410 2.17032766 51 13 11980 9.64800000 2688533819 2688533819 13.00000000
5.12720013 -2.93756366 -0.10314372 56 14 11981 5.91000000 2688533821 2688533821 -1.00000000
1.86079609 -1.06957304 -0.57509589 4 0 11989 2.22200000 2688533844 2688533844 -15.00000000
5.88706589 -3.38521314 0.11853675 40 1 11990 6.79200000 2688533846 2688533846 1.00000000
2.17567277 -1.25157261 -0.57947391 3 2 11991 2.57600000 2688533849 2688533849 -13.00000000
4.95655060 -2.85129404 0.29967567 4 3 11991 5.72600000 2688533851 2688533851 3.00000000
2.57621813 -1.48258793 -0.57776964 5 4 11992 3.02800000 2688533853 2688533853 -11.00000000
8.03422165 -4.62548161 0.81107134 33 5 11993 9.30600000 2688533856 2688533856 5.00000000
3.20954943 -1.84855556 -0.58662927 4 6 11994 3.75000000 2688533858 2688533858 -9.00000000
8.05134773 -4.63908434 1.14094079 31 7 11995 9.36200000 2688533860 2688533860 7.00000000
4.15855598 -2.39707398 -0.58936012 6 8 11996 4.83600000 2688533863 2688533863 -7.00000000
7.24442196 -4.17582798 1.32437420 10 9 11996 8.46600000 2688533865 2688533865 9.00000000
6.20490265 -3.57807159 -0.62664980 16 10 11997 7.19000000 2688533867 2688533867 -5.00000000
5.06599998 -2.92249918 1.13683999 3 11 11998 5.95800000 2688533869 2688533869 11.00000000
5.08230352 -2.93308663 -0.30752608 34 12 11999 5.87600000 2688533872 2688533872 -3.00000000
8.13113880 -4.69451475 2.16762829 50 13 12000 9.63600000 2688533874 2688533874 13.00000000
5.09959888 -2.94544148 -0.10279468 63 14 12001 5.89000000 2688533876 2688533876 -1.00000000
7.99213839 -4.61798382 2.47327471 29 15 12002 9.55600000 2688533879 2688533879 15.00000000
1.85203671 -1.07315636 -0.57354301 4 0 12009 2.21600000 2688533899 2688533899 -15.00000000
5.89251375 -3.41577077 0.11888579 40 1 12010 6.81200000 2688533902 2688533902 1.00000000
2.17466235 -1.26111472 -0.58037370 3 2 12011 2.58000000 2688533904 2688533904 -13.00000000
4.92237854 -2.85455108 0.29821029 7 3 12011 5.69800000 2688533906 2688533906 3.00000000
2.57102704 -1.49157155 -0.57776964 5 4 12012 3.02800000 2688533909 2688533909 -11.00000000
8.03181267 -4.66149902 0.81246585 33 5 12013 9.32200000 2688533911 2688533911 5.00000000
3.18941092 -1.85181284 -0.58412629 4 6 12014 3.73400000 2688533913 2688533913 -9.00000000
8.04712105 -4.67413950 1.14264691 33 7 12015 9.37600000 2688533915 2688533915 7.00000000
4.15702868 -2.41556478 -0.59033507 6 8 12016 4.84400000 2688533918 2688533918 -7.00000000
7.22296953 -4.19712067 1.32312274 7 9 12016 8.45800000 2688533920 2688533920 9.00000000
6.18720722 -3.59670496 -0.62612689 16 10 12017 7.18400000 2688533922 2688533922 -5.00000000
5.05237341 -2.93819118 1.13607681 3 11 12018 5.95400000 2688533925 2688533925 11.00000000
5.07721281 -2.95382237 -0.30784011 59 12 12019 5.88200000 2688533927 2688533927 -3.00000000
8.12480736 -4.72875071 2.17032766 50 13 12020 9.64800000 2688533929 2688533929 13.00000000
5.08582973 -2.96121216 -0.10272487 72 14 12021 5.88600000 2688533932 2688533932 -1.00000000
7.98512793 -4.64932156 2.47586298 31 15 12021 9.56600000 2688533934 2688533934 15.00000000
1.84661126 -1.07864022 -0.57302535 4 0 12029 2.21400000 2688533955 2688533955 -15.00000000
2.17024684 -1.26869810 -0.58037370 3 2 12031 2.58000000 2688533959 2688533959 -13.00000000
4.83996630 -2.82938123 0.29381406 22 3 12031 5.61400000 2688533962 2688533962 3.00000000
2.56580496 -1.50053704 -0.57776964 5 4 12032 3.02800000 2688533964 2688533964 -11.00000000
8.01893139 -4.69151926 0.81281447 11 5 12033 9.32600000 2688533966 2688533966 5.00000000
3.16928864 -1.85495210 -0.58162332 4 6 12034 3.71800000 2688533968 2688533968 -9.00000000
8.04959965 -4.71323442 1.14532804 33 7 12035 9.39800000 2688533971 2688533971 7.00000000
4.14857149 -2.43006086 -0.59033507 6 8 12036 4.84400000 2688533973 2688533973 -7.00000000
7.21850157 -4.22829866 1.32499993 10 9 12036 8.47000000 2688533975 2688533975 9.00000000
6.16430092 -3.61223650 -0.62508100 16 10 12037 7.17200000 2688533978 2688533978 -5.00000000
4.99127626 -2.92602277 1.12462819 12 11 12038 5.89400000 2688533980 2688533980 11.00000000
5.06170273 -2.96849608 -0.30752608 28 12 12039 5.87600000 2688533982 2688533982 -3.00000000
8.12169838 -4.76497173 2.17392707 50 13 12040 9.66400000 2688533985 2688533985 13.00000000
5.07891178 -2.98097134 -0.10279468 69 14 12041 5.89000000 2688533987 2688533987 -1.00000000
6.70860815 -3.93906546 2.08452868 9 15 12042 8.05400000 2688533989 2688533989 15.00000000
1.83636475 -1.08083820 -0.57095480 4 0 12048 2.20600000 2688534010 2688534010 -15.00000000
4.78352833 -2.81658888 0.09689576 37 1 12049 5.55200000 2688534012 2688534012 1.00000000
2.16266966 -1.27390981 -0.57947391 3 2 12050 2.57600000 2688534015 2688534015 -13.00000000
4.81973600 -2.84017467 0.29318604 22 3 12051 5.60200000 2688534017 2688534017 3.00000000
2.56081486 -1.50903726 -0.57776964 5 4 12051 3.02800000 2688534019 2688534019 -11.00000000
4.88644218 -2.88063216 0.49626479 3 5 12052 5.69400000 2688534021 2688534021 5.00000000
3.18013525 -1.87548637 -0.58475202 4 6 12053 3.73800000 2688534024 2688534024 -9.00000000
8.04760361 -4.74797153 1.14727795 31 7 12054 9.41400000 2688534026 2688534026 7.00000000
4.14732838 -2.44784069 -0.59131008 6 8 12055 4.85200000 2688534028 2688534028 -7.00000000
7.21975088 -4.26124907 1.32781577 10 9 12055 8.48800000 2688534031 2688534031 9.00000000
6.15057278 -3.63164520 -0.62490666 16 10 12056 7.17000000 2688534033 2688534033 -5.00000000
5.02211475 -2.96652222 1.13378704 3 11 12057 5.94200000 2688534035 2688534035 11.00000000
5.04667282 -2.98221660 -0.30721205 31 12 12058 5.87000000 2688534038 2688534038 -3.00000000
8.11256218 -4.79584503 2.17572665 50 13 12059 9.67200000 2688534040 2688534040 13.00000000
5.08965302 -3.01001239 -0.10321353 67 14 12060 5.91400000 2688534042 2688534042 -1.00000000
6.68123436 -3.95127106 2.07986975 9 15 12060 8.03600000 2688534045 2688534045 15.00000000
1.83590364 -1.08921313 -0.57199007 4 0 12068 2.21000000 2688534065 2688534065 -15.00000000
4.73927498 -2.81285691 0.09619766 25 1 12069 5.51200000 2688534068 2688534068 1.00000000
2.14815593 -1.27548158 -0.57677448 3 2 12070 2.56400000 2688534070 2688534070 -13.00000000
2.55890751 -1.51997232 -0.57853287 5 4 12071 3.03200000 2688534074 2688534074 -11.00000000
4.90204906 -2.91293859 0.49887946 36 5 12072 5.72400000 2688534077 2688534077 5.00000000
3.16677713 -1.88253808 -0.58350056 4 6 12073 3.73000000 2688534079 2688534079 -9.00000000
8.03439331 -4.77806330 1.14776552 33 7 12074 9.41800000 2688534081 2688534081 7.00000000
4.12511063 -2.45418286 -0.58936012 6 8 12075 4.83600000 2688534084 2688534084 -7.00000000
7.22275639 -4.29879570 1.33125734 10 9 12076 8.51000000 2688534086 2688534086 9.00000000
6.13785839 -3.65309262 -0.62490666 16 10 12076 7.17000000 2688534088 2688534088 -5.00000000
5.01510286 -2.98604345 1.13455033 3 11 12077 5.94600000 2688534091 2688534091 11.00000000
5.02593660 -2.99368215 -0.30658403 21 12 12078 5.85800000 2688534093 2688534093 -3.00000000
8.10916519 -4.83211422 2.17932582 55 13 12079 9.68800000 2688534095 2688534095 13.00000000
5.09629154 -3.03799963 -0.10356258 56 14 12080 5.93400000 2688534098 2688534098 -1.00000000
6.64016008 -3.95990086 2.07158756 6 15 12081 8.00400000 2688534100 2688534100 15.00000000
1.83521473 -1.09791839 -0.57302535 4 0 12089 2.21400000 2688534121 2688534121 -15.00000000
4.59509563 -2.75010800 0.09347509 10 1 12090 5.35600000 2688534123 2688534123 1.00000000
2.15015459 -1.28735065 -0.57857412 3 2 12091 2.57200000 2688534125 2688534125 -13.00000000
4.54570246 -2.72270250 0.27769458 2 3 12092 5.30600000 2688534127 2688534127 3.00000000
2.54658246 -1.52530575 -0.57700640 5 4 12092 3.02400000 2688534130 2688534130 -11.00000000
4.90501213 -2.93907857 0.50027394 36 5 12093 5.74000000 2688534132 2688534132 5.00000000
3.16324472 -1.89616346 -0.58412629 4 6 12094 3.73400000 2688534134 2688534134 -9.00000000
8.03725624 -4.81972933 1.15069032 33 7 12095 9.44200000 2688534137 2688534137 7.00000000
4.11268330 -2.46724319 -0.58887267 6 8 12096 4.83200000 2688534139 2688534139 -7.00000000
7.20262527 -4.32093287 1.33031869 10 9 12096 8.50400000 2688534141 2688534141 9.00000000
6.11930275 -3.67248869 -0.62438375 16 10 12097 7.16400000 2688534144 2688534144 -5.00000000
5.01422405 -3.01046801 1.13683999 3 11 12098 5.95800000 2688534146 2688534146 11.00000000
5.01150608 -3.01002622 -0.30637470 15 12 12099 5.85400000 2688534148 2688534148 -3.00000000
8.09307003 -4.86280727 2.17977571 56 13 12100 9.69000000 2688534151 2688534151 13.00000000
5.07826710 -3.05253720 -0.10342296 58 14 12101 5.92600000 2688534153 2688534153 -1.00000000
7.91446781 -4.75737238 2.47431016 27 15 12101 9.56000000 2688534155 2688534155 15.00000000
1.82971680 -1.10332024 -0.57250774 4 0 12109 2.21200000 2688534176 2688534176 -15.00000000
4.71560097 -2.84463215 0.09612785 32 1 12110 5.50800000 2688534178 2688534178 1.00000000
2.15565848 -1.30088949 -0.58127350 3 2 12111 2.58400000 2688534180 2688534180 -13.00000000
4.54643011 -2.74474692 0.27832261 2 3 12112 5.31800000 2688534183 2688534183 3.00000000
2.53115821 -1.52809763 -0.57471669 5 4 12112 3.01200000 2688534185 2688534185 -11.00000000
4.89131212 -2.95412207 0.49992535 30 5 12113 5.73600000 2688534187 2688534187 5.00000000
3.15322495 -1.90515065 -0.58350056 4 6 12114 3.73000000 2688534190 2688534190 -9.00000000
8.04076958 -4.86007738 1.15361524 31 7 12115 9.46600000 2688534192 2688534192 7.00000000
4.11084080 -2.48569274 -0.58984762 6 8 12116 4.84000000 2688534194 2688534194 -7.00000000
7.19181013 -4.35036993 1.33125734 10 9 12117 8.51000000 2688534197 2688534197 9.00000000
6.09621763 -3.68763924 -0.62333786 16 10 12117 7.15200000 2688534199 2688534199 -5.00000000
5.01712227 -3.03608394 1.13989294 3 11 12118 5.97400000 2688534201 2688534201 11.00000000
4.99755144 -3.02543259 -0.30616534 15 12 12119 5.85000000 2688534203 2688534203 -3.00000000
8.09938240 -4.90516043 2.18607426 66 13 12120 9.71800000 2688534206 2688534206 13.00000000
5.07784271 -3.07646227 -0.10363239 58 14 12121 5.93800000 2688534208 2688534208 -1.00000000
7.89863014 -4.78734970 2.47482777 38 15 12122 9.56200000 2688534210 2688534210 15.00000000
1.81760001 -1.10468364 -0.56991953 4 0 12129 2.20200000 2688534231 2688534231 -15.00000000
4.70222521 -2.85899758 0.09605805 27 1 12130 5.50400000 2688534233 2688534233 1.00000000
2.14777446 -1.30638087 -0.58037370 3 2 12131 2.58000000 2688534236 2688534236 -13.00000000
4.82175875 -2.93398118 0.29580283 15 3 12132 5.65200000 2688534238 2688534238 3.00000000
2.53251743 -1.54100585 -0.57624316 6 4 12132 3.02000000 2688534240 2688534240 -11.00000000
4.89628744 -2.98050189 0.50149417 30 5 12133 5.75400000 2688534243 2688534243 5.00000000
3.12968397 -1.90587163 -0.58037186 3 6 12134 3.71000000 2688534245 2688534245 -9.00000000
7.94407749 -4.83957529 1.14215946 6 7 12135 9.37200000 2688534247 2688534247 7.00000000
4.08857822 -2.49176264 -0.58789772 6 8 12136 4.82400000 2688534250 2688534250 -7.00000000
7.18240499 -4.37727880 1.33219588 12 9 12136 8.51600000 2688534252 2688534252 9.00000000
6.05268764 -3.69022775 -0.62020028 16 10 12137 7.11600000 2688534254 2688534254 -5.00000000
5.00314140 -3.05153394 1.13912976 3 11 12138 5.97000000 2688534256 2688534256 11.00000000
4.97673035 -3.03661728 -0.30553731 12 12 12139 5.83800000 2688534259 2688534259 -3.00000000
8.10217190 -4.94558668 2.19147325 68 13 12140 9.74200000 2688534261 2688534261 13.00000000
5.08072615 -3.10250568 -0.10391163 54 14 12141 5.95400000 2688534263 2688534263 -1.00000000
7.88271093 -4.81351614 2.47482777 40 15 12141 9.56200000 2688534266 2688534266 15.00000000
1.82691169 -1.11909437 -0.57406062 4 0 12149 2.21800000 2688534286 2688534286 -15.00000000
4.70074177 -2.88061833 0.09623257 25 1 12150 5.51400000 2688534289 2688534289 1.00000000
2.13655567 -1.30979598 -0.57857412 3 2 12151 2.57200000 2688534291 2688534291 -13.00000000
4.82340622 -2.95810342 0.29653552 20 3 12152 5.66600000 2688534293 2688534293 3.00000000
2.52712297 -1.54983664 -0.57624316 5 4 12152 3.02000000 2688534296 2688534296 -11.00000000
4.89943933 -3.00591016 0.50288862 33 5 12153 5.77000000 2688534298 2688534298 5.00000000
3.12974644 -1.92091787 -0.58162332 4 6 12154 3.71800000 2688534300 2688534300 -9.00000000
7.96604395 -4.89116526 1.14776552 9 7 12155 9.41800000 2688534303 2688534303 7.00000000
