# .PCD v0.7 - Point Cloud Data file format
VERSION 0.7
FIELDS x y z intensity laser_id azimuth distance_m adjustedtime timestamp vertical_angle
SIZE 4 4 4 1 1 2 8 8 4 8
TYPE F F F U U U F U U F
COUNT 1 1 1 1 1 1 1 1 1 1
WIDTH 522
HEIGHT 1
VIEWPOINT 0 0 0 1 0 0 0
POINTS 522
DATA ascii
-3.91890526 10.72050571 0.59819996 10 3 33992 11.43000000 2691494956 2691494956 3.00000000
-1.04410005 2.85622644 -0.59112626 2 4 33992 3.09800000 2691494958 2691494958 -11.00000000
-3.92594409 10.74557686 1.00089657 12 5 33993 11.48400000 2691494960 2691494960 5.00000000
-1.30024171 3.56077814 -0.60039550 2 6 33994 3.83800000 2691494963 2691494963 -9.00000000
-3.92280054 10.74861145 1.40490985 14 7 33995 11.52800000 2691494965 2691494965 7.00000000
-1.70605111 4.67717457 -0.61129665 2 8 33996 5.01600000 2691494967 2691494967 -7.00000000
-3.92016506 10.75304317 1.81276262 15 9 33997 11.58800000 2691494970 2691494970 9.00000000
-2.47990513 6.80239964 -0.63344795 4 10 33997 7.26800000 2691494972 2691494972 -5.00000000
-3.87878418 10.64530849 2.20231748 56 11 33998 11.54200000 2691494974 2691494974 11.00000000
-3.91742301 10.75718880 -0.59997940 4 12 33999 11.46400000 2691494976 2691494976 -3.00000000
-3.68579125 10.12662888 2.48795867 51 13 34000 11.06000000 2691494979 2691494979 13.00000000
-3.90476966 10.73409557 -0.19937629 4 14 34001 11.42400000 2691494981 2691494981 -1.00000000
-3.19091606 8.77650070 2.50226259 38 15 34002 9.66800000 2691494983 2691494983 15.00000000
-0.74603570 2.05977750 -0.58700162 4 0 34009 2.26800000 2691495004 2691495004 -15.00000000
-3.89471030 10.75901890 0.19972534 6 1 34010 11.44400000 2691495006 2691495006 1.00000000
-0.87117082 2.40789580 -0.59117138 3 2 34011 2.62800000 2691495009 2691495009 -13.00000000
-3.89504313 10.77168465 0.60029340 7 3 34012 11.47000000 2691495011 2691495011 3.00000000
-1.03278840 2.85616112 -0.59036303 2 4 34012 3.09400000 2691495013 2691495013 -11.00000000
-3.90195489 10.79669094 1.00438273 38 5 34013 11.52400000 2691495016 2691495016 5.00000000
-1.29048860 3.57272673 -0.60164696 2 6 34014 3.84600000 2691495018 2691495018 -9.00000000
-3.89469385 10.78837872 1.40832210 34 7 34015 11.55600000 2691495020 2691495020 7.00000000
-1.69375670 4.69430494 -0.61275905 2 8 34016 5.02800000 2691495023 2691495023 -7.00000000
-3.88247395 10.76040936 1.81182396 28 9 34016 11.58200000 2691495025 2691495025 9.00000000
-2.46020055 6.82225990 -0.63449383 4 10 34017 7.28000000 2691495027 2691495027 -5.00000000
-3.85291791 10.69018173 2.20880485 59 11 34018 11.57600000 2691495029 2691495029 11.00000000
-3.91775465 10.87602520 -0.60584104 4 12 34019 11.57600000 2691495032 2691495032 -3.00000000
-3.64844012 10.13393211 2.48660898 53 13 34020 11.05400000 2691495034 2691495034 13.00000000
-3.91060758 10.86808205 -0.20161019 8 14 34021 11.55200000 2691495036 2691495036 -1.00000000
-3.15525365 8.76885605 2.49708605 36 15 34021 9.64800000 2691495039 2691495039 15.00000000
-0.73362893 2.04781985 -0.58286047 4 0 34029 2.25200000 2691495059 2691495059 -15.00000000
-3.90162039 10.89680290 0.20202906 6 1 34030 11.57600000 2691495062 2691495062 1.00000000
-0.86801308 2.42560029 -0.59477061 3 2 34031 2.64400000 2691495064 2691495064 -13.00000000
-3.89777589 10.89805126 0.60657376 15 3 34032 11.59000000 2691495066 2691495066 3.00000000
-1.02677917 2.87084007 -0.59265274 4 4 34032 3.10600000 2691495069 2691495069 -11.00000000
-3.89039874 10.88341427 1.01118088 55 5 34033 11.60200000 2691495071 2691495071 5.00000000
-1.27867424 3.57906985 -0.60195982 2 6 34034 3.84800000 2691495073 2691495073 -9.00000000
-3.89706349 10.91407776 1.42294645 44 7 34035 11.67600000 2691495076 2691495076 7.00000000
-1.68269789 4.71514559 -0.61470896 2 8 34036 5.04400000 2691495078 2691495078 -7.00000000
-3.87751698 10.87131691 1.82809317 37 9 34037 11.68600000 2691495080 2691495080 9.00000000
-2.43904877 6.83831263 -0.63519102 4 10 34037 7.28800000 2691495082 2691495082 -5.00000000
-3.80832744 10.68322372 2.20460725 59 11 34038 11.55400000 2691495085 2691495085 11.00000000
-3.91864443 10.99875736 -0.61191201 4 12 34039 11.69200000 2691495087 2691495087 -3.00000000
-3.61042881 10.13926220 2.48480940 49 13 34040 11.04600000 2691495089 2691495089 13.00000000
-3.90080690 10.96079159 -0.20307620 6 14 34041 11.63600000 2691495092 2691495092 -1.00000000
-3.11920857 8.76944065 2.49398041 36 15 34042 9.63600000 2691495094 2691495094 15.00000000
-0.73034734 2.06129384 -0.58596629 4 0 34049 2.26400000 2691495115 2691495115 -15.00000000
-3.89159513 10.98952579 0.20349506 10 1 34050 11.66000000 2691495117 2691495117 1.00000000
-0.85303903 2.41024470 -0.59027159 3 2 34051 2.62400000 2691495119 2691495119 -13.00000000
-3.86037683 10.91347313 0.60667843 26 3 34052 11.59200000 2691495122 2691495122 3.00000000
-1.01282358 2.86330152 -0.59036303 2 4 34052 3.09400000 2691495124 2691495124 -11.00000000
-3.86832309 10.94201183 1.01536441 17 5 34053 11.65000000 2691495126 2691495126 5.00000000
-1.25301123 3.54626083 -0.59570247 2 6 34054 3.80800000 2691495129 2691495129 -9.00000000
-3.88406086 10.99874306 1.43220854 38 7 34055 11.75200000 2691495131 2691495131 7.00000000
-1.67151415 4.73596573 -0.61665887 2 8 34056 5.06000000 2691495133 2691495133 -7.00000000
-3.87365985 10.97539043 1.84342372 31 9 34056 11.78400000 2691495135 2691495135 9.00000000
-2.42179155 6.86557388 -0.63693416 4 10 34057 7.30800000 2691495138 2691495138 -5.00000000
-3.76448512 10.67793655 2.20079088 59 11 34058 11.53400000 2691495140 2691495140 11.00000000
-3.91407847 11.10843945 -0.61725026 8 12 34059 11.79400000 2691495142 2691495142 -3.00000000
-3.57566166 10.15364170 2.48525929 55 13 34060 11.04800000 2691495145 2691495145 13.00000000
-3.90235639 11.08751774 -0.20517050 6 14 34061 11.75600000 2691495147 2691495147 -1.00000000
-3.08882833 8.77609158 2.49294496 36 15 34061 9.63200000 2691495149 2691495149 15.00000000
-0.72442526 2.06747699 -0.58700162 4 0 34069 2.26800000 2691495170 2691495170 -15.00000000
-3.89749312 11.12949276 0.20583369 10 1 34070 11.79400000 2691495172 2691495172 1.00000000
-0.84204549 2.40585041 -0.58847195 3 2 34071 2.61600000 2691495175 2691495175 -13.00000000
-3.81170678 10.89671803 0.60500365 26 3 34072 11.56000000 2691495177 2691495177 3.00000000
-1.00930500 2.88535094 -0.59417921 2 4 34072 3.11400000 2691495179 2691495179 -11.00000000
-3.82352948 10.93663979 1.01362133 8 5 34073 11.63000000 2691495182 2691495182 5.00000000
-1.25300503 3.58604455 -0.60164696 2 6 34074 3.84600000 2691495184 2691495184 -9.00000000
-3.87771320 11.10406494 1.44415176 40 7 34075 11.85000000 2691495186 2691495186 7.00000000
-1.65497231 4.74177170 -0.61665887 2 8 34076 5.06000000 2691495188 2691495188 -7.00000000
-3.86788940 11.08836842 1.86000574 34 9 34077 11.89000000 2691495191 2691495191 9.00000000
-2.39781141 6.87398577 -0.63693416 4 10 34077 7.30800000 2691495193 2691495193 -5.00000000
-3.72007990 10.67061996 2.19659305 59 11 34078 11.51200000 2691495195 2691495195 11.00000000
-3.90747976 11.21445084 -0.62237918 4 12 34079 11.89200000 2691495198 2691495198 -3.00000000
-3.54276061 10.17342281 2.48705888 51 13 34080 11.05600000 2691495200 2691495200 13.00000000
-3.90569735 11.22194099 -0.20740440 8 14 34081 11.88400000 2691495202 2691495202 -1.00000000
-3.05918026 8.79465294 2.49501562 36 15 34082 9.64000000 2691495205 2691495205 15.00000000
-0.71720403 2.06999302 -0.58700162 4 0 34089 2.26800000 2691495225 2691495225 -15.00000000
-3.88806534 11.22806263 0.20740440 10 1 34090 11.88400000 2691495228 2691495228 1.00000000
-0.83746642 2.41982436 -0.59117138 3 2 34091 2.62800000 2691495230 2691495230 -13.00000000
-3.76777101 10.89296913 0.60406160 26 3 34092 11.54200000 2691495232 2691495232 3.00000000
-0.99922711 2.88885665 -0.59417921 2 4 34092 3.11400000 2691495235 2691495235 -11.00000000
-3.77165985 10.91037560 1.00996077 4 5 34093 11.58800000 2691495237 2691495237 5.00000000
-1.24176991 3.59413052 -0.60227269 2 6 34094 3.85000000 2691495239 2691495239 -9.00000000
-3.87586069 11.22448730 1.45804477 36 7 34095 11.96400000 2691495241 2691495241 7.00000000
-1.62675369 4.71374273 -0.61227161 2 8 34096 5.02400000 2691495244 2691495244 -7.00000000
-3.86525226 11.20010090 1.87658787 32 9 34096 11.99600000 2691495246 2691495246 9.00000000
-2.37380219 6.88231373 -0.63693416 4 10 34097 7.30800000 2691495248 2691495248 -5.00000000
-3.67961073 10.67426014 2.19468498 59 11 34098 11.50200000 2691495251 2691495251 11.00000000
-3.50278592 10.17282867 2.48390961 51 13 34100 11.04200000 2691495255 2691495255 13.00000000
-3.90033865 11.33383083 -0.20921946 6 14 34101 11.98800000 2691495258 2691495258 -1.00000000
-3.02622747 8.79378891 2.49190974 36 15 34101 9.62800000 2691495260 2691495260 15.00000000
-0.70809579 2.06700134 -0.58544868 4 0 34109 2.26200000 2691495281 2691495281 -15.00000000
-0.83027637 2.42642069 -0.59207118 3 2 34111 2.63200000 2691495285 2691495285 -13.00000000
-3.72584677 10.89471626 0.60343355 26 3 34112 11.53000000 2691495288 2691495288 3.00000000
-0.98786646 2.88861156 -0.59341598 2 4 34112 3.11000000 2691495290 2691495290 -11.00000000
-3.71937633 10.88199806 1.00612593 4 5 34113 11.54400000 2691495292 2691495292 5.00000000
-1.22474670 3.58535814 -0.60008264 2 6 34114 3.83600000 2691495294 2691495294 -9.00000000
-1.61413598 4.73066521 -0.61373401 2 8 34116 5.03600000 2691495299 2691495299 -7.00000000
-2.34976387 6.89055777 -0.63693416 4 10 34117 7.30800000 2691495304 2691495304 -5.00000000
-3.64169478 10.68518066 2.19430351 59 11 34118 11.50000000 2691495306 2691495306 11.00000000
-3.46662664 10.18314934 2.48345971 47 13 34120 11.04000000 2691495311 2691495311 13.00000000
-2.99302411 8.79698277 2.48983932 36 15 34121 9.62000000 2691495315 2691495315 15.00000000
-0.69875741 2.06201935 -0.58337814 4 0 34128 2.25400000 2691495336 2691495336 -15.00000000
-0.82472467 2.43654394 -0.59387076 3 2 34130 2.64000000 2691495341 2691495341 -13.00000000
-3.69033813 10.90890312 0.60353827 7 3 34131 11.53200000 2691495343 2691495343 3.00000000
-0.97954029 2.89559102 -0.59417921 4 4 34131 3.11400000 2691495345 2691495345 -11.00000000
-3.67944098 10.88294792 1.00507998 12 5 34132 11.53200000 2691495347 2691495347 5.00000000
-1.21854162 3.60624266 -0.60289842 2 6 34133 3.85400000 2691495350 2691495350 -9.00000000
-1.60732698 4.76232386 -0.61714637 2 8 34135 5.06400000 2691495354 2691495354 -7.00000000
-3.60059690 10.68045521 2.19086885 56 11 34137 11.48200000 2691495361 2691495361 11.00000000
-3.43346095 10.19643593 2.48390961 51 13 34139 11.04200000 2691495366 2691495366 13.00000000
-2.96137094 8.79953575 2.48776865 38 15 34140 9.61200000 2691495370 2691495370 15.00000000
-0.69462347 2.07360506 -0.58596629 4 0 34148 2.26400000 2691495391 2691495391 -15.00000000
-0.81374115 2.43201590 -0.59207118 3 2 34150 2.63200000 2691495396 2691495396 -13.00000000
-3.69087434 11.03726196 0.60992324 2 3 34151 11.65400000 2691495398 2691495398 3.00000000
-0.96942681 2.89899278 -0.59417921 2 4 34151 3.11400000 2691495400 2691495400 -11.00000000
-3.67995358 11.01099396 1.01571298 8 5 34152 11.65400000 2691495403 2691495403 5.00000000
-1.20594609 3.61047411 -0.60289842 2 6 34153 3.85400000 2691495405 2691495405 -9.00000000
-1.58943701 4.76413918 -0.61665887 2 8 34155 5.06000000 2691495410 2691495410 -7.00000000
-3.55708647 10.67433262 2.18705273 56 11 34157 11.46200000 2691495417 2691495417 11.00000000
-3.39723253 10.20650959 2.48345971 50 13 34159 11.04000000 2691495421 2691495421 13.00000000
-2.92788029 8.80666447 2.48673344 38 15 34161 9.60800000 2691495426 2691495426 15.00000000
-0.68701869 2.07613707 -0.58596629 4 0 34169 2.26400000 2691495447 2691495447 -15.00000000
-0.80359876 2.43128157 -0.59117138 3 2 34171 2.62800000 2691495451 2691495451 -13.00000000
-3.68046618 11.14174652 0.61494750 2 3 34172 11.75000000 2691495453 2691495453 3.00000000
-0.96741611 2.92862487 -0.59952188 2 4 34172 3.14200000 2691495456 2691495456 -11.00000000
-3.67454934 11.13035679 1.02547443 12 5 34173 11.76600000 2691495458 2691495458 5.00000000
-1.19394279 3.61862183 -0.60352415 2 6 34174 3.85800000 2691495460 2691495460 -9.00000000
-1.57942092 4.79255676 -0.61958373 2 8 34176 5.08400000 2691495465 2691495465 -7.00000000
-3.51302838 10.67237949 2.18399978 56 11 34178 11.44600000 2691495472 2691495472 11.00000000
-3.35736632 10.21148777 2.48166013 50 13 34180 11.03200000 2691495476 2691495476 13.00000000
-2.89953375 8.82417202 2.48880386 36 15 34181 9.61600000 2691495481 2691495481 15.00000000
-0.68216944 2.08586717 -0.58803689 4 0 34189 2.27200000 2691495502 2691495502 -15.00000000
-0.79389685 2.43036699 -0.59027159 3 2 34191 2.62400000 2691495506 2691495506 -13.00000000
-3.68370080 11.28363323 0.62206519 2 3 34192 11.88600000 2691495509 2691495509 3.00000000
-0.95231313 2.91705346 -0.59646893 2 4 34192 3.12600000 2691495511 2691495511 -11.00000000
-1.17518020 3.60398674 -0.60039550 2 6 34194 3.83800000 2691495516 2691495516 -9.00000000
-1.54546928 4.74519062 -0.61275905 2 8 34196 5.02800000 2691495520 2691495520 -7.00000000
-3.47453880 10.68084335 2.18323660 53 11 34198 11.44200000 2691495527 2691495527 11.00000000
-3.31929231 10.21573162 2.47986031 48 13 34200 11.02400000 2691495532 2691495532 13.00000000
-2.86871386 8.83423996 2.48880386 36 15 34201 9.61600000 2691495536 2691495536 15.00000000
-0.67287105 2.08076525 -0.58596629 4 0 34208 2.26400000 2691495557 2691495557 -15.00000000
-0.78822893 2.44040394 -0.59207118 3 2 34210 2.63200000 2691495562 2691495562 -13.00000000
-0.94022220 2.91272211 -0.59494245 2 4 34211 3.11800000 2691495566 2691495566 -11.00000000
-1.17534578 3.64546561 -0.60665286 2 6 34213 3.87800000 2691495571 2691495571 -9.00000000
-1.54311180 4.79185915 -0.61812133 2 8 34215 5.07200000 2691495575 2691495575 -7.00000000
-3.43669629 10.68483067 2.18171000 56 11 34217 11.43400000 2691495582 2691495582 11.00000000
-3.28420544 10.22297192 2.47896051 46 13 34219 11.02000000 2691495587 2691495587 13.00000000
-2.83704042 8.83634663 2.48673344 36 15 34220 9.60800000 2691495592 2691495592 15.00000000
-0.66442776 2.07942104 -0.58493102 4 0 34228 2.26000000 2691495612 2691495612 -15.00000000
-0.78326046 2.45427942 -0.59477061 3 2 34230 2.64400000 2691495617 2691495617 -13.00000000
-0.93243545 2.92346787 -0.59646893 4 4 34231 3.12600000 2691495622 2691495622 -11.00000000
-1.15781677 3.63448858 -0.60414988 2 6 34233 3.86200000 2691495626 2691495626 -9.00000000
-1.52998698 4.80856657 -0.61958373 2 8 34235 5.08400000 2691495631 2691495631 -7.00000000
-3.39462137 10.68179417 2.17865705 53 11 34237 11.41800000 2691495638 2691495638 11.00000000
-3.25144839 10.24366093 2.48121023 51 13 34239 11.03000000 2691495642 2691495642 13.00000000
-2.80346704 8.84300232 2.48569822 38 15 34241 9.60400000 2691495647 2691495647 15.00000000
-0.65949142 2.08909655 -0.58700162 4 0 34248 2.26800000 2691495668 2691495668 -15.00000000
-0.77234465 2.44956422 -0.59297097 3 2 34250 2.63600000 2691495672 2691495672 -13.00000000
-0.92458510 2.93419504 -0.59799540 4 4 34251 3.13400000 2691495677 2691495677 -11.00000000
-1.13919282 3.61966538 -0.60102123 2 6 34253 3.84200000 2691495681 2691495681 -9.00000000
-1.51795483 4.82902765 -0.62153363 2 8 34255 5.10000000 2691495686 2691495686 -7.00000000
-3.35143352 10.67484760 2.17484093 53 11 34257 11.39800000 2691495693 2691495693 11.00000000
-3.21567154 10.25494766 2.48121023 53 13 34259 11.03000000 2691495698 2691495698 13.00000000
-2.77239394 8.84671974 2.48414516 38 15 34260 9.59800000 2691495702 2691495702 15.00000000
-0.65679610 2.10613990 -0.59114271 4 0 34268 2.28400000 2691495723 2691495723 -15.00000000
-0.76263034 2.44852424 -0.59207118 3 2 34270 2.63200000 2691495727 2691495727 -13.00000000
-0.91783822 2.94865179 -0.60028511 4 4 34271 3.14600000 2691495732 2691495732 -11.00000000
-1.13241529 3.64248300 -0.60414988 2 6 34273 3.86200000 2691495737 2691495737 -9.00000000
-1.49402511 4.81154728 -0.61860877 2 8 34275 5.07600000 2691495741 2691495741 -7.00000000
-3.31066179 10.67523003 2.17255116 53 11 34277 11.38600000 2691495748 2691495748 11.00000000
-3.18158531 10.27169418 2.48255992 53 13 34279 11.03600000 2691495753 2691495753 13.00000000
-2.74549508 8.86926174 2.48776865 40 15 34280 9.61200000 2691495757 2691495757 15.00000000
-0.64903760 2.10450077 -0.59010744 4 0 34286 2.28000000 2691495778 2691495778 -15.00000000
-0.75608164 2.45463276 -0.59297097 3 2 34288 2.63600000 2691495783 2691495783 -13.00000000
-0.90625983 2.94401526 -0.59875864 4 4 34289 3.13800000 2691495787 2691495787 -11.00000000
-1.12909365 3.67245674 -0.60853004 2 6 34291 3.89000000 2691495792 2691495792 -9.00000000
-1.48123276 4.82380772 -0.61958373 2 8 34293 5.08400000 2691495797 2691495797 -7.00000000
-3.27595711 10.68182373 2.17178798 56 11 34295 11.38200000 2691495804 2691495804 11.00000000
-3.14473414 10.26673317 2.47896051 53 13 34297 11.02000000 2691495808 2691495808 13.00000000
-2.71663380 8.88016510 2.48828626 38 15 34299 9.61400000 2691495813 2691495813 15.00000000
-0.63831025 2.09566522 -0.58700162 4 0 34306 2.26800000 2691495833 2691495833 -15.00000000
-0.75204599 2.47217202 -0.59657019 3 2 34308 2.65200000 2691495838 2691495838 -13.00000000
-0.89255148 2.93589044 -0.59646893 2 4 34309 3.12600000 2691495843 2691495843 -11.00000000
-1.11282396 3.66503477 -0.60665286 2 6 34311 3.87800000 2691495847 2691495847 -9.00000000
-1.46092904 4.81755066 -0.61812133 2 8 34313 5.07200000 2691495852 2691495852 -7.00000000
-3.23751235 10.68943596 2.17102480 56 11 34315 11.37800000 2691495859 2691495859 11.00000000
-3.11000586 10.28137779 2.47986031 53 13 34317 11.02400000 2691495863 2691495863 13.00000000
-2.68003273 8.87110043 2.48310995 38 15 34319 9.59400000 2691495868 2691495868 15.00000000
-0.62765253 2.08678079 -0.58389574 4 0 34326 2.25600000 2691495889 2691495889 -15.00000000
-0.74453324 2.47851491 -0.59746999 3 2 34328 2.65600000 2691495893 2691495893 -13.00000000
-0.88342685 2.94274879 -0.59723216 2 4 34329 3.13000000 2691495898 2691495898 -11.00000000
-1.09661996 3.65754390 -0.60477567 2 6 34331 3.86600000 2691495903 2691495903 -9.00000000
-1.45663142 4.86445761 -0.62348354 2 8 34333 5.11600000 2691495907 2691495907 -7.00000000
-3.19455433 10.68186283 2.16720867 56 11 34335 11.35800000 2691495914 2691495914 11.00000000
-3.07521367 10.29590607 2.48076034 54 13 34337 11.02800000 2691495919 2691495919 13.00000000
-2.64518476 8.86744308 2.47948647 38 15 34339 9.58000000 2691495923 2691495923 15.00000000
-0.62256438 2.09636664 -0.58596629 4 0 34346 2.26400000 2691495944 2691495944 -15.00000000
-0.73033583 2.46241570 -0.59297097 3 2 34348 2.63600000 2691495949 2691495949 -13.00000000
-0.87649685 2.95710850 -0.59952188 2 4 34349 3.14200000 2691495953 2691495953 -11.00000000
-1.08664966 3.67082024 -0.60633999 2 6 34351 3.87600000 2691495958 2691495958 -9.00000000
-1.43514001 4.85428381 -0.62153363 2 8 34353 5.10000000 2691495963 2691495963 -7.00000000
-3.15057683 10.67035389 2.16262913 56 11 34355 11.33400000 2691495969 2691495969 11.00000000
-3.03705072 10.29910088 2.47896051 54 13 34357 11.02000000 2691495974 2691495974 13.00000000
-2.61476135 8.87847519 2.48000407 40 15 34359 9.58200000 2691495979 2691495979 15.00000000
-0.61959088 2.11335754 -0.59010744 4 0 34366 2.28000000 2691495999 2691495999 -15.00000000
-0.72173595 2.46495008 -0.59297097 3 2 34368 2.63600000 2691496004 2691496004 -13.00000000
-0.86616927 2.96015000 -0.59952188 2 4 34369 3.14200000 2691496009 2691496009 -11.00000000
-1.07327533 3.67269492 -0.60602713 2 6 34371 3.87400000 2691496013 2691496013 -9.00000000
-1.42041123 4.86688614 -0.62250859 2 8 34373 5.10800000 2691496018 2691496018 -7.00000000
-3.11111355 10.67374706 2.16110277 53 11 34375 11.32600000 2691496025 2691496025 11.00000000
-2.99999237 10.30589676 2.47806072 54 13 34377 11.01600000 2691496029 2691496029 13.00000000
-2.58746338 8.89451694 2.48207474 42 15 34378 9.59000000 2691496034 2691496034 15.00000000
-0.61221015 2.11550760 -0.59010744 4 0 34386 2.28000000 2691496055 2691496055 -15.00000000
-0.71745580 2.48243141 -0.59657019 3 2 34388 2.65200000 2691496059 2691496059 -13.00000000
-0.85474163 2.95938325 -0.59875864 2 4 34389 3.13800000 2691496064 2691496064 -11.00000000
-1.06209111 3.68211293 -0.60696572 2 6 34391 3.88000000 2691496068 2691496068 -9.00000000
-1.40341401 4.87181425 -0.62250859 2 8 34393 5.10800000 2691496073 2691496073 -7.00000000
-3.07166529 10.67699528 2.15957618 53 11 34395 11.31800000 2691496080 2691496080 11.00000000
-2.96023297 10.30319595 2.47491145 55 13 34397 11.00200000 2691496085 2691496085 13.00000000
-2.55324745 8.89837074 2.48052168 40 15 34399 9.58400000 2691496089 2691496089 15.00000000
-0.60482192 2.11763167 -0.59010744 4 0 34406 2.28000000 2691496110 2691496110 -15.00000000
-0.70878613 2.48492050 -0.59657019 3 2 34408 2.65200000 2691496115 2691496115 -13.00000000
-0.84010082 2.94724441 -0.59570569 4 4 34409 3.12200000 2691496119 2691496119 -11.00000000
-1.05626261 3.71049643 -0.61103302 2 6 34411 3.90600000 2691496124 2691496124 -9.00000000
-1.39291370 4.89959669 -0.62543344 2 8 34413 5.13200000 2691496128 2691496128 -7.00000000
-3.03330445 10.68387508 2.15881300 50 11 34415 11.31400000 2691496135 2691496135 11.00000000
-2.92637634 10.32096481 2.47671103 57 13 34417 11.01000000 2691496140 2691496140 13.00000000
-2.52319884 8.90493011 2.48000407 42 15 34418 9.58200000 2691496145 2691496145 15.00000000
-0.59323382 2.10485458 -0.58596629 4 0 34426 2.26400000 2691496165 2691496165 -15.00000000
-0.69905186 2.48362780 -0.59567040 3 2 34428 2.64800000 2691496170 2691496170 -13.00000000
-0.83299738 2.96149850 -0.59799540 2 4 34429 3.13400000 2691496174 2691496174 -11.00000000
-1.04009891 3.70275021 -0.60915583 2 6 34431 3.89400000 2691496179 2691496179 -9.00000000
-1.37365770 4.89678383 -0.62445849 2 8 34433 5.12400000 2691496184 2691496184 -7.00000000
-2.99334431 10.68494606 2.15690494 50 11 34435 11.30400000 2691496191 2691496191 11.00000000
-2.88928151 10.32736397 2.47581124 56 13 34437 11.00600000 2691496195 2691496195 13.00000000
-2.48690462 8.90109348 2.47638059 45 15 34439 9.56800000 2691496200 2691496200 15.00000000
-0.58935797 2.11797714 -0.58907217 4 0 34445 2.27600000 2691496221 2691496221 -15.00000000
-0.69081199 2.48593235 -0.59567040 3 2 34447 2.64800000 2691496225 2691496225 -13.00000000
-0.82527339 2.97181106 -0.59952188 2 4 34448 3.14200000 2691496230 2691496230 -11.00000000
-1.03098178 3.71760011 -0.61103302 2 6 34450 3.90600000 2691496234 2691496234 -9.00000000
-1.35529256 4.89365959 -0.62348354 2 8 34452 5.11600000 2691496239 2691496239 -7.00000000
-2.95423174 10.68156815 2.15423346 50 11 34454 11.29000000 2691496246 2691496246 11.00000000
-2.85709429 10.34440231 2.47761083 55 13 34456 11.01400000 2691496251 2691496251 13.00000000
-2.45790100 8.90513802 2.47534537 40 15 34457 9.56400000 2691496255 2691496255 15.00000000
-0.58298403 2.12374735 -0.59010744 4 0 34465 2.28000000 2691496276 2691496276 -15.00000000
-0.67903906 2.47705221 -0.59297097 3 2 34467 2.63600000 2691496280 2691496280 -13.00000000
-0.81696969 2.98224783 -0.60104835 2 4 34468 3.15000000 2691496285 2691496285 -11.00000000
-1.01799870 3.72117639 -0.61103302 2 6 34470 3.90600000 2691496290 2691496290 -9.00000000
-1.34029484 4.90602064 -0.62445849 2 8 34472 5.12400000 2691496294 2691496294 -7.00000000
-2.91641140 10.68992138 2.15385199 43 11 34474 11.28800000 2691496301 2691496301 11.00000000
-2.81686997 10.33927059 2.47401166 57 13 34476 10.99800000 2691496306 2691496306 13.00000000
-2.42423105 8.91035843 2.47431016 40 15 34478 9.56000000 2691496310 2691496310 15.00000000
-0.57620531 2.12959933 -0.59114271 4 0 34486 2.28400000 2691496331 2691496331 -15.00000000
-0.67097223 2.48328686 -0.59387076 3 2 34488 2.64000000 2691496336 2691496336 -13.00000000
-0.80501014 2.98143125 -0.60028511 2 4 34489 3.14600000 2691496340 2691496340 -11.00000000
-1.00023890 3.70962429 -0.60853004 2 6 34491 3.89000000 2691496345 2691496345 -9.00000000
-1.31198192 4.87256336 -0.61958373 2 8 34493 5.08400000 2691496350 2691496350 -7.00000000
-2.87721133 10.70053864 2.15385199 40 11 34495 11.28800000 2691496356 2691496356 11.00000000
-2.77592373 10.33823299 2.47131228 59 13 34497 10.98600000 2691496361 2691496361 13.00000000
-2.39211202 8.91503525 2.47327471 40 15 34498 9.55600000 2691496366 2691496366 15.00000000
-0.56279159 2.10919929 -0.58493102 4 0 34506 2.26000000 2691496386 2691496386 -15.00000000
-0.66430682 2.49314594 -0.59567040 3 2 34508 2.64800000 2691496391 2691496391 -13.00000000
-0.79156721 2.97284031 -0.59799540 4 4 34509 3.13400000 2691496396 2691496396 -11.00000000
-0.98931426 3.72072959 -0.60978156 2 6 34511 3.89800000 2691496400 2691496400 -9.00000000
-1.30515409 4.91548586 -0.62445849 2 8 34513 5.12400000 2691496405 2691496405 -7.00000000
-2.84336400 10.72380066 2.15652323 46 11 34515 11.30200000 2691496412 2691496412 11.00000000
-2.73682690 10.33655643 2.46861291 56 13 34517 10.97400000 2691496416 2691496416 13.00000000
-2.35645795 8.91253662 2.47016907 38 15 34519 9.54400000 2691496421 2691496421 15.00000000
-0.55972892 2.12599945 -0.58907217 4 0 34525 2.27600000 2691496442 2691496442 -15.00000000
-0.65900856 2.50664353 -0.59836978 3 2 34527 2.66000000 2691496446 2691496446 -13.00000000
-0.78569543 2.99063945 -0.60104835 4 4 34528 3.15000000 2691496451 2691496451 -11.00000000
-0.97797292 3.72781110 -0.61040729 2 6 34530 3.90200000 2691496456 2691496456 -9.00000000
-1.28884649 4.91978693 -0.62445849 2 8 34532 5.12400000 2691496460 2691496460 -7.00000000
-2.80331540 10.71607590 2.15308881 43 11 34534 11.28400000 2691496467 2691496467 11.00000000
-2.70351958 10.34934616 2.46951270 59 13 34536 10.97800000 2691496472 2691496472 13.00000000
-2.32503128 8.90681076 2.46654558 42 15 34537 9.53000000 2691496476 2691496476 15.00000000
-0.55133373 2.12420058 -0.58803689 4 0 34545 2.27200000 2691496497 2691496497 -15.00000000
-0.65025479 2.50892854 -0.59836978 3 2 34547 2.66000000 2691496502 2691496502 -13.00000000
-0.77820468 3.00476694 -0.60333806 2 4 34548 3.16200000 2691496506 2691496506 -11.00000000
-0.96495450 3.73120213 -0.61040729 2 6 34550 3.90200000 2691496511 2691496511 -9.00000000
-1.27563632 4.93963194 -0.62640840 2 8 34552 5.14000000 2691496515 2691496515 -7.00000000
-2.76491165 10.72199440 2.15232539 43 11 34554 11.28000000 2691496522 2691496522 11.00000000
-2.66640544 10.35494614 2.46861291 56 13 34556 10.97400000 2691496527 2691496527 13.00000000
-2.29092717 8.90966034 2.46499252 42 15 34558 9.52400000 2691496532 2691496532 15.00000000
-0.54641527 2.13743687 -0.59114271 4 0 34566 2.28400000 2691496552 2691496552 -15.00000000
-0.63719875 2.49618936 -0.59477061 3 2 34568 2.64400000 2691496557 2691496557 -13.00000000
-0.76524544 2.99998975 -0.60181159 2 4 34569 3.15400000 2691496562 2691496562 -11.00000000
-0.95419794 3.74619937 -0.61228448 2 6 34571 3.91400000 2691496566 2691496566 -9.00000000
-1.25752306 4.94427443 -0.62640840 2 8 34573 5.14000000 2691496571 2691496571 -7.00000000
-2.72269535 10.72063923 2.15003586 43 11 34575 11.26800000 2691496578 2691496578 11.00000000
-2.62556052 10.35331535 2.46591353 55 13 34577 10.96200000 2691496582 2691496582 13.00000000
-2.25886369 8.91385746 2.46395731 42 15 34578 9.52000000 2691496587 2691496587 15.00000000
-0.54083866 2.14682460 -0.59321326 4 0 34586 2.29200000 2691496608 2691496608 -15.00000000
-0.63038313 2.50595784 -0.59657019 3 2 34588 2.65200000 2691496612 2691496612 -13.00000000
-0.76051217 3.02549100 -0.60639101 2 4 34589 3.17800000 2691496617 2691496617 -11.00000000
-0.94303906 3.75717115 -0.61353600 2 6 34591 3.92200000 2691496621 2691496621 -9.00000000
-1.24025667 4.94863367 -0.62640840 2 8 34593 5.14000000 2691496626 2691496626 -7.00000000
-2.68811655 10.74150467 2.15232539 43 11 34595 11.28000000 2691496633 2691496633 11.00000000
-2.58562517 10.34729290 2.46231413 57 13 34597 10.94600000 2691496638 2691496638 13.00000000
-2.22679877 8.91793919 2.46292210 40 15 34598 9.51600000 2691496642 2691496642 15.00000000
-0.53036314 2.13351464 -0.58907217 4 0 34604 2.27600000 2691496663 2691496663 -15.00000000
-0.62626302 2.52305675 -0.60016942 3 2 34606 2.66800000 2691496668 2691496668 -13.00000000
-0.74438679 3.00118804 -0.60104835 2 4 34607 3.15000000 2691496672 2691496672 -11.00000000
-0.92743194 3.74477553 -0.61103302 2 6 34609 3.90600000 2691496677 2691496677 -9.00000000
-1.22661018 4.96021366 -0.62738335 2 8 34611 5.14800000 2691496681 2691496681 -7.00000000
-2.65624046 10.75752068 2.15385199 43 11 34613 11.28800000 2691496688 2691496688 11.00000000
-2.55403852 10.35914898 2.46321416 59 13 34615 10.95000000 2691496693 2691496693 13.00000000
-2.19553638 8.91176033 2.45929861 40 15 34616 9.50200000 2691496697 2691496697 15.00000000
-0.52245307 2.13347650 -0.58855450 4 0 34624 2.27400000 2691496718 2691496718 -15.00000000
-0.61652642 2.52144146 -0.59926963 3 2 34626 2.66400000 2691496723 2691496723 -13.00000000
-0.73297423 2.99995375 -0.60028511 2 4 34627 3.14600000 2691496727 2691496727 -11.00000000
-0.91248184 3.74031377 -0.60978156 2 6 34629 3.89800000 2691496732 2691496732 -9.00000000
-2.61217785 10.74001980 2.14850926 43 11 34633 11.26000000 2691496744 2691496744 11.00000000
-2.51786280 10.36800098 2.46321416 60 13 34635 10.95000000 2691496748 2691496748 13.00000000
-2.16012692 8.90848255 2.45619273 40 15 34637 9.49000000 2691496753 2691496753 15.00000000
-0.51545560 2.13716531 -0.58907217 4 0 34644 2.27600000 2691496774 2691496774 -15.00000000
-0.60498369 2.51221085 -0.59657019 3 2 34646 2.65200000 2691496778 2691496778 -13.00000000
-0.72157937 2.99867654 -0.59952188 2 4 34647 3.14200000 2691496783 2691496783 -11.00000000
-0.90126610 3.75115895 -0.61103302 2 6 34649 3.90600000 2691496787 2691496787 -9.00000000
-1.19473016 4.98023844 -0.62884581 2 8 34651 5.16000000 2691496792 2691496792 -7.00000000
-2.57284307 10.74143600 2.14698291 40 11 34653 11.25200000 2691496799 2691496799 11.00000000
-2.47938991 10.36725044 2.46096444 54 13 34655 10.94000000 2691496803 2691496803 13.00000000
-2.13057351 8.91559696 2.45619273 38 15 34656 9.49000000 2691496808 2691496808 15.00000000
-0.50977796 2.14646983 -0.59114271 4 0 34664 2.28400000 2691496829 2691496829 -15.00000000
-0.59441221 2.50672269 -0.59477061 3 2 34666 2.64400000 2691496833 2691496833 -13.00000000
-0.71834993 3.03174281 -0.60562778 2 4 34667 3.17400000 2691496838 2691496838 -11.00000000
-0.88862139 3.75620461 -0.61134589 2 6 34669 3.90800000 2691496843 2691496843 -9.00000000
-1.17551327 4.97665071 -0.62787086 2 8 34671 5.15200000 2691496847 2691496847 -7.00000000
-2.53488207 10.74844074 2.14660120 40 11 34673 11.25000000 2691496854 2691496854 11.00000000
-2.44095325 10.36635780 2.45871496 55 13 34675 10.93000000 2691496859 2691496859 13.00000000
-2.09943914 8.92298031 2.45619273 40 15 34676 9.49000000 2691496863 2691496863 15.00000000
-0.50272208 2.15011740 -0.59166032 4 0 34684 2.28600000 2691496884 2691496884 -15.00000000
-0.58831656 2.52016854 -0.59746999 3 2 34686 2.65600000 2691496889 2691496889 -13.00000000
-0.70419502 3.01893640 -0.60257483 2 4 34687 3.15800000 2691496893 2691496893 -11.00000000
-0.87550437 3.75928354 -0.61134589 2 6 34689 3.90800000 2691496898 2691496898 -9.00000000
-1.15813434 4.98072338 -0.62787086 2 8 34691 5.15200000 2691496902 2691496902 -7.00000000
-2.49867940 10.76296043 2.14774609 40 11 34693 11.25600000 2691496909 2691496909 11.00000000
-2.40123272 10.35962772 2.45511580 55 13 34695 10.91400000 2691496914 2691496914 13.00000000
-2.06827950 8.93025398 2.45619273 40 15 34696 9.49000000 2691496919 2691496919 15.00000000
-0.49391395 2.14621115 -0.59010744 4 0 34704 2.28000000 2691496939 2691496939 -15.00000000
-0.57864320 2.51840830 -0.59657019 3 2 34706 2.65200000 2691496944 2691496944 -13.00000000
-0.69101691 3.00989532 -0.60028511 2 4 34707 3.14600000 2691496949 2691496949 -11.00000000
-0.86370069 3.76809311 -0.61228448 2 6 34709 3.91400000 2691496953 2691496953 -9.00000000
-1.13011324 4.93829441 -0.62202114 6 8 34711 5.10400000 2691496958 2691496958 -7.00000000
-2.46021986 10.76778889 2.14698291 37 11 34713 11.25200000 2691496965 2691496965 11.00000000
-2.36375618 10.36224651 2.45376611 54 13 34715 10.90800000 2691496969 2691496969 13.00000000
-2.03381848 8.93024063 2.45412207 38 15 34717 9.48200000 2691496974 2691496974 15.00000000
-0.48385915 2.13661718 -0.58700162 4 0 34724 2.26800000 2691496995 2691496995 -15.00000000
-0.57328677 2.53561878 -0.60016942 3 2 34726 2.66800000 2691496999 2691496999 -13.00000000
-0.68310189 3.02377892 -0.60257483 2 4 34727 3.15800000 2691497004 2691497004 -11.00000000
-0.85228080 3.77879286 -0.61353600 2 6 34729 3.92200000 2691497008 2691497008 -9.00000000
-1.11984575 4.97319460 -0.62592095 2 8 34731 5.13600000 2691497013 2691497013 -7.00000000
-2.41831231 10.75715733 2.14316654 40 11 34733 11.23200000 2691497020 2691497020 11.00000000
-2.33055806 10.38374424 2.45691538 57 13 34735 10.92200000 2691497025 2691497025 13.00000000
-2.00081182 8.92185497 2.44998097 40 15 34736 9.46600000 2691497029 2691497029 15.00000000
-0.47975886 2.15337825 -0.59114271 4 0 34744 2.28400000 2691497050 2691497050 -15.00000000
-0.56104743 2.52238655 -0.59657019 3 2 34746 2.65200000 2691497054 2691497054 -13.00000000
-0.67595017 3.04147696 -0.60562778 2 4 34747 3.17400000 2691497059 2691497059 -11.00000000
-0.83908516 3.78174472 -0.61353600 2 6 34749 3.92200000 2691497064 2691497064 -9.00000000
-1.11278284 5.02358818 -0.63177067 2 8 34751 5.18400000 2691497068 2691497068 -7.00000000
-2.38074803 10.76553249 2.14316654 43 11 34753 11.23200000 2691497075 2691497075 11.00000000
-2.29009652 10.37278748 2.45241642 55 13 34755 10.90200000 2691497080 2691497080 13.00000000
-1.96965647 8.92878532 2.44998097 38 15 34756 9.46600000 2691497084 2691497084 15.00000000
-0.47306627 2.15881395 -0.59217799 4 0 34764 2.28800000 2691497105 2691497105 -15.00000000
-0.55140626 2.52052212 -0.59567040 3 2 34766 2.64800000 2691497110 2691497110 -13.00000000
-0.66281390 3.03231025 -0.60333806 2 4 34767 3.16200000 2691497114 2691497114 -11.00000000
-0.82251006 3.76921105 -0.61103302 2 6 34769 3.90600000 2691497119 2691497119 -9.00000000
-1.09186006 5.01192474 -0.62982076 2 8 34771 5.16800000 2691497124 2691497124 -7.00000000
-2.34232044 10.76994133 2.14240336 40 11 34773 11.22800000 2691497131 2691497131 11.00000000
-2.25346136 10.37881374 2.45196652 51 13 34775 10.90000000 2691497135 2691497135 13.00000000
-1.93609917 8.93216801 2.44894576 38 15 34777 9.46200000 2691497140 2691497140 15.00000000
-0.46674851 2.16611767 -0.59373087 4 0 34784 2.29400000 2691497160 2691497160 -15.00000000
-0.54465377 2.53195739 -0.59791988 3 2 34786 2.65800000 2691497165 2691497165 -13.00000000
-0.65387529 3.04228306 -0.60486454 2 4 34787 3.17000000 2691497170 2691497170 -11.00000000
-0.81432098 3.79523611 -0.61478746 2 6 34789 3.93000000 2691497174 2691497174 -9.00000000
-1.07768476 5.03123426 -0.63177067 2 8 34791 5.18400000 2691497179 2691497179 -7.00000000
-2.30471206 10.77805138 2.14240336 43 11 34793 11.22800000 2691497186 2691497186 11.00000000
-2.21477771 10.37518120 2.44926715 55 13 34795 10.88800000 2691497190 2691497190 13.00000000
-1.90611625 8.94454002 2.45049882 40 15 34797 9.46800000 2691497195 2691497195 15.00000000
-0.45836085 2.16198397 -0.59217799 4 0 34803 2.28800000 2691497216 2691497216 -15.00000000
-0.53867555 2.54518867 -0.60061932 3 2 34805 2.67000000 2691497220 2691497220 -13.00000000
-0.63890904 3.02138519 -0.60028511 2 4 34806 3.14600000 2691497225 2691497225 -11.00000000
-0.80173105 3.79791570 -0.61478746 2 6 34808 3.93000000 2691497230 2691497230 -9.00000000
-1.06099463 5.03478003 -0.63177067 2 8 34810 5.18400000 2691497234 2691497234 -7.00000000
-2.26895809 10.78563499 2.14240336 40 11 34812 11.22800000 2691497241 2691497241 11.00000000
-2.17955923 10.37865448 2.44836736 52 13 34814 10.88400000 2691497246 2691497246 13.00000000
-1.87525547 8.94513988 2.44894576 38 15 34816 9.46200000 2691497250 2691497250 15.00000000
-0.44844693 2.15222335 -0.58907217 4 0 34823 2.27600000 2691497271 2691497271 -15.00000000
-0.52939105 2.54514551 -0.60016942 3 2 34825 2.66800000 2691497276 2691497276 -13.00000000
-0.63634789 3.06204081 -0.60791749 2 4 34826 3.18600000 2691497280 2691497280 -11.00000000
-0.79167902 3.81616473 -0.61729038 2 6 34828 3.94600000 2691497285 2691497285 -9.00000000
-1.04341352 5.03845310 -0.63177067 2 8 34830 5.18400000 2691497290 2691497290 -7.00000000
-2.22692323 10.77234077 2.13820553 37 11 34832 11.20600000 2691497296 2691497296 11.00000000
-2.14449930 10.39192486 2.44971704 53 13 34834 10.89000000 2691497301 2691497301 13.00000000
-1.84051168 8.93460178 2.44428706 38 15 34836 9.44400000 2691497306 2691497306 15.00000000
-0.44248137 2.16134596 -0.59114271 4 0 34843 2.28400000 2691497326 2691497326 -15.00000000
-0.51621157 2.52597594 -0.59522051 3 2 34845 2.64600000 2691497331 2691497331 -13.00000000
-0.62486994 3.06039619 -0.60715425 2 4 34846 3.18200000 2691497336 2691497336 -11.00000000
-0.77361929 3.79567790 -0.61353600 2 6 34848 3.92200000 2691497340 2691497340 -9.00000000
-1.03136039 5.06929779 -0.63518304 2 8 34850 5.21200000 2691497345 2691497345 -7.00000000
-2.18735361 10.77042866 2.13629746 40 11 34852 11.19600000 2691497352 2691497352 11.00000000
-2.10859871 10.40125751 2.45016694 53 13 34854 10.89200000 2691497356 2691497356 13.00000000
-1.81164038 8.94444275 2.44532228 38 15 34855 9.44800000 2691497361 2691497361 15.00000000
-0.43569589 2.16666532 -0.59217799 4 0 34863 2.28800000 2691497382 2691497382 -15.00000000
-0.50930870 2.53731561 -0.59746999 3 2 34865 2.65600000 2691497386 2691497386 -13.00000000
-0.61572754 3.07025862 -0.60868067 2 4 34866 3.19000000 2691497391 2691497391 -11.00000000
-0.76579356 3.82547259 -0.61791611 2 6 34868 3.95000000 2691497395 2691497395 -9.00000000
-1.00821328 5.04561472 -0.63177067 2 8 34870 5.18400000 2691497400 2691497400 -7.00000000
-2.15204859 10.78955078 2.13858724 40 11 34872 11.20800000 2691497407 2691497407 11.00000000
-2.07075667 10.40090942 2.44836736 52 13 34874 10.88400000 2691497412 2691497412 13.00000000
-1.78035140 8.95860195 2.44739294 38 15 34876 9.45600000 2691497416 2691497416 15.00000000
-0.42925772 2.17188859 -0.59321326 4 0 34882 2.29200000 2691497437 2691497437 -15.00000000
-0.50089186 2.53899050 -0.59746999 3 2 34884 2.65600000 2691497442 2691497442 -13.00000000
-0.60326487 3.06072640 -0.60639101 2 4 34885 3.17800000 2691497446 2691497446 -11.00000000
-0.75310367 3.82799101 -0.61791611 2 6 34887 3.95000000 2691497451 2691497451 -9.00000000
-2.11285853 10.77928829 2.13515258 37 11 34891 11.19000000 2691497462 2691497462 11.00000000
-2.03400970 10.39624405 2.44566774 50 13 34893 10.87200000 2691497467 2691497467 13.00000000
-1.75219834 8.96415138 2.44739294 38 15 34894 9.45600000 2691497472 2691497472 15.00000000
-0.42167380 2.17337370 -0.59321326 4 0 34902 2.29200000 2691497492 2691497492 -15.00000000
-0.49202609 2.54072356 -0.59746999 3 2 34904 2.65600000 2691497497 2691497497 -13.00000000
-0.59257728 3.06281352 -0.60639101 2 4 34905 3.17800000 2691497501 2691497501 -11.00000000
-0.73748958 3.81895924 -0.61603892 2 6 34907 3.93800000 2691497506 2691497506 -9.00000000
-2.07484794 10.78466988 2.13477111 40 11 34911 11.18800000 2691497518 2691497518 11.00000000
-1.99881005 10.40902233 2.44701767 53 13 34913 10.87800000 2691497522 2691497522 13.00000000
-1.71787679 8.96292400 2.44532228 38 15 34915 9.44800000 2691497527 2691497527 15.00000000
-0.41193268 2.16147614 -0.58958977 4 0 34921 2.27800000 2691497548 2691497548 -15.00000000
-0.48578298 2.55382752 -0.60016942 3 2 34923 2.66800000 2691497552 2691497552 -13.00000000
-0.58168429 3.06090426 -0.60562778 2 4 34924 3.17400000 2691497557 2691497557 -11.00000000
-0.72445327 3.81944299 -0.61572605 2 6 34926 3.93600000 2691497561 2691497561 -9.00000000
-0.96520966 5.09847212 -0.63713294 2 8 34928 5.22800000 2691497566 2691497566 -7.00000000
-2.04417658 10.81849861 2.14011359 43 11 34930 11.21600000 2691497573 2691497573 11.00000000
-1.96536493 10.42133808 2.44836736 54 13 34932 10.88400000 2691497578 2691497578 13.00000000
-1.68756437 8.95688534 2.44221640 38 15 34933 9.43600000 2691497582 2691497582 15.00000000
-0.40474024 2.16479993 -0.59010744 4 0 34941 2.28000000 2691497603 2691497603 -15.00000000
-0.47829539 2.56317043 -0.60196900 3 2 34943 2.67600000 2691497607 2691497607 -13.00000000
-0.57243544 3.07063603 -0.60715425 2 4 34944 3.18200000 2691497612 2691497612 -11.00000000
-0.71292323 3.83165884 -0.61729038 2 6 34946 3.94600000 2691497617 2691497617 -9.00000000
-0.94160777 5.07058239 -0.63323313 2 8 34948 5.19600000 2691497621 2691497621 -7.00000000
-2.00210714 10.80240345 2.13553429 43 11 34950 11.19200000 2691497628 2691497628 11.00000000
-1.92897570 10.42813492 2.44836736 53 13 34952 10.88400000 2691497633 2691497633 13.00000000
-1.65507507 8.96491051 2.44273424 40 15 34954 9.43800000 2691497637 2691497637 15.00000000
-0.39819542 2.17386985 -0.59217799 4 0 34962 2.28800000 2691497658 2691497658 -15.00000000
-0.46609411 2.54957056 -0.59836978 3 2 34964 2.66000000 2691497663 2691497663 -13.00000000
-0.56399888 3.08816385 -0.61020714 2 4 34965 3.19800000 2691497667 2691497667 -11.00000000
-0.69639516 3.82064247 -0.61510032 2 6 34967 3.93200000 2691497672 2691497672 -9.00000000
-0.92372739 5.07790565 -0.63372058 2 8 34969 5.20000000 2691497677 2691497677 -7.00000000
-1.35158837 7.43731022 -0.66133779 4 10 34970 7.58800000 2691497681 2691497681 -5.00000000
-1.96179950 10.80580616 2.13477111 43 11 34971 11.18800000 2691497683 2691497683 11.00000000
-1.88865709 10.42362976 2.44566774 52 13 34973 10.87200000 2691497688 2691497688 13.00000000
-1.62445986 8.97443485 2.44376945 40 15 34974 9.44200000 2691497693 2691497693 15.00000000
-0.39265341 2.18665504 -0.59528381 4 0 34982 2.30000000 2691497713 2691497713 -15.00000000
-0.45787910 2.55501842 -0.59926963 3 2 34984 2.66400000 2691497718 2691497718 -13.00000000
-0.55113989 3.07851863 -0.60791749 2 4 34985 3.18600000 2691497723 2691497723 -11.00000000
-0.68409669 3.82888389 -0.61603892 2 6 34987 3.93800000 2691497727 2691497727 -9.00000000
-0.90111816 5.05373955 -0.63030827 2 8 34989 5.17200000 2691497732 2691497732 -7.00000000
-1.33190823 7.47729015 -0.66447538 4 10 34990 7.62400000 2691497736 2691497736 -5.00000000
-1.92338037 10.80872250 2.13400769 46 11 34991 11.18400000 2691497739 2691497739 11.00000000
-1.85021591 10.41864681 2.44296837 54 13 34993 10.86000000 2691497743 2691497743 13.00000000
-1.59223020 8.98413277 2.44480467 40 15 34995 9.44600000 2691497748 2691497748 15.00000000
-0.38233978 2.17279148 -0.59114271 4 0 35002 2.28400000 2691497769 2691497769 -15.00000000
-0.45030585 2.56427860 -0.60106921 3 2 35004 2.67200000 2691497773 2691497773 -13.00000000
-0.53835511 3.06882143 -0.60562778 2 4 35005 3.17400000 2691497778 2691497778 -11.00000000
-0.67617750 3.86238098 -0.62104481 2 6 35007 3.97000000 2691497783 2691497783 -9.00000000
-0.89235437 5.10769653 -0.63664544 2 8 35009 5.22400000 2691497787 2691497787 -7.00000000
-1.88901126 10.83471107 2.13782406 40 11 35011 11.20400000 2691497794 2691497794 11.00000000
-1.81483889 10.43080139 2.44431806 55 13 35013 10.86600000 2691497799 2691497799 13.00000000
-1.55812848 8.96462059 2.43807530 42 15 35014 9.42000000 2691497803 2691497803 15.00000000
-0.37344036 2.16649771 -0.58907217 4 0 35022 2.27600000 2691497824 2691497824 -15.00000000
-0.44234318 2.57159638 -0.60241890 3 2 35024 2.67800000 2691497829 2691497829 -13.00000000
-0.52963454 3.08229136 -0.60791749 2 4 35025 3.18600000 2691497833 2691497833 -11.00000000
-0.66035426 3.85108900 -0.61885476 2 6 35027 3.95600000 2691497838 2691497838 -9.00000000
-0.86782354 5.07164717 -0.63177067 2 8 35029 5.18400000 2691497842 2691497842 -7.00000000
-1.84357917 10.79672813 2.12904668 50 11 35031 11.15800000 2691497849 2691497849 11.00000000
-1.77776289 10.43323135 2.44341826 55 13 35033 10.86200000 2691497854 2691497854 13.00000000
-1.52396560 8.96265316 2.43600488 42 15 35035 9.41200000 2691497859 2691497859 15.00000000
-0.36856532 2.17908907 -0.59217799 4 0 35040 2.28800000 2691497879 2691497879 -15.00000000
-0.43231618 2.56144404 -0.59971952 3 2 35042 2.66600000 2691497884 2691497884 -13.00000000
-0.52321255 3.10329938 -0.61173362 2 4 35043 3.20600000 2691497889 2691497889 -11.00000000
-0.64759696 3.84924865 -0.61822903 2 6 35045 3.95200000 2691497893 2691497893 -9.00000000
-0.85911679 5.11741781 -0.63713294 2 8 35047 5.22800000 2691497898 2691497898 -7.00000000
-1.81127310 10.81214809 2.13095474 46 11 35049 11.16800000 2691497905 2691497905 11.00000000
-1.74561977 10.44260883 2.44431806 57 13 35051 10.86600000 2691497909 2691497909 13.00000000
-1.49768448 8.96904087 2.43652248 40 15 35052 9.41400000 2691497914 2691497914 15.00000000
-0.36158767 2.18417406 -0.59321326 4 0 35060 2.29200000 2691497935 2691497935 -15.00000000
-0.42305484 2.56101465 -0.59926963 3 2 35062 2.66400000 2691497939 2691497939 -13.00000000
-0.50981975 3.08961034 -0.60868067 4 4 35063 3.19000000 2691497944 2691497944 -11.00000000
-0.63447756 3.85343480 -0.61854190 2 6 35065 3.95400000 2691497948 2691497948 -9.00000000
-0.84511030 5.14389133 -0.64005780 2 8 35067 5.25200000 2691497953 2691497953 -7.00000000
-1.77415574 10.82227993 2.13171816 46 11 35069 11.17200000 2691497960 2691497960 11.00000000
-1.70789933 10.44094563 2.44251847 55 13 35071 10.85800000 2691497965 2691497965 13.00000000
-1.46667910 8.97612095 2.43704009 42 15 35072 9.41600000 2691497969 2691497969 15.00000000
-0.35381481 2.18936062 -0.59424853 4 0 35082 2.29600000 2691497990 2691497990 -15.00000000
-0.41538972 2.57608747 -0.60241890 3 2 35084 2.67800000 2691497995 2691497995 -13.00000000
-0.49670398 3.08379197 -0.60715425 4 4 35085 3.18200000 2691497999 2691497999 -11.00000000
-0.61904991 3.85194206 -0.61791611 2 6 35087 3.95000000 2691498004 2691498004 -9.00000000
-0.82535303 5.14709854 -0.64005780 2 8 35089 5.25200000 2691498008 2691498008 -7.00000000
-1.73320854 10.83288956 2.13248134 43 11 35091 11.17600000 2691498015 2691498015 11.00000000
-1.66564608 10.43395615 2.43936920 53 13 35093 10.84400000 2691498020 2691498020 13.00000000
-1.43098569 8.97405529 2.43496966 40 15 35094 9.40800000 2691498024 2691498024 15.00000000
-0.34496418 2.18294954 -0.59217799 4 0 35102 2.28800000 2691498045 2691498045 -15.00000000
-0.40578794 2.57367182 -0.60151911 3 2 35104 2.67400000 2691498050 2691498050 -13.00000000
-0.48593652 3.08550692 -0.60715425 2 4 35105 3.18200000 2691498054 2691498054 -11.00000000
-0.61111975 3.88920522 -0.62354779 2 6 35107 3.98600000 2691498059 2691498059 -9.00000000
-0.81230056 5.18132639 -0.64395761 2 8 35109 5.28400000 2691498064 2691498064 -7.00000000
-1.69659781 10.84663200 2.13400769 43 11 35111 11.18400000 2691498071 2691498071 11.00000000
-1.63011611 10.44548321 2.44071889 55 13 35113 10.85000000 2691498075 2691498075 13.00000000
-1.39689565 8.97160435 2.43289900 40 15 35115 9.40000000 2691498080 2691498080 15.00000000
-0.33692238 2.17638612 -0.59010744 4 0 35120 2.28000000 2691498101 2691498101 -15.00000000
-0.39859289 2.58071160 -0.60286885 3 2 35122 2.68000000 2691498105 2691498105 -13.00000000
-0.47743806 3.09477949 -0.60868067 2 4 35123 3.19000000 2691498110 2691498110 -11.00000000
-0.59529245 3.86767721 -0.61979336 2 6 35125 3.96200000 2691498114 2691498114 -9.00000000
-0.78999311 5.14461088 -0.63908285 2 8 35127 5.24400000 2691498119 2691498119 -7.00000000
-1.16413116 7.58991098 -0.67179644 4 10 35128 7.70800000 2691498124 2691498124 -5.00000000
-1.66072989 10.84026432 2.13171816 43 11 35129 11.17200000 2691498126 2691498126 11.00000000
-1.59729266 10.45055294 2.44071889 55 13 35131 10.85000000 2691498130 2691498130 13.00000000
-1.36852098 8.96425152 2.42979312 40 15 35132 9.38800000 2691498135 2691498135 15.00000000
-0.32932332 2.17754889 -0.59010744 4 0 35140 2.28000000 2691498156 2691498156 -15.00000000
-0.38870990 2.57630658 -0.60151911 3 2 35142 2.67400000 2691498160 2691498160 -13.00000000
-0.46663237 3.09642720 -0.60868067 2 4 35143 3.19000000 2691498165 2691498165 -11.00000000
-0.58178812 3.86973166 -0.61979336 2 6 35145 3.96200000 2691498170 2691498170 -9.00000000
