# .PCD v0.7 - Point Cloud Data file format
VERSION 0.7
FIELDS x y z intensity laser_id azimuth distance_m adjustedtime timestamp vertical_angle
SIZE 4 4 4 1 1 2 8 8 4 8
TYPE F F F U U U F U U F
COUNT 1 1 1 1 1 1 1 1 1 1
WIDTH 523
HEIGHT 1
VIEWPOINT 0 0 0 1 0 0 0
POINTS 523
DATA ascii
-1.17329264 1.77871609 -0.57095480 4 0 32659 2.20600000 2685291171 2685291171 -15.00000000
-1.37382114 2.08430076 -0.57632458 4 2 32661 2.56200000 2685291176 2685291176 -13.00000000
-1.63212407 2.47712708 -0.57662481 2 4 32662 3.02200000 2685291180 2685291180 -11.00000000
-2.00631332 3.04736114 -0.57786894 1 6 32664 3.69400000 2685291185 2685291185 -9.00000000
-2.57371378 3.91215014 -0.57497954 38 8 32666 4.71800000 2685291190 2685291190 -7.00000000
-3.68708110 5.60664463 -0.58708107 4 10 32667 6.73600000 2685291194 2685291194 -5.00000000
-6.14774418 9.35548687 -0.58668607 8 12 32669 11.21000000 2685291199 2685291199 -3.00000000
-6.05671978 9.22047424 2.54689574 59 13 32670 11.32200000 2685291201 2685291201 13.00000000
-4.58584976 6.98660231 2.23930240 42 15 32672 8.65200000 2685291206 2685291206 15.00000000
-1.17130899 1.78926611 -0.57302535 4 0 32679 2.21400000 2685291227 2685291227 -15.00000000
-1.36653721 2.08908343 -0.57632458 4 2 32681 2.56200000 2685291231 2685291231 -13.00000000
-1.62561619 2.48609543 -0.57738805 4 4 32682 3.02600000 2685291236 2685291236 -11.00000000
-1.99350297 3.05103850 -0.57724315 1 6 32684 3.69000000 2685291240 2685291240 -9.00000000
-2.56221271 3.92443466 -0.57546705 34 8 32686 4.72200000 2685291245 2685291245 -7.00000000
-3.65877628 5.60613298 -0.58568656 4 10 32687 6.72000000 2685291250 2685291250 -5.00000000
-6.12377787 9.39027309 -0.58752346 8 12 32689 11.22600000 2685291254 2685291254 -3.00000000
-6.01811218 9.23176575 2.54419637 57 13 32690 11.31000000 2685291256 2685291256 13.00000000
-4.56265593 7.00177097 2.23930240 42 15 32691 8.65200000 2685291261 2685291261 15.00000000
-1.16926599 1.79982388 -0.57509589 4 0 32699 2.22200000 2685291282 2685291282 -15.00000000
-1.36348093 2.10037899 -0.57812423 4 2 32701 2.57000000 2685291286 2685291286 -13.00000000
-1.61265349 2.48516726 -0.57586157 4 4 32702 3.01800000 2685291291 2685291291 -11.00000000
-1.99573720 3.07786798 -0.58099759 1 6 32704 3.71400000 2685291296 2685291296 -9.00000000
-2.54418063 3.92669082 -0.57449210 31 8 32706 4.71400000 2685291300 2685291300 -7.00000000
-3.64893270 5.63392067 -0.58725542 4 10 32707 6.73800000 2685291305 2685291305 -5.00000000
-6.10398436 9.43171310 -0.58877951 8 12 32709 11.25000000 2685291309 2685291309 -3.00000000
-5.98373365 9.24944401 2.54329658 59 13 32710 11.30600000 2685291312 2685291312 13.00000000
-4.54028559 7.02089930 2.24033761 45 15 32711 8.65600000 2685291316 2685291316 15.00000000
-1.15910280 1.79719746 -0.57302535 4 0 32718 2.21400000 2685291337 2685291337 -15.00000000
-1.35545266 2.10325098 -0.57767433 3 2 32720 2.56800000 2685291342 2685291342 -13.00000000
-1.60652995 2.49380231 -0.57662481 4 4 32721 3.02200000 2685291346 2685291346 -11.00000000
-1.99728096 3.10274005 -0.58443916 2 6 32723 3.73600000 2685291351 2685291351 -9.00000000
-2.53973627 3.94846225 -0.57644200 29 8 32725 4.73000000 2685291355 2685291355 -7.00000000
-3.62807488 5.64263868 -0.58690679 4 10 32726 6.73400000 2685291360 2685291360 -5.00000000
-6.08778811 9.47542763 -0.59024489 8 12 32728 11.27800000 2685291365 2685291365 -3.00000000
-5.95724058 9.27579498 2.54509616 62 13 32729 11.31400000 2685291367 2685291367 13.00000000
-4.51489115 7.03266573 2.23930240 42 15 32730 8.65200000 2685291372 2685291372 15.00000000
-1.15073955 1.79797828 -0.57199007 4 0 32738 2.21000000 2685291392 2685291392 -15.00000000
-1.34600294 2.10468602 -0.57677448 3 2 32740 2.56400000 2685291397 2685291397 -13.00000000
-1.59993005 2.50270319 -0.57738805 4 4 32741 3.02600000 2685291402 2685291402 -11.00000000
-1.96197987 3.07140446 -0.57724315 1 6 32743 3.69000000 2685291406 2685291406 -9.00000000
-2.53234649 3.96734333 -0.57790440 25 8 32745 4.74200000 2685291411 2685291411 -7.00000000
-3.60514116 5.65022945 -0.58638382 4 10 32746 6.72800000 2685291415 2685291415 -5.00000000
-6.06756020 9.51682949 -0.59150100 8 12 32748 11.30200000 2685291420 2685291420 -3.00000000
-5.93320465 9.30967999 2.54869556 66 13 32749 11.33000000 2685291422 2685291422 13.00000000
-4.48182106 7.03775978 2.23567891 45 15 32751 8.63800000 2685291427 2685291427 15.00000000
-1.14652789 1.80524564 -0.57302535 4 0 32758 2.21400000 2685291448 2685291448 -15.00000000
-1.33655953 2.10608101 -0.57587469 3 2 32760 2.56000000 2685291452 2685291452 -13.00000000
-1.58908093 2.50495696 -0.57662481 4 4 32761 3.02200000 2685291457 2685291457 -11.00000000
-1.96816814 3.10492897 -0.58224910 2 6 32763 3.72200000 2685291461 2685291461 -9.00000000
-2.52804208 3.99125147 -0.58009809 27 8 32765 4.76000000 2685291466 2685291466 -7.00000000
-3.61310744 5.70654631 -0.59091592 4 10 32766 6.78000000 2685291471 2685291471 -5.00000000
-6.04391384 9.55314159 -0.59244305 8 12 32768 11.32000000 2685291475 2685291475 -3.00000000
-5.90275478 9.33362770 2.54959536 56 13 32769 11.33400000 2685291478 2685291478 13.00000000
-4.45639372 7.04931784 2.23464370 45 15 32770 8.63400000 2685291482 2685291482 15.00000000
-1.14433944 1.81577420 -0.57509589 4 0 32778 2.22200000 2685291503 2685291503 -15.00000000
-1.32919991 2.11073351 -0.57587469 3 2 32780 2.56000000 2685291507 2685291507 -13.00000000
-1.58451080 2.51713467 -0.57815129 4 4 32781 3.03000000 2685291512 2685291512 -11.00000000
-1.94995558 3.10007548 -0.58005899 1 6 32783 3.70800000 2685291517 2685291517 -9.00000000
-2.51303840 3.99837112 -0.57985431 23 8 32785 4.75800000 2685291521 2685291521 -7.00000000
-3.59952545 5.72924614 -0.59196180 4 10 32786 6.79200000 2685291526 2685291526 -5.00000000
-6.01159239 9.57587242 -0.59254771 8 12 32788 11.32200000 2685291531 2685291531 -3.00000000
-5.86392355 9.34427166 2.54689574 60 13 32789 11.32200000 2685291533 2685291533 13.00000000
-4.43791914 7.07464933 2.23774958 45 15 32790 8.64600000 2685291537 2685291537 15.00000000
-1.13799417 1.81975758 -0.57509589 4 0 32798 2.22200000 2685291558 2685291558 -15.00000000
-1.32801998 2.12527633 -0.57857412 3 2 32800 2.57200000 2685291563 2685291563 -13.00000000
-1.57779479 2.52598047 -0.57891446 2 4 32801 3.03400000 2685291567 2685291567 -11.00000000
-1.95585704 3.13367558 -0.58506489 2 6 32803 3.74000000 2685291572 2685291572 -9.00000000
-2.49906611 4.00711870 -0.57985431 23 8 32805 4.75800000 2685291577 2685291577 -7.00000000
-3.58161283 5.74515724 -0.59231043 8 10 32806 6.79600000 2685291581 2685291581 -5.00000000
-6.01403427 9.65443707 -0.59610653 4 12 32808 11.39000000 2685291586 2685291586 -3.00000000
-5.82714987 9.35806656 2.54509616 60 13 32809 11.31400000 2685291588 2685291588 13.00000000
-4.41195965 7.09086800 2.23774958 45 15 32811 8.64600000 2685291593 2685291593 15.00000000
-1.12756085 1.81715286 -0.57302535 4 0 32818 2.21400000 2685291613 2685291613 -15.00000000
-1.32880843 2.14314866 -0.58217335 3 2 32820 2.58800000 2685291618 2685291618 -13.00000000
-1.56276238 2.52146029 -0.57662481 4 4 32821 3.02200000 2685291623 2685291623 -11.00000000
-1.93346596 3.12201023 -0.58162332 2 6 32823 3.71800000 2685291627 2685291627 -9.00000000
-2.49133086 4.02594614 -0.58131677 23 8 32825 4.77000000 2685291632 2685291632 -7.00000000
-3.56363297 5.76101351 -0.59265906 4 10 32826 6.80000000 2685291637 2685291637 -5.00000000
-5.99079847 9.69235992 -0.59715325 4 12 32828 11.41000000 2685291641 2685291641 -3.00000000
-5.79854584 9.38498116 2.54689574 59 13 32829 11.32200000 2685291643 2685291643 13.00000000
-4.38312149 7.09964991 2.23567891 45 15 32831 8.63800000 2685291648 2685291648 15.00000000
-1.11779284 1.81410742 -0.57095480 4 0 32836 2.20600000 2685291669 2685291669 -15.00000000
-1.31798232 2.14067483 -0.58037370 3 2 32838 2.58000000 2685291673 2685291673 -13.00000000
-1.55483329 2.52635741 -0.57662481 2 4 32839 3.02200000 2685291678 2685291678 -11.00000000
-1.92261362 3.12638617 -0.58131045 2 6 32841 3.71600000 2685291683 2685291683 -9.00000000
-2.48386717 4.04220915 -0.58253545 21 8 32843 4.78000000 2685291687 2685291687 -7.00000000
-3.55385900 5.78576183 -0.59405357 4 10 32844 6.81600000 2685291692 2685291692 -5.00000000
-5.96240902 9.71453762 -0.59736258 4 12 32846 11.41400000 2685291696 2685291696 -3.00000000
-5.77107143 9.40647411 2.54779553 59 13 32847 11.32600000 2685291699 2685291699 13.00000000
-4.36079597 7.11338472 2.23567891 45 15 32849 8.63800000 2685291703 2685291703 15.00000000
-1.12153029 1.83448052 -0.57613117 4 0 32856 2.22600000 2685291724 2685291724 -15.00000000
-1.30847013 2.14193654 -0.57947391 3 2 32858 2.57600000 2685291729 2685291729 -13.00000000
-1.54805148 2.53512049 -0.57738805 4 4 32859 3.02600000 2685291733 2685291733 -11.00000000
-1.91991985 3.14656854 -0.58381343 2 6 32861 3.73200000 2685291738 2685291738 -9.00000000
-3.52119875 5.77771616 -0.59196180 4 10 32864 6.79200000 2685291747 2685291747 -5.00000000
-5.92950153 9.73699665 -0.59746730 4 12 32866 11.41600000 2685291752 2685291752 -3.00000000
-5.73820162 9.42656136 2.54779553 62 13 32867 11.32600000 2685291754 2685291754 13.00000000
-4.33192301 7.12196159 2.23360825 45 15 32869 8.63000000 2685291759 2685291759 15.00000000
-1.11479902 1.83857882 -0.57613117 4 0 32877 2.22600000 2685291779 2685291779 -15.00000000
-1.30061066 2.14671779 -0.57947391 3 2 32879 2.57600000 2685291784 2685291784 -13.00000000
-1.54078341 2.54413581 -0.57815129 2 4 32880 3.03000000 2685291789 2685291789 -11.00000000
-1.89303362 3.12823391 -0.57912040 1 6 32882 3.70200000 2685291793 2685291793 -9.00000000
-2.47131276 4.08705902 -0.58643526 2 8 32884 4.81200000 2685291798 2685291798 -7.00000000
-3.51236629 5.81104469 -0.59405357 4 10 32885 6.81600000 2685291802 2685291802 -5.00000000
-5.90719652 9.78088951 -0.59882802 4 12 32887 11.44200000 2685291807 2685291807 -3.00000000
-5.70361280 9.44752979 2.54779553 59 13 32888 11.32600000 2685291809 2685291809 13.00000000
-4.30504036 7.13373137 2.23257303 45 15 32889 8.62600000 2685291814 2685291814 15.00000000
-1.11235785 1.84908056 -0.57820177 4 0 32897 2.23400000 2685291835 2685291835 -15.00000000
-1.29110146 2.14790440 -0.57857412 3 2 32899 2.57200000 2685291839 2685291839 -13.00000000
-1.52987111 2.54613304 -0.57738805 4 4 32900 3.02600000 2685291844 2685291844 -11.00000000
-1.89227057 3.15175867 -0.58224910 2 6 32902 3.72200000 2685291848 2685291848 -9.00000000
-2.44273424 4.07182884 -0.58302295 2 8 32904 4.78400000 2685291853 2685291853 -7.00000000
-3.50025797 5.83693933 -0.59544802 4 10 32905 6.83200000 2685291858 2685291858 -5.00000000
-5.89663029 9.84085464 -0.60123545 8 12 32907 11.48800000 2685291862 2685291862 -3.00000000
-5.66258955 9.45400715 2.54419637 57 13 32908 11.31000000 2685291865 2685291865 13.00000000
-4.28084898 7.15277767 2.23360825 45 15 32910 8.63000000 2685291869 2685291869 15.00000000
-1.10027778 1.84280694 -0.57509589 4 0 32916 2.22200000 2685291890 2685291890 -15.00000000
-1.28596842 2.15552115 -0.57947391 3 2 32918 2.57600000 2685291895 2685291895 -13.00000000
-1.51940823 2.54781985 -0.57662481 4 4 32919 3.02200000 2685291899 2685291899 -11.00000000
-1.88787568 3.16819787 -0.58412629 2 6 32921 3.73400000 2685291904 2685291904 -9.00000000
-2.45359159 4.12084246 -0.58887267 2 8 32923 4.83200000 2685291908 2685291908 -7.00000000
-3.47273064 5.83481789 -0.59405357 4 10 32924 6.81600000 2685291913 2685291913 -5.00000000
-5.87213135 9.87408733 -0.60207283 8 12 32926 11.50400000 2685291918 2685291918 -3.00000000
-5.62523270 9.46268177 2.54149699 59 13 32927 11.29800000 2685291920 2685291920 13.00000000
-4.25440931 7.15954781 2.23153782 45 15 32928 8.62200000 2685291925 2685291925 15.00000000
-1.08990037 1.83998787 -0.57302535 4 0 32936 2.21400000 2685291945 2685291945 -15.00000000
-1.28439188 2.17005897 -0.58217335 3 2 32938 2.58800000 2685291950 2685291950 -13.00000000
-1.51450419 2.55986691 -0.57815129 4 4 32939 3.03000000 2685291954 2685291954 -11.00000000
-1.87479460 3.17136765 -0.58350056 2 6 32941 3.73000000 2685291959 2685291959 -9.00000000
-2.42303848 4.10203505 -0.58497286 2 8 32943 4.80000000 2685291964 2685291964 -7.00000000
-3.44829011 5.84004164 -0.59335631 8 10 32944 6.80800000 2685291968 2685291968 -5.00000000
-5.85894108 9.93064880 -0.60427094 4 12 32946 11.54600000 2685291973 2685291973 -3.00000000
-5.59810734 9.49233150 2.54419637 60 13 32947 11.31000000 2685291975 2685291975 13.00000000
-4.21931267 7.16011333 2.22687912 47 15 32949 8.60400000 2685291980 2685291980 15.00000000
-1.09162498 1.85691512 -0.57716650 4 0 32955 2.23000000 2685292001 2685292001 -15.00000000
-1.26929259 2.16086388 -0.57857412 3 2 32957 2.57200000 2685292005 2685292005 -13.00000000
-1.50998330 2.57164693 -0.57967770 4 4 32958 3.03800000 2685292010 2685292010 -11.00000000
-1.86126876 3.17245579 -0.58256197 2 6 32960 3.72400000 2685292014 2685292014 -9.00000000
-2.41745377 4.12374783 -0.58692276 2 8 32962 4.81600000 2685292019 2685292019 -7.00000000
-3.43998551 5.87035322 -0.59527373 8 10 32963 6.83000000 2685292024 2685292024 -5.00000000
-5.83304214 9.96208763 -0.60500365 4 12 32965 11.56000000 2685292028 2685292028 -3.00000000
-5.57250500 9.52093410 2.54689574 62 13 32966 11.32200000 2685292031 2685292031 13.00000000
-4.19777346 7.17500114 2.22739673 45 15 32967 8.60600000 2685292035 2685292035 15.00000000
-1.08902931 1.86738944 -0.57923704 4 0 32975 2.23800000 2685292056 2685292056 -15.00000000
-1.26174200 2.16528130 -0.57857412 3 2 32977 2.57200000 2685292060 2685292060 -13.00000000
-1.50593805 2.58538437 -0.58158582 4 4 32978 3.04800000 2685292065 2685292065 -11.00000000
-1.86111367 3.19771361 -0.58600348 2 6 32980 3.74600000 2685292070 2685292070 -9.00000000
-2.40703630 4.13902521 -0.58789772 2 8 32982 4.82400000 2685292074 2685292074 -7.00000000
-3.42047453 5.88404799 -0.59544802 4 10 32983 6.83200000 2685292079 2685292079 -5.00000000
-5.80324793 9.99102306 -0.60552704 4 12 32985 11.57000000 2685292083 2685292083 -3.00000000
-5.52945185 9.52347565 2.54239678 59 13 32986 11.30200000 2685292086 2685292086 13.00000000
-4.16950846 7.18699646 2.22636151 45 15 32988 8.60200000 2685292090 2685292090 15.00000000
-1.08443904 1.87452388 -0.58027232 4 0 32995 2.24200000 2685292111 2685292111 -15.00000000
-1.25222564 2.16629815 -0.57767433 3 2 32997 2.56800000 2685292116 2685292116 -13.00000000
-1.49101090 2.58042598 -0.57929611 2 4 32998 3.03600000 2685292120 2685292120 -11.00000000
-1.84895253 3.20247984 -0.58569062 2 6 33000 3.74400000 2685292125 2685292125 -9.00000000
-2.39058995 4.14396286 -0.58741021 2 8 33002 4.82000000 2685292130 2685292130 -7.00000000
-3.42380142 5.93737555 -0.59963149 4 10 33003 6.88000000 2685292134 2685292134 -5.00000000
-5.78030300 10.03198624 -0.60678309 4 12 33005 11.59400000 2685292139 2685292139 -3.00000000
-4.79979181 8.33362579 2.22026682 45 13 33006 9.87000000 2685292141 2685292141 13.00000000
-4.14758062 7.20413208 2.22739673 45 15 33007 8.60600000 2685292146 2685292146 15.00000000
-1.06827378 1.86154234 -0.57509589 4 0 33015 2.22200000 2685292166 2685292166 -15.00000000
-1.25047231 2.18079925 -0.58037370 3 2 33017 2.58000000 2685292171 2685292171 -13.00000000
-1.48589957 2.59242821 -0.58082259 4 4 33018 3.04400000 2685292176 2685292176 -11.00000000
-1.84463453 3.22091341 -0.58788073 2 6 33020 3.75800000 2685292180 2685292180 -9.00000000
-2.38596964 4.16951180 -0.58984762 2 8 33022 4.84000000 2685292185 2685292185 -7.00000000
-3.38327003 5.91470146 -0.59614527 4 10 33023 6.84000000 2685292189 2685292189 -5.00000000
-5.75615168 10.07117653 -0.60793447 4 12 33025 11.61600000 2685292194 2685292194 -3.00000000
-4.77453995 8.35709763 2.22206640 60 13 33026 9.87800000 2685292196 2685292196 13.00000000
-4.11540174 7.20921898 2.22429085 45 15 33028 8.59400000 2685292201 2685292201 15.00000000
-1.06111813 1.86563051 -0.57509589 4 0 33037 2.22200000 2685292222 2685292222 -15.00000000
-1.24497807 2.19066739 -0.58172345 4 2 33039 2.58600000 2685292226 2685292226 -13.00000000
-1.47787392 2.60152864 -0.58158582 4 4 33040 3.04800000 2685292231 2685292231 -11.00000000
-1.82055211 3.20735765 -0.58412629 2 6 33042 3.73400000 2685292236 2685292236 -9.00000000
-2.38561130 4.20626974 -0.59374744 2 8 33044 4.87200000 2685292240 2685292240 -7.00000000
-3.36643004 5.93804836 -0.59719115 4 10 33045 6.85200000 2685292245 2685292245 -5.00000000
-5.72039175 10.09841728 -0.60824847 4 12 33047 11.62200000 2685292249 2685292249 -3.00000000
-4.74433613 8.37876034 2.22296643 56 13 33048 9.88200000 2685292252 2685292252 13.00000000
-4.08228970 7.21248531 2.22066736 45 15 33049 8.58000000 2685292256 2685292256 15.00000000
-1.05649781 1.87268817 -0.57613117 4 0 33057 2.22600000 2685292277 2685292277 -15.00000000
-1.23828053 2.19669747 -0.58217335 3 2 33059 2.58800000 2685292282 2685292282 -13.00000000
-1.46685636 2.60325050 -0.58082259 2 4 33060 3.04400000 2685292286 2685292286 -11.00000000
-1.81515992 3.22402072 -0.58600348 2 6 33062 3.74600000 2685292291 2685292291 -9.00000000
-2.37675381 4.22495222 -0.59520990 2 8 33064 4.88400000 2685292295 2685292295 -7.00000000
-3.35349441 5.96365643 -0.59858567 4 10 33065 6.86800000 2685292300 2685292300 -5.00000000
-5.70271683 10.14966583 -0.61013258 4 12 33067 11.65800000 2685292305 2685292305 -3.00000000
-4.71505976 8.39526939 2.22296643 56 13 33068 9.88200000 2685292307 2685292307 13.00000000
-4.05110025 7.21897554 2.21807933 40 15 33070 8.57000000 2685292312 2685292312 15.00000000
-1.05438519 1.88274014 -0.57820177 4 0 33075 2.23400000 2685292332 2685292332 -15.00000000
-1.22185731 2.18357062 -0.57767433 3 2 33077 2.56800000 2685292337 2685292337 -13.00000000
-1.46442103 2.61812663 -0.58311230 2 4 33078 3.05600000 2685292342 2685292342 -11.00000000
-1.80116761 3.22281003 -0.58475202 2 6 33080 3.73800000 2685292346 2685292346 -9.00000000
-2.34798360 4.20466757 -0.59131008 2 8 33082 4.85200000 2685292351 2685292351 -7.00000000
-3.34251118 5.98807955 -0.59998012 4 10 33083 6.88400000 2685292355 2685292355 -5.00000000
-5.67177582 10.16927624 -0.61023724 8 12 33085 11.66000000 2685292360 2685292360 -3.00000000
-4.68296862 8.39982891 2.22026682 56 13 33086 9.87000000 2685292362 2685292362 13.00000000
-3.99580860 7.17021370 2.19944429 20 15 33087 8.49800000 2685292367 2685292367 15.00000000
-1.04968286 1.88978684 -0.57923704 4 0 33095 2.23800000 2685292388 2685292388 -15.00000000
-1.22179306 2.20145369 -0.58127350 3 2 33097 2.58400000 2685292392 2685292392 -13.00000000
-1.45336843 2.61978889 -0.58234906 2 4 33098 3.05200000 2685292397 2685292397 -11.00000000
-1.80139911 3.24980998 -0.58850646 2 6 33100 3.76200000 2685292401 2685292401 -9.00000000
-2.34483361 4.23367643 -0.59423494 2 8 33102 4.87600000 2685292406 2685292406 -7.00000000
-3.33316875 6.02062798 -0.60207188 4 10 33103 6.90800000 2685292411 2685292411 -5.00000000
-5.62947607 10.17677784 -0.60950452 4 12 33105 11.64600000 2685292415 2685292415 -3.00000000
-4.64984703 8.40930271 2.21846724 56 13 33106 9.86200000 2685292418 2685292418 13.00000000
-3.92496419 7.10126972 2.17407990 15 15 33107 8.40000000 2685292422 2685292422 15.00000000
-1.04088569 1.89023697 -0.57820177 4 0 33116 2.23400000 2685292443 2685292443 -15.00000000
-1.21371615 2.20591712 -0.58127350 3 2 33118 2.58400000 2685292448 2685292448 -13.00000000
-1.43807995 2.61477661 -0.58005935 2 4 33119 3.04000000 2685292452 2685292452 -11.00000000
-1.79328120 3.26331544 -0.58975792 2 6 33121 3.77000000 2685292457 2685292457 -9.00000000
-2.31210327 4.21092129 -0.58984762 2 8 33123 4.84000000 2685292461 2685292461 -7.00000000
-3.31107974 6.03280401 -0.60207188 4 10 33124 6.90800000 2685292466 2685292466 -5.00000000
-5.63247347 10.27089405 -0.61390078 4 12 33126 11.73000000 2685292471 2685292471 -3.00000000
-4.61899424 8.42628860 2.21846724 57 13 33127 9.86200000 2685292473 2685292473 13.00000000
-3.87570262 7.07325315 2.16113901 15 15 33128 8.35000000 2685292477 2685292477 15.00000000
-1.03057742 1.88707685 -0.57613117 4 0 33136 2.22600000 2685292498 2685292498 -15.00000000
-1.20787549 2.21356153 -0.58217335 3 2 33138 2.58800000 2685292503 2685292503 -13.00000000
-1.43646467 2.63356900 -0.58311230 2 4 33139 3.05600000 2685292507 2685292507 -11.00000000
-1.76864517 3.24527216 -0.58537775 2 6 33141 3.74200000 2685292512 2685292512 -9.00000000
-2.31447840 4.25034714 -0.59423494 2 8 33143 4.87600000 2685292517 2685292517 -7.00000000
-3.29000115 6.04432535 -0.60207188 4 10 33144 6.90800000 2685292521 2685292521 -5.00000000
-5.59944963 10.29575634 -0.61421478 4 12 33146 11.73600000 2685292526 2685292526 -3.00000000
-4.59327602 8.44920921 2.22026682 56 13 33147 9.87000000 2685292528 2685292528 13.00000000
-3.83407617 7.05855179 2.15233922 15 15 33149 8.31600000 2685292533 2685292533 15.00000000
-1.02398396 1.89066279 -0.57613117 4 0 33156 2.22600000 2685292554 2685292554 -15.00000000
-1.19921398 2.21605039 -0.58172345 4 2 33158 2.58600000 2685292558 2685292558 -13.00000000
-1.42352676 2.63165975 -0.58158582 2 4 33159 3.04800000 2685292563 2685292563 -11.00000000
-1.75730622 3.25142622 -0.58537775 2 6 33161 3.74200000 2685292567 2685292567 -9.00000000
-2.30717373 4.27237368 -0.59618485 2 8 33163 4.89200000 2685292572 2685292572 -7.00000000
-3.28023911 6.07681179 -0.60416359 4 10 33164 6.93200000 2685292577 2685292577 -5.00000000
-5.55589199 10.30117607 -0.61337739 4 12 33166 11.72000000 2685292581 2685292581 -3.00000000
-4.56745386 8.47205257 2.22206640 55 13 33167 9.87800000 2685292583 2685292583 13.00000000
-3.80881524 7.06782579 2.15130401 18 15 33168 8.31200000 2685292588 2685292588 15.00000000
-1.02103448 1.90103328 -0.57820177 4 0 33176 2.23400000 2685292609 2685292609 -15.00000000
-1.18594229 2.20992041 -0.57902402 4 2 33178 2.57400000 2685292613 2685292613 -13.00000000
-1.41433191 2.63661289 -0.58158582 2 4 33179 3.04800000 2685292618 2685292618 -11.00000000
-1.75714386 3.27843332 -0.58913219 2 6 33181 3.76600000 2685292623 2685292623 -9.00000000
-2.28849769 4.27340126 -0.59520990 2 8 33183 4.88400000 2685292627 2685292627 -7.00000000
-3.25712657 6.08471155 -0.60381496 4 10 33184 6.92800000 2685292632 2685292632 -5.00000000
-5.53873968 10.35573101 -0.61547083 4 12 33186 11.76000000 2685292636 2685292636 -3.00000000
-4.53417778 8.48106956 2.22026682 60 13 33187 9.87000000 2685292639 2685292639 13.00000000
-3.77865744 7.07085514 2.14819813 20 15 33188 8.30000000 2685292643 2685292643 15.00000000
-1.01835859 1.91122842 -0.58027232 4 0 33195 2.24200000 2685292664 2685292664 -15.00000000
-1.18227053 2.22072148 -0.58082360 4 2 33197 2.58200000 2685292669 2685292669 -13.00000000
-1.40927005 2.64822102 -0.58311230 2 4 33198 3.05600000 2685292673 2685292673 -11.00000000
-1.74348032 3.27900958 -0.58819360 2 6 33200 3.76000000 2685292678 2685292678 -9.00000000
-2.25941277 4.25291777 -0.59131008 2 8 33202 4.85200000 2685292682 2685292682 -7.00000000
-3.23880005 6.09899855 -0.60416359 4 10 33203 6.93200000 2685292687 2685292687 -5.00000000
-5.50436831 10.37404060 -0.61547083 4 12 33205 11.76000000 2685292692 2685292692 -3.00000000
-4.50055027 8.48572922 2.21756744 55 13 33206 9.85800000 2685292694 2685292694 13.00000000
-3.75156951 7.07651949 2.14612746 18 15 33207 8.29200000 2685292699 2685292699 15.00000000
-1.00626600 1.90452290 -0.57716650 4 0 33215 2.23000000 2685292719 2685292719 -15.00000000
-1.17906034 2.23345160 -0.58307314 3 2 33217 2.59200000 2685292724 2685292724 -13.00000000
-1.39451993 2.64270616 -0.58082259 2 4 33218 3.04400000 2685292729 2685292729 -11.00000000
-1.74031544 3.30080199 -0.59100944 2 6 33220 3.77800000 2685292733 2685292733 -9.00000000
-2.25195503 4.27482939 -0.59325999 2 8 33222 4.86800000 2685292738 2685292738 -7.00000000
-3.22491717 6.12437057 -0.60555810 4 10 33223 6.94800000 2685292742 2685292742 -5.00000000
-5.47370243 10.40379715 -0.61609888 4 12 33225 11.77200000 2685292747 2685292747 -3.00000000
-4.47453022 8.50828648 2.21936703 59 13 33226 9.86600000 2685292749 2685292749 13.00000000
-3.71482420 7.06970024 2.13991594 20 15 33228 8.26800000 2685292754 2685292754 15.00000000
-0.99423277 1.89775646 -0.57406062 4 0 33235 2.21800000 2685292775 2685292775 -15.00000000
-1.17487204 2.24445987 -0.58487272 3 2 33237 2.60000000 2685292779 2685292779 -13.00000000
-1.38710701 2.65103674 -0.58158582 2 4 33238 3.04800000 2685292784 2685292784 -11.00000000
-1.72512221 3.29985428 -0.58975792 2 6 33240 3.77000000 2685292788 2685292788 -9.00000000
-2.24437213 4.29674006 -0.59520990 2 8 33242 4.88400000 2685292793 2685292793 -7.00000000
-3.18507671 6.10026741 -0.60207188 4 10 33243 6.90800000 2685292798 2685292798 -5.00000000
-5.45213318 10.45117283 -0.61777365 4 12 33245 11.80400000 2685292802 2685292802 -3.00000000
-4.44119930 8.51694202 2.21756744 56 13 33246 9.85800000 2685292805 2685292805 13.00000000
-3.68332362 7.06656265 2.13525701 20 15 33247 8.25000000 2685292809 2685292809 15.00000000
-0.99383605 1.91321588 -0.57768410 4 0 33255 2.23200000 2685292830 2685292830 -15.00000000
-1.15984845 2.23470998 -0.58127350 3 2 33257 2.58400000 2685292834 2685292834 -13.00000000
-1.38146114 2.66283321 -0.58311230 2 4 33258 3.05600000 2685292839 2685292839 -11.00000000
-1.71359301 3.30585599 -0.58975792 2 6 33260 3.77000000 2685292844 2685292844 -9.00000000
-2.24579263 4.33627701 -0.59959716 2 8 33262 4.92000000 2685292848 2685292848 -7.00000000
-3.18208289 6.14673519 -0.60555810 4 10 33263 6.94800000 2685292853 2685292853 -5.00000000
-5.44681692 10.53045654 -0.62133247 4 12 33265 11.87200000 2685292858 2685292858 -3.00000000
-4.41323280 8.53585529 2.21846724 60 13 33266 9.86200000 2685292860 2685292860 13.00000000
-3.65331268 7.06907940 2.13215137 20 15 33267 8.23800000 2685292864 2685292864 15.00000000
-0.98184437 1.90636861 -0.57457829 4 0 33275 2.22000000 2685292885 2685292885 -15.00000000
-1.15204084 2.23874497 -0.58127350 3 2 33277 2.58400000 2685292890 2685292890 -13.00000000
-1.37574971 2.67462254 -0.58463877 2 4 33278 3.06400000 2685292894 2685292894 -11.00000000
-1.70926654 3.32587290 -0.59226090 2 6 33280 3.78600000 2685292899 2685292899 -9.00000000
-2.20706654 4.29817677 -0.59325999 2 8 33282 4.86800000 2685292904 2685292904 -7.00000000
-3.19335961 6.22161674 -0.61183333 4 10 33283 7.02000000 2685292908 2685292908 -5.00000000
-5.40091181 10.53163338 -0.62028575 4 12 33285 11.85200000 2685292913 2685292913 -3.00000000
-4.37985420 8.54427147 2.21666765 60 13 33286 9.85400000 2685292915 2685292915 13.00000000
-3.62561727 7.07898283 2.13111591 18 15 33288 8.23400000 2685292920 2685292920 15.00000000
-0.98045516 1.92010748 -0.57768410 4 0 33295 2.23200000 2685292940 2685292940 -15.00000000
-1.14244795 2.23928094 -0.58037370 3 2 33297 2.58000000 2685292945 2685292945 -13.00000000
-1.36640513 2.67940855 -0.58463877 2 4 33298 3.06400000 2685292950 2685292950 -11.00000000
-1.69405949 3.32477880 -0.59100944 2 6 33300 3.77800000 2685292954 2685292954 -9.00000000
-2.20285678 4.32708311 -0.59618485 2 8 33302 4.89200000 2685292959 2685292959 -7.00000000
-3.17885160 6.24693108 -0.61322778 4 10 33303 7.03600000 2685292964 2685292964 -5.00000000
-4.99422407 9.81865692 2.14125848 12 11 33304 11.22200000 2685292966 2685292966 11.00000000
-5.36954737 10.56110382 -0.62091380 4 12 33305 11.86400000 2685292968 2685292968 -3.00000000
-4.34558821 8.55082130 2.21441817 54 13 33306 9.84400000 2685292970 2685292970 13.00000000
-3.59301329 7.07609320 2.12645721 18 15 33308 8.21600000 2685292975 2685292975 15.00000000
-0.96884549 1.91300762 -0.57457829 4 0 33314 2.22000000 2685292996 2685292996 -15.00000000
-1.14381444 2.26044512 -0.58487272 3 2 33316 2.60000000 2685293000 2685293000 -13.00000000
-1.35574019 2.68042111 -0.58387554 2 4 33317 3.06000000 2685293005 2685293005 -11.00000000
-1.67589712 3.31627393 -0.58850646 2 6 33319 3.76200000 2685293010 2685293010 -9.00000000
-2.18491673 4.32727623 -0.59520990 2 8 33321 4.88400000 2685293014 2685293014 -7.00000000
-3.12759662 6.19696283 -0.60730124 4 10 33322 6.96800000 2685293019 2685293019 -5.00000000
-4.94925737 9.81062412 2.13591599 12 11 33323 11.19400000 2685293021 2685293021 11.00000000
-5.35427999 10.61808586 -0.62321657 4 12 33324 11.90800000 2685293023 2685293023 -3.00000000
-4.31808567 8.56692505 2.21486807 62 13 33325 9.84600000 2685293026 2685293026 13.00000000
-3.56170797 7.07244015 2.12179852 9 15 33327 8.19800000 2685293030 2685293030 15.00000000
-0.96042830 1.91292500 -0.57354301 4 0 33334 2.21600000 2685293051 2685293051 -15.00000000
-1.13941216 2.27139139 -0.58667237 3 2 33336 2.60800000 2685293056 2685293056 -13.00000000
-1.34461558 2.68162727 -0.58311230 2 4 33337 3.05600000 2685293060 2685293060 -11.00000000
-1.67138934 3.33623290 -0.59100944 2 6 33339 3.77800000 2685293065 2685293065 -9.00000000
-2.18401480 4.36327887 -0.59910971 2 8 33341 4.91600000 2685293070 2685293070 -7.00000000
-3.13090777 6.25773335 -0.61218196 4 10 33342 7.02400000 2685293074 2685293074 -5.00000000
-4.90180922 9.80150223 2.13019156 15 11 33343 11.16400000 2685293076 2685293076 11.00000000
-5.33415127 10.67065430 -0.62520534 4 12 33344 11.94600000 2685293079 2685293079 -3.00000000
-4.28641319 8.57845974 2.21396828 60 13 33345 9.84200000 2685293081 2685293081 13.00000000
-3.53354716 7.07791615 2.11972809 9 15 33347 8.19000000 2685293086 2685293086 15.00000000
-0.96115494 1.93199897 -0.57820177 4 0 33355 2.23400000 2685293106 2685293106 -15.00000000
-1.12067080 2.25461173 -0.58127350 3 2 33357 2.58400000 2685293111 2685293111 -13.00000000
-1.33827209 2.69357038 -0.58463877 2 4 33358 3.06400000 2685293116 2685293116 -11.00000000
-1.65915024 3.34233642 -0.59100944 2 6 33360 3.77800000 2685293120 2685293120 -9.00000000
-2.16271591 4.36058426 -0.59764725 2 8 33362 4.90400000 2685293125 2685293125 -7.00000000
-3.08317232 6.21918488 -0.60730124 4 10 33363 6.96800000 2685293129 2685293129 -5.00000000
-4.85277653 9.79301548 2.12446737 18 11 33364 11.13400000 2685293132 2685293132 11.00000000
-5.28702736 10.67402554 -0.62426329 4 12 33365 11.92800000 2685293134 2685293134 -3.00000000
-4.25667238 8.59760571 2.21486807 57 13 33366 9.84600000 2685293136 2685293136 13.00000000
-3.50710559 7.08674479 2.11869264 4 15 33367 8.18600000 2685293141 2685293141 15.00000000
-0.95525962 1.93707490 -0.57871938 4 0 33375 2.23600000 2685293162 2685293162 -15.00000000
-1.11279392 2.25850987 -0.58127350 3 2 33377 2.58400000 2685293166 2685293166 -13.00000000
-1.33580089 2.71231532 -0.58769172 2 4 33378 3.08000000 2685293171 2685293171 -11.00000000
-1.64049602 3.33392811 -0.58850646 2 6 33380 3.76200000 2685293175 2685293175 -9.00000000
-2.14923310 4.37166977 -0.59813476 2 8 33382 4.90800000 2685293180 2685293180 -7.00000000
-3.07901883 6.26567221 -0.61078745 4 10 33383 7.00800000 2685293185 2685293185 -5.00000000
-4.81077290 9.79403591 2.12103271 21 11 33384 11.11600000 2685293187 2685293187 11.00000000
-5.24973583 10.69241619 -0.62426329 4 12 33385 11.92800000 2685293189 2685293189 -3.00000000
-4.22491789 8.60891247 2.21396828 56 13 33386 9.84200000 2685293192 2685293192 13.00000000
-3.48025727 7.09781647 2.11817503 2 15 33388 8.18400000 2685293196 2685293196 15.00000000
-0.94934052 1.94213307 -0.57923704 4 0 33395 2.23800000 2685293217 2685293217 -15.00000000
-1.11003458 2.27288699 -0.58397293 3 2 33397 2.59600000 2685293222 2685293222 -13.00000000
-1.31598997 2.69579053 -0.58311230 2 4 33398 3.05600000 2685293226 2685293226 -11.00000000
-1.63404417 3.35028696 -0.59038365 2 6 33400 3.77400000 2685293231 2685293231 -9.00000000
-2.13569903 4.38271427 -0.59862220 2 8 33402 4.91200000 2685293235 2685293235 -7.00000000
-3.05712891 6.27638149 -0.61078745 4 10 33403 7.00800000 2685293240 2685293240 -5.00000000
-4.77139950 9.80017757 2.11874318 21 11 33404 11.10400000 2685293242 2685293242 11.00000000
-5.21587610 10.71785927 -0.62468195 4 12 33405 11.93600000 2685293245 2685293245 -3.00000000
-4.19143152 8.61659813 2.21216869 60 13 33406 9.83400000 2685293247 2685293247 13.00000000
-3.92300057 8.06834698 2.40391135 38 15 33407 9.28800000 2685293252 2685293252 15.00000000
-0.94087076 1.94195807 -0.57820177 4 0 33415 2.23400000 2685293272 2685293272 -15.00000000
-1.09869766 2.26973152 -0.58217335 3 2 33417 2.58800000 2685293277 2685293277 -13.00000000
-1.30657184 2.70036769 -0.58311230 2 4 33418 3.05600000 2685293281 2685293281 -11.00000000
-1.62062001 3.35241342 -0.58975792 2 6 33420 3.77000000 2685293286 2685293286 -9.00000000
-2.12211418 4.39371777 -0.59910971 2 8 33422 4.91600000 2685293291 2685293291 -7.00000000
-3.06465268 6.34801865 -0.61671406 4 10 33423 7.07600000 2685293295 2685293295 -5.00000000
-4.73289537 9.80793285 2.11683488 18 11 33424 11.09400000 2685293298 2685293298 11.00000000
-5.19838905 10.77737617 -0.62708944 4 12 33425 11.98200000 2685293300 2685293300 -3.00000000
-4.15963602 8.62766552 2.21126890 57 13 33426 9.83000000 2685293302 2685293302 13.00000000
-3.91520000 8.12792301 2.41736984 40 15 33428 9.34000000 2685293307 2685293307 15.00000000
-0.93107963 1.93810201 -0.57613117 4 0 33434 2.22600000 2685293328 2685293328 -15.00000000
-1.09453797 2.28039002 -0.58397293 3 2 33436 2.59600000 2685293332 2685293332 -13.00000000
-1.30100679 2.71176600 -0.58463877 2 4 33437 3.06400000 2685293337 2685293337 -11.00000000
-1.62486327 3.38983274 -0.59538954 2 6 33439 3.80600000 2685293341 2685293341 -9.00000000
-2.11096215 4.40789223 -0.60008466 2 8 33441 4.92400000 2685293346 2685293346 -7.00000000
-3.04186463 6.35455275 -0.61636543 4 10 33442 7.07200000 2685293351 2685293351 -5.00000000
-4.68509245 9.79169655 2.10996580 21 11 33443 11.05800000 2685293353 2685293353 11.00000000
-4.12932158 8.63789558 2.21036911 56 13 33445 9.82600000 2685293358 2685293358 13.00000000
-3.91546607 8.19421864 2.43341660 45 15 33446 9.40200000 2685293362 2685293362 15.00000000
-0.92596966 1.94482875 -0.57716650 4 0 33454 2.23000000 2685293383 2685293383 -15.00000000
-1.08322275 2.27715755 -0.58217335 3 2 33456 2.58800000 2685293387 2685293387 -13.00000000
-1.29153311 2.71629071 -0.58463877 2 4 33457 3.06400000 2685293392 2685293392 -11.00000000
-1.60708725 3.38299394 -0.59319949 2 6 33459 3.79200000 2685293397 2685293397 -9.00000000
-2.09896755 4.42240715 -0.60105962 2 8 33461 4.93200000 2685293401 2685293401 -7.00000000
-3.01795650 6.36153173 -0.61601681 4 10 33462 7.06800000 2685293406 2685293406 -5.00000000
-4.64247274 9.79025173 2.10614967 21 11 33463 11.03800000 2685293408 2685293408 11.00000000
-5.12918711 10.82153416 -0.62761277 4 12 33464 11.99200000 2685293410 2685293410 -3.00000000
-4.10081339 8.65577984 2.21126890 57 13 33465 9.83000000 2685293413 2685293413 13.00000000
-3.90937519 8.25915146 2.44842815 42 15 33467 9.46000000 2685293417 2685293417 15.00000000
-0.92247277 1.95503771 -0.57923704 4 0 33474 2.23800000 2685293438 2685293438 -15.00000000
-1.08025312 2.29150105 -0.58487272 3 2 33476 2.60000000 2685293443 2685293443 -13.00000000
-1.28539097 2.72788644 -0.58616525 2 4 33477 3.07200000 2685293447 2685293447 -11.00000000
-1.58769619 3.37249827 -0.59038365 2 6 33479 3.77400000 2685293452 2685293452 -9.00000000
-2.09027696 4.44407749 -0.60300952 2 8 33481 4.94800000 2685293457 2685293457 -7.00000000
-3.60437274 7.66662741 -0.74117243 4 10 33482 8.50400000 2685293461 2685293461 -5.00000000
-4.60493040 9.79928970 2.10462332 21 11 33483 11.03000000 2685293463 2685293463 11.00000000
-4.06891775 8.66651344 2.21036911 57 13 33485 9.82600000 2685293468 2685293468 13.00000000
-3.90904880 8.32978249 2.46551013 45 15 33486 9.52600000 2685293473 2685293473 15.00000000
-0.91809762 1.96349585 -0.58078992 4 0 33494 2.24400000 2685293493 2685293493 -15.00000000
-1.07389736 2.29878902 -0.58577257 3 2 33496 2.60400000 2685293498 2685293498 -13.00000000
-1.26755464 2.71456790 -0.58234906 2 4 33497 3.05200000 2685293503 2685293503 -11.00000000
-1.58092511 3.38876057 -0.59226090 2 6 33499 3.78600000 2685293507 2685293507 -9.00000000
-3.57504654 7.67020702 -1.03905797 9 8 33501 8.52600000 2685293512 2685293512 -7.00000000
-2.99534750 6.42940235 -0.62054890 4 10 33502 7.12000000 2685293516 2685293516 -5.00000000
-4.56075096 9.79394722 2.10004377 21 11 33503 11.00600000 2685293519 2685293519 11.00000000
-3.57690358 7.68469667 -0.44422761 17 12 33504 8.48800000 2685293521 2685293521 -3.00000000
-4.03370905 8.67006207 2.20766973 57 13 33505 9.81400000 2685293523 2685293523 13.00000000
-3.90862131 8.40887165 2.48466277 47 15 33507 9.60000000 2685293528 2685293528 15.00000000
-0.90833157 1.95951879 -0.57871938 4 0 33513 2.23600000 2685293549 2685293549 -15.00000000
-1.06135476 2.29172778 -0.58307314 3 2 33515 2.59200000 2685293553 2685293553 -13.00000000
-1.26844263 2.74013591 -0.58692849 2 4 33516 3.07600000 2685293558 2685293558 -11.00000000
-1.57714176 3.41012073 -0.59507668 2 6 33518 3.80400000 2685293563 2685293563 -9.00000000
-3.55628157 7.70002794 -0.74204397 8 10 33521 8.51400000 2685293572 2685293572 -5.00000000
-4.52660227 9.80545235 2.09928060 21 11 33522 11.00200000 2685293574 2685293574 11.00000000
-3.55809498 7.71102428 -0.44506496 17 12 33523 8.50400000 2685293576 2685293576 -3.00000000
-4.00330353 8.67985153 2.20676994 59 13 33524 9.81000000 2685293579 2685293579 13.00000000
-3.55136824 7.70351315 -0.14806622 8 14 33525 8.48400000 2685293581 2685293581 -1.00000000
-3.90644836 8.47374153 2.50019193 47 15 33525 9.66000000 2685293583 2685293583 15.00000000
-0.89906698 1.95741093 -0.57716650 4 0 33533 2.23000000 2685293604 2685293604 -15.00000000
-1.05985081 2.30958772 -0.58667237 3 2 33535 2.60800000 2685293609 2685293609 -13.00000000
-1.26050711 2.74811578 -0.58769172 2 4 33536 3.08000000 2685293613 2685293613 -11.00000000
-1.55453038 3.39225984 -0.59100944 2 6 33538 3.77800000 2685293618 2685293618 -9.00000000
-2.91835189 6.37717390 -0.61357641 4 10 33541 7.04000000 2685293627 2685293627 -5.00000000
-4.47928095 9.79262829 2.09317470 21 11 33542 10.97000000 2685293629 2685293629 11.00000000
-3.53364825 7.72884655 -0.44537899 25 12 33543 8.51000000 2685293632 2685293632 -3.00000000
-3.97460079 8.69731808 2.20766973 57 13 33544 9.81400000 2685293634 2685293634 13.00000000
-3.52777982 7.72313833 -0.14820583 24 14 33545 8.49200000 2685293636 2685293636 -1.00000000
-3.87616682 8.48976040 2.50070953 40 15 33546 9.66200000 2685293639 2685293639 15.00000000
-0.89668608 1.97124386 -0.58027232 4 0 33554 2.24200000 2685293659 2685293659 -15.00000000
-1.04815352 2.30636024 -0.58487272 3 2 33556 2.60000000 2685293664 2685293664 -13.00000000
-1.24880230 2.74914241 -0.58692849 2 4 33557 3.07600000 2685293669 2685293669 -11.00000000
-1.54535210 3.40512991 -0.59226090 2 6 33559 3.78600000 2685293673 2685293673 -9.00000000
-3.48551273 7.68733644 -1.03637695 133 8 33561 8.50400000 2685293678 2685293678 -7.00000000
-2.91305232 6.42775106 -0.61741126 4 10 33562 7.08400000 2685293682 2685293682 -5.00000000
-4.43606806 9.79288483 2.08974004 15 11 33563 10.95200000 2685293685 2685293685 11.00000000
-3.48964453 7.70717669 -0.44339022 38 12 33564 8.47200000 2685293687 2685293687 -3.00000000
-3.94591069 8.71892834 2.20946932 56 13 33565 9.82200000 2685293689 2685293689 13.00000000
-3.49697685 7.73055077 -0.14810112 32 14 33566 8.48600000 2685293692 2685293692 -1.00000000
-3.84810090 8.50675869 2.50174499 40 15 33566 9.66600000 2685293694 2685293694 15.00000000
-0.88979971 1.97436178 -0.58027232 4 0 33574 2.24200000 2685293715 2685293715 -15.00000000
-1.04169655 2.31355882 -0.58577257 3 2 33576 2.60400000 2685293719 2685293719 -13.00000000
-1.24080992 2.75706530 -0.58769172 4 4 33577 3.08000000 2685293724 2685293724 -11.00000000
-1.52697599 3.39609027 -0.58975792 2 6 33579 3.77000000 2685293728 2685293728 -9.00000000
-3.44808316 7.67591619 -1.03320825 100 8 33581 8.47800000 2685293733 2685293733 -7.00000000
-2.91181588 6.48513746 -0.62194335 4 10 33582 7.13600000 2685293738 2685293738 -5.00000000
-4.39542675 9.79398060 2.08668709 15 11 33583 10.93600000 2685293740 2685293740 11.00000000
-3.46599007 7.72660017 -0.44380891 17 12 33584 8.48000000 2685293742 2685293742 -3.00000000
-3.92183018 8.74687481 2.21306849 62 13 33585 9.83800000 2685293745 2685293745 13.00000000
-3.46097493 7.72263718 -0.14771716 18 14 33586 8.46400000 2685293747 2685293747 -1.00000000
-3.82233357 8.52895451 2.50433302 40 15 33586 9.67600000 2685293749 2685293749 15.00000000
-0.88526529 1.98274779 -0.58182520 4 0 33594 2.24800000 2685293770 2685293770 -15.00000000
-4.79349613 10.74113274 0.20531011 6 1 33595 11.76400000 2685293772 2685293772 1.00000000
-1.03202665 2.31362152 -0.58487272 3 2 33596 2.60000000 2685293775 2685293775 -13.00000000
-4.78553772 10.73336506 0.61588955 7 3 33597 11.76800000 2685293777 2685293777 3.00000000
-1.22798049 2.75420737 -0.58616525 2 4 33597 3.07200000 2685293779 2685293779 -11.00000000
-4.78984308 10.74806499 1.02948368 4 5 33598 11.81200000 2685293781 2685293781 5.00000000
-1.51832724 3.40861773 -0.59100944 2 6 33599 3.77800000 2685293784 2685293784 -9.00000000
-3.43654656 7.72586679 -0.73977792 4 10 33602 8.48800000 2685293793 2685293793 -5.00000000
-4.41943693 9.94022179 2.11454535 18 11 33603 11.08200000 2685293795 2685293795 11.00000000
-3.44224238 7.74595213 -0.44422761 17 12 33604 8.48800000 2685293798 2685293798 -3.00000000
-3.90551329 8.79256821 2.22116661 62 13 33605 9.87400000 2685293800 2685293800 13.00000000
-3.43075109 7.72736073 -0.14757755 6 14 33606 8.45600000 2685293802 2685293802 -1.00000000
-3.79410648 8.54577541 2.50536847 40 15 33606 9.68000000 2685293804 2685293804 15.00000000
-0.87677592 1.98229241 -0.58078992 4 0 33614 2.24400000 2685293825 2685293825 -15.00000000
-4.74950504 10.74316883 0.20503087 13 1 33615 11.74800000 2685293828 2685293828 1.00000000
-1.03024554 2.33146977 -0.58847195 3 2 33616 2.61600000 2685293830 2685293830 -13.00000000
-4.74723530 10.74817753 0.61578488 15 3 33617 11.76600000 2685293832 2685293832 3.00000000
-1.21677268 2.75488520 -0.58540201 2 4 33617 3.06800000 2685293834 2685293834 -11.00000000
-4.74264050 10.74284744 1.02739191 12 5 33618 11.78800000 2685293837 2685293837 5.00000000
-1.52236915 3.45004177 -0.59726679 2 6 33619 3.81800000 2685293839 2685293839 -9.00000000
-4.75117397 10.77235317 1.44561410 21 7 33620 11.86200000 2685293841 2685293841 7.00000000
-4.73612595 10.74839497 1.86031866 12 9 33622 11.89200000 2685293846 2685293846 9.00000000
-3.39188290 7.69770432 -0.73594308 4 10 33622 8.44400000 2685293848 2685293848 -5.00000000
-4.50974083 10.23946857 2.17484093 34 11 33623 11.39800000 2685293851 2685293851 11.00000000
-3.40954995 7.74512482 -0.44349489 12 12 33624 8.47400000 2685293853 2685293853 -3.00000000
-3.90305233 8.87036133 2.23736310 68 13 33625 9.94600000 2685293855 2685293855 13.00000000
-4.71437979 10.71931839 -0.20440258 8 14 33626 11.71200000 2685293857 2685293857 -1.00000000
-3.76353669 8.56139278 2.50588608 40 15 33627 9.68200000 2685293860 2685293860 15.00000000
-0.86830056 1.98180187 -0.57975465 4 0 33634 2.24000000 2685293881 2685293881 -15.00000000
-4.69994307 10.73220539 0.20450729 16 1 33635 11.71800000 2685293883 2685293883 1.00000000
-1.02366376 2.33862209 -0.58937174 3 2 33636 2.62000000 2685293885 2685293885 -13.00000000
-4.70408440 10.75187492 0.61505216 18 3 33637 11.75200000 2685293887 2685293887 3.00000000
-1.20400119 2.75192118 -0.58387554 2 4 33637 3.06000000 2685293890 2685293890 -11.00000000
-4.69393587 10.73377991 1.02495158 12 5 33638 11.76000000 2685293892 2685293892 5.00000000
-1.50082302 3.43361449 -0.59351236 2 6 33639 3.79400000 2685293894 2685293894 -9.00000000
-4.70321083 10.76522446 1.44244552 19 7 33640 11.83600000 2685293897 2685293897 7.00000000
-4.68703270 10.73329926 -1.43805826 2 8 33641 11.80000000 2685293899 2685293899 -7.00000000
-4.69541740 10.75761986 1.85906720 18 9 33642 11.88400000 2685293901 2685293901 9.00000000
-2.84374523 6.51527405 -0.62194335 4 10 33642 7.13600000 2685293904 2685293904 -5.00000000
-4.51165295 10.34152222 2.19315863 37 11 33643 11.49400000 2685293906 2685293906 11.00000000
-4.68296146 10.73930550 -0.61400545 8 12 33644 11.73200000 2685293908 2685293908 -3.00000000
-3.90320992 8.95538807 2.25535917 59 13 33645 10.02600000 2685293910 2685293910 13.00000000
-4.67533636 10.73204231 -0.20433277 8 14 33646 11.70800000 2685293913 2685293913 -1.00000000
-3.73203897 8.56674194 2.50381541 38 15 33646 9.67400000 2685293915 2685293915 15.00000000
-0.86137748 1.98482072 -0.57975465 4 0 33654 2.24000000 2685293936 2685293936 -15.00000000
-4.65608549 10.73386955 0.20422806 20 1 33655 11.70200000 2685293938 2685293938 1.00000000
-1.01084316 2.33145356 -0.58667237 3 2 33656 2.60800000 2685293940 2685293940 -13.00000000
-4.66096544 10.75540161 0.61431944 21 3 33657 11.73800000 2685293943 2685293943 3.00000000
-1.20375562 2.77772379 -0.58845496 2 4 33657 3.08400000 2685293945 2685293945 -11.00000000
-4.64852047 10.73181725 1.02320838 12 5 33658 11.74000000 2685293947 2685293947 5.00000000
-1.48882830 3.43883252 -0.59351236 2 6 33659 3.79400000 2685293950 2685293950 -9.00000000
-4.65377903 10.75424862 1.43878949 19 7 33660 11.80600000 2685293952 2685293952 7.00000000
-1.96383870 4.54033709 -0.60739678 2 8 33661 4.98400000 2685293954 2685293954 -7.00000000
-4.64999866 10.75581264 1.85593843 15 9 33662 11.86400000 2685293957 2685293957 9.00000000
-4.63628340 10.72408676 -1.02216256 4 10 33662 11.72800000 2685293959 2685293959 -5.00000000
-4.47085428 10.34639454 2.19086885 46 11 33663 11.48200000 2685293961 2685293961 11.00000000
-4.63673449 10.73541832 -0.61285406 8 12 33664 11.71000000 2685293963 2685293963 -3.00000000
-3.89973140 9.03336811 2.27155566 59 13 33665 10.09800000 2685293966 2685293966 13.00000000
-4.62675476 10.72259235 -0.20384410 8 14 33666 11.68000000 2685293968 2685293968 -1.00000000
-3.70287824 8.58149052 2.50433302 40 15 33666 9.67600000 2685293970 2685293970 15.00000000
-0.85708046 1.99299037 -0.58130759 4 0 33673 2.24600000 2685293991 2685293991 -15.00000000
-4.61335802 10.73271656 0.20391391 16 1 33674 11.68400000 2685293993 2685293993 1.00000000
-1.00156760 2.33121181 -0.58577257 3 2 33675 2.60400000 2685293996 2685293996 -13.00000000
-4.61532736 10.74246502 0.61274940 21 3 33675 11.70800000 2685293998 2685293998 3.00000000
-1.19143903 2.77448440 -0.58692849 2 4 33676 3.07600000 2685294000 2685294000 -11.00000000
-4.61133528 10.74351120 1.02285981 17 5 33677 11.73600000 2685294003 2685294003 5.00000000
-1.47897422 3.44738150 -0.59413809 2 6 33678 3.79800000 2685294005 2685294005 -9.00000000
-4.61105013 10.75320244 1.43659580 19 7 33679 11.78800000 2685294007 2685294007 7.00000000
-1.93938744 4.52493000 -0.60447192 2 8 33680 4.96000000 2685294009 2685294009 -7.00000000
-4.61385107 10.76492119 1.85499990 15 9 33680 11.85800000 2685294012 2685294012 9.00000000
-4.59912634 10.73573971 -1.02181387 4 10 33681 11.72400000 2685294014 2685294014 -5.00000000
-4.43574715 10.35935879 2.19048738 43 11 33682 11.48000000 2685294016 2685294016 11.00000000
-4.58539248 10.71401215 -0.61076063 8 12 33683 11.67000000 2685294019 2685294019 -3.00000000
-3.90041184 9.11791801 2.28955173 60 13 33684 10.17800000 2685294021 2685294021 13.00000000
-4.59038591 10.73603725 -0.20380920 17 14 33685 11.67800000 2685294023 2685294023 -1.00000000
-3.67667913 8.59905148 2.50588608 40 15 33685 9.68200000 2685294026 2685294026 15.00000000
-0.85541743 2.00841141 -0.58493102 4 0 33693 2.26000000 2685294046 2685294046 -15.00000000
-4.56959963 10.73403549 0.20363468 13 1 33694 11.66800000 2685294049 2685294049 1.00000000
-0.99342412 2.33469367 -0.58577257 3 2 33695 2.60400000 2685294051 2685294051 -13.00000000
-4.56732464 10.73909187 0.61159796 18 3 33696 11.68600000 2685294053 2685294053 3.00000000
-1.18021023 2.77501321 -0.58616525 2 4 33696 3.07200000 2685294056 2685294056 -11.00000000
-4.56601048 10.74120712 1.02111673 17 5 33697 11.71600000 2685294058 2685294058 5.00000000
-1.47465634 3.47070384 -0.59726679 2 6 33698 3.81800000 2685294060 2685294060 -9.00000000
-4.56417465 10.74730587 1.43367100 19 7 33699 11.76400000 2685294062 2685294062 7.00000000
-1.91582429 4.51339912 -0.60203457 2 8 33700 4.94000000 2685294065 2685294065 -7.00000000
-4.56356335 10.75629997 1.85061967 12 9 33701 11.83000000 2685294067 2685294067 9.00000000
