# .PCD v0.7 - Point Cloud Data file format
VERSION 0.7
FIELDS x y z intensity laser_id azimuth distance_m adjustedtime timestamp vertical_angle
SIZE 4 4 4 1 1 2 8 8 4 8
TYPE F F F U U U F U U F
COUNT 1 1 1 1 1 1 1 1 1 1
WIDTH 534
HEIGHT 1
VIEWPOINT 0 0 0 1 0 0 0
POINTS 534
DATA ascii
0.98026055 3.94333625 -0.64357138 2 6 1396 4.11400000 2684904389 2684904389 -9.00000000
1.32743573 5.33198214 -0.67466867 2 8 1398 5.53600000 2684904393 2684904393 -7.00000000
1.98349726 7.96129227 -0.71781468 4 10 1399 8.23600000 2684904398 2684904398 -5.00000000
2.39709401 9.61421871 1.92602599 12 11 1400 10.09400000 2684904400 2684904400 11.00000000
2.47995663 9.93179226 2.36333585 59 13 1402 10.50600000 2684904405 2684904405 13.00000000
2.14124417 8.56894493 2.36664128 45 15 1403 9.14400000 2684904410 2684904410 15.00000000
0.55290127 2.19956732 -0.60770714 4 0 1411 2.34800000 2684904430 2684904430 -15.00000000
0.65365565 2.59655738 -0.61816549 3 2 1413 2.74800000 2684904435 2684904435 -13.00000000
0.79135227 3.14122224 -0.62966967 2 4 1414 3.30000000 2684904439 2684904439 -11.00000000
1.00078475 3.96670556 -0.64795154 2 6 1416 4.14200000 2684904444 2684904444 -9.00000000
1.34117687 5.30806971 -0.67223132 2 8 1418 5.51600000 2684904449 2684904449 -7.00000000
2.01127529 7.95431995 -0.71781468 4 10 1419 8.23600000 2684904453 2684904453 -5.00000000
2.43352890 9.61721230 1.92831576 12 11 1420 10.10600000 2684904456 2684904456 11.00000000
2.51173759 9.91174126 2.36063647 57 13 1422 10.49400000 2684904460 2684904460 13.00000000
2.17311168 8.56291199 2.36715889 45 15 1424 9.14600000 2684904465 2684904465 15.00000000
0.56382626 2.20875692 -0.61081296 4 0 1432 2.36000000 2684904486 2684904486 -15.00000000
0.66413343 2.59792018 -0.61906528 3 2 1434 2.75200000 2684904490 2684904490 -13.00000000
0.79945403 3.12498689 -0.62699836 4 4 1435 3.28600000 2684904495 2684904495 -11.00000000
1.01335573 3.95535660 -0.64670008 2 6 1437 4.13400000 2684904499 2684904499 -9.00000000
1.36160958 5.30696440 -0.67271876 2 8 1439 5.52000000 2684904504 2684904504 -7.00000000
2.04041576 7.94689512 -0.71781468 4 10 1440 8.23600000 2684904509 2684904509 -5.00000000
2.47169280 9.61963749 1.93060541 15 11 1441 10.11800000 2684904511 2684904511 11.00000000
2.54610682 9.89491940 2.35883665 59 13 1443 10.48600000 2684904516 2684904516 13.00000000
2.20539737 8.56462860 2.36974716 45 15 1444 9.15600000 2684904520 2684904520 15.00000000
0.56959546 2.19929481 -0.60874242 4 0 1452 2.35200000 2684904541 2684904541 -15.00000000
0.67711174 2.61067677 -0.62266451 3 2 1454 2.76800000 2684904545 2684904545 -13.00000000
0.80887777 3.11647630 -0.62585348 2 4 1455 3.28000000 2684904550 2684904550 -11.00000000
1.02815020 3.95561886 -0.64732581 2 6 1457 4.13800000 2684904555 2684904555 -9.00000000
1.38412642 5.31754780 -0.67466867 2 8 1459 5.53600000 2684904559 2684904559 -7.00000000
2.05709434 7.89730692 -0.71397984 4 10 1460 8.19200000 2684904564 2684904564 -5.00000000
2.50723743 9.61855030 1.93213189 18 11 1461 10.12600000 2684904566 2684904566 11.00000000
2.58063102 9.88597107 2.35883665 62 13 1463 10.48600000 2684904571 2684904571 13.00000000
2.23433042 8.54714203 2.36715889 45 15 1465 9.14600000 2684904575 2684904575 15.00000000
0.57296103 2.18244553 -0.60460126 4 0 1471 2.33600000 2684904596 2684904596 -15.00000000
0.68279237 2.59710884 -0.61996508 3 2 1473 2.75600000 2684904601 2684904601 -13.00000000
0.81920791 3.11377668 -0.62585348 2 4 1474 3.28000000 2684904605 2684904605 -11.00000000
1.03924870 3.94454694 -0.64607435 2 6 1476 4.13000000 2684904610 2684904610 -9.00000000
1.39162409 5.27454042 -0.66979390 2 8 1478 5.49600000 2684904615 2684904615 -7.00000000
2.08632326 7.90200043 -0.71502572 4 10 1479 8.20400000 2684904619 2684904619 -5.00000000
2.54263043 9.62346935 1.93480325 15 11 1480 10.14000000 2684904621 2684904621 11.00000000
2.61339974 9.87735939 2.35883665 60 13 1482 10.48600000 2684904626 2684904626 13.00000000
2.25919318 8.53261089 2.36508846 42 15 1483 9.13800000 2684904631 2684904631 15.00000000
0.58554637 2.19910049 -0.60977769 4 0 1491 2.35600000 2684904651 2684904651 -15.00000000
0.69486624 2.60600734 -0.62266451 3 2 1493 2.76800000 2684904656 2684904656 -13.00000000
0.83108431 3.11469197 -0.62661672 2 4 1494 3.28400000 2684904661 2684904661 -11.00000000
1.05199158 3.93707824 -0.64544863 2 6 1496 4.12600000 2684904665 2684904665 -9.00000000
1.41361904 5.28307390 -0.67150009 2 8 1498 5.51000000 2684904670 2684904670 -7.00000000
2.12935352 7.95240736 -0.72025508 4 10 1499 8.26400000 2684904674 2684904674 -5.00000000
2.57315826 9.60315704 1.93251348 18 11 1500 10.12800000 2684904677 2684904677 11.00000000
2.64887238 9.87194061 2.35973644 59 13 1502 10.49000000 2684904681 2684904681 13.00000000
2.28894782 8.51867580 2.36353540 40 15 1504 9.13200000 2684904686 2684904686 15.00000000
0.59158695 2.18947959 -0.60770714 4 0 1512 2.34800000 2684904707 2684904707 -15.00000000
0.69983232 2.58651304 -0.61861539 3 2 1514 2.75000000 2684904711 2684904711 -13.00000000
0.84454703 3.11920500 -0.62814319 2 4 1515 3.29200000 2684904716 2684904716 -11.00000000
1.06641459 3.93319607 -0.64544863 2 6 1517 4.12600000 2684904721 2684904721 -9.00000000
1.43661392 5.29126740 -0.67320627 2 8 1519 5.52400000 2684904725 2684904725 -7.00000000
2.15744162 7.94070387 -0.71990645 4 10 1520 8.26000000 2684904730 2684904730 -5.00000000
2.61451912 9.61639595 1.93709290 21 11 1521 10.15200000 2684904732 2684904732 11.00000000
2.68298936 9.85464478 2.35793686 57 13 1523 10.48200000 2684904737 2684904737 13.00000000
2.31917739 8.51249790 2.36405325 42 15 1524 9.13400000 2684904741 2684904741 15.00000000
0.60024685 2.19112754 -0.60874242 4 0 1532 2.35200000 2684904762 2684904762 -15.00000000
0.70885670 2.58405447 -0.61861539 3 2 1534 2.75000000 2684904767 2684904767 -13.00000000
0.85335112 3.10866523 -0.62661672 2 4 1535 3.28400000 2684904771 2684904771 -11.00000000
1.08746755 3.95611596 -0.64982879 2 6 1537 4.15400000 2684904776 2684904776 -9.00000000
1.44875324 5.26325321 -0.67028141 2 8 1539 5.50000000 2684904780 2684904780 -7.00000000
2.18514657 7.93312502 -0.71990645 4 10 1540 8.26000000 2684904785 2684904785 -5.00000000
2.65015745 9.61478138 1.93861938 25 11 1541 10.16000000 2684904787 2684904787 11.00000000
2.71426129 9.83394814 2.35523748 56 13 1543 10.47000000 2684904792 2684904792 13.00000000
2.35242009 8.51138878 2.36612368 42 15 1545 9.14200000 2684904797 2684904797 15.00000000
0.60506248 2.18178487 -0.60667187 4 0 1550 2.34400000 2684904817 2684904817 -15.00000000
0.72218555 2.60059166 -0.62311441 3 2 1552 2.77000000 2684904822 2684904822 -13.00000000
0.86416435 3.10975218 -0.62737995 2 4 1553 3.28800000 2684904827 2684904827 -11.00000000
1.09777248 3.94506764 -0.64857727 2 6 1555 4.14600000 2684904831 2684904831 -9.00000000
1.46634674 5.26250076 -0.67076886 2 8 1557 5.50400000 2684904836 2684904836 -7.00000000
2.20470715 7.90702915 -0.71816331 4 10 1558 8.24000000 2684904840 2684904840 -5.00000000
2.68404341 9.61964512 1.94129074 25 11 1559 10.17400000 2684904843 2684904843 11.00000000
2.74933696 9.84038734 2.35883665 62 13 1561 10.48600000 2684904847 2684904847 13.00000000
2.37558293 8.49693012 2.36405325 42 15 1562 9.13400000 2684904852 2684904852 15.00000000
0.61162913 2.17593980 -0.60563654 4 0 1570 2.34000000 2684904873 2684904873 -15.00000000
0.72650707 2.58117223 -0.61906528 3 2 1572 2.75200000 2684904877 2684904877 -13.00000000
0.87607861 3.11049604 -0.62814319 2 4 1573 3.29200000 2684904882 2684904882 -11.00000000
1.10831952 3.92980433 -0.64670008 2 6 1575 4.13400000 2684904886 2684904886 -9.00000000
1.48740494 5.26690197 -0.67198753 2 8 1577 5.51400000 2684904891 2684904891 -7.00000000
2.23229456 7.89928484 -0.71816331 4 10 1578 8.24000000 2684904896 2684904896 -5.00000000
2.71920872 9.61588478 1.94243562 25 11 1579 10.18000000 2684904898 2684904898 11.00000000
2.78260779 9.82698059 2.35793686 57 13 1581 10.48200000 2684904903 2684904903 13.00000000
2.40417504 8.48486805 2.36301780 42 15 1582 9.13000000 2684904907 2684904907 15.00000000
0.62103939 2.17729092 -0.60667187 4 0 1592 2.34400000 2684904928 2684904928 -15.00000000
0.73534232 2.57461596 -0.61816549 3 2 1594 2.74800000 2684904933 2684904933 -13.00000000
0.88909459 3.11088467 -0.62890643 2 4 1595 3.29600000 2684904937 2684904937 -11.00000000
1.11905265 3.91032672 -0.64419711 2 6 1597 4.11800000 2684904942 2684904942 -9.00000000
1.51253879 5.27832651 -0.67418122 2 8 1599 5.53200000 2684904946 2684904946 -7.00000000
2.25931406 7.87916422 -0.71711743 4 10 1600 8.22800000 2684904951 2684904951 -5.00000000
2.75665236 9.60726070 1.94281721 21 11 1601 10.18200000 2684904953 2684904953 11.00000000
3.21508741 11.19758892 -0.61055124 4 12 1602 11.66600000 2684904956 2684904956 -3.00000000
2.81924391 9.81247807 2.35703707 57 13 1603 10.47800000 2684904958 2684904958 13.00000000
3.20800424 11.15823364 -0.20265734 2 14 1604 11.61200000 2684904960 2684904960 -1.00000000
2.43780422 8.47928810 2.36405325 45 15 1604 9.13400000 2684904962 2684904962 15.00000000
0.62970853 2.17882156 -0.60770714 4 0 1612 2.34800000 2684904983 2684904983 -15.00000000
3.22441649 11.14933872 0.20258753 3 1 1613 11.60800000 2684904986 2684904986 1.00000000
0.74757522 2.58326507 -0.62086493 3 2 1614 2.76000000 2684904988 2684904988 -13.00000000
3.23659682 11.17683601 0.60981858 10 3 1615 11.65200000 2684904990 2684904990 3.00000000
0.90213251 3.11530542 -0.63043290 2 4 1615 3.30400000 2684904992 2684904992 -11.00000000
3.24174190 11.18729496 1.01902497 8 5 1616 11.69200000 2684904995 2684904995 5.00000000
1.13709641 3.92157459 -0.64670008 2 6 1617 4.13400000 2684904997 2684904997 -9.00000000
1.52320552 5.24632549 -0.67076886 2 8 1619 5.50400000 2684905002 2684905002 -7.00000000
2.28346848 7.85974979 -0.71607161 4 10 1620 8.21600000 2684905006 2684905006 -5.00000000
2.79126716 9.60134983 1.94358039 21 11 1621 10.18600000 2684905009 2684905009 11.00000000
3.20506072 11.01753521 -0.60134012 4 12 1622 11.49000000 2684905011 2684905011 -3.00000000
2.85130000 9.79509258 2.35523748 56 13 1623 10.47000000 2684905013 2684905013 13.00000000
3.21953154 11.05289268 -0.20094700 6 14 1624 11.51400000 2684905015 2684905015 -1.00000000
2.46886611 8.47029591 2.36405325 42 15 1625 9.13400000 2684905018 2684905018 15.00000000
0.64018548 2.18784595 -0.61081296 4 0 1631 2.36000000 2684905039 2684905039 -15.00000000
3.23215151 11.03879070 0.20077248 6 1 1632 11.50400000 2684905041 2684905041 1.00000000
0.75285000 2.56955099 -0.61816549 3 2 1633 2.74800000 2684905043 2684905043 -13.00000000
3.24273825 11.06062984 0.60406160 31 3 1634 11.54200000 2684905045 2684905045 3.00000000
0.91245830 3.11229658 -0.63043290 2 4 1634 3.30400000 2684905048 2684905048 -11.00000000
3.25807047 11.10574627 1.01257539 17 5 1635 11.61800000 2684905050 2684905050 5.00000000
1.15120733 3.92157292 -0.64732581 2 6 1636 4.13800000 2684905052 2684905052 -9.00000000
3.26342750 11.10964870 1.42172778 31 7 1637 11.66600000 2684905055 2684905055 7.00000000
1.54059458 5.24124527 -0.67076886 2 8 1638 5.50400000 2684905057 2684905057 -7.00000000
3.27918410 11.14889526 1.84060788 21 9 1639 11.76600000 2684905059 2684905059 9.00000000
2.32526135 7.90565443 -0.72095233 4 10 1639 8.27200000 2684905062 2684905062 -5.00000000
2.82863426 9.61087418 1.94739664 21 11 1640 10.20600000 2684905064 2684905064 11.00000000
3.20320988 10.87656498 -0.59422243 4 12 1641 11.35400000 2684905066 2684905066 -3.00000000
2.88156247 9.77810669 2.35343790 55 13 1642 10.46200000 2684905068 2684905068 13.00000000
3.21544313 10.90405655 -0.19843386 6 14 1643 11.37000000 2684905071 2684905071 -1.00000000
2.50202107 8.48473358 2.37026477 42 15 1643 9.15800000 2684905073 2684905073 15.00000000
0.64452457 2.17448473 -0.60770714 4 0 1651 2.34800000 2684905094 2684905094 -15.00000000
3.23199868 10.89707470 0.19839896 6 1 1652 11.36800000 2684905096 2684905096 1.00000000
0.76403260 2.57438016 -0.61996508 3 2 1653 2.75600000 2684905098 2684905098 -13.00000000
3.24493742 10.92670727 0.59736258 31 3 1654 11.41400000 2684905101 2684905101 3.00000000
0.91772759 3.09027243 -0.62661672 2 4 1654 3.28400000 2684905103 2684905103 -11.00000000
3.24460340 10.91859913 0.99653876 8 5 1655 11.43400000 2684905105 2684905105 5.00000000
1.16488922 3.91753054 -0.64732581 2 6 1656 4.13800000 2684905108 2684905108 -9.00000000
3.25802994 10.94978237 1.40271616 29 7 1657 11.51000000 2684905110 2684905110 7.00000000
1.56794381 5.26627684 -0.67466867 2 8 1658 5.53600000 2684905112 2684905112 -7.00000000
3.26337194 10.95374584 1.81025958 25 9 1659 11.57200000 2684905115 2684905115 9.00000000
2.34942985 7.88603306 -0.71990645 4 10 1659 8.26000000 2684905117 2684905117 -5.00000000
2.86777401 9.61975670 1.95121276 15 11 1660 10.22600000 2684905119 2684905119 11.00000000
3.18920231 10.69115067 -0.58469731 4 12 1661 11.17200000 2684905121 2684905121 -3.00000000
2.91679168 9.77172375 2.35433769 55 13 1662 10.46600000 2684905124 2684905124 13.00000000
3.21285319 10.75672626 -0.19595562 6 14 1663 11.22800000 2684905126 2684905126 -1.00000000
2.52719998 8.46113968 2.36612368 42 15 1663 9.14200000 2684905128 2684905128 15.00000000
0.64913350 2.16504741 -0.60563654 4 0 1669 2.34000000 2684905149 2684905149 -15.00000000
3.22024608 10.73363972 0.19560657 6 1 1670 11.20800000 2684905151 2684905151 1.00000000
0.77435774 2.57943296 -0.62176472 3 2 1671 2.76400000 2684905154 2684905154 -13.00000000
3.23312473 10.76973629 0.58930284 26 3 1671 11.26000000 2684905156 2684905156 3.00000000
0.92969072 3.09489512 -0.62814319 2 4 1672 3.29200000 2684905158 2684905158 -11.00000000
3.23988891 10.77860451 0.98468560 20 5 1673 11.29800000 2684905161 2684905161 5.00000000
1.17491484 3.90628505 -0.64607435 2 6 1674 4.13000000 2684905163 2684905163 -9.00000000
3.25408316 10.81213474 1.38638568 27 7 1675 11.37600000 2684905165 2684905165 7.00000000
1.58219087 5.25372171 -0.67369372 2 8 1676 5.52800000 2684905167 2684905167 -7.00000000
3.25883222 10.82106972 1.78992319 31 9 1676 11.44200000 2684905170 2684905170 9.00000000
2.36729455 7.85572100 -0.71781468 4 10 1677 8.23600000 2684905172 2684905172 -5.00000000
2.89798117 9.61069965 1.95121276 12 11 1678 10.22600000 2684905174 2684905174 11.00000000
3.19508076 10.58929729 -0.57967305 8 12 1679 11.07600000 2684905177 2684905177 -3.00000000
2.94972897 9.76997375 2.35613728 57 13 1680 10.47400000 2684905179 2684905179 13.00000000
3.19689584 10.58195496 -0.19295381 6 14 1681 11.05600000 2684905181 2684905181 -1.00000000
2.54929948 8.43836403 2.36198258 42 15 1681 9.12600000 2684905184 2684905184 15.00000000
0.65780950 2.16646528 -0.60667187 4 0 1689 2.34400000 2684905204 2684905204 -15.00000000
3.21758318 10.59031296 0.19319814 10 1 1690 11.07000000 2684905207 2684905207 1.00000000
0.77995592 2.56552744 -0.61906528 3 2 1691 2.75200000 2684905209 2684905209 -13.00000000
3.24525619 10.66800690 0.58438331 18 3 1692 11.16600000 2684905211 2684905211 3.00000000
0.93934548 3.08787441 -0.62737995 2 4 1692 3.28800000 2684905214 2684905214 -11.00000000
3.24326229 10.65477276 0.97440118 16 5 1693 11.18000000 2684905216 2684905216 5.00000000
1.18854320 3.90215993 -0.64607435 2 6 1694 4.13000000 2684905218 2684905218 -9.00000000
3.25303006 10.67348671 1.37005520 21 7 1695 11.24200000 2684905220 2684905220 7.00000000
3.23057222 10.59317017 -1.35981810 4 8 1696 11.15800000 2684905223 2684905223 -7.00000000
3.26387811 10.69569111 1.77115107 25 9 1697 11.32200000 2684905225 2684905225 9.00000000
3.23906970 10.61439323 -0.97091496 9 10 1697 11.14000000 2684905227 2684905227 -5.00000000
2.93208432 9.60240269 1.95159435 12 11 1698 10.22800000 2684905230 2684905230 11.00000000
3.23786092 10.59718037 -0.58071977 21 12 1699 11.09600000 2684905232 2684905232 -3.00000000
2.98381472 9.75961781 2.35613728 59 13 1700 10.47400000 2684905234 2684905234 13.00000000
3.24434400 10.60515118 -0.19358209 23 14 1701 11.09200000 2684905237 2684905237 -1.00000000
2.58134127 8.43265820 2.36301780 40 15 1702 9.13000000 2684905239 2684905239 15.00000000
0.66763872 2.17154217 -0.60874242 4 0 1709 2.35200000 2684905260 2684905260 -15.00000000
3.26217461 10.60386372 0.19365190 30 1 1710 11.09600000 2684905262 2684905262 1.00000000
0.78890657 2.56278920 -0.61906528 3 2 1711 2.75200000 2684905264 2684905264 -13.00000000
3.27062535 10.62473583 0.58260387 10 3 1711 11.13200000 2684905267 2684905267 3.00000000
0.95358604 3.09583426 -0.62966967 2 4 1712 3.30000000 2684905269 2684905269 -11.00000000
3.27339268 10.62053871 0.97230947 12 5 1713 11.15600000 2684905271 2684905271 5.00000000
1.20215702 3.89798737 -0.64607435 2 6 1714 4.13000000 2684905273 2684905273 -9.00000000
3.28207254 10.63551044 1.36664283 10 7 1715 11.21400000 2684905276 2684905276 7.00000000
1.61414444 5.22737408 -0.67174381 2 8 1716 5.51200000 2684905278 2684905278 -7.00000000
3.28836393 10.64271164 1.76426792 12 9 1717 11.27800000 2684905280 2684905280 9.00000000
2.42560863 7.85042477 -0.71886057 4 10 1717 8.24800000 2684905283 2684905283 -5.00000000
2.97718310 9.62962246 1.95922673 12 11 1718 10.26800000 2684905285 2684905285 11.00000000
3.27719331 10.59344578 -0.58113843 8 12 1719 11.10400000 2684905287 2684905287 -3.00000000
3.01555896 9.74169636 2.35433769 56 13 1720 10.46600000 2684905290 2684905290 13.00000000
3.28430152 10.60331249 -0.19375661 8 14 1721 11.10200000 2684905292 2684905292 -1.00000000
2.61043406 8.42774200 2.36405325 42 15 1721 9.13400000 2684905294 2684905294 15.00000000
0.67521477 2.16919851 -0.60874242 3 0 1729 2.35200000 2684905315 2684905315 -15.00000000
3.30571032 10.61341381 0.19403586 10 1 1730 11.11800000 2684905317 2684905317 1.00000000
0.79900724 2.56374073 -0.61996508 3 2 1731 2.75600000 2684905319 2684905319 -13.00000000
3.31006980 10.62088108 0.58302253 10 3 1731 11.14000000 2684905322 2684905322 3.00000000
0.95854193 3.07374454 -0.62585348 2 4 1732 3.28000000 2684905324 2684905324 -11.00000000
3.31578660 10.62616539 0.97387826 12 5 1733 11.17400000 2684905326 2684905326 5.00000000
1.22105491 3.91073775 -0.64889014 2 6 1734 4.14800000 2684905329 2684905329 -9.00000000
3.32332134 10.63725281 1.36834896 10 7 1735 11.22800000 2684905331 2684905331 7.00000000
1.63356614 5.22549725 -0.67223132 2 8 1736 5.51600000 2684905333 2684905333 -7.00000000
3.33080149 10.64813519 1.76708376 12 9 1737 11.29600000 2684905336 2684905336 9.00000000
2.45299697 7.84190989 -0.71886057 4 10 1737 8.24800000 2684905338 2684905338 -5.00000000
3.03482270 9.69599056 1.97487307 12 11 1738 10.35000000 2684905340 2684905340 11.00000000
3.32012081 10.60100174 -0.58218515 12 12 1739 11.12400000 2684905343 2684905343 -3.00000000
3.04604888 9.71995354 2.35163832 55 13 1740 10.45400000 2684905345 2684905345 13.00000000
3.32907200 10.61658859 -0.19421038 12 14 1741 11.12800000 2684905347 2684905347 -1.00000000
2.63868046 8.41489220 2.36301780 40 15 1741 9.13000000 2684905349 2684905349 15.00000000
0.68046016 2.15945816 -0.60667187 4 0 1749 2.34400000 2684905370 2684905370 -15.00000000
3.35115647 10.62851048 0.19452453 13 1 1750 11.14600000 2684905372 2684905372 1.00000000
0.80912411 2.56465292 -0.62086493 3 2 1751 2.76000000 2684905375 2684905375 -13.00000000
3.35739255 10.63534260 0.58448797 13 3 1752 11.16800000 2684905377 2684905377 3.00000000
0.96926546 3.07037973 -0.62585348 2 4 1752 3.28000000 2684905379 2684905379 -11.00000000
3.35165834 10.61072731 0.97352964 12 5 1753 11.17000000 2684905382 2684905382 5.00000000
1.23648453 3.91210246 -0.64982879 2 6 1754 4.15400000 2684905384 2684905384 -9.00000000
3.36522055 10.64072895 1.37029886 12 7 1755 11.24400000 2684905386 2684905386 7.00000000
1.65179658 5.21976328 -0.67223132 2 8 1756 5.51600000 2684905389 2684905389 -7.00000000
3.36430573 10.63138199 1.76614511 12 9 1756 11.29000000 2684905391 2684905391 9.00000000
3.35605812 10.59888744 -0.97265810 4 10 1757 11.16000000 2684905393 2684905393 -5.00000000
3.14988708 9.94174194 2.02715468 34 11 1758 10.62400000 2684905396 2684905396 11.00000000
3.36012268 10.59886742 -0.58270854 12 12 1759 11.13400000 2684905398 2684905398 -3.00000000
3.07995915 9.70926189 2.35163832 57 13 1760 10.45400000 2684905400 2684905400 13.00000000
3.36732054 10.60871506 -0.19428019 12 14 1761 11.13200000 2684905402 2684905402 -1.00000000
2.66716576 8.39779949 2.36094737 42 15 1762 9.12200000 2684905405 2684905405 15.00000000
0.68447179 2.14602661 -0.60356599 4 0 1769 2.33200000 2684905425 2684905425 -15.00000000
3.38702035 10.61293793 0.19445471 13 1 1770 11.14200000 2684905428 2684905428 1.00000000
0.81807148 2.56181288 -0.62086493 3 2 1771 2.76000000 2684905430 2684905430 -13.00000000
3.39324975 10.62605286 0.58459264 13 3 1771 11.17000000 2684905432 2684905432 3.00000000
0.98535508 3.08380866 -0.62928808 2 4 1772 3.29800000 2684905435 2684905435 -11.00000000
3.38988996 10.60275841 0.97387826 12 5 1773 11.17400000 2684905437 2684905437 5.00000000
1.24772513 3.90023661 -0.64857727 2 6 1774 4.14600000 2684905439 2684905439 -9.00000000
3.40476394 10.63647938 1.37127388 12 7 1775 11.25200000 2684905442 2684905442 7.00000000
1.67424548 5.22719908 -0.67393744 4 8 1776 5.53000000 2684905444 2684905444 -7.00000000
3.40988088 10.63967228 1.76958668 12 9 1777 11.31200000 2684905446 2684905446 9.00000000
2.51254821 7.83977222 -0.72025508 4 10 1777 8.26400000 2684905449 2684905449 -5.00000000
3.19835973 9.97368431 2.03593206 40 11 1778 10.67000000 2684905451 2684905451 11.00000000
3.40564227 10.61369801 -0.58417392 12 12 1779 11.16200000 2684905453 2684905453 -3.00000000
3.11383224 9.69845200 2.35163832 60 13 1780 10.45400000 2684905455 2684905455 13.00000000
3.41044760 10.61593437 -0.19462924 10 14 1781 11.15200000 2684905458 2684905458 -1.00000000
2.69350719 8.37924290 2.35835910 40 15 1782 9.11200000 2684905460 2684905460 15.00000000
0.69907999 2.16568565 -0.60977769 4 0 1789 2.35600000 2684905481 2684905481 -15.00000000
3.42650437 10.60866165 0.19459434 13 1 1790 11.15000000 2684905483 2684905483 1.00000000
0.82880676 2.56450462 -0.62221462 3 2 1791 2.76600000 2684905485 2684905485 -13.00000000
3.43707728 10.63504887 0.58574402 13 3 1791 11.19200000 2684905488 2684905488 3.00000000
0.99369735 3.07287836 -0.62776160 2 4 1792 3.29000000 2684905490 2684905490 -11.00000000
3.43117332 10.60412979 0.97509843 12 5 1793 11.18800000 2684905492 2684905492 5.00000000
1.25828958 3.88646078 -0.64701295 2 6 1794 4.13600000 2684905495 2684905495 -9.00000000
3.44554210 10.63586044 1.37273633 12 7 1795 11.26400000 2684905497 2684905497 7.00000000
1.68697262 5.20432758 -0.67174381 2 8 1796 5.51200000 2684905499 2684905499 -7.00000000
3.45001745 10.64333916 1.77208960 12 9 1796 11.32800000 2684905502 2684905502 9.00000000
3.44349313 10.61689377 -0.97649294 4 10 1797 11.20400000 2684905504 2684905504 -5.00000000
3.23133683 9.95685673 2.03478718 40 11 1798 10.66400000 2684905506 2684905506 11.00000000
3.44328713 10.60364532 -0.58427864 12 12 1799 11.16400000 2684905508 2684905508 -3.00000000
3.12960124 9.63192272 2.33814120 62 13 1800 10.39400000 2684905511 2684905511 13.00000000
3.45366621 10.62298298 -0.19497828 10 14 1801 11.17200000 2684905513 2684905513 -1.00000000
2.72333741 8.37162685 2.35887671 42 15 1802 9.11400000 2684905515 2684905515 15.00000000
0.70423597 2.15588689 -0.60770714 4 0 1809 2.34800000 2684905536 2684905536 -15.00000000
3.46848464 10.61184216 0.19487357 13 1 1810 11.16600000 2684905538 2684905538 1.00000000
0.83472472 2.55233502 -0.61996508 3 2 1811 2.75600000 2684905541 2684905541 -13.00000000
3.47417951 10.62298679 0.58574402 13 3 1811 11.19200000 2684905543 2684905543 3.00000000
1.00686002 3.07685447 -0.62928808 2 4 1812 3.29800000 2684905545 2684905545 -11.00000000
3.47684741 10.61859703 0.97753882 12 5 1813 11.21600000 2684905548 2684905548 5.00000000
1.27061820 3.87829041 -0.64638722 2 6 1814 4.13200000 2684905550 2684905550 -9.00000000
3.48388386 10.62754154 1.37322378 12 7 1815 11.26800000 2684905552 2684905552 7.00000000
3.47460222 10.59298134 -1.36883652 2 8 1816 11.23200000 2684905555 2684905555 -7.00000000
3.49022698 10.64061642 1.77365398 12 9 1816 11.33800000 2684905557 2684905557 9.00000000
2.56286931 7.80878925 -0.71903485 4 10 1817 8.25000000 2684905559 2684905559 -5.00000000
3.26607299 9.94551659 2.03478718 40 11 1818 10.66400000 2684905561 2684905561 11.00000000
3.48215032 10.59725380 -0.58459264 12 12 1819 11.17000000 2684905564 2684905564 -3.00000000
3.12059760 9.49135208 2.30664802 62 13 1820 10.25400000 2684905566 2684905566 13.00000000
3.49385071 10.62036037 -0.19515280 8 14 1821 11.18200000 2684905568 2684905568 -1.00000000
2.75193930 8.36023426 2.35835910 40 15 1822 9.11200000 2684905571 2684905571 15.00000000
0.71259314 2.15720820 -0.60874242 4 0 1828 2.35200000 2684905591 2684905591 -15.00000000
3.50742102 10.61167431 0.19508299 13 1 1829 11.17800000 2684905594 2684905594 1.00000000
0.84196025 2.54585242 -0.61906528 3 2 1830 2.75200000 2684905596 2684905596 -13.00000000
3.51064181 10.61520004 0.58595335 13 3 1830 11.19600000 2684905598 2684905598 3.00000000
1.01335704 3.06231546 -0.62699836 2 4 1831 3.28600000 2684905601 2684905601 -11.00000000
3.51767707 10.62403202 0.97910762 12 5 1832 11.23400000 2684905603 2684905603 5.00000000
1.27974474 3.86280465 -0.64450997 2 6 1833 4.12000000 2684905605 2684905605 -9.00000000
3.52535319 10.63477230 1.37566113 12 7 1834 11.28800000 2684905607 2684905607 7.00000000
3.51471019 10.59647369 -1.37078643 2 8 1835 11.24800000 2684905610 2684905610 -7.00000000
3.53109026 10.64585781 1.77646983 12 9 1835 11.35600000 2684905612 2684905612 9.00000000
2.57996416 7.77377415 -0.71659452 4 10 1836 8.22200000 2684905614 2684905614 -5.00000000
3.30151057 9.94208431 2.03631353 43 11 1837 10.67200000 2684905617 2684905617 11.00000000
3.51979208 10.59322929 -0.58501130 12 12 1838 11.17800000 2684905619 2684905619 -3.00000000
3.11639690 9.37369633 2.28055382 64 13 1839 10.13800000 2684905621 2684905621 13.00000000
3.53031230 10.61251068 -0.19522262 10 14 1840 11.18600000 2684905624 2684905624 -1.00000000
2.78306842 8.36621189 2.36250019 45 15 1840 9.12800000 2684905626 2684905626 15.00000000
0.72011888 2.15470767 -0.60874242 4 0 1848 2.35200000 2684905647 2684905647 -15.00000000
3.54888058 10.61264133 0.19532733 13 1 1849 11.19200000 2684905649 2684905649 1.00000000
0.85578853 2.55768228 -0.62266451 3 2 1850 2.76800000 2684905651 2684905651 -13.00000000
3.55337787 10.61992741 0.58689541 10 3 1850 11.21400000 2684905654 2684905654 3.00000000
1.02404034 3.05875969 -0.62699836 2 4 1851 3.28600000 2684905656 2684905656 -11.00000000
3.55790472 10.62113380 0.97997916 12 5 1852 11.24400000 2684905658 2684905658 5.00000000
1.30389285 3.89015460 -0.64982879 2 6 1853 4.15400000 2684905660 2684905660 -9.00000000
3.56624103 10.63369465 1.37712359 14 7 1854 11.30000000 2684905663 2684905663 7.00000000
3.55925560 10.60672474 -1.37371123 2 8 1855 11.27200000 2684905665 2684905665 -7.00000000
3.57011509 10.63908577 1.77740836 12 9 1855 11.36200000 2684905667 2684905667 9.00000000
2.60962057 7.77227592 -0.71729177 4 10 1856 8.23000000 2684905670 2684905670 -5.00000000
3.33869576 9.93794346 2.03784013 46 11 1857 10.68000000 2684905672 2684905672 11.00000000
3.56311154 10.59981060 -0.58605802 12 12 1858 11.19800000 2684905674 2684905674 -3.00000000
3.11430836 9.25932598 2.25535917 60 13 1859 10.02600000 2684905677 2684905677 13.00000000
3.56924891 10.60580826 -0.19532733 10 14 1860 11.19200000 2684905679 2684905679 -1.00000000
2.81309700 8.35412502 2.36198258 40 15 1861 9.12600000 2684905681 2684905681 15.00000000
0.72516090 2.14486051 -0.60667187 4 0 1868 2.34400000 2684905702 2684905702 -15.00000000
3.58782649 10.60587120 0.19543205 13 1 1869 11.19800000 2684905704 2684905704 1.00000000
0.86346173 2.55098772 -0.62176472 3 2 1870 2.76400000 2684905707 2684905707 -13.00000000
3.59932542 10.62764072 0.58804679 10 3 1871 11.23600000 2684905709 2684905709 3.00000000
1.03219211 3.04772830 -0.62547189 2 4 1871 3.27800000 2684905711 2684905711 -11.00000000
3.59751558 10.61619759 0.98067641 12 5 1872 11.25200000 2684905713 2684905713 5.00000000
1.31556106 3.87996697 -0.64889014 2 6 1873 4.14800000 2684905716 2684905716 -9.00000000
3.60843992 10.63621998 1.37907350 14 7 1874 11.31600000 2684905718 2684905718 7.00000000
3.59370613 10.58671665 -1.37273633 2 8 1875 11.26400000 2684905720 2684905720 -7.00000000
3.60977054 10.63404083 1.77865982 12 9 1875 11.37000000 2684905723 2684905723 9.00000000
2.63481283 7.75745964 -0.71676880 4 10 1876 8.22400000 2684905725 2684905725 -5.00000000
3.37210178 9.92251110 2.03707695 43 11 1877 10.67600000 2684905727 2684905727 11.00000000
3.60137606 10.59109020 -0.58626735 12 12 1878 11.20200000 2684905730 2684905730 -3.00000000
3.10894918 9.13770580 2.22836518 40 13 1879 9.90600000 2684905732 2684905732 13.00000000
3.61011481 10.60464287 -0.19553676 10 14 1880 11.20400000 2684905734 2684905734 -1.00000000
2.83829451 8.33743477 2.35991216 45 15 1880 9.11800000 2684905737 2684905737 15.00000000
0.73264343 2.14231634 -0.60667187 4 0 1888 2.34400000 2684905757 2684905757 -15.00000000
3.62741566 10.60085106 0.19557166 13 1 1889 11.20600000 2684905760 2684905760 1.00000000
0.87236106 2.54795814 -0.62176472 3 2 1890 2.76400000 2684905762 2684905762 -13.00000000
3.64093184 10.62823868 0.58877951 13 3 1891 11.25000000 2684905764 2684905764 3.00000000
1.05173194 3.07010889 -0.63081455 2 4 1891 3.30600000 2684905766 2684905766 -11.00000000
3.63971925 10.61865330 0.98207092 12 5 1892 11.26800000 2684905769 2684905769 5.00000000
1.31948411 3.84732318 -0.64419711 4 6 1893 4.11800000 2684905771 2684905771 -9.00000000
3.64683390 10.62731457 1.37956095 12 7 1894 11.32000000 2684905773 2684905773 7.00000000
3.64288688 10.60978031 -1.37736738 2 8 1895 11.30200000 2684905776 2684905776 -7.00000000
3.65514016 10.63942146 1.78178859 12 9 1896 11.39000000 2684905778 2684905778 9.00000000
2.66511202 7.75763655 -0.71764040 4 10 1896 8.23400000 2684905780 2684905780 -5.00000000
3.40416455 9.90325356 2.03555036 46 11 1897 10.66800000 2684905783 2684905783 11.00000000
3.64871740 10.60867310 -0.58794212 12 12 1898 11.23400000 2684905785 2684905785 -3.00000000
3.11165690 9.04203415 2.20766973 51 13 1899 9.81400000 2684905787 2684905787 13.00000000
3.65362048 10.61088371 -0.19588581 10 14 1900 11.22400000 2684905790 2684905790 -1.00000000
2.86946297 8.32880306 2.36042976 24 15 1901 9.12000000 2684905792 2684905792 15.00000000
0.74138004 2.14339733 -0.60770714 4 0 1908 2.34800000 2684905813 2684905813 -15.00000000
3.66832137 10.59946251 0.19578110 13 1 1909 11.21800000 2684905815 2684905815 1.00000000
0.87742382 2.53384876 -0.61906528 3 2 1910 2.75200000 2684905817 2684905817 -13.00000000
3.67997074 10.62112617 0.58909351 13 3 1911 11.25600000 2684905819 2684905819 3.00000000
1.06115675 3.06270885 -0.63005131 2 4 1911 3.30200000 2684905822 2684905822 -11.00000000
3.68720484 10.63600349 0.98485988 12 5 1912 11.30000000 2684905824 2684905824 5.00000000
1.33484781 3.84829283 -0.64513576 2 6 1913 4.12400000 2684905826 2684905826 -9.00000000
3.68911505 10.62952232 1.38151085 12 7 1914 11.33600000 2684905829 2684905829 7.00000000
3.68576050 10.61387634 -1.37956095 2 8 1915 11.32000000 2684905831 2684905831 -7.00000000
3.69169760 10.63097382 1.78241432 12 9 1915 11.39400000 2684905833 2684905833 9.00000000
2.68628979 7.73134804 -0.71607161 4 10 1916 8.21600000 2684905836 2684905836 -5.00000000
3.43742323 9.88760090 2.03478718 46 11 1917 10.66400000 2684905838 2684905838 11.00000000
3.68441391 10.59209919 -0.58773279 12 12 1918 11.23000000 2684905840 2684905840 -3.00000000
3.10732961 8.92805195 2.18247509 62 13 1919 9.70200000 2684905843 2684905843 13.00000000
3.69458294 10.60939693 -0.19609524 12 14 1920 11.23600000 2684905845 2684905845 -1.00000000
2.39960957 6.89073992 1.95511901 9 15 1920 7.55400000 2684905847 2684905847 15.00000000
0.75268459 2.15173721 -0.61081296 4 0 1928 2.36000000 2684905868 2684905868 -15.00000000
3.71322536 10.60924244 0.19619995 13 1 1929 11.24200000 2684905870 2684905870 1.00000000
0.88948369 2.53996658 -0.62131482 3 2 1930 2.76200000 2684905872 2684905872 -13.00000000
3.71834397 10.61198616 0.58930284 13 3 1931 11.26000000 2684905875 2684905875 3.00000000
1.06794584 3.04786921 -0.62776160 2 4 1931 3.29000000 2684905877 2684905877 -11.00000000
3.72364974 10.62118816 0.98468560 12 5 1932 11.29800000 2684905879 2684905879 5.00000000
1.35481143 3.86225009 -0.64826441 2 6 1933 4.14400000 2684905882 2684905882 -9.00000000
3.73014092 10.62781906 1.38297331 10 7 1934 11.34800000 2684905884 2684905884 7.00000000
3.72147202 10.59720039 -1.37907350 2 8 1935 11.31600000 2684905886 2684905886 -7.00000000
3.73653078 10.63414478 1.78523016 12 9 1936 11.41200000 2684905889 2684905889 9.00000000
2.71854472 7.73696184 -0.71746606 4 10 1936 8.23200000 2684905891 2684905891 -5.00000000
3.47321868 9.87924671 2.03555036 46 11 1937 10.66800000 2684905893 2684905893 11.00000000
3.72600412 10.59236240 -0.58846551 12 12 1938 11.24400000 2684905895 2684905895 -3.00000000
3.10742044 8.82891655 2.16087985 56 13 1939 9.60600000 2684905898 2684905898 13.00000000
3.73225832 10.59832191 -0.19613014 8 14 1940 11.23800000 2684905900 2684905900 -1.00000000
2.43447948 6.90922976 1.96288359 9 15 1941 7.58400000 2684905902 2684905902 15.00000000
0.75686634 2.14207602 -0.60874242 4 0 1946 2.35200000 2684905923 2684905923 -15.00000000
3.74786997 10.60129547 0.19626977 13 1 1947 11.24600000 2684905925 2684905925 1.00000000
0.89875853 2.54083419 -0.62221462 3 2 1948 2.76600000 2684905928 2684905928 -13.00000000
3.75699496 10.61531448 0.59014022 10 3 1949 11.27600000 2684905930 2684905930 3.00000000
1.07358563 3.03339458 -0.62547189 2 4 1949 3.27800000 2684905932 2684905932 -11.00000000
3.76298451 10.62633991 0.98625439 12 5 1950 11.31600000 2684905935 2684905935 5.00000000
1.36891747 3.86356068 -0.64920300 4 6 1951 4.15000000 2684905937 2684905937 -9.00000000
3.77147007 10.63850021 1.38589823 10 7 1952 11.37200000 2684905939 2684905939 7.00000000
3.75341845 10.58171558 -1.37858605 2 8 1953 11.31200000 2684905942 2684905942 -7.00000000
3.77070808 10.63045788 1.78648162 12 9 1953 11.42000000 2684905944 2684905944 9.00000000
2.74750233 7.74152660 -0.71868628 4 10 1954 8.24600000 2684905946 2684905946 -5.00000000
3.50686598 9.87568665 2.03707695 43 11 1955 10.67600000 2684905948 2684905948 11.00000000
3.76260591 10.59001446 -0.58898884 12 12 1956 11.25400000 2684905951 2684905951 -3.00000000
3.76955628 10.59784889 -0.19633958 8 14 1958 11.25000000 2684905955 2684905955 -1.00000000
2.45885324 6.91289663 1.96598947 6 15 1958 7.59600000 2684905958 2684905958 15.00000000
0.76433897 2.13942099 -0.60874242 4 0 1966 2.35200000 2684905978 2684905978 -15.00000000
3.78619862 10.59191418 0.19633958 13 1 1967 11.25000000 2684905981 2684905981 1.00000000
0.90959102 2.54318619 -0.62356430 3 2 1968 2.77200000 2684905983 2684905983 -13.00000000
3.80008292 10.61905956 0.59108227 10 3 1969 11.29400000 2684905985 2684905985 3.00000000
1.08416760 3.02962852 -0.62547189 2 4 1969 3.27800000 2684905988 2684905988 -11.00000000
3.79938269 10.61126423 0.98608005 12 5 1970 11.31400000 2684905990 2684905990 5.00000000
1.37773204 3.84574103 -0.64701295 4 6 1971 4.13600000 2684905992 2684905992 -9.00000000
3.81327128 10.63835144 1.38760436 10 7 1972 11.38600000 2684905995 2684905995 7.00000000
3.80507565 10.60965729 -1.38394821 2 8 1973 11.35600000 2684905997 2684905997 -7.00000000
3.81564999 10.63329983 1.78929746 12 9 1974 11.43800000 2684905999 2684905999 9.00000000
2.76912498 7.71688652 -0.71729177 8 10 1974 8.23000000 2684906001 2684906001 -5.00000000
3.54131722 9.86338520 2.03707695 43 11 1975 10.67600000 2684906004 2684906004 11.00000000
3.80224991 10.58433437 -0.58940756 12 12 1976 11.26200000 2684906006 2684906006 -3.00000000
3.00177836 8.35147858 2.04885411 7 13 1977 9.10800000 2684906008 2684906008 13.00000000
3.80788016 10.58838940 -0.19640939 8 14 1978 11.25400000 2684906011 2684906011 -1.00000000
2.48155737 6.89656734 1.96391892 9 15 1979 7.58800000 2684906013 2684906013 15.00000000
0.77180231 2.13673997 -0.60874242 4 0 1986 2.35200000 2684906034 2684906034 -15.00000000
3.82790589 10.59179783 0.19658391 13 1 1987 11.26400000 2684906036 2684906036 1.00000000
0.91581219 2.53266501 -0.62176472 3 2 1988 2.76400000 2684906038 2684906038 -13.00000000
3.84256315 10.62075520 0.59191966 10 3 1989 11.31000000 2684906041 2684906041 3.00000000
1.10141563 3.04428720 -0.62928808 2 4 1989 3.29800000 2684906043 2684906043 -11.00000000
3.83911252 10.60543156 0.98677731 12 5 1990 11.32200000 2684906045 2684906045 5.00000000
1.38643885 3.82790732 -0.64482284 4 6 1991 4.12200000 2684906048 2684906048 -9.00000000
3.85105920 10.62684155 1.38784814 10 7 1992 11.38800000 2684906050 2684906050 7.00000000
1.87570727 5.17311954 -0.67564362 2 8 1993 5.54400000 2684906052 2684906052 -7.00000000
3.85695028 10.63730240 1.79211318 12 9 1993 11.45600000 2684906054 2684906054 9.00000000
2.79876304 7.71466541 -0.71798903 4 10 1994 8.23800000 2684906057 2684906057 -5.00000000
3.57170606 9.83989048 2.03478718 46 11 1995 10.66400000 2684906059 2684906059 11.00000000
3.84053659 10.57475185 -0.58961689 12 12 1996 11.26600000 2684906061 2684906061 -3.00000000
3.05553770 8.40871716 2.06550050 10 13 1997 9.18200000 2684906064 2684906064 13.00000000
3.85233331 10.59570599 -0.19679333 10 14 1998 11.27600000 2684906066 2684906066 -1.00000000
2.51167464 6.90827131 1.96961296 13 15 1998 7.61000000 2684906068 2684906068 15.00000000
0.78190678 2.14129162 -0.61081296 4 0 2006 2.36000000 2684906089 2684906089 -15.00000000
3.86965847 10.59151936 0.19682825 13 1 2007 11.27800000 2684906091 2684906091 1.00000000
0.92330915 2.52579236 -0.62086493 3 2 2008 2.76000000 2684906094 2684906094 -13.00000000
3.88098526 10.61102867 0.59212899 10 3 2009 11.31400000 2684906096 2684906096 3.00000000
1.11203551 3.04042387 -0.62928808 2 4 2009 3.29800000 2684906098 2684906098 -11.00000000
3.88295603 10.61067581 0.98852044 12 5 2010 11.34200000 2684906101 2684906101 5.00000000
1.40794241 3.84530377 -0.64857727 4 6 2011 4.14600000 2684906103 2684906103 -9.00000000
3.89086151 10.62079048 1.38882303 12 7 2012 11.39600000 2684906105 2684906105 7.00000000
1.88692164 5.14790201 -0.67320627 2 8 2013 5.52400000 2684906107 2684906107 -7.00000000
3.89931297 10.63236713 1.79367757 12 9 2014 11.46600000 2684906110 2684906110 9.00000000
2.82979131 7.71607208 -0.71903485 4 10 2014 8.25000000 2684906112 2684906112 -5.00000000
3.60467935 9.82367706 2.03402400 43 11 2015 10.66000000 2684906114 2684906114 11.00000000
3.88430953 10.58003044 -0.59066361 12 12 2016 11.28600000 2684906117 2684906117 -3.00000000
3.89343476 10.59345531 -0.19700277 10 14 2018 11.28800000 2684906121 2684906121 -1.00000000
2.53697777 6.89901924 1.96961296 15 15 2019 7.61000000 2684906124 2684906124 15.00000000
0.79205233 2.14579844 -0.61288351 4 0 2026 2.36800000 2684906144 2684906144 -15.00000000
3.91145587 10.59107876 0.19707258 13 1 2027 11.29200000 2684906147 2684906147 1.00000000
0.93076926 2.51889825 -0.61996508 3 2 2028 2.75600000 2684906149 2684906149 -13.00000000
3.91869354 10.59928989 0.59223366 13 3 2029 11.31600000 2684906151 2684906151 3.00000000
1.12264180 3.03652358 -0.62928808 2 4 2029 3.29800000 2684906154 2684906154 -11.00000000
3.92619157 10.61387539 0.99008924 12 5 2030 11.36000000 2684906156 2684906156 5.00000000
1.41724253 3.82925034 -0.64670008 4 6 2031 4.13400000 2684906158 2684906158 -9.00000000
3.93618369 10.62948227 1.39174795 12 7 2032 11.42000000 2684906160 2684906160 7.00000000
1.90832806 5.15059137 -0.67442495 2 8 2033 5.53400000 2684906163 2684906163 -7.00000000
3.93660855 10.62493515 1.79461622 12 9 2033 11.47200000 2684906165 2684906165 9.00000000
2.85947824 7.71362019 -0.71973211 4 10 2034 8.25800000 2684906167 2684906167 -5.00000000
3.64167929 9.81839752 2.03555036 43 11 2035 10.66800000 2684906170 2684906170 11.00000000
3.92538619 10.57764244 -0.59129161 12 12 2036 11.29800000 2684906172 2684906172 -3.00000000
3.11823654 8.39814186 2.06820011 53 13 2037 9.19400000 2684906174 2684906174 13.00000000
3.93247843 10.58542347 -0.19710748 12 14 2038 11.29400000 2684906177 2684906177 -1.00000000
2.56455112 6.90324497 1.97323644 18 15 2038 7.62400000 2684906179 2684906179 15.00000000
0.79548603 2.13216066 -0.60977769 4 0 2046 2.35600000 2684906200 2684906200 -15.00000000
3.95609426 10.59796810 0.19745652 13 1 2047 11.31400000 2684906202 2684906202 1.00000000
0.94432896 2.52841282 -0.62311441 3 2 2048 2.77000000 2684906204 2684906204 -13.00000000
3.96405768 10.60799789 0.59348977 10 3 2049 11.34000000 2684906207 2684906207 3.00000000
1.12636209 3.01419592 -0.62547189 2 4 2049 3.27800000 2684906209 2684906209 -11.00000000
3.97019458 10.61876774 0.99183238 12 5 2050 11.38000000 2684906211 2684906211 5.00000000
1.43336892 3.83168054 -0.64795154 4 6 2051 4.14200000 2684906213 2684906213 -9.00000000
3.97883010 10.63055134 1.39369786 14 7 2052 11.43600000 2684906216 2684906216 7.00000000
1.92977619 5.15319395 -0.67564362 2 8 2053 5.54400000 2684906218 2684906218 -7.00000000
3.97505808 10.61482906 1.79524195 12 9 2053 11.47600000 2684906220 2684906220 9.00000000
2.87939596 7.68493414 -0.71798903 4 10 2054 8.23800000 2684906223 2684906223 -5.00000000
3.67868638 9.81297874 2.03707695 50 11 2055 10.67600000 2684906225 2684906225 11.00000000
3.97631335 10.60127640 -0.59338510 12 12 2056 11.33800000 2684906227 2684906227 -3.00000000
3.14890194 8.39085484 2.06909990 60 13 2057 9.19800000 2684906230 2684906230 13.00000000
3.97432494 10.58473682 -0.19735181 12 14 2058 11.30800000 2684906232 2684906232 -1.00000000
2.59066963 6.89967680 1.97478926 18 15 2058 7.63000000 2684906234 2684906234 15.00000000
0.79846448 2.11866450 -0.60667187 4 0 2065 2.34400000 2684906255 2684906255 -15.00000000
3.99544978 10.59601784 0.19766596 13 1 2066 11.32600000 2684906257 2684906257 1.00000000
0.95339620 2.52709079 -0.62356430 3 2 2067 2.77200000 2684906260 2684906260 -13.00000000
4.00697184 10.61534882 0.59464115 10 3 2068 11.36200000 2684906262 2684906262 3.00000000
1.13773799 3.01411772 -0.62623513 2 4 2068 3.28200000 2684906264 2684906264 -11.00000000
4.00186634 10.59622383 0.99096078 12 5 2069 11.37000000 2684906266 2684906266 5.00000000
1.44536912 3.82505846 -0.64763868 2 6 2070 4.14000000 2684906269 2684906269 -9.00000000
4.02248430 10.63957977 1.39662266 10 7 2071 11.46000000 2684906271 2684906271 7.00000000
1.94825888 5.15047932 -0.67613113 4 8 2072 5.54800000 2684906273 2684906273 -7.00000000
4.02187538 10.62675381 1.79962206 12 9 2073 11.50400000 2684906276 2684906276 9.00000000
2.90556955 7.67720699 -0.71816331 4 10 2073 8.24000000 2684906278 2684906278 -5.00000000
3.70842600 9.79338264 2.03555036 46 11 2074 10.66800000 2684906280 2684906280 11.00000000
3.17670965 8.38036633 2.06909990 62 13 2076 9.19800000 2684906285 2684906285 13.00000000
4.01507616 10.58645725 -0.19763105 2 14 2077 11.32400000 2684906287 2684906287 -1.00000000
2.60874009 6.87840366 1.97116590 20 15 2077 7.61600000 2684906289 2684906289 15.00000000
0.80860549 2.12308598 -0.60874242 4 0 2085 2.35200000 2684906310 2684906310 -15.00000000
0.96012884 2.51828456 -0.62221462 3 2 2087 2.76600000 2684906315 2684906315 -13.00000000
1.15385008 3.02480245 -0.62928808 2 4 2088 3.29800000 2684906319 2684906319 -11.00000000
1.46082640 3.82552600 -0.64857727 4 6 2090 4.14600000 2684906324 2684906324 -9.00000000
1.96480787 5.13993883 -0.67564362 2 8 2092 5.54400000 2684906329 2684906329 -7.00000000
2.94089103 7.68934917 -0.72025508 4 10 2093 8.26400000 2684906333 2684906333 -5.00000000
3.73697567 9.76570892 2.03249741 43 11 2094 10.65200000 2684906336 2684906336 11.00000000
3.20594311 8.36922646 2.06909990 57 13 2096 9.19800000 2684906340 2684906340 13.00000000
2.64223337 6.89044142 1.97737753 20 15 2098 7.64000000 2684906345 2684906345 15.00000000
0.81739926 2.12385631 -0.60977769 4 0 2105 2.35600000 2684906366 2684906366 -15.00000000
0.96821284 2.51309943 -0.62176472 3 2 2107 2.76400000 2684906370 2684906370 -13.00000000
1.17005062 3.03541136 -0.63234103 4 4 2108 3.31400000 2684906375 2684906375 -11.00000000
1.47559333 3.82408953 -0.64920300 2 6 2110 4.15000000 2684906379 2684906379 -9.00000000
1.97987652 5.12564230 -0.67466867 2 8 2112 5.53600000 2684906384 2684906384 -7.00000000
2.96627760 7.67531967 -0.71990645 4 10 2113 8.26000000 2684906389 2684906389 -5.00000000
3.77104163 9.75260544 2.03249741 50 11 2114 10.65200000 2684906391 2684906391 11.00000000
3.23232388 8.35071564 2.06730008 60 13 2116 9.19000000 2684906395 2684906395 13.00000000
2.67344022 6.90325928 1.98358917 18 15 2117 7.66400000 2684906400 2684906400 15.00000000
0.82480794 2.12099004 -0.60977769 4 0 2125 2.35600000 2684906421 2684906421 -15.00000000
0.97556543 2.50607228 -0.62086493 3 2 2127 2.76000000 2684906425 2684906425 -13.00000000
1.17351389 3.01301479 -0.62852484 4 4 2128 3.29400000 2684906430 2684906430 -11.00000000
1.48749781 3.81523442 -0.64857727 4 6 2130 4.14600000 2684906435 2684906435 -9.00000000
2.00208664 5.12979507 -0.67613113 2 8 2132 5.54800000 2684906439 2684906439 -7.00000000
2.98145580 7.63522434 -0.71711743 4 10 2133 8.22800000 2684906444 2684906444 -5.00000000
3.80506158 9.73938179 2.03249741 40 11 2134 10.65200000 2684906446 2684906446 11.00000000
3.25861454 8.33212185 2.06550050 62 13 2136 9.18200000 2684906451 2684906451 13.00000000
2.69963264 6.89928198 1.98514211 15 15 2137 7.67000000 2684906455 2684906455 15.00000000
0.83361948 2.12169409 -0.61081296 4 0 2145 2.36000000 2684906476 2684906476 -15.00000000
0.98858696 2.51353288 -0.62356430 3 2 2147 2.77200000 2684906481 2684906481 -13.00000000
1.18546188 3.01255393 -0.62928808 4 4 2148 3.29800000 2684906485 2684906485 -11.00000000
1.50008237 3.80818105 -0.64826441 4 6 2150 4.14400000 2684906490 2684906490 -9.00000000
2.01852441 5.11908197 -0.67564362 2 8 2152 5.54400000 2684906494 2684906494 -7.00000000
3.02271342 7.66183758 -0.72060370 4 10 2153 8.26800000 2684906499 2684906499 -5.00000000
3.84335995 9.73699760 2.03478718 43 11 2154 10.66400000 2684906501 2684906501 11.00000000
3.28911138 8.32432175 2.06640029 59 13 2156 9.18600000 2684906506 2684906506 13.00000000
2.72582984 6.89520645 1.98669493 13 15 2157 7.67600000 2684906511 2684906511 15.00000000
0.83674413 2.10799789 -0.60770714 4 0 2165 2.34800000 2684906531 2684906531 -15.00000000
0.99879396 2.51368880 -0.62446415 3 2 2167 2.77600000 2684906536 2684906536 -13.00000000
1.19887161 3.01569486 -0.63081455 2 4 2168 3.30600000 2684906541 2684906541 -11.00000000
1.51774859 3.81393385 -0.65014166 2 6 2170 4.15600000 2684906545 2684906545 -9.00000000
2.03344250 5.10462809 -0.67466867 2 8 2172 5.53600000 2684906550 2684906550 -7.00000000
3.03985023 7.62717915 -0.71833766 4 10 2173 8.24200000 2684906554 2684906554 -5.00000000
3.87296200 9.71258068 2.03249741 46 11 2174 10.65200000 2684906557 2684906557 11.00000000
3.32103848 8.32002926 2.06820011 57 13 2176 9.19400000 2684906561 2684906561 13.00000000
2.75251746 6.88875723 1.98773026 9 15 2178 7.68000000 2684906566 2684906566 15.00000000
0.84372991 2.10521150 -0.60770714 4 0 2184 2.34800000 2684906587 2684906587 -15.00000000
1.00277066 2.49951100 -0.62176472 3 2 2186 2.76400000 2684906591 2684906591 -13.00000000
1.20740271 3.00805879 -0.63005131 2 4 2187 3.30200000 2684906596 2684906596 -11.00000000
1.52817833 3.80338097 -0.64920300 4 6 2189 4.15000000 2684906600 2684906600 -9.00000000
2.06147003 5.12548256 -0.67832476 2 8 2191 5.56600000 2684906605 2684906605 -7.00000000
3.06140733 7.60781527 -0.71746606 4 10 2192 8.23200000 2684906610 2684906610 -5.00000000
3.90074944 9.68875694 2.03020763 46 11 2193 10.64000000 2684906612 2684906612 11.00000000
3.35006738 8.31258583 2.06909990 60 13 2195 9.19800000 2684906617 2684906617 13.00000000
2.77775764 6.88903427 1.99031842 9 15 2196 7.69000000 2684906621 2684906621 15.00000000
0.85324812 2.10762572 -0.60926002 4 0 2204 2.35400000 2684906642 2684906642 -15.00000000
1.01295328 2.49960780 -0.62266451 3 2 2206 2.76800000 2684906646 2684906646 -13.00000000
1.22379684 3.01838112 -0.63310426 4 4 2207 3.31800000 2684906651 2684906651 -11.00000000
