# .PCD v0.7 - Point Cloud Data file format
VERSION 0.7
FIELDS x y z intensity laser_id azimuth distance_m adjustedtime timestamp vertical_angle
SIZE 4 4 4 1 1 2 8 8 4 8
TYPE F F F U U U F U U F
COUNT 1 1 1 1 1 1 1 1 1 1
WIDTH 541
HEIGHT 1
VIEWPOINT 0 0 0 1 0 0 0
POINTS 541
DATA ascii
3.00660038 3.02660728 0.22357920 7 3 4481 4.27200000 2887312468 2887312468 3.00000000
2.31341147 2.32880569 -0.63806528 4 4 4481 3.34400000 2887312470 2887312470 -11.00000000
3.02788448 3.04696941 0.37581557 7 5 4482 4.31200000 2887312472 2887312472 5.00000000
2.94824362 2.96579099 -0.66234350 11 6 4483 4.23400000 2887312475 2887312475 -9.00000000
3.02065396 3.03757167 0.52598810 61 7 4484 4.31600000 2887312477 2887312477 7.00000000
2.98618436 3.00186086 -0.51989460 8 8 4485 4.26600000 2887312479 2887312479 -7.00000000
3.02921915 3.04405904 0.68017703 68 9 4486 4.34800000 2887312482 2887312482 9.00000000
3.00049782 3.01519704 -0.37215501 9 10 4486 4.27000000 2887312484 2887312484 -5.00000000
3.03193378 3.04572368 0.83536178 59 11 4487 4.37800000 2887312486 2887312486 11.00000000
3.00043058 3.01302505 -0.22284651 8 12 4488 4.25800000 2887312489 2887312489 -3.00000000
3.01882601 3.03043962 0.98753512 54 13 4489 4.39000000 2887312491 2887312491 13.00000000
3.00090885 3.01140237 -0.07420763 7 14 4490 4.25200000 2887312493 2887312493 -1.00000000
3.03273344 3.04333830 1.15122712 56 15 4490 4.44800000 2887312495 2887312495 15.00000000
1.61544383 1.61657202 -0.61236584 4 0 4498 2.36600000 2887312516 2887312516 -15.00000000
3.01129031 3.01234174 0.07434725 7 1 4499 4.26000000 2887312519 2887312519 1.00000000
1.92364240 1.92364240 -0.62806332 3 2 4500 2.79200000 2887312521 2887312521 -13.00000000
3.01008415 3.00903368 0.22305584 7 3 4501 4.26200000 2887312523 2887312523 3.00000000
2.31736112 2.31655216 -0.63692045 4 4 4501 3.33800000 2887312525 2887312525 -11.00000000
3.01736212 3.01525640 0.37320089 7 5 4502 4.28200000 2887312528 2887312528 5.00000000
2.95857835 2.95548177 -0.66234350 15 6 4503 4.23400000 2887312530 2887312530 -9.00000000
3.02842927 3.02420378 0.52550060 61 7 4504 4.31200000 2887312532 2887312532 7.00000000
2.98540545 2.98019934 -0.51794469 10 8 4505 4.25000000 2887312535 2887312535 -7.00000000
3.02164888 3.01532698 0.67610973 72 9 4506 4.32200000 2887312537 2887312537 9.00000000
2.98985004 2.98359466 -0.36954036 9 10 4506 4.24000000 2887312539 2887312539 -5.00000000
3.03142738 3.02402925 0.83230883 59 11 4507 4.36200000 2887312542 2887312542 11.00000000
3.00102997 2.99266124 -0.22211380 8 12 4508 4.24400000 2887312544 2887312544 -3.00000000
3.01972485 3.01025295 0.98438579 57 13 4509 4.37600000 2887312546 2887312546 13.00000000
2.99582124 2.98538208 -0.07382368 7 14 4510 4.23000000 2887312548 2887312548 -1.00000000
3.03291845 3.02129507 1.14708602 56 15 4511 4.43200000 2887312551 2887312551 15.00000000
1.61640501 1.60740244 -0.61081296 4 0 4516 2.36000000 2887312572 2887312572 -15.00000000
3.00088453 2.98312950 0.07385858 7 1 4517 4.23200000 2887312574 2887312574 1.00000000
1.93244076 1.92033696 -0.62896317 3 2 4518 2.79600000 2887312576 2887312576 -13.00000000
3.01102066 2.99111676 0.22242782 7 3 4519 4.25000000 2887312578 2887312578 3.00000000
2.33159137 2.31617880 -0.63882852 4 4 4519 3.34800000 2887312581 2887312581 -11.00000000
3.01551008 2.99453092 0.37180641 7 5 4520 4.26600000 2887312583 2887312583 5.00000000
2.96224093 2.94060564 -0.66109204 13 6 4521 4.22600000 2887312585 2887312585 -9.00000000
3.02664280 3.00348854 0.52355069 58 7 4522 4.29600000 2887312588 2887312588 7.00000000
2.99193454 2.96800971 -0.51745725 8 8 4523 4.24600000 2887312590 2887312590 -7.00000000
3.02409387 2.99886465 0.67454541 68 9 4524 4.31200000 2887312592 2887312592 9.00000000
2.98647594 2.96156073 -0.36797154 9 10 4524 4.22200000 2887312595 2887312595 -5.00000000
3.02696991 3.00066924 0.82849264 59 11 4525 4.34200000 2887312597 2887312597 11.00000000
3.00190473 2.97478318 -0.22148576 8 12 4526 4.23200000 2887312599 2887312599 -3.00000000
3.02501345 2.99663687 0.98303610 57 13 4527 4.37000000 2887312601 2887312601 13.00000000
2.99665976 2.96751308 -0.07361425 7 14 4528 4.21800000 2887312604 2887312604 -1.00000000
3.02127910 2.99189305 1.13932145 62 15 4528 4.40200000 2887312606 2887312606 15.00000000
1.61375856 1.59360576 -0.60770714 4 0 4536 2.34800000 2887312627 2887312627 -15.00000000
3.00131750 2.96280241 0.07361425 7 1 4537 4.21800000 2887312629 2887312629 1.00000000
1.92526150 1.89989173 -0.62446415 3 2 4538 2.77600000 2887312631 2887312631 -13.00000000
3.02002144 2.97918558 0.22232315 7 3 4539 4.24800000 2887312634 2887312634 3.00000000
2.33966208 2.30802584 -0.63882852 2 4 4539 3.34800000 2887312636 2887312636 -11.00000000
3.01175809 2.96999693 0.37006328 7 5 4540 4.24600000 2887312638 2887312638 5.00000000
2.95841980 2.91637993 -0.65796334 13 6 4541 4.20600000 2887312641 2887312641 -9.00000000
3.03003883 2.98593855 0.52233201 69 7 4542 4.28600000 2887312643 2887312643 7.00000000
2.99096322 2.94640303 -0.51550734 8 8 4543 4.23000000 2887312645 2887312645 -7.00000000
3.02609849 2.97997427 0.67266822 70 9 4544 4.30000000 2887312648 2887312648 9.00000000
2.99111724 2.94552612 -0.36727431 9 10 4544 4.21400000 2887312650 2887312650 -5.00000000
3.01923776 2.97218013 0.82353163 65 11 4545 4.31600000 2887312652 2887312652 11.00000000
2.99945831 2.95167851 -0.22054371 8 12 4546 4.21400000 2887312654 2887312654 -3.00000000
3.03406620 2.98469281 0.98258621 60 13 4547 4.36800000 2887312657 2887312657 13.00000000
3.00414848 2.95423055 -0.07354444 7 14 4548 4.21400000 2887312659 2887312659 -1.00000000
3.02619457 2.97591043 1.13725090 60 15 4548 4.39400000 2887312661 2887312661 15.00000000
1.62786579 1.59579456 -0.61081296 4 0 4557 2.36000000 2887312682 2887312682 -15.00000000
3.00215888 2.94198489 0.07336992 7 1 4558 4.20400000 2887312684 2887312684 1.00000000
1.93499625 1.89555001 -0.62536395 3 2 4559 2.78000000 2887312687 2887312687 -13.00000000
3.01185465 2.95045590 0.22096241 7 3 4559 4.22200000 2887312689 2887312689 3.00000000
2.35371661 2.30492949 -0.64035499 4 4 4560 3.35600000 2887312691 2887312691 -11.00000000
3.02119970 2.95754457 0.36988896 7 5 4561 4.24400000 2887312694 2887312694 5.00000000
2.96626544 2.90275407 -0.65733761 11 6 4562 4.20200000 2887312696 2887312696 -9.00000000
3.02109623 2.95537877 0.51891965 61 7 4563 4.25800000 2887312698 2887312698 7.00000000
2.99322677 2.92709327 -0.51404488 8 8 4564 4.21800000 2887312700 2887312700 -7.00000000
3.02518344 2.95834398 0.67016524 68 9 4564 4.28400000 2887312703 2887312703 9.00000000
2.99619412 2.92897224 -0.36657706 9 10 4565 4.20600000 2887312705 2887312705 -5.00000000
3.01045322 2.94188404 0.81818897 34 11 4566 4.28800000 2887312707 2887312707 11.00000000
2.99454093 2.92531276 -0.21939233 8 12 4567 4.19200000 2887312710 2887312710 -3.00000000
3.01849484 2.94768357 0.97403806 58 13 4568 4.33000000 2887312712 2887312712 13.00000000
3.00493979 2.93342185 -0.07330011 7 14 4569 4.20000000 2887312714 2887312714 -1.00000000
3.02878737 2.95670199 1.13414502 64 15 4569 4.38200000 2887312717 2887312717 15.00000000
1.64311612 1.59953535 -0.61443639 4 0 4577 2.37400000 2887312737 2887312737 -15.00000000
3.00094509 2.92033052 0.07309068 7 1 4578 4.18800000 2887312740 2887312740 1.00000000
1.94160116 1.88878405 -0.62536395 3 2 4579 2.78000000 2887312742 2887312742 -13.00000000
3.00546622 2.92268825 0.21970634 7 3 4580 4.19800000 2887312744 2887312744 3.00000000
2.36456275 2.29943681 -0.64111823 4 4 4580 3.36000000 2887312747 2887312747 -11.00000000
3.02293348 2.93864799 0.36884311 7 5 4581 4.23200000 2887312749 2887312749 5.00000000
2.97921324 2.89513540 -0.65796334 9 6 4582 4.20600000 2887312751 2887312751 -9.00000000
3.01857924 2.93236637 0.51672602 38 7 4583 4.24000000 2887312753 2887312753 7.00000000
2.98348856 2.89726591 -0.51063257 8 8 4584 4.19000000 2887312756 2887312756 -7.00000000
3.02183223 2.93347716 0.66703653 70 9 4585 4.26400000 2887312758 2887312758 9.00000000
2.99496317 2.90739346 -0.36518255 9 10 4585 4.19000000 2887312760 2887312760 -5.00000000
3.02211285 2.93272495 0.81857061 8 11 4586 4.29000000 2887312763 2887312763 11.00000000
2.99613261 2.90649819 -0.21876429 7 12 4587 4.18000000 2887312765 2887312765 -3.00000000
3.01057935 2.91949272 0.96818936 24 13 4588 4.30400000 2887312767 2887312767 13.00000000
3.00367475 2.91177988 -0.07302087 8 14 4589 4.18400000 2887312770 2887312770 -1.00000000
3.02850533 2.93482590 1.13000393 20 15 4590 4.36600000 2887312772 2887312772 15.00000000
1.64396763 1.59033597 -0.61288351 4 0 4595 2.36800000 2887312793 2887312793 -15.00000000
3.01154232 2.91227841 0.07312559 7 1 4596 4.19000000 2887312795 2887312795 1.00000000
1.95593190 1.89080167 -0.62806332 3 2 4597 2.79200000 2887312797 2887312797 -13.00000000
3.00550890 2.90542889 0.21907832 7 3 4597 4.18600000 2887312800 2887312800 3.00000000
2.35765743 2.27835417 -0.63730204 2 4 4598 3.34000000 2887312802 2887312802 -11.00000000
3.01925397 2.91667819 0.36727431 7 5 4599 4.21400000 2887312804 2887312804 5.00000000
2.98545170 2.88301730 -0.65733761 9 6 4600 4.20200000 2887312806 2887312806 -9.00000000
3.01920748 2.91459656 0.51526356 29 7 4601 4.22800000 2887312809 2887312809 7.00000000
2.98686218 2.88236499 -0.50965762 8 8 4602 4.18200000 2887312811 2887312811 -7.00000000
3.01397300 2.90751171 0.66328216 70 9 4603 4.24000000 2887312813 2887312813 9.00000000
2.99834657 2.89243722 -0.36448532 9 10 4603 4.18200000 2887312816 2887312816 -5.00000000
3.02707171 2.91912794 0.81742573 14 11 4604 4.28400000 2887312818 2887312818 11.00000000
2.99662137 2.88875413 -0.21813627 7 12 4605 4.16800000 2887312820 2887312820 -3.00000000
3.01131701 2.90190697 0.96548992 10 13 4606 4.29200000 2887312823 2887312823 13.00000000
2.99696565 2.88706851 -0.07263692 8 14 4607 4.16200000 2887312825 2887312825 -1.00000000
3.02746081 2.91644526 1.12638044 20 15 4607 4.35200000 2887312827 2887312827 15.00000000
1.64114988 1.57655776 -0.60977769 4 0 4615 2.35600000 2887312848 2887312848 -15.00000000
3.00005460 2.88097215 0.07260201 7 1 4616 4.16000000 2887312850 2887312850 1.00000000
1.96814334 1.88936079 -0.62986296 3 2 4617 2.80000000 2887312852 2887312852 -13.00000000
3.00698757 2.88662124 0.21845028 7 3 4617 4.17400000 2887312855 2887312855 3.00000000
2.38259411 2.28642273 -0.64188147 2 4 4618 3.36400000 2887312857 2887312857 -11.00000000
3.00641203 2.88405299 0.36448532 7 5 4619 4.18200000 2887312859 2887312859 5.00000000
2.98409128 2.86164069 -0.65483469 9 6 4620 4.18600000 2887312862 2887312862 -9.00000000
3.02793002 2.90266609 0.51501983 19 7 4621 4.22600000 2887312864 2887312864 7.00000000
2.98830581 2.86368060 -0.50819516 8 8 4622 4.17000000 2887312866 2887312866 -7.00000000
3.01554489 2.88877416 0.66140491 68 9 4623 4.22800000 2887312869 2887312869 9.00000000
2.99115968 2.86541414 -0.36239359 9 10 4623 4.15800000 2887312871 2887312871 -5.00000000
3.02873540 2.90039659 0.81513602 21 11 4624 4.27200000 2887312873 2887312873 11.00000000
2.99803019 2.86998963 -0.21750824 7 12 4625 4.15600000 2887312876 2887312876 -3.00000000
3.01861215 2.88868308 0.96459013 12 13 4626 4.28800000 2887312878 2887312878 13.00000000
3.00413513 2.87382483 -0.07256711 8 14 4627 4.15800000 2887312880 2887312880 -1.00000000
3.01528716 2.88449311 1.11809826 10 15 4627 4.32000000 2887312882 2887312882 15.00000000
1.65782571 1.58148706 -0.61391878 4 0 4635 2.37200000 2887312903 2887312903 -15.00000000
2.99851561 2.85944223 0.07232277 7 1 4636 4.14400000 2887312905 2887312905 1.00000000
1.96344233 1.87172222 -0.62626374 3 2 4637 2.78400000 2887312908 2887312908 -13.00000000
3.01754737 2.87558055 0.21845028 7 3 4638 4.17400000 2887312910 2887312910 3.00000000
2.38203335 2.26996565 -0.63959175 2 4 4638 3.35200000 2887312912 2887312912 -11.00000000
3.01646090 2.87354112 0.36448532 7 5 4639 4.18200000 2887312915 2887312915 5.00000000
2.98261786 2.84030867 -0.65233171 9 6 4640 4.17000000 2887312917 2887312917 -9.00000000
3.02797914 2.88249803 0.51331365 10 7 4641 4.21200000 2887312919 2887312919 7.00000000
2.99540758 2.85049510 -0.50770766 10 8 4642 4.16600000 2887312922 2887312922 -7.00000000
3.02224588 2.87603498 0.66077918 70 9 4642 4.22400000 2887312924 2887312924 9.00000000
2.99536943 2.84946275 -0.36169633 9 10 4643 4.15000000 2887312926 2887312926 -5.00000000
3.01892352 2.87086582 0.80979335 8 11 4644 4.24400000 2887312929 2887312929 11.00000000
2.99644971 2.84849834 -0.21667086 7 12 4645 4.14000000 2887312931 2887312931 -3.00000000
3.01737618 2.86738920 0.96099091 10 13 4646 4.27200000 2887312933 2887312933 13.00000000
3.00254989 2.85230303 -0.07228786 8 14 4647 4.14200000 2887312935 2887312935 -1.00000000
3.02583909 2.87342215 1.11809826 16 15 4648 4.32000000 2887312938 2887312938 15.00000000
1.65912867 1.57170486 -0.61236584 4 0 4655 2.36600000 2887312958 2887312958 -15.00000000
2.99831486 2.83933306 0.07207844 8 1 4656 4.13000000 2887312961 2887312961 1.00000000
1.96430314 1.85949826 -0.62446415 3 2 4657 2.77600000 2887312963 2887312963 -13.00000000
3.00821066 2.84770870 0.21708955 8 3 4657 4.14800000 2887312965 2887312965 3.00000000
2.40135026 2.27243233 -0.64264470 2 4 4658 3.36800000 2887312968 2887312968 -11.00000000
3.00910449 2.84656358 0.36239359 7 5 4659 4.15800000 2887312970 2887312970 5.00000000
2.98964381 2.82716560 -0.65170598 9 6 4660 4.16600000 2887312972 2887312972 -9.00000000
3.02648211 2.86100149 0.51136374 7 7 4661 4.19600000 2887312975 2887312975 7.00000000
2.99235439 2.82775092 -0.50551403 10 8 4662 4.14800000 2887312977 2887312977 -7.00000000
3.02415109 2.85679936 0.65890199 68 9 4663 4.21200000 2887312979 2887312979 9.00000000
2.99950433 2.83351684 -0.36099908 9 10 4663 4.14200000 2887312982 2887312982 -5.00000000
3.01179767 2.84413528 0.80521399 20 11 4664 4.22000000 2887312984 2887312984 11.00000000
2.98894620 2.82156920 -0.21541479 7 12 4665 4.11600000 2887312986 2887312986 -3.00000000
3.00894189 2.83945203 0.95514220 24 13 4666 4.24600000 2887312988 2887312988 13.00000000
3.00376058 2.83357167 -0.07207844 8 14 4667 4.13000000 2887312991 2887312991 -1.00000000
3.01898479 2.84693766 1.11188662 12 15 4668 4.29600000 2887312993 2887312993 15.00000000
1.67191482 1.57223046 -0.61495405 4 0 4676 2.37600000 2887313014 2887313014 -15.00000000
3.00433040 2.82421565 0.07197373 8 1 4677 4.12400000 2887313016 2887313016 1.00000000
1.98246610 1.86296225 -0.62806332 3 2 4678 2.79200000 2887313018 2887313018 -13.00000000
3.00989509 2.82845736 0.21646151 7 3 4678 4.13600000 2887313021 2887313021 3.00000000
2.39249206 2.24748540 -0.63806528 2 4 4679 3.34400000 2887313023 2887313023 -11.00000000
3.01225543 2.82869625 0.36152202 6 5 4680 4.14800000 2887313025 2887313025 5.00000000
2.98558354 2.80266905 -0.64857727 9 6 4681 4.14600000 2887313028 2887313028 -9.00000000
3.01812983 2.83223057 0.50819516 7 7 4682 4.17000000 2887313030 2887313030 7.00000000
2.98098183 2.79639244 -0.50185794 10 8 4683 4.11800000 2887313032 2887313032 -7.00000000
3.02257919 2.83541393 0.65639901 66 9 4683 4.19600000 2887313035 2887313035 9.00000000
3.00114965 2.81432676 -0.35995322 9 10 4684 4.13000000 2887313037 2887313037 -5.00000000
3.01790476 2.82904935 0.80406910 50 11 4685 4.21400000 2887313039 2887313039 11.00000000
2.99052358 2.80240107 -0.21478677 7 12 4686 4.10400000 2887313041 2887313041 -3.00000000
3.00795126 2.81774664 0.95154297 53 13 4687 4.23000000 2887313044 2887313044 13.00000000
3.00390840 2.81297517 -0.07183410 10 14 4688 4.11600000 2887313046 2887313046 -1.00000000
3.02375770 2.83057261 1.10981607 10 15 4689 4.28800000 2887313048 2887313048 15.00000000
1.66892099 1.55847371 -0.61184824 4 0 4696 2.36400000 2887313069 2887313069 -15.00000000
3.00393796 2.80415964 0.07172939 8 1 4697 4.11000000 2887313071 2887313071 1.00000000
1.99465597 1.86134899 -0.62986296 3 2 4698 2.80000000 2887313074 2887313074 -13.00000000
3.00952840 2.80839539 0.21572880 7 3 4698 4.12200000 2887313076 2887313076 3.00000000
2.40032268 2.23912048 -0.63806528 4 4 4699 3.34400000 2887313078 2887313078 -11.00000000
3.00899696 2.80593491 0.35995322 6 5 4700 4.13000000 2887313081 2887313081 5.00000000
2.98956871 2.78684258 -0.64732581 9 6 4701 4.13800000 2887313083 2887313083 -9.00000000
3.02799773 2.82167816 0.50819516 7 7 4702 4.17000000 2887313085 2887313085 7.00000000
2.98927236 2.78461671 -0.50161421 8 8 4703 4.11600000 2887313088 2887313088 -7.00000000
3.02089477 2.81407428 0.65389609 64 9 4703 4.18000000 2887313090 2887313090 9.00000000
2.99345803 2.78754020 -0.35786149 9 10 4704 4.10600000 2887313092 2887313092 -5.00000000
3.02488756 2.81582212 0.80330586 56 11 4705 4.21000000 2887313094 2887313094 11.00000000
2.99590111 2.78786325 -0.21447276 7 12 4706 4.09800000 2887313097 2887313097 -3.00000000
3.01919556 2.80855703 0.95199287 24 13 4707 4.23200000 2887313099 2887313099 13.00000000
2.99467230 2.78476977 -0.07138034 7 14 4708 4.09000000 2887313101 2887313101 -1.00000000
3.02796030 2.81473923 1.10774553 10 15 4709 4.28000000 2887313104 2887313104 15.00000000
1.67151785 1.55001152 -0.61081296 4 0 4716 2.36000000 2887313124 2887313124 -15.00000000
3.00344253 2.78414059 0.07148506 8 1 4717 4.09600000 2887313127 2887313127 1.00000000
2.00114107 1.85437500 -0.62986296 3 2 4718 2.80000000 2887313129 2887313129 -13.00000000
3.00905824 2.78837013 0.21499611 7 3 4718 4.10800000 2887313131 2887313131 3.00000000
2.40956426 2.23206234 -0.63844693 4 4 4719 3.34600000 2887313134 2887313134 -11.00000000
3.00853992 2.78593850 0.35873303 6 5 4720 4.11600000 2887313136 2887313136 5.00000000
2.98768139 2.76565480 -0.64482284 9 6 4721 4.12200000 2887313138 2887313138 -9.00000000
3.02908683 2.80300188 0.50673270 7 7 4722 4.15800000 2887313140 2887313140 7.00000000
2.98877358 2.76472926 -0.49990806 10 8 4723 4.10200000 2887313143 2887313143 -7.00000000
3.02489901 2.79814672 0.65264457 64 9 4723 4.17200000 2887313145 2887313145 9.00000000
2.99000478 2.76489997 -0.35629267 9 10 4724 4.08800000 2887313147 2887313147 -5.00000000
3.03325653 2.80391359 0.80292428 18 11 4725 4.20800000 2887313150 2887313150 11.00000000
3.00708127 2.77874422 -0.21457742 7 12 4726 4.10000000 2887313152 2887313152 -3.00000000
3.01896048 2.78874469 0.94884354 11 13 4727 4.21800000 2887313154 2887313154 13.00000000
2.98821425 2.75937653 -0.07099639 7 14 4728 4.06800000 2887313157 2887313157 -1.00000000
3.02308464 2.79157662 1.10256910 10 15 4728 4.26000000 2887313159 2887313159 15.00000000
1.67976046 1.54678464 -0.61184824 4 0 4736 2.36400000 2887313180 2887313180 -15.00000000
2.99990129 2.76145101 0.07117091 10 1 4737 4.07800000 2887313182 2887313182 1.00000000
2.00473404 1.84473932 -0.62896317 3 2 4738 2.79600000 2887313184 2887313184 -13.00000000
3.01436400 2.77379251 0.21468209 7 3 4738 4.10200000 2887313187 2887313187 3.00000000
2.41734099 2.22363758 -0.63844693 4 4 4739 3.34600000 2887313189 2887313189 -11.00000000
3.01238012 2.77002549 0.35803580 6 5 4740 4.10800000 2887313191 2887313191 5.00000000
2.96823120 2.72847247 -0.63856548 9 6 4741 4.08200000 2887313193 2887313193 -9.00000000
3.01985073 2.77495027 0.50356412 7 7 4742 4.13200000 2887313196 2887313196 7.00000000
2.99402046 2.75025105 -0.49917683 10 8 4743 4.09600000 2887313198 2887313198 -7.00000000
3.02737403 2.78088903 0.65108025 52 9 4743 4.16200000 2887313200 2887313200 9.00000000
2.99083257 2.74636054 -0.35524681 11 10 4744 4.07600000 2887313203 2887313203 -5.00000000
3.01265311 2.76542854 0.79491025 14 11 4745 4.16600000 2887313205 2887313205 11.00000000
2.99468875 2.74797511 -0.21300735 7 12 4746 4.07000000 2887313207 2887313207 -3.00000000
2.99340653 2.74487448 -0.07089168 7 14 4748 4.06200000 2887313212 2887313212 -1.00000000
3.01051068 2.75959158 1.09428692 20 15 4749 4.22800000 2887313214 2887313214 15.00000000
1.68229818 1.53830445 -0.61081296 4 0 4756 2.36000000 2887313235 2887313235 -15.00000000
2.99623847 2.73881984 0.07085677 8 1 4757 4.06000000 2887313237 2887313237 1.00000000
1.99102068 1.81932664 -0.62266451 3 2 4758 2.76800000 2887313240 2887313240 -13.00000000
3.01418781 2.75329661 0.21394938 7 3 4759 4.08800000 2887313242 2887313242 3.00000000
2.43088627 2.22048235 -0.63997334 4 4 4759 3.35400000 2887313244 2887313244 -11.00000000
3.01467443 2.75277615 0.35716423 6 5 4760 4.09800000 2887313246 2887313246 5.00000000
2.98065519 2.72075820 -0.63919121 9 6 4761 4.08600000 2887313249 2887313249 -9.00000000
3.02218676 2.75770187 0.50234544 8 7 4762 4.12200000 2887313251 2887313251 7.00000000
2.99480271 2.73175645 -0.49771440 10 8 4763 4.08400000 2887313253 2887313253 -7.00000000
3.03268456 2.76631093 0.65014166 36 9 4763 4.15600000 2887313256 2887313256 9.00000000
2.98862314 2.72516418 -0.35385230 9 10 4764 4.06000000 2887313258 2887313258 -5.00000000
3.01938605 2.75225043 0.79414701 16 11 4765 4.16200000 2887313260 2887313260 11.00000000
2.98802328 2.72270775 -0.21185595 7 12 4766 4.04800000 2887313263 2887313263 -3.00000000
3.01818657 2.74922872 0.94254494 54 13 4767 4.19000000 2887313265 2887313265 13.00000000
3.00592685 2.73710155 -0.07096148 8 14 4768 4.06600000 2887313267 2887313267 -1.00000000
3.02821565 2.75739717 1.09739280 18 15 4768 4.24000000 2887313270 2887313270 15.00000000
1.70195973 1.54540932 -0.61598933 4 0 4776 2.38000000 2887313290 2887313290 -15.00000000
3.00281906 2.72565651 0.07078696 8 1 4777 4.05600000 2887313293 2887313293 1.00000000
2.01179099 1.82546067 -0.62716353 3 2 4778 2.78800000 2887313295 2887313295 -13.00000000
3.01194549 2.73202348 0.21311201 8 3 4779 4.07200000 2887313297 2887313297 3.00000000
2.42989755 2.20406938 -0.63768369 4 4 4779 3.34200000 2887313299 2887313299 -11.00000000
3.01836109 2.73688269 0.35646698 6 5 4780 4.09000000 2887313302 2887313302 5.00000000
2.97842526 2.69972420 -0.63668829 9 6 4781 4.07000000 2887313304 2887313304 -9.00000000
3.02296853 2.73913813 0.50088298 8 7 4782 4.11000000 2887313306 2887313306 7.00000000
2.98666477 2.70529413 -0.49478954 10 8 4783 4.06000000 2887313309 2887313309 -7.00000000
3.02230310 2.73661470 0.64576149 20 9 4784 4.12800000 2887313311 2887313311 9.00000000
2.99959445 2.71605277 -0.35402662 11 10 4784 4.06200000 2887313313 2887313313 -5.00000000
3.01878619 2.73247147 0.79147571 24 11 4785 4.14800000 2887313316 2887313316 11.00000000
2.99454713 2.70958090 -0.21164660 7 12 4786 4.04400000 2887313318 2887313318 -3.00000000
3.01331258 2.72560406 0.93804592 33 13 4787 4.17000000 2887313320 2887313320 13.00000000
2.99914694 2.71183944 -0.07057753 7 14 4788 4.04400000 2887313323 2887313323 -1.00000000
3.02110386 2.73073459 1.09118104 60 15 4789 4.21600000 2887313325 2887313325 15.00000000
1.69533205 1.52970159 -0.61184824 4 0 4794 2.36400000 2887313346 2887313346 -15.00000000
3.00691247 2.71219134 0.07068224 7 1 4795 4.05000000 2887313348 2887313348 1.00000000
2.01462126 1.81652153 -0.62626374 3 2 4796 2.78400000 2887313350 2887313350 -13.00000000
3.00716162 2.71051288 0.21216996 8 3 4797 4.05400000 2887313352 2887313352 3.00000000
2.43389320 2.19379592 -0.63692045 4 4 4797 3.33800000 2887313355 2887313355 -11.00000000
3.01658320 2.71805096 0.35524681 6 5 4798 4.07600000 2887313357 2887313357 5.00000000
2.98395658 2.68770981 -0.63606256 9 6 4799 4.06600000 2887313359 2887313359 -9.00000000
3.02860832 2.72697115 0.50039554 8 7 4800 4.10600000 2887313362 2887313362 7.00000000
2.98629642 2.68792963 -0.49332711 12 8 4801 4.04800000 2887313364 2887313364 -7.00000000
3.01425910 2.71309853 0.64231992 12 9 4801 4.10600000 2887313366 2887313366 9.00000000
2.99626350 2.69595456 -0.35263214 11 10 4802 4.04600000 2887313369 2887313369 -5.00000000
3.01567817 2.71247101 0.78842276 42 11 4803 4.13200000 2887313371 2887313371 11.00000000
2.99561882 2.69348288 -0.21112324 7 12 4804 4.03400000 2887313373 2887313373 -3.00000000
3.00736713 2.70309711 0.93354690 12 13 4805 4.15000000 2887313376 2887313376 13.00000000
2.99277687 2.68903899 -0.07022848 7 14 4806 4.02400000 2887313378 2887313378 -1.00000000
3.01338577 2.70755625 1.08548713 52 15 4806 4.19400000 2887313380 2887313380 15.00000000
1.69778383 1.52119613 -0.61081296 4 0 4814 2.36000000 2887313401 2887313401 -15.00000000
3.00295544 2.68967128 0.07036810 8 1 4815 4.03200000 2887313403 2887313403 1.00000000
2.03692007 1.82377720 -0.63121265 3 2 4816 2.80600000 2887313405 2887313405 -13.00000000
3.01362824 2.69733524 0.21196063 8 3 4817 4.05000000 2887313408 2887313408 3.00000000
2.43861032 2.18266797 -0.63615721 4 4 4817 3.33400000 2887313410 2887313410 -11.00000000
3.01417422 2.69687653 0.35385230 6 5 4818 4.06000000 2887313412 2887313412 5.00000000
2.97859669 2.66410828 -0.63293386 9 6 4819 4.04600000 2887313415 2887313415 -9.00000000
3.02627015 2.70579767 0.49844560 8 7 4820 4.09000000 2887313417 2887313417 7.00000000
2.98974061 2.67219782 -0.49235216 12 8 4821 4.04000000 2887313419 2887313419 -7.00000000
3.01829052 2.69676805 0.64106846 8 9 4822 4.09800000 2887313422 2887313422 9.00000000
2.98782706 2.66954947 -0.35054040 13 10 4822 4.02200000 2887313424 2887313424 -5.00000000
3.01927114 2.69669652 0.78689629 70 11 4823 4.12400000 2887313426 2887313426 11.00000000
3.00053310 2.67901921 -0.21080923 9 12 4824 4.02800000 2887313428 2887313428 -3.00000000
3.00369954 2.68090415 0.92949778 32 13 4825 4.13200000 2887313431 2887313431 13.00000000
3.00512934 2.68123841 -0.07029829 7 14 4826 4.02800000 2887313433 2887313433 -1.00000000
3.01463890 2.68877816 1.08238125 66 15 4827 4.18200000 2887313435 2887313435 15.00000000
1.70623493 1.51753092 -0.61184824 4 0 4835 2.36400000 2887313456 2887313456 -15.00000000
2.99784899 2.66535974 0.07001905 7 1 4836 4.01200000 2887313458 2887313458 1.00000000
2.04067779 1.81371009 -0.63031286 3 2 4837 2.80200000 2887313461 2887313461 -13.00000000
3.01752186 2.68096542 0.21154194 10 3 4838 4.04200000 2887313463 2887313463 3.00000000
2.45539975 2.18153906 -0.63844693 4 4 4838 3.34600000 2887313465 2887313465 -11.00000000
3.01659012 2.67919564 0.35298076 6 5 4839 4.05000000 2887313468 2887313468 5.00000000
2.97652364 2.64268136 -0.63043088 9 6 4840 4.03000000 2887313470 2887313470 -9.00000000
3.02577424 2.68546391 0.49673945 8 7 4841 4.07600000 2887313472 2887313472 7.00000000
2.99357486 2.65595222 -0.49137720 10 8 4842 4.03200000 2887313475 2887313475 -7.00000000
3.01586461 2.67572784 0.63856548 8 9 4842 4.08200000 2887313477 2887313477 9.00000000
2.98566651 2.64800453 -0.34914592 13 10 4843 4.00600000 2887313479 2887313479 -5.00000000
3.01150632 2.66998315 0.78231686 66 11 4844 4.10000000 2887313481 2887313481 11.00000000
2.99239564 2.65210700 -0.20955317 9 12 4845 4.00400000 2887313484 2887313484 -3.00000000
3.01788116 2.67375398 0.93084747 55 13 4846 4.13800000 2887313486 2887313486 13.00000000
2.99846959 2.65562201 -0.06991434 8 14 4847 4.00600000 2887313488 2887313488 -1.00000000
3.01677513 2.67183447 1.07979310 72 15 4847 4.17200000 2887313491 2887313491 15.00000000
1.71441770 1.51412344 -0.61288351 4 0 4855 2.36800000 2887313511 2887313511 -15.00000000
2.99814010 2.64693832 0.06980962 7 1 4856 4.00000000 2887313514 2887313514 1.00000000
2.03092432 1.79239130 -0.62536395 3 2 4857 2.78000000 2887313516 2887313516 -13.00000000
3.01188469 2.65720272 0.21049522 10 3 4858 4.02200000 2887313518 2887313518 3.00000000
2.46594429 2.17555261 -0.63921010 4 4 4858 3.35000000 2887313521 2887313521 -11.00000000
3.01695800 2.66074228 0.35193488 6 5 4859 4.03800000 2887313523 2887313523 5.00000000
2.97683954 2.62443709 -0.62855369 9 6 4860 4.01800000 2887313525 2887313525 -9.00000000
3.01279092 2.65519810 0.49308336 10 7 4861 4.04600000 2887313528 2887313528 7.00000000
2.98793268 2.63236403 -0.48893979 10 8 4862 4.01200000 2887313530 2887313530 -7.00000000
3.02268648 2.66204500 0.63793975 8 9 4863 4.07800000 2887313532 2887313532 9.00000000
2.99040604 2.63361597 -0.34862298 13 10 4863 4.00000000 2887313534 2887313534 -5.00000000
3.00901937 2.64907646 0.77926391 68 11 4864 4.08400000 2887313537 2887313537 11.00000000
2.99263906 2.63372850 -0.20892514 8 12 4865 3.99200000 2887313539 2887313539 -3.00000000
3.01256466 2.65033150 0.92634845 61 13 4866 4.11800000 2887313541 2887313541 13.00000000
3.00772119 2.64513922 -0.06991434 8 14 4867 4.00600000 2887313544 2887313544 -1.00000000
3.02074409 2.65565729 1.07772255 68 15 4868 4.16400000 2887313546 2887313546 15.00000000
1.72233367 1.51097798 -0.61391878 4 0 4874 2.37200000 2887313567 2887313567 -15.00000000
2.99637699 2.62775207 0.06956529 6 1 4875 3.98600000 2887313569 2887313569 1.00000000
2.04271841 1.79078519 -0.62716353 3 2 4876 2.78800000 2887313571 2887313571 -13.00000000
3.00265479 2.63140392 0.20923916 8 3 4877 3.99800000 2887313574 2887313574 3.00000000
2.46723914 2.16218758 -0.63768369 4 4 4877 3.34200000 2887313576 2887313576 -11.00000000
3.02126884 2.64678454 0.35141197 8 5 4878 4.03200000 2887313578 2887313578 5.00000000
2.97660971 2.60674262 -0.62667644 9 6 4879 4.00600000 2887313581 2887313581 -9.00000000
3.01261759 2.63734722 0.49162093 7 7 4880 4.03400000 2887313583 2887313583 7.00000000
2.98021317 2.60806084 -0.48625869 9 8 4881 3.99000000 2887313585 2887313585 -7.00000000
3.02360201 2.64603138 0.63637543 8 9 4881 4.06800000 2887313587 2887313587 9.00000000
2.99912310 2.62368512 -0.34862298 11 10 4882 4.00000000 2887313590 2887313590 -5.00000000
3.01778769 2.63908362 0.77926391 64 11 4883 4.08400000 2887313592 2887313592 11.00000000
2.99083066 2.61458826 -0.20819244 8 12 4884 3.97800000 2887313594 2887313594 -3.00000000
3.00372839 2.62493873 0.92094964 58 13 4885 4.09400000 2887313597 2887313597 13.00000000
2.99539256 2.61673236 -0.06942567 8 14 4886 3.97800000 2887313599 2887313599 -1.00000000
3.02616239 2.64361238 1.07668722 70 15 4886 4.16000000 2887313601 2887313601 15.00000000
1.73342407 1.51003242 -0.61598933 4 0 4894 2.38000000 2887313622 2887313622 -15.00000000
3.00100732 2.61333704 0.06946058 8 1 4895 3.98000000 2887313624 2887313624 1.00000000
2.04895687 1.78364396 -0.62716353 3 2 4896 2.78800000 2887313627 2887313627 -13.00000000
3.01182199 2.62090683 0.20923916 8 3 4897 3.99800000 2887313629 2887313629 3.00000000
2.47180939 2.15098453 -0.63692045 4 4 4897 3.33800000 2887313631 2887313631 -11.00000000
3.01996708 2.62706852 0.35019177 8 5 4898 4.01800000 2887313634 2887313634 5.00000000
2.98867202 2.59892893 -0.62730223 9 6 4899 4.01000000 2887313636 2887313636 -9.00000000
3.01581264 2.62160587 0.49064597 7 7 4900 4.02600000 2887313638 2887313638 7.00000000
2.98330545 2.59243369 -0.48528373 7 8 4901 3.98200000 2887313640 2887313640 -7.00000000
3.01538444 2.61938620 0.63262099 8 9 4902 4.04400000 2887313643 2887313643 9.00000000
2.99923825 2.60536051 -0.34757710 10 10 4902 3.98800000 2887313645 2887313645 -5.00000000
3.01808715 2.62081003 0.77697420 70 11 4903 4.07200000 2887313647 2887313647 11.00000000
2.99390602 2.59889531 -0.20777375 8 12 4904 3.97000000 2887313650 2887313650 -3.00000000
3.00404167 2.60677457 0.91825020 56 13 4905 4.08200000 2887313652 2887313652 13.00000000
2.98789215 2.59184670 -0.06904172 9 14 4906 3.95600000 2887313654 2887313654 -1.00000000
3.01831698 2.61731553 1.07047558 76 15 4907 4.13600000 2887313657 2887313657 15.00000000
1.71797001 1.48657858 -0.60874242 4 0 4913 2.35200000 2887313677 2887313677 -15.00000000
2.99755764 2.59290528 0.06918134 6 1 4914 3.96400000 2887313680 2887313680 1.00000000
2.05780864 1.77938879 -0.62806332 3 2 4915 2.79200000 2887313682 2887313682 -13.00000000
3.00991940 2.60176206 0.20850645 8 3 4916 3.98400000 2887313684 2887313684 3.00000000
2.47892880 2.14277577 -0.63692045 4 4 4916 3.33800000 2887313687 2887313687 -11.00000000
3.00755644 2.59880233 0.34775141 7 5 4917 3.99000000 2887313689 2887313689 5.00000000
2.98531485 2.57867360 -0.62479925 8 6 4918 3.99400000 2887313691 2887313691 -9.00000000
3.03049946 2.61678004 0.49162093 7 7 4919 4.03400000 2887313693 2887313693 7.00000000
2.97535610 2.56825852 -0.48260260 9 8 4920 3.96000000 2887313696 2887313696 -7.00000000
3.01761699 2.60473728 0.63136947 8 9 4920 4.03600000 2887313698 2887313698 9.00000000
2.98372626 2.57457471 -0.34478810 6 10 4921 3.95600000 2887313700 2887313700 -5.00000000
3.01784182 2.60309339 0.77468455 68 11 4922 4.06000000 2887313703 2887313703 11.00000000
2.98889446 2.57721472 -0.20683169 3 12 4923 3.95200000 2887313705 2887313705 -3.00000000
3.00971746 2.59425378 0.91735041 57 13 4924 4.07800000 2887313707 2887313707 13.00000000
2.98889613 2.57539773 -0.06886720 4 14 4925 3.94600000 2887313710 2887313710 -1.00000000
3.00896239 2.59268808 1.06426394 68 15 4925 4.11200000 2887313712 2887313712 15.00000000
1.73487079 1.49064457 -0.61288351 4 0 4933 2.36800000 2887313733 2887313733 -15.00000000
2.97018361 2.55115557 0.06834362 6 1 4934 3.91600000 2887313735 2887313735 1.00000000
2.06696415 1.77473378 -0.62896317 3 2 4935 2.79600000 2887313737 2887313737 -13.00000000
2.98564076 2.56262136 0.20620367 4 3 4936 3.94000000 2887313740 2887313740 3.00000000
2.48937297 2.13666701 -0.63768369 4 4 4936 3.34200000 2887313742 2887313742 -11.00000000
2.98939204 2.56493521 0.34461382 6 5 4937 3.95400000 2887313744 2887313744 5.00000000
2.97630501 2.55280471 -0.62104481 8 6 4938 3.97000000 2887313746 2887313746 -9.00000000
3.01851726 2.58809614 0.48820859 7 7 4939 4.00600000 2887313749 2887313749 7.00000000
2.97978115 2.55398130 -0.48187140 26 8 4940 3.95400000 2887313751 2887313751 -7.00000000
3.02219129 2.59033132 0.63043088 10 9 4940 4.03000000 2887313753 2887313753 9.00000000
2.97453904 2.54858804 -0.34269637 34 10 4941 3.93200000 2887313756 2887313756 -5.00000000
3.01796341 2.58488059 0.77239484 62 11 4942 4.04800000 2887313758 2887313758 11.00000000
2.97359800 2.54598212 -0.20515695 22 12 4943 3.92000000 2887313760 2887313760 -3.00000000
3.01431322 2.57993078 0.91600066 59 13 4944 4.07200000 2887313763 2887313763 13.00000000
2.97507596 2.54544830 -0.06834362 19 14 4945 3.91600000 2887313765 2887313765 -1.00000000
3.01212287 2.57714534 1.06219339 72 15 4945 4.10400000 2887313767 2887313767 15.00000000
1.74326229 1.48678315 -0.61391878 4 0 4954 2.37200000 2887313788 2887313788 -15.00000000
2.99016619 2.54933357 0.06858796 32 1 4955 3.93000000 2887313790 2887313790 1.00000000
2.06752253 1.76208985 -0.62716353 3 2 4956 2.78800000 2887313793 2887313793 -13.00000000
2.99197268 2.54907084 0.20599432 27 3 4957 3.93600000 2887313795 2887313795 3.00000000
2.49419856 2.12498236 -0.63692045 5 4 4957 3.33800000 2887313797 2887313797 -11.00000000
3.00332332 2.55783677 0.34513673 19 5 4958 3.96000000 2887313799 2887313799 5.00000000
2.97661686 2.53419542 -0.61916763 8 6 4959 3.95800000 2887313802 2887313802 -9.00000000
3.00379515 2.55643010 0.48430878 19 7 4960 3.97400000 2887313804 2887313804 7.00000000
3.02158189 2.56974959 0.62824082 8 9 4962 4.01600000 2887313809 2887313809 9.00000000
2.99296665 2.54541326 -0.34374225 4 10 4962 3.94400000 2887313811 2887313811 -5.00000000
3.01844263 2.56617188 0.77010512 66 11 4963 4.03600000 2887313813 2887313813 11.00000000
2.99051905 2.54153323 -0.20568031 5 12 4964 3.93000000 2887313816 2887313816 -3.00000000
3.01186776 2.55877161 0.91240150 53 13 4965 4.05600000 2887313818 2887313818 13.00000000
3.01565838 2.56108594 1.06012285 72 15 4966 4.09600000 2887313822 2887313822 15.00000000
1.74549305 1.47819197 -0.61288351 4 0 4974 2.36800000 2887313843 2887313843 -15.00000000
2.06771040 1.74982667 -0.62536395 3 2 4976 2.78000000 2887313848 2887313848 -13.00000000
2.50609756 2.12006688 -0.63806528 5 4 4977 3.34400000 2887313852 2887313852 -11.00000000
2.98544478 2.52378988 -0.61916763 8 6 4979 3.95800000 2887313857 2887313857 -9.00000000
2.97523403 2.51337790 -0.47821531 5 8 4981 3.92400000 2887313862 2887313862 -7.00000000
3.01996899 2.55026507 0.62605071 8 9 4982 4.00200000 2887313864 2887313864 9.00000000
2.98052216 2.51695371 -0.34130189 2 10 4982 3.91600000 2887313866 2887313866 -5.00000000
3.02438140 2.55308723 0.76934189 44 11 4983 4.03200000 2887313869 2887313869 11.00000000
2.98105574 2.51562190 -0.20442425 1 12 4984 3.90600000 2887313871 2887313871 -3.00000000
3.01184392 2.54070354 0.90970206 26 13 4985 4.04400000 2887313873 2887313873 13.00000000
2.97486997 2.50862479 -0.06792477 1 14 4986 3.89200000 2887313875 2887313875 -1.00000000
3.01173139 2.53880954 1.05546403 38 15 4987 4.07800000 2887313878 2887313878 15.00000000
1.75038540 1.47239566 -0.61288351 4 0 4993 2.36800000 2887313899 2887313899 -15.00000000
2.98908329 2.51347756 0.06816910 3 1 4994 3.90600000 2887313901 2887313901 1.00000000
2.07648516 1.74546814 -0.62626374 3 2 4995 2.78400000 2887313903 2887313903 -13.00000000
2.98478866 2.50808811 0.20431957 1 3 4996 3.90400000 2887313905 2887313905 3.00000000
2.50860500 2.10795569 -0.63692045 5 4 4996 3.33800000 2887313908 2887313908 -11.00000000
2.99778056 2.51811242 0.34252205 4 5 4997 3.93000000 2887313910 2887313910 5.00000000
2.99077201 2.51133513 -0.61854190 8 6 4998 3.95400000 2887313912 2887313912 -9.00000000
3.02568793 2.53975368 0.48503998 4 7 4999 3.98000000 2887313915 2887313915 7.00000000
2.98051119 2.50094581 -0.47772783 7 8 5000 3.92000000 2887313917 2887313917 -7.00000000
3.01327491 2.52754164 0.62292206 11 9 5001 3.98200000 2887313919 2887313919 9.00000000
2.97816706 2.49809313 -0.34008172 12 10 5001 3.90200000 2887313922 2887313922 -5.00000000
3.03283119 2.54304385 0.76934189 10 11 5002 4.03200000 2887313924 2887313924 11.00000000
2.98172808 2.49930763 -0.20390089 12 12 5003 3.89600000 2887313926 2887313926 -3.00000000
3.02025270 2.53070188 0.90970206 10 13 5004 4.04400000 2887313928 2887313928 13.00000000
2.98623848 2.50131416 -0.06799457 13 14 5005 3.89600000 2887313931 2887313931 -1.00000000
3.03154016 2.53925920 1.05960512 10 15 5005 4.09400000 2887313933 2887313933 15.00000000
1.75551426 1.46627665 -0.61288351 4 0 5013 2.36800000 2887313954 2887313954 -15.00000000
2.98862886 2.49533868 0.06795967 6 1 5014 3.89400000 2887313956 2887313956 1.00000000
2.08256531 1.73820925 -0.62626374 3 2 5015 2.78400000 2887313958 2887313958 -13.00000000
2.99812603 2.50149250 0.20463359 6 3 5016 3.91000000 2887313961 2887313961 3.00000000
2.52047014 2.10295939 -0.63806528 5 4 5016 3.34400000 2887313963 2887313963 -11.00000000
3.00043201 2.50252843 0.34182483 4 5 5017 3.92200000 2887313965 2887313965 5.00000000
3.00558877 2.50594020 -0.61979336 8 6 5018 3.96200000 2887313968 2887313968 -9.00000000
3.02386069 2.52027988 0.48333383 6 7 5019 3.96600000 2887313970 2887313970 7.00000000
3.00752425 2.50577474 -0.48065269 1 8 5020 3.94400000 2887313972 2887313972 -7.00000000
3.03574014 2.52838564 0.62573785 14 9 5021 4.00000000 2887313975 2887313975 9.00000000
2.99758554 2.49660778 -0.34130189 2 10 5021 3.91600000 2887313977 2887313977 -5.00000000
3.04168963 2.53244185 0.76934189 10 11 5022 4.03200000 2887313979 2887313979 11.00000000
3.03805637 2.52762198 0.91240150 9 13 5024 4.05600000 2887313984 2887313984 13.00000000
3.00417638 2.49854708 -0.06820401 1 14 5025 3.90800000 2887313986 2887313986 -1.00000000
3.02998829 2.52001452 1.05598176 8 15 5025 4.08000000 2887313988 2887313988 15.00000000
1.75467384 1.45520699 -0.61081296 4 0 5033 2.36000000 2887314009 2887314009 -15.00000000
3.02041292 2.50403523 0.06848324 1 1 5034 3.92400000 2887314011 2887314011 1.00000000
2.08261847 1.72595525 -0.62446415 3 2 5035 2.77600000 2887314014 2887314014 -13.00000000
3.00948048 2.49408555 0.20484294 1 3 5035 3.91400000 2887314016 2887314016 3.00000000
2.51721263 2.08538127 -0.63539398 5 4 5036 3.33000000 2887314018 2887314018 -11.00000000
3.03677011 2.51491404 0.34496242 1 5 5037 3.95800000 2887314021 2887314021 5.00000000
3.01736116 2.49795270 -0.62041909 8 6 5038 3.96600000 2887314023 2887314023 -9.00000000
3.04640365 2.52109981 0.48552746 4 7 5039 3.98400000 2887314025 2887314025 7.00000000
3.01931167 2.49779201 -0.48114017 15 8 5040 3.94800000 2887314027 2887314027 -7.00000000
3.05932832 2.53089643 0.62886655 8 9 5040 4.02000000 2887314030 2887314030 9.00000000
3.00321126 2.48358965 -0.34095326 4 10 5041 3.91200000 2887314032 2887314032 -5.00000000
3.05202389 2.52305984 0.76972347 8 11 5042 4.03400000 2887314034 2887314034 11.00000000
3.01449943 2.49115348 -0.20494761 3 12 5043 3.91600000 2887314037 2887314037 -3.00000000
3.06038260 2.52817202 0.91645062 8 13 5044 4.07400000 2887314039 2887314039 13.00000000
3.02213097 2.49568510 -0.06841344 6 14 5045 3.92000000 2887314041 2887314041 -1.00000000
3.05068302 2.51926351 1.06012285 8 15 5045 4.09600000 2887314044 2887314044 15.00000000
1.76570797 1.45398521 -0.61288351 4 0 5053 2.36800000 2887314064 2887314064 -15.00000000
3.03376698 2.49728942 0.06858796 16 1 5054 3.93000000 2887314067 2887314067 1.00000000
2.08562088 1.71619856 -0.62356430 3 2 5055 2.77200000 2887314069 2887314069 -13.00000000
3.04173851 2.50207043 0.20641302 11 3 5056 3.94400000 2887314071 2887314071 3.00000000
2.53660631 2.08655930 -0.63844693 5 4 5056 3.34600000 2887314074 2887314074 -11.00000000
3.05476379 2.51189113 0.34600830 10 5 5057 3.97000000 2887314076 2887314076 5.00000000
3.03827024 2.49743986 -0.62292206 8 6 5058 3.98200000 2887314078 2887314078 -9.00000000
3.06132007 2.51549172 0.48650241 6 7 5059 3.99200000 2887314080 2887314080 7.00000000
3.02341056 2.48345733 -0.48040897 16 8 5060 3.94200000 2887314083 2887314083 -7.00000000
3.07621717 2.52593422 0.63043088 8 9 5061 4.03000000 2887314085 2887314085 9.00000000
3.03803897 2.49458551 -0.34391657 36 10 5061 3.94600000 2887314087 2887314087 -5.00000000
3.06536508 2.51612782 0.77086836 8 11 5062 4.04000000 2887314090 2887314090 11.00000000
3.02163291 2.47934866 -0.20484294 21 12 5063 3.91400000 2887314092 2887314092 -3.00000000
3.06617546 2.51500201 0.91555077 7 13 5064 4.07000000 2887314094 2887314094 13.00000000
3.03546309 2.48892450 -0.06851815 16 14 5065 3.92600000 2887314097 2887314097 -1.00000000
3.07931924 2.52398562 1.06685209 8 15 5066 4.12200000 2887314099 2887314099 15.00000000
1.77051985 1.44812191 -0.61288351 4 0 5072 2.36800000 2887314120 2887314120 -15.00000000
3.04357958 2.48848104 0.06862286 14 1 5073 3.93200000 2887314122 2887314122 1.00000000
2.10035372 1.71667230 -0.62626374 3 2 5074 2.78400000 2887314124 2887314124 -13.00000000
3.06350183 2.50387788 0.20735505 19 3 5074 3.96200000 2887314127 2887314127 3.00000000
2.54351163 2.07813621 -0.63844693 5 4 5075 3.34600000 2887314129 2887314129 -11.00000000
3.07542157 2.51182985 0.34740278 13 5 5076 3.98600000 2887314131 2887314131 5.00000000
3.06336713 2.50109315 -0.62636358 9 6 5077 4.00400000 2887314133 2887314133 -9.00000000
3.08348608 2.51662278 0.48869607 7 7 5078 4.01000000 2887314136 2887314136 7.00000000
3.07315850 2.50730014 -0.48698989 7 8 5079 3.99600000 2887314138 2887314138 -7.00000000
3.09069991 2.52071333 0.63168240 8 9 5080 4.03800000 2887314140 2887314140 9.00000000
3.07717443 2.50968218 -0.34740278 6 10 5080 3.98600000 2887314143 2887314143 -5.00000000
3.09803796 2.52579784 0.77697420 8 11 5081 4.07200000 2887314145 2887314145 11.00000000
3.07783246 2.50843048 -0.20808776 5 12 5082 3.97600000 2887314147 2887314147 -3.00000000
3.08658504 2.51466727 0.91914999 8 13 5083 4.08600000 2887314150 2887314150 13.00000000
3.07316017 2.50283766 -0.06918134 6 14 5084 3.96400000 2887314152 2887314152 -1.00000000
3.09622097 2.52161884 1.06995797 8 15 5084 4.13400000 2887314154 2887314154 15.00000000
1.77556396 1.44193292 -0.61288351 4 0 5092 2.36800000 2887314175 2887314175 -15.00000000
3.09261298 2.51061082 0.06953039 8 1 5093 3.98400000 2887314177 2887314177 1.00000000
2.10330701 1.70687437 -0.62536395 3 2 5094 2.78000000 2887314179 2887314179 -13.00000000
3.09083366 2.50827146 0.20861112 6 3 5094 3.98600000 2887314182 2887314182 3.00000000
2.53397894 2.05563974 -0.63424909 5 4 5095 3.32400000 2887314184 2887314184 -11.00000000
3.09655070 2.51111889 0.34879729 6 5 5096 4.00200000 2887314186 2887314186 5.00000000
3.09202743 2.50655603 -0.63043088 11 6 5097 4.03000000 2887314189 2887314189 -9.00000000
3.10767460 2.51834202 0.49113345 7 7 5098 4.03000000 2887314191 2887314191 7.00000000
3.09268928 2.50530434 -0.48869607 10 8 5099 4.01000000 2887314193 2887314193 -7.00000000
3.10101509 2.51115251 0.63199526 8 9 5100 4.04000000 2887314196 2887314196 9.00000000
3.08901286 2.50143337 -0.34775141 8 10 5100 3.99000000 2887314198 2887314198 -5.00000000
3.11751747 2.52361512 0.77964556 8 11 5101 4.08600000 2887314200 2887314200 11.00000000
3.10209584 2.51023531 -0.20913447 7 12 5102 3.99600000 2887314203 2887314203 -3.00000000
3.11201024 2.51735926 0.92409891 8 13 5103 4.10800000 2887314205 2887314205 13.00000000
3.10053706 2.50718355 -0.06960019 6 14 5104 3.98800000 2887314207 2887314207 -1.00000000
3.11852384 2.52172804 1.07461667 8 15 5104 4.15200000 2887314209 2887314209 15.00000000
1.77432120 1.43118548 -0.61081296 4 0 5111 2.36000000 2887314230 2887314230 -15.00000000
3.10714817 2.50536227 0.06967001 6 1 5112 3.99200000 2887314232 2887314232 1.00000000
2.12109351 1.70967364 -0.62896317 3 2 5113 2.79600000 2887314235 2887314235 -13.00000000
3.12445378 2.51751709 0.21028587 7 3 5114 4.01800000 2887314237 2887314237 3.00000000
2.54231048 2.04845715 -0.63463074 5 4 5114 3.32600000 2887314239 2887314239 -11.00000000
3.11417079 2.50833511 0.34984314 6 5 5115 4.01400000 2887314242 2887314242 5.00000000
3.10493827 2.50000548 -0.63136947 9 6 5116 4.03600000 2887314244 2887314244 -9.00000000
3.14384389 2.53042674 0.49552074 7 7 5117 4.06600000 2887314246 2887314246 7.00000000
3.11180639 2.50374556 -0.49040225 8 8 5118 4.02400000 2887314249 2887314249 -7.00000000
3.13043571 2.51873446 0.63637543 8 9 5118 4.06800000 2887314251 2887314251 9.00000000
3.10660601 2.49866819 -0.34879729 9 10 5119 4.00200000 2887314253 2887314253 -5.00000000
3.13198924 2.51818395 0.78117204 8 11 5120 4.09400000 2887314256 2887314256 11.00000000
3.12441373 2.51119542 -0.21007653 7 12 5121 4.01400000 2887314258 2887314258 -3.00000000
3.13097501 2.51556969 0.92724824 8 13 5122 4.12200000 2887314260 2887314260 13.00000000
3.12286615 2.50815773 -0.06991434 7 14 5123 4.00600000 2887314262 2887314262 -1.00000000
3.12429452 2.50840807 1.07358146 8 15 5124 4.14800000 2887314265 2887314265 15.00000000
1.77478254 1.42136037 -0.60926002 3 0 5131 2.35400000 2887314285 2887314285 -15.00000000
3.12992406 2.50574875 0.06998415 7 1 5132 4.01000000 2887314288 2887314288 1.00000000
2.11487651 1.69251812 -0.62536395 3 2 5133 2.78000000 2887314290 2887314290 -13.00000000
3.14526010 2.51712584 0.21112324 8 3 5133 4.03400000 2887314292 2887314292 3.00000000
2.55711079 2.04570270 -0.63653880 5 4 5134 3.33600000 2887314295 2887314295 -11.00000000
3.14157963 2.51238179 0.35193488 6 5 5135 4.03800000 2887314297 2887314297 5.00000000
3.11827469 2.49285221 -0.63230813 11 6 5136 4.04200000 2887314299 2887314299 -9.00000000
3.15420842 2.52067661 0.49576449 7 7 5137 4.06800000 2887314302 2887314302 7.00000000
3.14999557 2.51640916 -0.49503326 10 8 5138 4.06200000 2887314304 2887314304 -7.00000000
3.15508199 2.51957059 0.63950408 8 9 5139 4.08800000 2887314306 2887314306 9.00000000
3.12776423 2.49775529 -0.35019177 9 10 5139 4.01800000 2887314309 2887314309 -5.00000000
3.14689755 2.51213527 0.78269851 8 11 5140 4.10200000 2887314311 2887314311 11.00000000
3.13940477 2.50525713 -0.21049522 7 12 5141 4.02200000 2887314313 2887314313 -3.00000000
3.16258788 2.52285385 0.93399680 8 13 5142 4.15200000 2887314315 2887314315 13.00000000
3.15349054 2.51469612 -0.07040301 7 14 5143 4.03400000 2887314318 2887314318 -1.00000000
3.15569067 2.51554990 1.08134592 8 15 5144 4.17800000 2887314320 2887314320 15.00000000
1.78729355 1.42116833 -0.61184824 4 0 5151 2.36400000 2887314341 2887314341 -15.00000000
3.15274048 2.50600672 0.07029829 8 1 5152 4.02800000 2887314343 2887314343 1.00000000
2.12382293 1.68755019 -0.62626374 3 2 5153 2.78400000 2887314345 2887314345 -13.00000000
3.15871859 2.50985885 0.21143727 7 3 5153 4.04000000 2887314348 2887314348 3.00000000
2.56884789 2.04042745 -0.63768369 5 4 5154 3.34200000 2887314350 2887314350 -11.00000000
3.17061496 2.51750660 0.35420093 6 5 5155 4.06400000 2887314352 2887314352 5.00000000
3.14552426 2.49668932 -0.63606256 11 6 5156 4.06600000 2887314355 2887314355 -9.00000000
3.16920829 2.51458645 0.49673945 7 7 5157 4.07600000 2887314357 2887314357 7.00000000
