# .PCD v0.7 - Point Cloud Data file format
VERSION 0.7
FIELDS x y z intensity laser_id azimuth distance_m adjustedtime timestamp vertical_angle
SIZE 4 4 4 1 1 2 8 8 4 8
TYPE F F F U U U F U U F
COUNT 1 1 1 1 1 1 1 1 1 1
WIDTH 535
HEIGHT 1
VIEWPOINT 0 0 0 1 0 0 0
POINTS 535
DATA ascii
0.57435793 4.02055645 -0.64325851 2 6 813 4.11200000 2893902052 2893902052 -9.00000000
0.76320261 5.32919788 -0.66101933 2 8 815 5.42400000 2893902057 2893902057 -7.00000000
1.15550268 8.05848122 -0.71223670 4 10 816 8.17200000 2893902062 2893902062 -5.00000000
1.51301372 10.53867245 2.06951427 53 11 817 10.84600000 2893902064 2893902064 11.00000000
1.46689165 10.19212341 2.37728286 59 13 819 10.56800000 2893902068 2893902068 13.00000000
1.26569915 8.77249813 2.37492347 42 15 821 9.17600000 2893902073 2893902073 15.00000000
0.32605916 2.24052906 -0.60667187 4 0 828 2.34400000 2893902094 2893902094 -15.00000000
0.38483581 2.63795352 -0.61546606 3 2 830 2.73600000 2893902098 2893902098 -13.00000000
0.46477759 3.18204641 -0.62509024 4 4 831 3.27600000 2893902103 2893902103 -11.00000000
0.58838874 4.01852703 -0.64325851 2 6 833 4.11200000 2893902108 2893902108 -9.00000000
0.78007066 5.31471729 -0.65955687 2 8 835 5.41200000 2893902112 2893902112 -7.00000000
1.18362498 8.05439854 -0.71223670 4 10 836 8.17200000 2893902117 2893902117 -5.00000000
1.55036283 10.53721142 2.07027769 56 11 837 10.85000000 2893902119 2893902119 11.00000000
1.50189126 10.18308544 2.37638283 59 13 839 10.56400000 2893902124 2893902124 13.00000000
1.29631317 8.76802635 2.37492347 45 15 841 9.17600000 2893902128 2893902128 15.00000000
0.33273855 2.23173428 -0.60460126 4 0 848 2.33600000 2893902149 2893902149 -15.00000000
0.39576989 2.64815807 -0.61816549 3 2 850 2.74800000 2893902154 2893902154 -13.00000000
0.47355795 3.16487169 -0.62203735 2 4 851 3.26000000 2893902158 2893902158 -11.00000000
0.60299844 4.02035618 -0.64388424 2 6 853 4.11600000 2893902163 2893902163 -9.00000000
0.80865210 5.37870502 -0.66784400 2 8 855 5.48000000 2893902168 2893902168 -7.00000000
1.20520866 8.00687313 -0.70840186 4 10 856 8.12800000 2893902172 2893902172 -5.00000000
1.58830535 10.53950119 2.07180405 56 11 857 10.85800000 2893902174 2893902174 11.00000000
1.53800976 10.18163395 2.37728286 59 13 859 10.56800000 2893902179 2893902179 13.00000000
1.32604384 8.75771809 2.37337065 45 15 861 9.17000000 2893902184 2893902184 15.00000000
0.33771193 2.21730924 -0.60097784 4 0 866 2.32200000 2893902204 2893902204 -15.00000000
0.40467554 2.65075469 -0.61906528 3 2 868 2.75200000 2893902209 2893902209 -13.00000000
0.48468485 3.17113113 -0.62356383 2 4 869 3.26800000 2893902214 2893902214 -11.00000000
0.61801887 4.03406239 -0.64638722 2 6 871 4.13200000 2893902218 2893902218 -9.00000000
0.82253283 5.35651684 -0.66540664 2 8 873 5.46000000 2893902223 2893902223 -7.00000000
1.22914600 7.99517059 -0.70770460 4 10 874 8.12000000 2893902227 2893902227 -5.00000000
1.62140834 10.53445911 2.07180405 53 11 875 10.85800000 2893902230 2893902230 11.00000000
1.56880021 10.16904831 2.37548304 59 13 877 10.56000000 2893902234 2893902234 13.00000000
1.34966350 8.73847103 2.36922956 45 15 878 9.15400000 2893902239 2893902239 15.00000000
0.34753254 2.22947860 -0.60460126 4 0 886 2.33600000 2893902260 2893902260 -15.00000000
0.41392595 2.64932585 -0.61906528 3 2 888 2.75200000 2893902264 2893902264 -13.00000000
0.49878517 3.18881655 -0.62737995 2 4 889 3.28800000 2893902269 2893902269 -11.00000000
0.62720138 4.00065613 -0.64138132 2 6 891 4.10000000 2893902273 2893902273 -9.00000000
0.84430701 5.37322330 -0.66784400 2 8 893 5.48000000 2893902278 2893902278 -7.00000000
1.26447773 8.03806782 -0.71188813 4 10 894 8.16800000 2893902283 2893902283 -5.00000000
1.65878141 10.53261375 2.07256722 56 11 895 10.86200000 2893902285 2893902285 11.00000000
1.60611033 10.17505932 2.37818265 57 13 897 10.57200000 2893902290 2893902290 13.00000000
1.38379574 8.74682236 2.37285304 45 15 899 9.16800000 2893902294 2893902294 15.00000000
0.35592118 2.23206735 -0.60563654 4 0 906 2.34000000 2893902315 2893902315 -15.00000000
0.41948086 2.62477303 -0.61366647 3 2 908 2.72800000 2893902320 2893902320 -13.00000000
0.50991321 3.18705606 -0.62737995 2 4 909 3.28800000 2893902324 2893902324 -11.00000000
0.64429009 4.01794672 -0.64450997 2 6 911 4.12000000 2893902329 2893902329 -9.00000000
0.86809766 5.40160275 -0.67174381 2 8 913 5.51200000 2893902333 2893902333 -7.00000000
1.29379404 8.04147339 -0.71258533 4 10 914 8.17600000 2893902338 2893902338 -5.00000000
1.69491255 10.52288246 2.07180405 53 11 915 10.85800000 2893902340 2893902340 11.00000000
1.63913357 10.15400028 2.37458324 57 13 917 10.55600000 2893902345 2893902345 13.00000000
1.41371822 8.74790668 2.37440586 42 15 918 9.17400000 2893902350 2893902350 15.00000000
0.36371037 2.23081136 -0.60563654 4 0 926 2.34000000 2893902370 2893902370 -15.00000000
0.43052596 2.63483214 -0.61636591 3 2 928 2.74000000 2893902375 2893902375 -13.00000000
0.51659793 3.15813184 -0.62203735 2 4 929 3.26000000 2893902379 2893902379 -11.00000000
0.65767229 4.01177454 -0.64388424 2 6 931 4.11600000 2893902384 2893902384 -9.00000000
0.88179827 5.36719799 -0.66784400 2 8 933 5.48000000 2893902389 2893902389 -7.00000000
1.32573640 8.06050014 -0.71467710 4 10 934 8.20000000 2893902393 2893902393 -5.00000000
1.73418570 10.53240013 2.07485700 53 11 935 10.87400000 2893902396 2893902396 11.00000000
1.67266405 10.13668060 2.37188387 59 13 937 10.54400000 2893902400 2893902400 13.00000000
1.44640183 8.74647808 2.37544131 45 15 939 9.17800000 2893902405 2893902405 15.00000000
0.37022507 2.22190571 -0.60356599 4 0 946 2.33200000 2893902426 2893902426 -15.00000000
0.44036257 2.63715744 -0.61726570 3 2 948 2.74400000 2893902430 2893902430 -13.00000000
0.52697134 3.15243649 -0.62127411 2 4 949 3.25600000 2893902435 2893902435 -11.00000000
0.67428297 4.02504015 -0.64638722 2 6 951 4.13200000 2893902439 2893902439 -9.00000000
0.90052789 5.36408758 -0.66784400 2 8 953 5.48000000 2893902444 2893902444 -7.00000000
1.35386467 8.05582333 -0.71467710 4 10 954 8.20000000 2893902449 2893902449 -5.00000000
1.77224290 10.53402615 2.07638359 59 11 955 10.88200000 2893902451 2893902451 11.00000000
1.70674157 10.12309361 2.37008429 57 13 957 10.53600000 2893902456 2893902456 13.00000000
1.47250462 8.72449017 2.37078238 45 15 958 9.16000000 2893902460 2893902460 15.00000000
0.37797871 2.22059989 -0.60356599 4 0 966 2.33200000 2893902481 2893902481 -15.00000000
0.45022061 2.63944626 -0.61816549 3 2 968 2.74800000 2893902485 2893902485 -13.00000000
0.54061580 3.16605973 -0.62432700 2 4 969 3.27200000 2893902490 2893902490 -11.00000000
0.68632984 4.01097965 -0.64450997 2 6 971 4.12000000 2893902495 2893902495 -9.00000000
0.91522068 5.33743286 -0.66491914 2 8 973 5.45600000 2893902499 2893902499 -7.00000000
1.37995410 8.03926659 -0.71363121 4 10 974 8.18800000 2893902504 2893902504 -5.00000000
1.80833781 10.52390575 2.07562017 56 11 975 10.87800000 2893902506 2893902506 11.00000000
1.74339008 10.12475681 2.37188387 60 13 977 10.54400000 2893902511 2893902511 13.00000000
1.50414312 8.71713066 2.37026477 45 15 979 9.15800000 2893902515 2893902515 15.00000000
0.38572776 2.21926713 -0.60356599 4 0 986 2.33200000 2893902536 2893902536 -15.00000000
0.45876250 2.63401890 -0.61726570 3 2 988 2.74400000 2893902541 2893902541 -13.00000000
0.55166411 3.16415334 -0.62432700 2 4 989 3.27200000 2893902545 2893902545 -11.00000000
0.69760686 3.99299240 -0.64200705 2 6 991 4.10400000 2893902550 2893902550 -9.00000000
1.40456879 8.01477528 -0.71188813 4 10 994 8.16800000 2893902559 2893902559 -5.00000000
1.84438360 10.51366234 2.07485700 56 11 995 10.87400000 2893902561 2893902561 11.00000000
1.77872145 10.11860943 2.37188387 59 13 997 10.54400000 2893902566 2893902566 13.00000000
1.53505063 8.72350979 2.37337065 42 15 998 9.17000000 2893902571 2893902571 15.00000000
0.39347211 2.21790695 -0.60356599 4 0 1006 2.33200000 2893902591 2893902591 -15.00000000
0.46727201 2.62856436 -0.61636591 3 2 1008 2.74000000 2893902596 2893902596 -13.00000000
0.56545734 3.17767143 -0.62737995 2 4 1009 3.28800000 2893902601 2893902601 -11.00000000
0.71154076 3.99053288 -0.64200705 2 6 1011 4.10400000 2893902605 2893902605 -9.00000000
1.43183541 8.00590134 -0.71153951 4 10 1014 8.16400000 2893902614 2893902614 -5.00000000
1.88349378 10.52068806 2.07752824 59 11 1015 10.88800000 2893902617 2893902617 11.00000000
1.81127846 10.09699345 2.36828470 56 13 1017 10.52800000 2893902621 2893902621 13.00000000
1.56667185 8.71592426 2.37285304 45 15 1019 9.16800000 2893902626 2893902626 15.00000000
0.40465257 2.23552966 -0.60874242 4 0 1026 2.35200000 2893902647 2893902647 -15.00000000
0.47783566 2.63458705 -0.61816549 3 2 1028 2.74800000 2893902651 2893902651 -13.00000000
0.57374042 3.16022491 -0.62432700 2 4 1029 3.27200000 2893902656 2893902656 -11.00000000
0.73041558 4.01523352 -0.64638722 2 6 1031 4.13200000 2893902661 2893902661 -9.00000000
0.97889411 5.37052059 -0.67028141 2 8 1033 5.50000000 2893902665 2893902665 -7.00000000
1.46048772 8.00477409 -0.71188813 4 10 1034 8.16800000 2893902670 2893902670 -5.00000000
1.92196989 10.52370548 2.07943654 59 11 1035 10.89800000 2893902672 2893902672 11.00000000
1.84510946 10.08294201 2.36648512 60 13 1037 10.52000000 2893902677 2893902677 13.00000000
1.59730661 8.72018242 2.37544131 45 15 1038 9.17800000 2893902681 2893902681 15.00000000
0.40859556 2.21320629 -0.60304838 4 0 1046 2.33000000 2893902702 2893902702 -15.00000000
0.48844701 2.64056778 -0.61996508 3 2 1048 2.75600000 2893902707 2893902707 -13.00000000
0.58476818 3.15820289 -0.62432700 2 4 1049 3.27200000 2893902711 2893902711 -11.00000000
0.74298561 4.00489044 -0.64513576 2 6 1051 4.12400000 2893902716 2893902716 -9.00000000
0.99836034 5.37097406 -0.67076886 2 8 1053 5.50400000 2893902720 2893902720 -7.00000000
1.48769188 7.99571037 -0.71153951 4 10 1054 8.16400000 2893902725 2893902725 -5.00000000
1.95941174 10.52079296 2.08019972 59 11 1055 10.90200000 2893902727 2893902727 11.00000000
1.88029420 10.07643986 2.36648512 56 13 1057 10.52000000 2893902732 2893902732 13.00000000
1.62712681 8.70287514 2.37233543 45 15 1059 9.16600000 2893902737 2893902737 15.00000000
0.41596127 2.20986819 -0.60253072 4 0 1066 2.32800000 2893902757 2893902757 -15.00000000
0.49621674 2.63118696 -0.61816549 3 2 1068 2.74800000 2893902762 2893902762 -13.00000000
0.59433210 3.14842582 -0.62280059 2 4 1069 3.26400000 2893902767 2893902767 -11.00000000
0.75696075 4.00227261 -0.64513576 2 6 1071 4.12400000 2893902771 2893902771 -9.00000000
1.01784158 5.37135696 -0.67125636 2 8 1073 5.50800000 2893902776 2893902776 -7.00000000
1.51633561 7.99438334 -0.71188813 4 10 1074 8.16800000 2893902780 2893902780 -5.00000000
1.99758899 10.52160454 2.08172607 56 11 1075 10.91000000 2893902783 2893902783 11.00000000
1.91691267 10.07747269 2.36828470 56 13 1077 10.52800000 2893902787 2893902787 13.00000000
1.65453231 8.68984032 2.37026477 42 15 1078 9.15800000 2893902792 2893902792 15.00000000
0.42658445 2.22358060 -0.60667187 4 0 1086 2.34400000 2893902813 2893902813 -15.00000000
0.50686961 2.63709354 -0.61996508 3 2 1088 2.75600000 2893902817 2893902817 -13.00000000
0.60828578 3.16175508 -0.62585348 2 4 1089 3.28000000 2893902822 2893902822 -11.00000000
0.77017891 3.99572659 -0.64450997 2 6 1091 4.12000000 2893902826 2893902826 -9.00000000
1.03583217 5.36387348 -0.67076886 2 8 1093 5.50400000 2893902831 2893902831 -7.00000000
1.54801309 8.00860310 -0.71363121 4 10 1094 8.18800000 2893902836 2893902836 -5.00000000
2.03206658 10.50300217 2.07943654 59 11 1095 10.89800000 2893902838 2893902838 11.00000000
1.87346089 9.66513634 2.27290535 44 13 1097 10.10400000 2893902843 2893902843 13.00000000
1.68706310 8.69539165 2.37337065 45 15 1098 9.17000000 2893902847 2893902847 15.00000000
0.43358549 2.22025776 -0.60615420 3 0 1105 2.34200000 2893902868 2893902868 -15.00000000
0.51561171 2.63539815 -0.61996508 3 2 1107 2.75600000 2893902873 2893902873 -13.00000000
0.62103099 3.17128062 -0.62814319 2 4 1108 3.29200000 2893902877 2893902877 -11.00000000
0.78342503 3.99315071 -0.64450997 2 6 1110 4.12000000 2893902882 2893902882 -9.00000000
1.04633951 5.32340002 -0.66613781 2 8 1112 5.46600000 2893902886 2893902886 -7.00000000
1.56917763 7.97605705 -0.71119088 4 10 1113 8.16000000 2893902891 2893902891 -5.00000000
2.06840181 10.50391102 2.08096290 59 11 1114 10.90600000 2893902893 2893902893 11.00000000
1.98357713 10.05463219 2.36603522 59 13 1116 10.51800000 2893902898 2893902898 13.00000000
1.71588874 8.68974876 2.37337065 42 15 1117 9.17000000 2893902902 2893902902 15.00000000
0.44246364 2.22441506 -0.60770714 4 0 1125 2.34800000 2893902923 2893902923 -15.00000000
0.52366531 2.62784886 -0.61861539 3 2 1127 2.75000000 2893902928 2893902928 -13.00000000
0.62979293 3.15754151 -0.62585348 2 4 1128 3.28000000 2893902932 2893902932 -11.00000000
0.79735893 3.99039173 -0.64450997 2 6 1130 4.12000000 2893902937 2893902937 -9.00000000
1.06920135 5.34112644 -0.66881895 2 8 1132 5.48800000 2893902942 2893902942 -7.00000000
1.61110103 8.04085922 -0.71746606 4 10 1133 8.23200000 2893902946 2893902946 -5.00000000
2.10737085 10.50817680 2.08325267 56 11 1134 10.91800000 2893902949 2893902949 11.00000000
2.01904607 10.04955769 2.36648512 55 13 1136 10.52000000 2893902953 2893902953 13.00000000
1.74925148 8.69097710 2.37544131 42 15 1138 9.17800000 2893902958 2893902958 15.00000000
0.44715762 2.20770979 -0.60356599 4 0 1145 2.33200000 2893902979 2893902979 -15.00000000
0.53477257 2.63555408 -0.62086493 3 2 1147 2.76000000 2893902983 2893902983 -13.00000000
0.64042026 3.15339994 -0.62547189 4 4 1148 3.27800000 2893902988 2893902988 -11.00000000
0.81364608 3.99919844 -0.64638722 2 6 1150 4.13200000 2893902992 2893902992 -9.00000000
1.08783889 5.33736181 -0.66881895 2 8 1152 5.48800000 2893902997 2893902997 -7.00000000
1.63278723 8.00395203 -0.71467710 4 10 1153 8.20000000 2893903002 2893903002 -5.00000000
2.14639497 10.51229763 2.08554220 59 11 1154 10.93000000 2893903004 2893903004 11.00000000
2.05489421 10.04626656 2.36738491 57 13 1156 10.52400000 2893903008 2893903008 13.00000000
1.77534997 8.67188072 2.37181783 45 15 1157 9.16400000 2893903013 2893903013 15.00000000
0.45720187 2.21748781 -0.60667187 4 0 1165 2.34400000 2893903034 2893903034 -15.00000000
0.54396915 2.63367128 -0.62086493 3 2 1167 2.76000000 2893903038 2893903038 -13.00000000
0.64943647 3.14153218 -0.62356383 2 4 1168 3.26800000 2893903043 2893903043 -11.00000000
0.82840210 4.00020266 -0.64701295 2 6 1170 4.13600000 2893903048 2893903048 -9.00000000
1.10968900 5.34908152 -0.67076886 2 8 1172 5.50400000 2893903052 2893903052 -7.00000000
1.66071618 7.99820328 -0.71467710 4 10 1173 8.20000000 2893903057 2893903057 -5.00000000
2.18587279 10.51819706 2.08821368 59 11 1174 10.94400000 2893903059 2893903059 11.00000000
2.08836102 10.03140163 2.36558533 59 13 1176 10.51600000 2893903064 2893903064 13.00000000
1.80403340 8.65806580 2.36974716 45 15 1177 9.15600000 2893903068 2893903068 15.00000000
0.46414617 2.21209693 -0.60563654 4 0 1185 2.34000000 2893903090 2893903090 -15.00000000
0.55235738 2.62794232 -0.61996508 3 2 1187 2.75600000 2893903095 2893903095 -13.00000000
0.66282350 3.15077329 -0.62585348 2 4 1188 3.28000000 2893903099 2893903099 -11.00000000
0.84154570 3.99342060 -0.64638722 2 6 1190 4.13200000 2893903104 2893903104 -9.00000000
1.12835395 5.34517574 -0.67076886 2 8 1192 5.50400000 2893903108 2893903108 -7.00000000
2.22095037 10.50281906 2.08668709 59 11 1194 10.93600000 2893903115 2893903115 11.00000000
2.12578750 10.03548908 2.36828470 57 13 1196 10.52800000 2893903120 2893903120 13.00000000
1.83464539 8.65360546 2.37026477 42 15 1197 9.15800000 2893903125 2893903125 15.00000000
0.47347820 2.21802044 -0.60770714 4 0 1205 2.34800000 2893903145 2893903145 -15.00000000
0.56071222 2.62218690 -0.61906528 3 2 1207 2.75200000 2893903150 2893903150 -13.00000000
0.68039155 3.17915702 -0.63195938 2 4 1208 3.31200000 2893903155 2893903155 -11.00000000
0.85299575 3.97886992 -0.64450997 2 6 1210 4.12000000 2893903159 2893903159 -9.00000000
1.14950597 5.35284948 -0.67223132 2 8 1212 5.51600000 2893903164 2893903164 -7.00000000
1.73744643 8.08380985 -0.72339267 4 10 1213 8.30000000 2893903168 2893903168 -5.00000000
2.26131439 10.51227665 2.09012175 59 11 1214 10.95400000 2893903171 2893903171 11.00000000
2.15834212 10.01657772 2.36558533 57 13 1216 10.51600000 2893903175 2893903175 13.00000000
1.86594248 8.64493465 2.36974716 45 15 1218 9.15600000 2893903180 2893903180 15.00000000
0.48039785 2.21257830 -0.60667187 4 0 1225 2.34400000 2893903201 2893903201 -15.00000000
0.56986195 2.62021375 -0.61906528 3 2 1227 2.75200000 2893903205 2893903205 -13.00000000
0.68480372 3.14606929 -0.62585348 2 4 1228 3.28000000 2893903210 2893903210 -11.00000000
0.86940432 3.98744822 -0.64638722 2 6 1230 4.13200000 2893903214 2893903214 -9.00000000
1.16055977 5.31389570 -0.66784400 2 8 1232 5.48000000 2893903219 2893903219 -7.00000000
1.74948609 8.00373173 -0.71676880 4 10 1233 8.22400000 2893903224 2893903224 -5.00000000
2.30219102 10.52349854 2.09393787 62 11 1234 10.97400000 2893903226 2893903226 11.00000000
2.19079041 9.99756050 2.36288595 59 13 1236 10.50400000 2893903231 2893903231 13.00000000
1.89749682 8.65190792 2.37337065 45 15 1237 9.17000000 2893903235 2893903235 15.00000000
0.48728532 2.20711517 -0.60563654 4 0 1245 2.34000000 2893903256 2893903256 -15.00000000
0.58237106 2.63343072 -0.62266451 3 2 1247 2.76800000 2893903260 2893903260 -13.00000000
0.69238728 3.12832475 -0.62280059 2 4 1248 3.26400000 2893903265 2893903265 -11.00000000
0.88331783 3.98438931 -0.64638722 2 6 1250 4.13200000 2893903270 2893903270 -9.00000000
1.18254435 5.32531500 -0.66979390 2 8 1252 5.49600000 2893903274 2893903274 -7.00000000
1.79383922 8.07148361 -0.72339267 4 10 1253 8.30000000 2893903279 2893903279 -5.00000000
2.33848453 10.51348209 2.09355640 56 11 1254 10.97200000 2893903281 2893903281 11.00000000
2.22737026 9.99746132 2.36468554 62 13 1256 10.51200000 2893903286 2893903286 13.00000000
1.92474306 8.63203335 2.36974716 45 15 1257 9.15600000 2893903290 2893903290 15.00000000
0.49583274 2.20917058 -0.60667187 4 0 1265 2.34400000 2893903311 2893903311 -15.00000000
0.59113246 2.62948036 -0.62221462 4 2 1267 2.76600000 2893903316 2893903316 -13.00000000
0.70588863 3.13738108 -0.62509024 2 4 1268 3.27600000 2893903320 2893903320 -11.00000000
0.89982623 3.99284387 -0.64826441 2 6 1270 4.14400000 2893903325 2893903325 -9.00000000
1.20374846 5.33277321 -0.67125636 2 8 1272 5.50800000 2893903330 2893903330 -7.00000000
1.82200301 8.06517220 -0.72339267 4 10 1273 8.30000000 2893903334 2893903334 -5.00000000
2.37560201 10.50716972 2.09393787 50 11 1274 10.97400000 2893903337 2893903337 11.00000000
2.26139355 9.98582363 2.36378574 60 13 1276 10.50800000 2893903341 2893903341 13.00000000
1.95508611 8.61926842 2.36819434 45 15 1278 9.15000000 2893903346 2893903346 15.00000000
0.50268185 2.20365953 -0.60563654 4 0 1285 2.34000000 2893903366 2893903366 -15.00000000
0.60074151 2.62930083 -0.62266451 3 2 1287 2.76800000 2893903371 2893903371 -13.00000000
0.71946162 3.14638090 -0.62737995 2 4 1288 3.28800000 2893903376 2893903376 -11.00000000
0.90846634 3.96657228 -0.64450997 2 6 1290 4.12000000 2893903380 2893903380 -9.00000000
1.22768223 5.35175657 -0.67418122 2 8 1292 5.53200000 2893903385 2893903385 -7.00000000
2.41358328 10.50455379 2.09508276 43 11 1294 10.98000000 2893903392 2893903392 11.00000000
2.29885888 9.98926449 2.36648512 59 13 1296 10.52000000 2893903396 2893903396 13.00000000
1.98429322 8.60862637 2.36715889 42 15 1298 9.14600000 2893903401 2893903401 15.00000000
0.51173025 2.20950866 -0.60770714 4 0 1304 2.34800000 2893903422 2893903422 -15.00000000
0.60769588 2.61970091 -0.62086493 3 2 1306 2.76000000 2893903426 2893903426 -13.00000000
0.72989148 3.14397788 -0.62737995 2 4 1307 3.28800000 2893903431 2893903431 -11.00000000
0.91803586 3.94814563 -0.64200705 2 6 1309 4.10400000 2893903436 2893903436 -9.00000000
1.24812412 5.35925627 -0.67564362 2 8 1311 5.54400000 2893903440 2893903440 -7.00000000
1.87685823 8.05258369 -0.72339267 4 10 1312 8.30000000 2893903445 2893903445 -5.00000000
2.45018840 10.50413990 2.09660935 50 11 1313 10.98800000 2893903447 2893903447 11.00000000
2.32931185 9.97019958 2.36378574 60 13 1315 10.50800000 2893903452 2893903452 13.00000000
2.01370978 8.60576153 2.36819434 42 15 1317 9.15000000 2893903456 2893903456 15.00000000
0.52120960 2.21523094 -0.60977769 4 0 1324 2.35600000 2893903477 2893903477 -15.00000000
0.61504871 2.60997653 -0.61906528 3 2 1326 2.75200000 2893903482 2893903482 -13.00000000
0.74356538 3.15287590 -0.62966967 2 4 1327 3.30000000 2893903486 2893903486 -11.00000000
0.93816930 3.97183156 -0.64638722 2 6 1329 4.13200000 2893903491 2893903491 -9.00000000
1.25768363 5.31623125 -0.67076886 2 8 1331 5.50400000 2893903496 2893903496 -7.00000000
1.89577508 8.00720787 -0.71990645 4 10 1332 8.26000000 2893903500 2893903500 -5.00000000
2.48910308 10.50507450 2.09851742 50 11 1333 10.99800000 2893903502 2893903502 11.00000000
2.36140037 9.95063210 2.36108637 60 13 1335 10.49600000 2893903507 2893903507 13.00000000
2.04463077 8.60243893 2.36922956 45 15 1337 9.15400000 2893903512 2893903512 15.00000000
0.52714294 2.20588231 -0.60770714 4 0 1344 2.34800000 2893903532 2893903532 -15.00000000
0.62733066 2.62108016 -0.62221462 3 2 1346 2.76600000 2893903537 2893903537 -13.00000000
0.74907869 3.12735009 -0.62509024 2 4 1347 3.27600000 2893903542 2893903542 -11.00000000
0.95294946 3.97237420 -0.64701295 2 6 1349 4.13600000 2893903546 2893903546 -9.00000000
1.27252305 5.29636765 -0.66881895 2 8 1351 5.48800000 2893903551 2893903551 -7.00000000
1.90974021 7.94242573 -0.71467710 4 10 1352 8.20000000 2893903555 2893903555 -5.00000000
2.39612031 9.94232845 2.36108637 60 13 1355 10.49600000 2893903562 2893903562 13.00000000
2.07178736 8.58997726 2.36767673 45 15 1356 9.14800000 2893903567 2893903567 15.00000000
0.53301740 2.19651914 -0.60563654 4 0 1364 2.34000000 2893903588 2893903588 -15.00000000
0.63509548 2.61319351 -0.62086493 3 2 1366 2.76000000 2893903592 2893903592 -13.00000000
0.76277447 3.13616228 -0.62737995 2 4 1367 3.28800000 2893903597 2893903597 -11.00000000
0.96587479 3.96518517 -0.64638722 2 6 1369 4.13200000 2893903601 2893903601 -9.00000000
1.29853082 5.32275009 -0.67271876 2 8 1371 5.52000000 2893903606 2893903606 -7.00000000
1.96108031 8.03248787 -0.72339267 4 10 1372 8.30000000 2893903611 2893903611 -5.00000000
2.35036373 9.61968613 1.92488110 9 11 1373 10.08800000 2893903613 2893903613 11.00000000
2.43266368 9.94147587 2.36288595 59 13 1375 10.50400000 2893903618 2893903618 13.00000000
2.10049820 8.57106781 2.36457086 45 15 1377 9.13600000 2893903622 2893903622 15.00000000
0.54198939 2.19830227 -0.60667187 4 0 1385 2.34400000 2893903643 2893903643 -15.00000000
0.64093184 2.59571290 -0.61726570 3 2 1387 2.74400000 2893903648 2893903648 -13.00000000
0.76955432 3.11428618 -0.62356383 2 4 1388 3.26800000 2893903652 2893903652 -11.00000000
0.97755420 3.95011330 -0.64450997 2 6 1390 4.12000000 2893903657 2893903657 -9.00000000
1.32185137 5.33336926 -0.67466867 2 8 1392 5.53600000 2893903661 2893903661 -7.00000000
1.97228134 7.95176220 -0.71676880 4 10 1393 8.22400000 2893903666 2893903666 -5.00000000
2.38465977 9.60719681 1.92411792 12 11 1394 10.08400000 2893903668 2893903668 11.00000000
2.46908450 9.93249226 2.36288595 57 13 1396 10.50400000 2893903673 2893903673 13.00000000
2.12900496 8.55805969 2.36301780 45 15 1397 9.13000000 2893903678 2893903678 15.00000000
0.54965961 2.19639707 -0.60667187 4 0 1405 2.34400000 2893903698 2893903698 -15.00000000
0.64904118 2.58967924 -0.61636591 3 2 1407 2.74000000 2893903703 2893903703 -13.00000000
0.78519666 3.13062358 -0.62737995 2 4 1408 3.28800000 2893903707 2893903707 -11.00000000
0.99422407 3.95817208 -0.64638722 2 6 1410 4.13200000 2893903712 2893903712 -9.00000000
1.33852315 5.32102203 -0.67369372 2 8 1412 5.52800000 2893903717 2893903717 -7.00000000
2.00878119 7.97960711 -0.71990645 4 10 1413 8.26000000 2893903721 2893903721 -5.00000000
2.42057872 9.60833263 1.92602599 12 11 1414 10.09400000 2893903724 2893903724 11.00000000
2.50278687 9.92003441 2.36198616 57 13 1416 10.50000000 2893903728 2893903728 13.00000000
2.16414356 8.56518269 2.36715889 45 15 1418 9.14600000 2893903733 2893903733 15.00000000
0.55884087 2.20205212 -0.60874242 4 0 1424 2.35200000 2893903754 2893903754 -15.00000000
0.66338551 2.61017704 -0.62176472 3 2 1426 2.76400000 2893903758 2893903758 -13.00000000
0.79363817 3.12039185 -0.62585348 2 4 1427 3.28000000 2893903763 2893903763 -11.00000000
1.00831962 3.95868182 -0.64701295 2 6 1429 4.13600000 2893903767 2893903767 -9.00000000
1.35223567 5.30116606 -0.67174381 2 8 1431 5.51200000 2893903772 2893903772 -7.00000000
2.03523135 7.97290230 -0.71990645 4 10 1432 8.26000000 2893903777 2893903777 -5.00000000
2.45680118 9.61737251 1.92946053 12 11 1433 10.11200000 2893903779 2893903779 11.00000000
2.53180528 9.89657688 2.35838675 57 13 1435 10.48400000 2893903784 2893903784 13.00000000
2.19152021 8.56021309 2.36767673 45 15 1436 9.14800000 2893903788 2893903788 15.00000000
0.56363368 2.18886304 -0.60563654 4 0 1444 2.34000000 2893903809 2893903809 -15.00000000
0.67249268 2.60784554 -0.62176472 3 2 1446 2.76400000 2893903813 2893903813 -13.00000000
0.80158216 3.10619664 -0.62356383 2 4 1447 3.26800000 2893903818 2893903818 -11.00000000
1.02114332 3.95131302 -0.64638722 2 6 1449 4.13200000 2893903823 2893903823 -9.00000000
1.37570560 5.31563139 -0.67418122 2 8 1451 5.53200000 2893903827 2893903827 -7.00000000
2.05605626 7.93874693 -0.71746606 4 10 1452 8.23200000 2893903832 2893903832 -5.00000000
2.49232721 9.61633968 1.93098700 21 11 1453 10.12000000 2893903834 2893903834 11.00000000
2.56633544 9.88767910 2.35838675 60 13 1455 10.48400000 2893903839 2893903839 13.00000000
2.22093630 8.54464436 2.36560607 45 15 1457 9.14000000 2893903843 2893903843 15.00000000
0.57127076 2.18688226 -0.60563654 4 0 1464 2.34000000 2893903864 2893903864 -15.00000000
0.68208486 2.60736752 -0.62221462 3 2 1466 2.76600000 2893903869 2893903869 -13.00000000
0.81440872 3.11097670 -0.62509024 2 4 1467 3.27600000 2893903873 2893903873 -11.00000000
1.03492975 3.94772434 -0.64638722 2 6 1469 4.13200000 2893903878 2893903878 -9.00000000
1.39021969 5.29543686 -0.67223132 2 8 1471 5.51600000 2893903883 2893903883 -7.00000000
2.07565498 7.90068960 -0.71467710 4 10 1472 8.20000000 2893903887 2893903887 -5.00000000
2.52987289 9.62277126 1.93403995 18 11 1473 10.13600000 2893903889 2893903889 11.00000000
2.60281873 9.88619804 2.36018658 60 13 1475 10.49200000 2893903894 2893903894 13.00000000
2.24778271 8.53162861 2.36405325 42 15 1476 9.13400000 2893903899 2893903899 15.00000000
0.57989049 2.18860960 -0.60667187 4 0 1484 2.34400000 2893903919 2893903919 -15.00000000
0.68868327 2.59555292 -0.61996508 3 2 1486 2.75600000 2893903924 2893903924 -13.00000000
0.82627076 3.11191010 -0.62585348 2 4 1487 3.28000000 2893903929 2893903929 -11.00000000
1.04362750 3.92499733 -0.64325851 2 6 1489 4.11200000 2893903933 2893903933 -9.00000000
1.41124964 5.30014277 -0.67344999 2 8 1491 5.52600000 2893903938 2893903938 -7.00000000
2.11040258 7.92034912 -0.71711743 4 10 1492 8.22800000 2893903942 2893903942 -5.00000000
2.55889487 9.59680939 1.93060541 18 11 1493 10.11800000 2893903945 2893903945 11.00000000
2.63630676 9.87328720 2.35928655 60 13 1495 10.48800000 2893903949 2893903949 13.00000000
2.27853847 8.52146626 2.36353540 45 15 1497 9.13200000 2893903954 2893903954 15.00000000
0.58852929 2.19030356 -0.60770714 4 0 1504 2.34800000 2893903975 2893903975 -15.00000000
0.69571388 2.58560586 -0.61816549 3 2 1506 2.74800000 2893903979 2893903979 -13.00000000
0.83917004 3.11658978 -0.62737995 4 4 1507 3.28800000 2893903984 2893903984 -11.00000000
1.06863570 3.96329021 -0.65014166 2 6 1509 4.15600000 2893903989 2893903989 -9.00000000
1.42508483 5.27793646 -0.67125636 2 8 1511 5.50800000 2893903993 2893903993 -7.00000000
2.14115524 7.92447472 -0.71816331 4 10 1512 8.24000000 2893903998 2893903998 -5.00000000
2.59699011 9.60487556 1.93403995 21 11 1513 10.13600000 2893904000 2893904000 11.00000000
2.66973639 9.86026287 2.35838675 57 13 1515 10.48400000 2893904005 2893904005 13.00000000
2.30880499 8.52132225 2.36560607 42 15 1516 9.14000000 2893904009 2893904009 15.00000000
0.59769469 2.19382763 -0.60926002 4 0 1524 2.35400000 2893904030 2893904030 -15.00000000
0.70832545 2.59632182 -0.62131482 3 2 1526 2.76200000 2893904035 2893904035 -13.00000000
0.85211211 3.12121725 -0.62890643 2 4 1527 3.29600000 2893904039 2893904039 -11.00000000
1.07829630 3.94429231 -0.64763868 2 6 1529 4.14000000 2893904044 2893904044 -9.00000000
1.44454789 5.27675915 -0.67174381 2 8 1531 5.51200000 2893904048 2893904048 -7.00000000
2.16985655 7.92079544 -0.71851194 4 10 1532 8.24400000 2893904053 2893904053 -5.00000000
2.63465405 9.61089897 1.93709290 21 11 1533 10.15200000 2893904055 2893904055 11.00000000
2.70207524 9.84336662 2.35658717 60 13 1535 10.47600000 2893904060 2893904060 13.00000000
2.34206986 8.52025318 2.36767673 45 15 1537 9.14800000 2893904065 2893904065 15.00000000
0.60599440 2.19555783 -0.61029530 4 0 1543 2.35800000 2893904085 2893904085 -15.00000000
0.71537381 2.58832359 -0.61996508 3 2 1545 2.75600000 2893904090 2893904090 -13.00000000
0.85827106 3.10323668 -0.62585348 2 4 1546 3.28000000 2893904095 2893904095 -11.00000000
1.09031570 3.93688726 -0.64701295 2 6 1548 4.13600000 2893904099 2893904099 -9.00000000
1.46469069 5.28150415 -0.67296249 2 8 1550 5.52200000 2893904104 2893904104 -7.00000000
2.18758631 7.88283920 -0.71572298 4 10 1551 8.21200000 2893904108 2893904108 -5.00000000
2.67176366 9.62102604 1.94090915 25 11 1552 10.17200000 2893904111 2893904111 11.00000000
2.73574638 9.83810711 2.35748696 56 13 1554 10.48000000 2893904115 2893904115 13.00000000
2.36520028 8.49982548 2.36405325 38 15 1555 9.13400000 2893904120 2893904120 15.00000000
0.60949075 2.17854595 -0.60615420 4 0 1563 2.34200000 2893904141 2893904141 -15.00000000
0.72808427 2.59894633 -0.62311441 3 2 1565 2.77000000 2893904145 2893904145 -13.00000000
0.86697841 3.09266043 -0.62432700 2 4 1566 3.27200000 2893904150 2893904150 -11.00000000
1.10405135 3.93305755 -0.64701295 2 6 1568 4.13600000 2893904154 2893904154 -9.00000000
1.47667170 5.25342703 -0.67003763 2 8 1570 5.49800000 2893904159 2893904159 -7.00000000
2.21832609 7.88666248 -0.71676880 4 10 1571 8.22400000 2893904164 2893904164 -5.00000000
2.70692658 9.61731052 1.94205391 25 11 1572 10.17800000 2893904166 2893904166 11.00000000
2.76901388 9.82474613 2.35658717 57 13 1574 10.47600000 2893904171 2893904171 13.00000000
2.39485574 8.49151802 2.36405325 42 15 1575 9.13400000 2893904175 2893904175 15.00000000
0.61814553 2.18012238 -0.60718948 4 0 1583 2.34600000 2893904196 2893904196 -15.00000000
0.73129719 2.57576776 -0.61816549 3 2 1585 2.74800000 2893904201 2893904201 -13.00000000
0.88742614 3.12360859 -0.63119614 2 4 1586 3.30800000 2893904205 2893904205 -11.00000000
1.11236846 3.91017962 -0.64388424 2 6 1588 4.11600000 2893904210 2893904210 -9.00000000
1.50152659 5.27115011 -0.67296249 2 8 1590 5.52200000 2893904214 2893904214 -7.00000000
2.24256516 7.86737490 -0.71572298 4 10 1591 8.21200000 2893904219 2893904219 -5.00000000
2.73886538 9.60213852 1.94090915 21 11 1592 10.17200000 2893904221 2893904221 11.00000000
3.19201255 11.18341923 -0.60950452 4 12 1593 11.64600000 2893904224 2893904224 -3.00000000
2.80543256 9.82251549 2.35838675 59 13 1594 10.48400000 2893904226 2893904226 13.00000000
3.20476031 11.21325016 -0.20356487 2 14 1595 11.66400000 2893904228 2893904228 -1.00000000
2.42607474 8.48867893 2.36560607 42 15 1595 9.14000000 2893904230 2893904230 15.00000000
0.62895256 2.18909168 -0.61029530 4 0 1603 2.35800000 2893904251 2893904251 -15.00000000
3.21352959 11.17745209 0.20300639 3 1 1604 11.63200000 2893904254 2893904254 1.00000000
0.74136138 2.57694507 -0.61906528 3 2 1605 2.75200000 2893904256 2893904256 -13.00000000
0.90049666 3.12803841 -0.63272262 2 4 1606 3.31600000 2893904260 2893904260 -11.00000000
1.12601078 3.90627289 -0.64388424 2 6 1608 4.11600000 2893904265 2893904265 -9.00000000
1.51165974 5.23726797 -0.66930646 2 8 1610 5.49200000 2893904270 2893904270 -7.00000000
2.27443671 7.87481213 -0.71711743 4 10 1611 8.22800000 2893904274 2893904274 -5.00000000
2.77454686 9.60006428 1.94243562 21 11 1612 10.18000000 2893904277 2893904277 11.00000000
3.20550632 11.08395195 -0.60468966 4 12 1613 11.55400000 2893904279 2893904279 -3.00000000
2.83753562 9.80517578 2.35658717 59 13 1614 10.47600000 2893904281 2893904281 13.00000000
3.22052097 11.12132168 -0.20209886 6 14 1615 11.58000000 2893904283 2893904283 -1.00000000
2.45717096 8.47972965 2.36560607 42 15 1616 9.14000000 2893904286 2893904286 15.00000000
0.63659012 2.18688297 -0.61029530 4 0 1623 2.35800000 2893904307 2893904307 -15.00000000
3.23519015 11.10664940 0.20192434 6 1 1624 11.57000000 2893904309 2893904309 1.00000000
0.75035208 2.57434154 -0.61906528 3 2 1625 2.75200000 2893904311 2893904311 -13.00000000
3.24406815 11.12266731 0.60720176 28 3 1626 11.60200000 2893904313 2893904313 3.00000000
0.90481359 3.10225916 -0.62814319 2 4 1626 3.29200000 2893904316 2893904316 -11.00000000
3.25037551 11.13706017 1.01501572 21 5 1627 11.64600000 2893904318 2893904318 5.00000000
1.14628446 3.92507267 -0.64763868 2 6 1628 4.14000000 2893904320 2893904320 -9.00000000
3.26016212 11.15611267 1.42709005 23 7 1629 11.71000000 2893904323 2893904323 7.00000000
1.53661788 5.25482321 -0.67223132 2 8 1630 5.51600000 2893904325 2893904325 -7.00000000
3.27304482 11.18569279 1.84592664 12 9 1631 11.80000000 2893904327 2893904327 9.00000000
2.30079198 7.86300039 -0.71676880 4 10 1631 8.22400000 2893904330 2893904330 -5.00000000
2.81466055 9.61293030 1.94701505 18 11 1632 10.20400000 2893904332 2893904332 11.00000000
3.20093632 10.92511082 -0.59662992 4 12 1633 11.40000000 2893904334 2893904334 -3.00000000
2.86845517 9.78399086 2.35388780 57 13 1634 10.46400000 2893904336 2893904336 13.00000000
3.21428823 10.95650578 -0.19930649 6 14 1635 11.42000000 2893904339 2893904339 -1.00000000
2.48745251 8.47894955 2.36767673 45 15 1635 9.14800000 2893904341 2893904341 15.00000000
0.64094138 2.17352962 -0.60718948 4 0 1643 2.34600000 2893904362 2893904362 -15.00000000
3.23206067 10.95336151 0.19934139 6 1 1644 11.42200000 2893904364 2893904364 1.00000000
0.76043737 2.57544446 -0.61996508 3 2 1645 2.75600000 2893904366 2893904366 -13.00000000
3.24099612 10.96953583 0.59945607 28 3 1646 11.45400000 2893904369 2893904369 3.00000000
0.91229928 3.08778524 -0.62585348 2 4 1646 3.28000000 2893904371 2893904371 -11.00000000
3.24912548 10.98999119 1.00263965 12 5 1647 11.50400000 2893904373 2893904373 5.00000000
1.15885782 3.91725922 -0.64701295 2 6 1648 4.13600000 2893904376 2893904376 -9.00000000
3.25907850 11.00952053 1.40978456 27 7 1649 11.56800000 2893904378 2893904378 7.00000000
1.55607879 5.25323391 -0.67271876 2 8 1650 5.52000000 2893904380 2893904380 -7.00000000
3.27165174 11.03783703 1.82340014 31 9 1651 11.65600000 2893904383 2893904383 9.00000000
2.33728433 7.88548517 -0.71955782 4 10 1651 8.25600000 2893904385 2893904385 -5.00000000
2.85043168 9.61057568 1.94854140 18 11 1652 10.21200000 2893904387 2893904387 11.00000000
3.19529700 10.76643753 -0.58857018 4 12 1653 11.24600000 2893904389 2893904389 -3.00000000
2.90591884 9.78512669 2.35658717 56 13 1654 10.47600000 2893904392 2893904392 13.00000000
3.21264076 10.81103992 -0.19686314 6 14 1655 11.28000000 2893904394 2893904394 -1.00000000
2.51373267 8.45910454 2.36457086 42 15 1655 9.13600000 2893904396 2893904396 15.00000000
0.64776653 2.17150545 -0.60718948 4 0 1661 2.34600000 2893904417 2893904417 -15.00000000
3.22413063 10.80135822 0.19675843 6 1 1662 11.27400000 2893904419 2893904419 1.00000000
0.77075541 2.58051181 -0.62176472 3 2 1663 2.76400000 2893904422 2893904422 -13.00000000
3.23580384 10.83356571 0.59254771 31 3 1663 11.32200000 2893904424 2893904424 3.00000000
0.91974658 3.07737970 -0.62432700 2 4 1664 3.27200000 2893904426 2893904426 -11.00000000
3.23282814 10.80984211 0.98712593 17 5 1665 11.32600000 2893904429 2893904429 5.00000000
1.17115855 3.91359901 -0.64701295 2 6 1666 4.13600000 2893904431 2893904431 -9.00000000
3.25549722 10.87181568 1.39345407 29 7 1667 11.43400000 2893904433 2893904433 7.00000000
1.57257462 5.24831963 -0.67271876 2 8 1668 5.52000000 2893904435 2893904435 -7.00000000
3.25902843 10.87670040 1.79837060 28 9 1668 11.49600000 2893904438 2893904438 9.00000000
2.35517931 7.85520172 -0.71746606 4 10 1669 8.23200000 2893904440 2893904440 -5.00000000
2.88286686 9.60909557 1.95006788 15 11 1670 10.22000000 2893904442 2893904442 11.00000000
3.19350028 10.63774490 -0.58208048 4 12 1671 11.12200000 2893904445 2893904445 -3.00000000
2.93552399 9.77221680 2.35568738 57 13 1672 10.47200000 2893904447 2893904447 13.00000000
3.20226479 10.65343475 -0.19417547 2 14 1673 11.12600000 2893904449 2893904449 -1.00000000
2.53751469 8.44191551 2.36198258 40 15 1673 9.12600000 2893904452 2893904452 15.00000000
0.65590125 2.17108035 -0.60770714 3 0 1681 2.34800000 2893904472 2893904472 -15.00000000
3.21436596 10.63307858 0.19389623 3 1 1682 11.11000000 2893904475 2893904475 1.00000000
0.78201526 2.58526659 -0.62356430 3 2 1683 2.77200000 2893904477 2893904477 -13.00000000
3.23845816 10.69929028 0.58584869 26 3 1684 11.19400000 2893904479 2893904479 3.00000000
0.93730807 3.09669924 -0.62890643 2 4 1684 3.29600000 2893904482 2893904482 -11.00000000
3.23993301 10.69742870 0.97788745 28 5 1685 11.22000000 2893904484 2893904484 5.00000000
1.17908311 3.89058256 -0.64388424 2 6 1686 4.11600000 2893904486 2893904486 -9.00000000
3.25194955 10.72360992 1.37590492 31 7 1687 11.29000000 2893904488 2893904488 7.00000000
1.59088516 5.24279833 -0.67271876 2 8 1688 5.52000000 2893904491 2893904491 -7.00000000
3.26041937 10.73804092 1.77740836 31 9 1689 11.36200000 2893904493 2893904493 9.00000000
3.22308826 10.61509323 -0.97056633 4 10 1689 11.13600000 2893904495 2893904495 -5.00000000
2.91753268 9.60273075 1.95083117 12 11 1690 10.22400000 2893904498 2893904498 11.00000000
3.22073746 10.59404755 -0.58030111 21 12 1691 11.08800000 2893904500 2893904500 -3.00000000
2.96848321 9.75818157 2.35478759 56 13 1692 10.46800000 2893904502 2893904502 13.00000000
3.22371006 10.59053993 -0.19323304 8 14 1693 11.07200000 2893904505 2893904505 -1.00000000
2.56900167 8.43440628 2.36250019 42 15 1694 9.12800000 2893904507 2893904507 15.00000000
0.66385430 2.16866159 -0.60770714 3 0 1702 2.34800000 2893904528 2893904528 -15.00000000
3.24511743 10.59445763 0.19340757 13 1 1703 11.08200000 2893904530 2893904530 1.00000000
0.78577495 2.56375122 -0.61906528 3 2 1704 2.75200000 2893904532 2893904532 -13.00000000
3.25413084 10.61726570 0.58197582 10 3 1704 11.12000000 2893904535 2893904535 3.00000000
0.94750047 3.08948922 -0.62814319 2 4 1705 3.29200000 2893904537 2893904537 -11.00000000
3.26392174 10.63595867 0.97335535 12 5 1706 11.16800000 2893904539 2893904539 5.00000000
3.25064898 10.58611870 -1.75394320 2 6 1707 11.21200000 2893904541 2893904541 -9.00000000
3.26732731 10.63381958 1.36591160 10 7 1708 11.20800000 2893904544 2893904544 7.00000000
3.25401568 10.58391571 -1.35957444 2 8 1709 11.15600000 2893904546 2893904546 -7.00000000
3.27826333 10.65616131 1.76583219 12 9 1710 11.28800000 2893904548 2893904548 9.00000000
2.41835928 7.86099958 -0.71955782 4 10 1710 8.25600000 2893904551 2893904551 -5.00000000
2.95848489 9.61073685 1.95464730 12 11 1711 10.24400000 2893904553 2893904553 11.00000000
3.26189685 10.58980656 -0.58071977 12 12 1712 11.09600000 2893904555 2893904555 -3.00000000
3.00308084 9.74351120 2.35388780 57 13 1713 10.46400000 2893904558 2893904558 13.00000000
3.26545143 10.58820820 -0.19340757 8 14 1714 11.08200000 2893904560 2893904560 -1.00000000
2.60013556 8.43092537 2.36405325 40 15 1714 9.13400000 2893904562 2893904562 15.00000000
0.67313600 2.17186689 -0.60926002 4 0 1722 2.35400000 2893904583 2893904583 -15.00000000
3.28977942 10.60789490 0.19386134 13 1 1723 11.10800000 2893904585 2893904585 1.00000000
0.79471934 2.56099272 -0.61906528 3 2 1724 2.75200000 2893904587 2893904587 -13.00000000
3.29294801 10.61156464 0.58228987 10 3 1724 11.12600000 2893904590 2893904590 3.00000000
0.95711470 3.08241296 -0.62737995 2 4 1725 3.28800000 2893904592 2893904592 -11.00000000
3.30102849 10.62450027 0.97335535 12 5 1726 11.16800000 2893904594 2893904594 5.00000000
1.21744907 3.91599941 -0.64951593 2 6 1727 4.15200000 2893904597 2893904597 -9.00000000
3.30796432 10.63372326 1.36737406 10 7 1728 11.22000000 2893904599 2893904599 7.00000000
1.62364089 5.21611691 -0.67076886 2 8 1729 5.50400000 2893904601 2893904601 -7.00000000
3.31132817 10.63145065 1.76364219 12 9 1730 11.27400000 2893904604 2893904604 9.00000000
2.44933939 7.86392355 -0.72060370 4 10 1730 8.26800000 2893904606 2893904606 -5.00000000
3.01946950 9.68844509 1.97258341 12 11 1731 10.33800000 2893904608 2893904608 11.00000000
3.30657196 10.60314369 -0.58208048 12 12 1732 11.12200000 2893904611 2893904611 -3.00000000
3.03359103 9.72180748 2.35118842 57 13 1733 10.45200000 2893904613 2893904613 13.00000000
3.31252313 10.60919476 -0.19400094 14 14 1734 11.11600000 2893904615 2893904615 -1.00000000
2.62954926 8.42179775 2.36405325 40 15 1734 9.13400000 2893904617 2893904617 15.00000000
0.67782140 2.16028786 -0.60667187 3 0 1742 2.34400000 2893904638 2893904638 -15.00000000
3.33397579 10.61924171 0.19428019 13 1 1743 11.13200000 2893904640 2893904640 1.00000000
0.81066263 2.58051276 -0.62446415 3 2 1744 2.77600000 2893904643 2893904643 -13.00000000
3.33840728 10.62038326 0.58344126 10 3 1745 11.14800000 2893904645 2893904645 3.00000000
0.96669102 3.07530737 -0.62661672 2 4 1745 3.28400000 2893904647 2893904647 -11.00000000
3.33809471 10.61291313 0.97335535 12 5 1746 11.16800000 2893904650 2893904650 5.00000000
1.22992492 3.90795732 -0.64889014 2 6 1747 4.14800000 2893904652 2893904652 -9.00000000
3.34983301 10.63725853 1.36932397 10 7 1748 11.23600000 2893904654 2893904654 7.00000000
1.64541817 5.22177744 -0.67223132 2 8 1749 5.51600000 2893904657 2893904657 -7.00000000
3.35072088 10.63360023 1.76583219 12 9 1749 11.28800000 2893904659 2893904659 9.00000000
2.47317982 7.84392452 -0.71955782 4 10 1750 8.25600000 2893904661 2893904661 -5.00000000
3.08339524 9.77333260 1.99204588 12 11 1751 10.44000000 2893904664 2893904664 11.00000000
3.35017753 10.61248684 -0.58323193 12 12 1752 11.14400000 2893904666 2893904666 -3.00000000
3.06985569 9.71859169 2.35298800 59 13 1753 10.46000000 2893904668 2893904668 13.00000000
3.35254908 10.60710049 -0.19417547 12 14 1754 11.12600000 2893904670 2893904670 -1.00000000
2.65748644 8.40289402 2.36146498 40 15 1755 9.12400000 2893904673 2893904673 15.00000000
0.68418854 2.15422606 -0.60563654 4 0 1762 2.34000000 2893904693 2893904693 -15.00000000
3.37405181 10.61706734 0.19445471 13 1 1763 11.14200000 2893904696 2893904696 1.00000000
0.81671268 2.56838179 -0.62221462 3 2 1764 2.76600000 2893904698 2893904698 -13.00000000
3.37844944 10.62448120 0.58427864 13 3 1764 11.16400000 2893904700 2893904700 3.00000000
0.97861046 3.07565594 -0.62737995 2 4 1765 3.28800000 2893904703 2893904703 -11.00000000
3.37632918 10.60499382 0.97370398 12 5 1766 11.17200000 2893904705 2893904705 5.00000000
1.23636365 3.88105416 -0.64513576 2 6 1767 4.12400000 2893904707 2893904707 -9.00000000
3.39297223 10.64441395 1.37176132 12 7 1768 11.25600000 2893904710 2893904710 7.00000000
1.66061962 5.20654583 -0.67101258 2 8 1769 5.50600000 2893904712 2893904712 -7.00000000
3.39627886 10.64194775 1.76927376 12 9 1770 11.31000000 2893904714 2893904714 9.00000000
2.49448776 7.81626320 -0.71781468 4 10 1770 8.23600000 2893904717 2893904717 -5.00000000
3.18557501 9.97571373 2.03555036 50 11 1771 10.66800000 2893904719 2893904719 11.00000000
3.38963318 10.60833836 -0.58365059 12 12 1772 11.15200000 2893904721 2893904721 -3.00000000
3.10376120 9.70781708 2.35298800 60 13 1773 10.46000000 2893904723 2893904723 13.00000000
3.39442873 10.61056995 -0.19445471 10 14 1774 11.14200000 2893904726 2893904726 -1.00000000
2.68326807 8.38252735 2.35835910 42 15 1775 9.11200000 2893904728 2893904728 15.00000000
0.69390565 2.16126299 -0.60822475 4 0 1780 2.35000000 2893904749 2893904749 -15.00000000
3.40922451 10.61212730 0.19455943 13 1 1781 11.14800000 2893904751 2893904751 1.00000000
0.82656652 2.57136917 -0.62356430 3 2 1782 2.77200000 2893904753 2893904753 -13.00000000
3.41975617 10.63853359 0.58563936 13 3 1782 11.19000000 2893904756 2893904756 3.00000000
0.99067265 3.08004236 -0.62890643 2 4 1783 3.29600000 2893904758 2893904758 -11.00000000
3.41573286 10.61330032 0.97544706 12 5 1784 11.19200000 2893904760 2893904760 5.00000000
1.25097227 3.88467193 -0.64638722 2 6 1785 4.13200000 2893904763 2893904763 -9.00000000
3.42639589 10.63370228 1.37176132 12 7 1786 11.25600000 2893904765 2893904765 7.00000000
1.68001390 5.21075010 -0.67223132 2 8 1787 5.51600000 2893904767 2893904767 -7.00000000
3.43208241 10.64498520 1.77146387 12 9 1787 11.32400000 2893904770 2893904770 9.00000000
2.52881837 7.83872652 -0.72060370 4 10 1788 8.26800000 2893904772 2893904772 -5.00000000
3.21629572 9.96378899 2.03516865 43 11 1789 10.66600000 2893904774 2893904774 11.00000000
3.42662668 10.60904026 -0.58427864 12 12 1790 11.16400000 2893904776 2893904776 -3.00000000
3.12465549 9.66834927 2.34578967 57 13 1791 10.42800000 2893904779 2893904779 13.00000000
3.43389893 10.61888123 -0.19480376 10 14 1792 11.16200000 2893904781 2893904781 -1.00000000
2.71137333 8.37957001 2.35991216 45 15 1793 9.11800000 2893904783 2893904783 15.00000000
0.70383352 2.16617680 -0.61029530 4 0 1800 2.35800000 2893904804 2893904804 -15.00000000
3.44748354 10.60396576 0.19462924 13 1 1801 11.15200000 2893904806 2893904806 1.00000000
0.82950884 2.54993677 -0.61906528 3 2 1802 2.75200000 2893904809 2893904809 -13.00000000
3.45687079 10.62653160 0.58563936 13 3 1802 11.19000000 2893904811 2893904811 3.00000000
1.00384855 3.08403277 -0.63043290 2 4 1803 3.30400000 2893904813 2893904813 -11.00000000
3.45769548 10.61646748 0.97684157 12 5 1804 11.20800000 2893904816 2893904816 5.00000000
1.26207638 3.87276888 -0.64513576 2 6 1805 4.12400000 2893904818 2893904818 -9.00000000
3.46349359 10.62167645 1.37176132 14 7 1806 11.25600000 2893904820 2893904820 7.00000000
3.46288443 10.61352348 -1.37078643 2 8 1807 11.24800000 2893904823 2893904823 -7.00000000
3.47289562 10.64420795 1.77334106 12 9 1807 11.33600000 2893904825 2893904825 9.00000000
2.55369186 7.82227564 -0.71990645 4 10 1808 8.26000000 2893904827 2893904827 -5.00000000
3.25044656 9.95063496 2.03478718 43 11 1809 10.66400000 2893904829 2893904829 11.00000000
3.46549988 10.60270977 -0.58459264 12 12 1810 11.17000000 2893904832 2893904832 -3.00000000
3.11961722 9.53884220 2.31699586 62 13 1811 10.30000000 2893904834 2893904834 13.00000000
3.47716403 10.62583542 -0.19515280 10 14 1812 11.18200000 2893904836 2893904836 -1.00000000
2.74241042 8.37556267 2.36146498 42 15 1813 9.12400000 2893904839 2893904839 15.00000000
0.71297562 2.16725278 -0.61133057 4 0 1821 2.36200000 2893904859 2893904859 -15.00000000
3.49132776 10.60645390 0.19490847 13 1 1822 11.16800000 2893904862 2893904862 1.00000000
0.84128779 2.55428290 -0.62086493 3 2 1823 2.76000000 2893904864 2893904864 -13.00000000
3.49454618 10.60999584 0.58543003 13 3 1823 11.18600000 2893904866 2893904866 3.00000000
1.01391637 3.07660365 -0.62966967 2 4 1824 3.30000000 2893904869 2893904869 -11.00000000
3.50032711 10.61507607 0.97788745 12 5 1825 11.22000000 2893904871 2893904871 5.00000000
1.28430855 3.89250398 -0.64920300 2 6 1826 4.15000000 2893904873 2893904873 -9.00000000
3.50986838 10.63153172 1.37468624 12 7 1827 11.28000000 2893904875 2893904875 7.00000000
3.50674272 10.61583900 -1.37273633 2 8 1828 11.26400000 2893904878 2893904878 -7.00000000
