# .PCD v0.7 - Point Cloud Data file format
VERSION 0.7
FIELDS x y z intensity laser_id azimuth distance_m adjustedtime timestamp vertical_angle
SIZE 4 4 4 1 1 2 8 8 4 8
TYPE F F F U U U F U U F
COUNT 1 1 1 1 1 1 1 1 1 1
WIDTH 532
HEIGHT 1
VIEWPOINT 0 0 0 1 0 0 0
POINTS 532
DATA ascii
8.15859318 -0.68366224 2.19375014 47 15 9479 8.47600000 2887526436 2887526436 15.00000000
2.21364188 -0.18821938 -0.59528381 4 0 9486 2.30000000 2887526457 2887526457 -15.00000000
8.09941578 -0.69009304 0.14188807 12 1 9487 8.13000000 2887526459 2887526459 1.00000000
2.59019589 -0.22114734 -0.60016942 7 2 9488 2.66800000 2887526461 2887526461 -13.00000000
8.09539795 -0.69117391 0.42580533 18 3 9488 8.13600000 2887526464 2887526464 3.00000000
3.10825634 -0.26592511 -0.60639101 5 4 9489 3.17800000 2887526466 2887526466 -11.00000000
8.10718060 -0.69503051 0.71188813 76 5 9490 8.16800000 2887526468 2887526468 5.00000000
3.89295673 -0.33442858 -0.61885476 6 6 9491 3.95600000 2887526470 2887526470 -9.00000000
8.11086750 -0.69819880 0.99957234 92 7 9492 8.20200000 2887526473 2887526473 7.00000000
5.15401220 -0.44457328 -0.63518304 4 8 9493 5.21200000 2887526475 2887526475 -7.00000000
8.19688225 -0.70848560 1.30309904 7 9 9494 8.33000000 2887526477 2887526477 9.00000000
6.59810162 -0.57029736 -0.57941139 100 10 9494 6.64800000 2887526480 2887526480 -5.00000000
8.08845520 -0.70195848 -0.42549133 17 12 9496 8.13000000 2887526484 2887526484 -3.00000000
8.09210014 -0.70512080 -0.14178336 16 14 9498 8.12400000 2887526489 2887526489 -1.00000000
8.16782856 -0.71171957 2.19685602 49 15 9498 8.48800000 2887526491 2887526491 15.00000000
2.20527411 -0.19526374 -0.59321326 4 0 9506 2.29200000 2887526512 2887526512 -15.00000000
8.10492516 -0.71906799 0.14202769 12 1 9507 8.13800000 2887526514 2887526514 1.00000000
2.59329033 -0.23053259 -0.60106921 7 2 9508 2.67200000 2887526516 2887526516 -13.00000000
8.10089302 -0.72013527 0.42622402 18 3 9508 8.14400000 2887526519 2887526519 3.00000000
3.10339808 -0.27642494 -0.60562778 4 4 9509 3.17400000 2887526521 2887526521 -11.00000000
8.10470486 -0.72332561 0.71188813 76 5 9510 8.16800000 2887526523 2887526523 5.00000000
3.89570069 -0.34836739 -0.61948049 6 6 9511 3.96000000 2887526526 2887526526 -9.00000000
8.11233521 -0.72686106 1.00005984 92 7 9512 8.20600000 2887526528 2887526528 7.00000000
5.17220020 -0.46433643 -0.63762039 6 8 9513 5.23200000 2887526530 2887526530 -7.00000000
8.18649006 -0.73638588 1.30184758 7 9 9514 8.32200000 2887526533 2887526533 9.00000000
8.10186958 -0.73162520 -0.42632869 17 12 9516 8.14600000 2887526540 2887526540 -3.00000000
8.08162308 -0.73264104 -0.14164373 16 14 9518 8.11600000 2887526544 2887526544 -1.00000000
8.15759850 -0.73952860 2.19478559 47 15 9518 8.48000000 2887526546 2887526546 15.00000000
2.19688416 -0.20225197 -0.59114271 4 0 9526 2.28400000 2887526567 2887526567 -15.00000000
8.09041882 -0.74625301 0.14181826 15 1 9527 8.12600000 2887526569 2887526569 1.00000000
2.59829116 -0.24012144 -0.60241890 6 2 9528 2.67800000 2887526572 2887526572 -13.00000000
8.10416603 -0.75037414 0.42653805 23 3 9529 8.15000000 2887526574 2887526574 3.00000000
3.11023402 -0.28798017 -0.60715425 4 4 9529 3.18200000 2887526576 2887526576 -11.00000000
8.09816265 -0.75124383 0.71153951 79 5 9530 8.16400000 2887526579 2887526579 5.00000000
3.88069272 -0.36068413 -0.61729038 6 6 9531 3.94600000 2887526581 2887526581 -9.00000000
8.11172581 -0.75535804 1.00030363 90 7 9532 8.20800000 2887526583 2887526583 7.00000000
5.17647743 -0.48294115 -0.63835162 8 8 9533 5.23800000 2887526586 2887526586 -7.00000000
8.19186974 -0.76426315 1.30309904 7 9 9533 8.33000000 2887526588 2887526588 9.00000000
6.57015467 -0.61412144 -0.57731962 102 10 9534 6.62400000 2887526590 2887526590 -5.00000000
8.10721970 -0.76064783 -0.42674738 17 12 9536 8.15400000 2887526595 2887526595 -3.00000000
8.09096146 -0.76197165 -0.14185315 16 14 9538 8.12800000 2887526599 2887526599 -1.00000000
8.15483284 -0.76942271 2.19478559 47 15 9539 8.48000000 2887526602 2887526602 15.00000000
2.20001101 -0.21028693 -0.59217799 4 0 9546 2.28800000 2887526622 2887526622 -15.00000000
8.08378315 -0.77410811 0.14174844 12 1 9547 8.12200000 2887526625 2887526625 1.00000000
2.58967781 -0.24844530 -0.60061932 6 2 9548 2.67000000 2887526627 2887526627 -13.00000000
8.10958576 -0.77800733 0.42695674 18 3 9548 8.15800000 2887526629 2887526629 3.00000000
3.11311817 -0.29921082 -0.60791749 4 4 9549 3.18600000 2887526632 2887526632 -11.00000000
8.09747410 -0.77969807 0.71171379 76 5 9550 8.16600000 2887526634 2887526634 5.00000000
3.87351131 -0.37365904 -0.61635178 6 6 9551 3.94000000 2887526636 2887526636 -9.00000000
8.10903931 -0.78366864 1.00030363 90 7 9552 8.20800000 2887526639 2887526639 7.00000000
5.18661547 -0.50215524 -0.63981408 8 8 9553 5.25000000 2887526641 2887526641 -7.00000000
8.20081043 -0.79542696 1.30497634 7 9 9554 8.34200000 2887526643 2887526643 9.00000000
8.09855175 -0.78836215 -0.42643338 17 12 9556 8.14800000 2887526650 2887526650 -3.00000000
8.08825302 -0.79020971 -0.14185315 16 14 9558 8.12800000 2887526655 2887526655 -1.00000000
8.14825249 -0.79750735 2.19375014 47 15 9559 8.47600000 2887526657 2887526657 15.00000000
2.20695329 -0.21872725 -0.59424853 4 0 9566 2.29600000 2887526678 2887526678 -15.00000000
8.08103180 -0.80232102 0.14174844 12 1 9567 8.12200000 2887526680 2887526680 1.00000000
2.57909894 -0.25651908 -0.59836978 5 2 9568 2.66000000 2887526682 2887526682 -13.00000000
8.10483265 -0.80611265 0.42685205 15 3 9568 8.15600000 2887526685 2887526685 3.00000000
3.11205482 -0.31007582 -0.60791749 4 4 9569 3.18600000 2887526687 2887526687 -11.00000000
8.10659885 -0.80914611 0.71275967 83 5 9570 8.17800000 2887526689 2887526689 5.00000000
3.88201118 -0.38816053 -0.61791611 6 6 9571 3.95000000 2887526692 2887526692 -9.00000000
8.09835339 -0.81117827 0.99932861 87 7 9572 8.20000000 2887526694 2887526694 7.00000000
5.15520334 -0.51728398 -0.63615799 8 8 9573 5.22000000 2887526696 2887526696 -7.00000000
8.20598984 -0.82340634 1.30622780 7 9 9573 8.35000000 2887526699 2887526699 9.00000000
6.57363701 -0.66077149 -0.57801688 36 10 9574 6.63200000 2887526701 2887526701 -5.00000000
8.07587910 -0.81462210 -0.42538664 17 12 9576 8.12800000 2887526705 2887526705 -3.00000000
8.10335064 -0.82025069 -0.14216730 14 14 9578 8.14600000 2887526710 2887526710 -1.00000000
8.15502930 -0.82691967 2.19633842 56 15 9579 8.48600000 2887526712 2887526712 15.00000000
2.19848943 -0.22564067 -0.59217799 4 0 9586 2.28800000 2887526733 2887526733 -15.00000000
8.09807396 -0.83256936 0.14209749 12 1 9587 8.14200000 2887526735 2887526735 1.00000000
2.57818794 -0.26552027 -0.59836978 5 2 9588 2.66000000 2887526738 2887526738 -13.00000000
8.09799576 -0.83398968 0.42664272 13 3 9588 8.15200000 2887526740 2887526740 3.00000000
3.10704780 -0.32053408 -0.60715425 4 4 9589 3.18200000 2887526742 2887526742 -11.00000000
8.11561584 -0.83866733 0.71380556 83 5 9590 8.19000000 2887526745 2887526745 5.00000000
3.86098385 -0.39967495 -0.61478746 4 6 9591 3.93000000 2887526747 2887526747 -9.00000000
8.10534573 -0.84046561 1.00054729 90 7 9592 8.21000000 2887526749 2887526749 7.00000000
5.16126394 -0.53609622 -0.63713294 6 8 9593 5.22800000 2887526752 2887526752 -7.00000000
8.21288967 -0.85306603 1.30779219 7 9 9593 8.36000000 2887526754 2887526754 9.00000000
6.58912563 -0.68556941 -0.57958567 40 10 9594 6.65000000 2887526756 2887526756 -5.00000000
8.08490467 -0.84405148 -0.42601469 17 12 9596 8.14000000 2887526761 2887526761 -3.00000000
8.08651638 -0.84707332 -0.14192297 16 14 9598 8.13200000 2887526765 2887526765 -1.00000000
8.15785694 -0.85598576 2.19789124 49 15 9599 8.49200000 2887526768 2887526768 15.00000000
2.20541334 -0.23374431 -0.59424853 4 0 9605 2.29600000 2887526788 2887526788 -15.00000000
8.09526825 -0.85941893 0.14209749 12 1 9606 8.14200000 2887526791 2887526791 1.00000000
2.58504438 -0.27489266 -0.60016942 4 2 9607 2.66800000 2887526793 2887526793 -13.00000000
8.09915829 -0.86126143 0.42685205 15 3 9607 8.15600000 2887526795 2887526795 3.00000000
3.08839774 -0.32896417 -0.60371965 5 4 9608 3.16400000 2887526798 2887526798 -11.00000000
8.10288429 -0.86451817 0.71293396 90 5 9609 8.18000000 2887526800 2887526800 5.00000000
3.88320756 -0.41499516 -0.61854190 4 6 9610 3.95400000 2887526802 2887526802 -9.00000000
8.10843468 -0.86797309 1.00127852 87 7 9611 8.21600000 2887526804 2887526804 7.00000000
5.15551043 -0.55278534 -0.63664544 6 8 9612 5.22400000 2887526807 2887526807 -7.00000000
8.19823074 -0.87903267 1.30591488 7 9 9612 8.34800000 2887526809 2887526809 9.00000000
6.57492971 -0.70613945 -0.57853985 12 10 9613 6.63800000 2887526811 2887526811 -5.00000000
8.09993362 -0.87278306 -0.42695674 17 12 9615 8.15800000 2887526816 2887526816 -3.00000000
8.07968712 -0.87345469 -0.14185315 16 14 9617 8.12800000 2887526821 2887526821 -1.00000000
8.15128613 -0.88119489 2.19685602 47 15 9617 8.48800000 2887526823 2887526823 15.00000000
2.19306183 -0.24017933 -0.59114271 4 0 9625 2.28400000 2887526844 2887526844 -15.00000000
8.09221935 -0.88767147 0.14209749 12 1 9626 8.14200000 2887526846 2887526846 1.00000000
2.58794332 -0.28434011 -0.60106921 4 2 9627 2.67200000 2887526848 2887526848 -13.00000000
8.10999966 -0.89105439 0.42758477 15 3 9627 8.17000000 2887526851 2887526851 3.00000000
3.09308505 -0.34038696 -0.60486454 4 4 9628 3.17000000 2887526853 2887526853 -11.00000000
8.09585667 -0.89236069 0.71258533 76 5 9629 8.17600000 2887526855 2887526855 5.00000000
3.86995459 -0.42724696 -0.61666465 4 6 9630 3.94200000 2887526857 2887526857 -9.00000000
8.11916733 -0.89779878 1.00298464 90 7 9631 8.23000000 2887526860 2887526860 7.00000000
5.15354919 -0.57077807 -0.63664544 6 8 9632 5.22400000 2887526862 2887526862 -7.00000000
8.20100307 -0.90829682 1.30685353 7 9 9632 8.35400000 2887526864 2887526864 9.00000000
6.57440519 -0.72930562 -0.57871413 16 10 9633 6.64000000 2887526867 2887526867 -5.00000000
8.10676289 -0.90215629 -0.42748010 17 12 9635 8.16800000 2887526871 2887526871 -3.00000000
8.08056355 -0.90209645 -0.14192297 16 14 9637 8.13200000 2887526876 2887526876 -1.00000000
8.15184116 -0.91149426 2.19789124 47 15 9638 8.49200000 2887526878 2887526878 15.00000000
2.18837094 -0.24739905 -0.59010744 4 0 9645 2.28000000 2887526899 2887526899 -15.00000000
8.07913589 -0.91478825 0.14192297 12 1 9646 8.13200000 2887526901 2887526901 1.00000000
2.58306241 -0.29293281 -0.60016942 4 2 9647 2.66800000 2887526904 2887526904 -13.00000000
8.10469437 -0.92054766 0.42748010 10 3 9648 8.16800000 2887526906 2887526906 3.00000000
3.10163164 -0.35228962 -0.60677260 5 4 9648 3.18000000 2887526908 2887526908 -11.00000000
8.09467220 -0.92084026 0.71275967 83 5 9649 8.17800000 2887526910 2887526910 5.00000000
3.86843967 -0.44075301 -0.61666465 4 6 9650 3.94200000 2887526913 2887526913 -9.00000000
8.10809517 -0.92523426 1.00200975 92 7 9651 8.22200000 2887526915 2887526915 7.00000000
5.16335917 -0.59011626 -0.63810790 6 8 9652 5.23600000 2887526917 2887526917 -7.00000000
8.19778252 -0.93691814 1.30685353 7 9 9652 8.35400000 2887526920 2887526920 9.00000000
6.58765507 -0.75406277 -0.58010864 48 10 9653 6.65600000 2887526922 2887526922 -5.00000000
8.09364319 -0.92930955 -0.42695674 17 12 9655 8.15800000 2887526927 2887526927 -3.00000000
8.08332443 -0.93098378 -0.14202769 14 14 9657 8.13800000 2887526931 2887526931 -1.00000000
8.14877415 -0.93852174 2.19789124 49 15 9657 8.49200000 2887526934 2887526934 15.00000000
2.20284486 -0.25682610 -0.59424853 4 0 9665 2.29600000 2887526954 2887526954 -15.00000000
8.08582497 -0.94414371 0.14209749 12 1 9666 8.14200000 2887526957 2887526957 1.00000000
2.57041073 -0.30058950 -0.59746999 5 2 9667 2.65600000 2887526959 2887526959 -13.00000000
8.10539913 -0.94929737 0.42768943 13 3 9668 8.17200000 2887526961 2887526961 3.00000000
3.10233307 -0.36334255 -0.60715425 5 4 9668 3.18200000 2887526963 2887526963 -11.00000000
8.09932327 -0.95001876 0.71345693 83 5 9669 8.18600000 2887526966 2887526966 5.00000000
3.86295390 -0.45379278 -0.61603892 4 6 9670 3.93800000 2887526968 2887526968 -9.00000000
8.10087299 -0.95306724 1.00152230 90 7 9671 8.21800000 2887526970 2887526970 7.00000000
5.14352465 -0.60604554 -0.63591421 4 8 9672 5.21800000 2887526973 2887526973 -7.00000000
8.20998764 -0.96881020 1.30935645 7 9 9673 8.37000000 2887526975 2887526975 9.00000000
8.08241558 -0.95661700 -0.42653805 17 12 9675 8.15000000 2887526982 2887526982 -3.00000000
8.09988308 -0.96155149 -0.14237674 14 14 9677 8.15800000 2887526987 2887526987 -1.00000000
8.15487099 -0.96952254 2.20047951 51 15 9678 8.50200000 2887526989 2887526989 15.00000000
2.19814467 -0.26366943 -0.59321326 4 0 9684 2.29200000 2887527010 2887527010 -15.00000000
8.09059143 -0.97190613 0.14223711 12 1 9685 8.15000000 2887527012 2887527012 1.00000000
2.56939983 -0.30911165 -0.59746999 5 2 9686 2.65600000 2887527014 2887527014 -13.00000000
8.09824085 -0.97569281 0.42748010 13 3 9687 8.16800000 2887527016 2887527016 3.00000000
3.09526348 -0.37292373 -0.60600936 5 4 9687 3.17600000 2887527019 2887527019 -11.00000000
8.10206223 -0.97758788 0.71397984 79 5 9688 8.19200000 2887527021 2887527021 5.00000000
3.86142778 -0.46660030 -0.61603892 4 6 9689 3.93800000 2887527023 2887527023 -9.00000000
8.09766769 -0.97992545 1.00152230 90 7 9690 8.21800000 2887527026 2887527026 7.00000000
5.13951588 -0.62285995 -0.63567048 6 8 9691 5.21600000 2887527028 2887527028 -7.00000000
8.19905949 -0.99364716 1.30810499 7 9 9691 8.36200000 2887527030 2887527030 9.00000000
6.57643604 -0.79816556 -0.57958567 124 10 9692 6.65000000 2887527033 2887527033 -5.00000000
8.09307766 -0.98510325 -0.42727074 17 12 9694 8.16400000 2887527037 2887527037 -3.00000000
8.09665012 -0.98840642 -0.14237674 14 14 9696 8.15800000 2887527042 2887527042 -1.00000000
8.15561962 -0.99560517 2.20151472 56 15 9696 8.50600000 2887527044 2887527044 15.00000000
2.19337654 -0.27086726 -0.59217799 4 0 9704 2.28800000 2887527065 2887527065 -15.00000000
8.09111881 -1.00063252 0.14230692 12 1 9705 8.15400000 2887527067 2887527067 1.00000000
2.57604098 -0.31903672 -0.59926963 4 2 9706 2.66400000 2887527069 2887527069 -13.00000000
8.09875011 -1.00444663 0.42768943 13 3 9707 8.17200000 2887527072 2887527072 3.00000000
3.08420134 -0.38251776 -0.60410130 5 4 9707 3.16600000 2887527074 2887527074 -11.00000000
8.10057831 -1.00610900 0.71415418 76 5 9708 8.19400000 2887527076 2887527076 5.00000000
3.87153721 -0.48153925 -0.61791611 4 6 9709 3.95000000 2887527079 2887527079 -9.00000000
8.10601711 -1.00965774 1.00298464 92 7 9710 8.23000000 2887527081 2887527081 7.00000000
5.14125013 -0.64128780 -0.63615799 4 8 9711 5.22000000 2887527083 2887527083 -7.00000000
8.19536209 -1.02369153 1.30810499 7 9 9712 8.36200000 2887527086 2887527086 9.00000000
8.09751701 -1.01434040 -0.42768943 17 12 9714 8.17200000 2887527092 2887527092 -3.00000000
8.08124638 -1.01516747 -0.14216730 14 14 9716 8.14600000 2887527097 2887527097 -1.00000000
8.14808273 -1.02500808 2.20047951 51 15 9717 8.50200000 2887527099 2887527099 15.00000000
2.18091893 -0.27706113 -0.58907217 4 0 9724 2.27600000 2887527120 2887527120 -15.00000000
8.09947872 -1.03038383 0.14251634 12 1 9725 8.16600000 2887527122 2887527122 1.00000000
2.57877803 -0.32851937 -0.60016942 5 2 9726 2.66800000 2887527125 2887527125 -13.00000000
8.09519482 -1.03271043 0.42768943 10 3 9727 8.17200000 2887527127 2887527127 3.00000000
3.08284736 -0.39328128 -0.60410130 5 4 9727 3.16600000 2887527129 2887527129 -11.00000000
8.09108734 -1.03362167 0.71363121 79 5 9728 8.18800000 2887527132 2887527132 5.00000000
3.85023856 -0.49254394 -0.61478746 4 6 9729 3.93000000 2887527134 2887527134 -9.00000000
8.11819553 -1.03996480 1.00493455 92 7 9730 8.24600000 2887527136 2887527136 7.00000000
5.13307333 -0.65847248 -0.63542676 4 8 9731 5.21400000 2887527139 2887527139 -7.00000000
8.19975948 -1.05186808 1.30935645 7 9 9731 8.37000000 2887527141 2887527141 9.00000000
8.09392643 -1.04259980 -0.42768943 17 12 9734 8.17200000 2887527148 2887527148 -3.00000000
8.08162022 -1.04388249 -0.14223711 16 14 9736 8.15000000 2887527152 2887527152 -1.00000000
8.14655495 -1.05226994 2.20099711 47 15 9736 8.50400000 2887527155 2887527155 15.00000000
2.18376970 -0.28517258 -0.59010744 4 0 9744 2.28000000 2887527175 2887527175 -15.00000000
8.08393574 -1.05709434 0.14230692 12 1 9745 8.15400000 2887527178 2887527178 1.00000000
2.56602192 -0.33600089 -0.59746999 5 2 9746 2.65600000 2887527180 2887527180 -13.00000000
8.11134338 -1.06355822 0.42873615 10 3 9747 8.19200000 2887527182 2887527182 3.00000000
3.08145571 -0.40404004 -0.60410130 5 4 9747 3.16600000 2887527185 2887527185 -11.00000000
8.09730721 -1.06315541 0.71450275 83 5 9748 8.19800000 2887527187 2887527187 5.00000000
3.83674455 -0.50443578 -0.61291021 6 6 9749 3.91800000 2887527189 2887527189 -9.00000000
8.10073853 -1.06648254 1.00322843 90 7 9750 8.23200000 2887527192 2887527192 7.00000000
5.12483931 -0.67560792 -0.63469553 2 8 9751 5.20800000 2887527194 2887527194 -7.00000000
8.19780731 -1.08217311 1.30966938 5 9 9752 8.37200000 2887527196 2887527196 9.00000000
6.56969261 -0.86724955 -0.57976002 16 10 9752 6.65200000 2887527198 2887527198 -5.00000000
8.09023857 -1.07084656 -0.42768943 17 12 9754 8.17200000 2887527203 2887527203 -3.00000000
8.08585548 -1.07313859 -0.14237674 16 14 9756 8.15800000 2887527208 2887527208 -1.00000000
8.14264297 -1.08212149 2.20099711 47 15 9757 8.50400000 2887527210 2887527210 15.00000000
2.19041967 -0.29382095 -0.59217799 4 0 9764 2.28800000 2887527231 2887527231 -15.00000000
8.08019638 -1.08530605 0.14230692 15 1 9765 8.15400000 2887527233 2887527233 1.00000000
2.55324531 -0.34339741 -0.59477061 4 2 9766 2.64400000 2887527235 2887527235 -13.00000000
8.09966373 -1.09079933 0.42831746 10 3 9767 8.18400000 2887527238 2887527238 3.00000000
3.08002663 -0.41479388 -0.60410130 5 4 9767 3.16600000 2887527240 2887527240 -11.00000000
8.10539436 -1.09301138 0.71554863 83 5 9768 8.21000000 2887527242 2887527242 5.00000000
3.84670615 -0.51941144 -0.61478746 4 6 9769 3.93000000 2887527245 2887527245 -9.00000000
8.09893417 -1.09501886 1.00347221 90 7 9770 8.23400000 2887527247 2887527247 7.00000000
5.11458111 -0.69242752 -0.63372058 2 8 9771 5.20000000 2887527249 2887527249 -7.00000000
8.20787621 -1.11120725 1.31185937 7 9 9771 8.38600000 2887527251 2887527251 9.00000000
6.57254839 -0.89097971 -0.58028293 16 10 9772 6.65800000 2887527254 2887527254 -5.00000000
8.08249283 -1.09854221 -0.42748010 17 12 9774 8.16800000 2887527258 2887527258 -3.00000000
8.08998585 -1.10243702 -0.14251634 16 14 9776 8.16600000 2887527263 2887527263 -1.00000000
8.14666653 -1.11016095 2.20306778 47 15 9776 8.51200000 2887527265 2887527265 15.00000000
2.19320822 -0.30199221 -0.59321326 4 0 9784 2.29200000 2887527286 2887527286 -15.00000000
8.08626366 -1.11487019 0.14248145 12 1 9785 8.16400000 2887527288 2887527288 1.00000000
2.56361389 -0.35390678 -0.59746999 4 2 9786 2.65600000 2887527291 2887527291 -13.00000000
8.09185028 -1.11851883 0.42810813 13 3 9787 8.18000000 2887527293 2887527293 3.00000000
3.07855988 -0.42554265 -0.60410130 5 4 9787 3.16600000 2887527295 2887527295 -11.00000000
8.09955597 -1.12102473 0.71537435 79 5 9788 8.20800000 2887527298 2887527298 5.00000000
3.83704281 -0.53175116 -0.61353600 4 6 9789 3.92200000 2887527300 2887527300 -9.00000000
8.10292721 -1.12437415 1.00444710 92 7 9790 8.24200000 2887527302 2887527302 7.00000000
5.10623455 -0.70945698 -0.63298935 2 8 9791 5.19400000 2887527304 2887527304 -7.00000000
8.19592285 -1.14019442 1.31060791 7 9 9792 8.37800000 2887527307 2887527307 9.00000000
6.57926512 -0.91528940 -0.58115447 16 10 9792 6.66800000 2887527309 2887527309 -5.00000000
8.09443378 -1.12895584 -0.42831746 17 12 9794 8.18400000 2887527314 2887527314 -3.00000000
8.08410835 -1.13039267 -0.14248145 16 14 9796 8.16400000 2887527318 2887527318 -1.00000000
8.16167545 -1.14269114 2.20824409 49 15 9797 8.53200000 2887527321 2887527321 15.00000000
2.18448925 -0.30856529 -0.59114271 4 0 9804 2.28400000 2887527341 2887527341 -15.00000000
8.09222317 -1.14448988 0.14265597 12 1 9805 8.17400000 2887527344 2887527344 1.00000000
2.57008076 -0.36394623 -0.59926963 5 2 9806 2.66400000 2887527346 2887527346 -13.00000000
8.09976101 -1.14844012 0.42873615 13 3 9807 8.19200000 2887527348 2887527348 3.00000000
3.07122421 -0.43545941 -0.60295641 5 4 9807 3.16000000 2887527351 2887527351 -11.00000000
8.10742950 -1.15097082 0.71642023 90 5 9808 8.22000000 2887527353 2887527353 5.00000000
3.83907485 -0.54569763 -0.61416173 4 6 9809 3.92600000 2887527355 2887527355 -9.00000000
8.10288429 -1.15321112 1.00493455 92 7 9810 8.24600000 2887527357 2887527357 7.00000000
5.12337923 -0.73007721 -0.63542676 4 8 9811 5.21400000 2887527360 2887527360 -7.00000000
8.18818569 -1.16680944 1.30998218 7 9 9811 8.37400000 2887527362 2887527362 9.00000000
6.56419563 -0.93656123 -0.58010864 16 10 9812 6.65600000 2887527364 2887527364 -5.00000000
8.08451271 -1.15635538 -0.42800346 21 12 9814 8.17800000 2887527369 2887527369 -3.00000000
8.07813358 -1.15832078 -0.14244655 18 14 9816 8.16200000 2887527374 2887527374 -1.00000000
8.14636707 -1.16810465 2.20513821 47 15 9816 8.52000000 2887527376 2887527376 15.00000000
2.17575121 -0.31508121 -0.58907217 4 0 9824 2.27600000 2887527397 2887527397 -15.00000000
8.08817863 -1.17273009 0.14265597 12 1 9825 8.17400000 2887527399 2887527399 1.00000000
2.57265162 -0.37347522 -0.60016942 6 2 9826 2.66800000 2887527401 2887527401 -13.00000000
8.10558605 -1.17814302 0.42925951 13 3 9827 8.20200000 2887527404 2887527404 3.00000000
3.06968546 -0.44617733 -0.60295641 5 4 9827 3.16000000 2887527406 2887527406 -11.00000000
8.09941864 -1.17869020 0.71607161 79 5 9828 8.21600000 2887527408 2887527408 5.00000000
3.82346344 -0.55710149 -0.61197162 6 6 9829 3.91200000 2887527410 2887527410 -9.00000000
8.09880924 -1.18148851 1.00493455 90 7 9830 8.24600000 2887527413 2887527413 7.00000000
5.12079954 -0.74795669 -0.63542676 4 8 9831 5.21400000 2887527415 2887527415 -7.00000000
8.18797207 -1.19595540 1.31060791 7 9 9831 8.37800000 2887527417 2887527417 9.00000000
8.05128002 -1.17742515 -0.71188813 13 10 9832 8.16800000 2887527420 2887527420 -5.00000000
8.10018826 -1.18746555 -0.42905018 17 12 9834 8.19800000 2887527424 2887527424 -3.00000000
8.08195496 -1.18767464 -0.14258616 16 14 9836 8.17000000 2887527429 2887527429 -1.00000000
8.13459492 -1.19541013 2.20306778 47 15 9836 8.51200000 2887527431 2887527431 15.00000000
2.17469454 -0.32229453 -0.58907217 4 0 9843 2.27600000 2887527452 2887527452 -15.00000000
8.08028889 -1.19895792 0.14258616 12 1 9844 8.17000000 2887527454 2887527454 1.00000000
2.56368876 -0.38085893 -0.59836978 5 2 9845 2.66000000 2887527457 2887527457 -13.00000000
8.11348724 -1.20677865 0.42988753 13 3 9846 8.21400000 2887527459 2887527459 3.00000000
3.07013106 -0.45664313 -0.60333806 5 4 9846 3.16200000 2887527461 2887527461 -11.00000000
8.09546566 -1.20554233 0.71607161 76 5 9847 8.21600000 2887527463 2887527463 5.00000000
3.82159495 -0.56977749 -0.61197162 6 6 9848 3.91200000 2887527466 2887527466 -9.00000000
8.10466290 -1.20980394 1.00615335 90 7 9849 8.25600000 2887527468 2887527468 7.00000000
5.12025452 -0.76522714 -0.63567048 6 8 9850 5.21600000 2887527470 2887527470 -7.00000000
8.18765450 -1.22511411 1.31123364 10 9 9851 8.38200000 2887527473 2887527473 9.00000000
8.05915356 -1.20588672 -0.71293396 17 10 9851 8.18000000 2887527475 2887527475 -5.00000000
8.08435440 -1.21254277 -0.42842212 17 12 9853 8.18600000 2887527480 2887527480 -3.00000000
8.08588219 -1.21565795 -0.14272578 14 14 9855 8.17800000 2887527484 2887527484 -1.00000000
8.14586926 -1.22467661 2.20720887 47 15 9855 8.52800000 2887527486 2887527486 15.00000000
2.18883610 -0.33220270 -0.59321326 4 0 9863 2.29200000 2887527507 2887527507 -15.00000000
8.09187031 -1.22955942 0.14286540 12 1 9864 8.18600000 2887527510 2887527510 1.00000000
2.55849051 -0.38921940 -0.59746999 5 2 9865 2.65600000 2887527512 2887527512 -13.00000000
8.09737873 -1.23328829 0.42925951 15 3 9866 8.20200000 2887527514 2887527514 3.00000000
3.07240009 -0.46794835 -0.60410130 5 4 9866 3.16600000 2887527516 2887527516 -11.00000000
8.09908676 -1.23499477 0.71676880 76 5 9867 8.22400000 2887527519 2887527519 5.00000000
3.81372452 -0.58221954 -0.61103302 6 6 9868 3.90600000 2887527521 2887527521 -9.00000000
8.09057903 -1.23658752 1.00493455 92 7 9869 8.24600000 2887527523 2887527523 7.00000000
5.10970306 -0.78189445 -0.63469553 6 8 9870 5.20800000 2887527526 2887527526 -7.00000000
8.19699669 -1.25578094 1.31342375 10 9 9871 8.39600000 2887527528 2887527528 9.00000000
8.04701805 -1.23280418 -0.71223670 17 10 9871 8.17200000 2887527530 2887527530 -5.00000000
8.18916798 -1.25604451 1.61042798 6 11 9872 8.44000000 2887527533 2887527533 11.00000000
8.08204651 -1.24105811 -0.42852682 17 12 9873 8.18800000 2887527535 2887527535 -3.00000000
8.09542465 -1.24600494 -0.14297011 16 14 9875 8.19200000 2887527539 2887527539 -1.00000000
8.14896297 -1.25570130 2.20927930 47 15 9876 8.53600000 2887527542 2887527542 15.00000000
2.18384528 -0.33924806 -0.59217799 4 0 9883 2.28800000 2887527563 2887527563 -15.00000000
8.09148121 -1.25841236 0.14293520 12 1 9884 8.19000000 2887527565 2887527565 1.00000000
2.54941416 -0.39694858 -0.59567040 6 2 9885 2.64800000 2887527567 2887527567 -13.00000000
8.09302425 -1.26154590 0.42925951 15 3 9886 8.20200000 2887527569 2887527569 3.00000000
3.06298852 -0.47746065 -0.60257483 5 4 9886 3.15800000 2887527572 2887527572 -11.00000000
8.10456944 -1.26479447 0.71764040 76 5 9887 8.23400000 2887527574 2887527574 5.00000000
3.82142758 -0.59705299 -0.61259735 6 6 9888 3.91600000 2887527576 2887527576 -9.00000000
8.09405899 -1.26604843 1.00590956 92 7 9889 8.25400000 2887527579 2887527579 7.00000000
5.09321451 -0.79757607 -0.63298935 8 8 9890 5.19400000 2887527581 2887527581 -7.00000000
8.18280506 -1.28285635 1.31185937 10 9 9891 8.38600000 2887527583 2887527583 9.00000000
7.99148846 -1.25286269 -0.70770460 17 10 9891 8.12000000 2887527586 2887527586 -5.00000000
8.08358479 -1.27019227 -0.42884082 17 12 9893 8.19400000 2887527590 2887527590 -3.00000000
8.09695148 -1.27518904 -0.14307483 14 14 9895 8.19800000 2887527595 2887527595 -1.00000000
8.15620422 -1.28452063 2.21238518 47 15 9895 8.54800000 2887527597 2887527597 15.00000000
2.16356874 -0.34383696 -0.58700162 4 0 9903 2.26800000 2887527618 2887527618 -15.00000000
8.09493828 -1.28790605 0.14307483 12 1 9904 8.19800000 2887527620 2887527620 1.00000000
2.55378652 -0.40676486 -0.59702009 6 2 9905 2.65400000 2887527622 2887527622 -13.00000000
8.09054375 -1.29010260 0.42936417 13 3 9906 8.20400000 2887527625 2887527625 3.00000000
3.06324196 -0.48845872 -0.60295641 5 4 9906 3.16000000 2887527627 2887527627 -11.00000000
8.10207272 -1.29339099 0.71781468 79 5 9907 8.23600000 2887527629 2887527629 5.00000000
3.81736946 -0.61007690 -0.61228448 4 6 9908 3.91400000 2887527632 2887527632 -9.00000000
8.09939098 -1.29586232 1.00712824 90 7 9909 8.26400000 2887527634 2887527634 7.00000000
5.08255911 -0.81409401 -0.63201439 8 8 9910 5.18600000 2887527636 2887527636 -7.00000000
8.17047501 -1.31016076 1.31060791 10 9 9911 8.37800000 2887527639 2887527639 9.00000000
8.03428078 -1.28832150 -0.71188813 17 10 9911 8.16800000 2887527641 2887527641 -5.00000000
8.08304596 -1.29903531 -0.42905018 17 12 9913 8.19800000 2887527645 2887527645 -3.00000000
8.08060551 -1.30153692 -0.14286540 14 14 9915 8.18600000 2887527650 2887527650 -1.00000000
8.15167046 -1.31298327 2.21238518 49 15 9915 8.54800000 2887527652 2887527652 15.00000000
2.17004418 -0.35224786 -0.58907217 4 0 9922 2.27600000 2887527673 2887527673 -15.00000000
8.08075428 -1.31313908 0.14290030 12 1 9923 8.18800000 2887527675 2887527675 1.00000000
2.56396437 -0.41710874 -0.59971952 6 2 9924 2.66600000 2887527678 2887527678 -13.00000000
8.09039307 -1.31615484 0.42957354 13 3 9924 8.20800000 2887527680 2887527680 3.00000000
3.05385447 -0.49735180 -0.60142994 5 4 9925 3.15200000 2887527682 2887527682 -11.00000000
8.08987331 -1.31896889 0.71711743 76 5 9926 8.22800000 2887527685 2887527685 5.00000000
3.81142616 -0.62209600 -0.61165875 6 6 9927 3.91000000 2887527687 2887527687 -9.00000000
8.10876274 -1.32495463 1.00883448 95 7 9928 8.27800000 2887527689 2887527689 7.00000000
5.07591295 -0.83030301 -0.63152695 8 8 9929 5.18200000 2887527691 2887527691 -7.00000000
8.19361210 -1.34028697 1.31498814 7 9 9929 8.40600000 2887527694 2887527694 9.00000000
8.02209949 -1.31366920 -0.71119088 17 10 9930 8.16000000 2887527696 2887527696 -5.00000000
8.09051895 -1.32777333 -0.42967820 17 12 9932 8.21000000 2887527701 2887527701 -3.00000000
8.08019161 -1.32897508 -0.14293520 14 14 9934 8.19000000 2887527705 2887527705 -1.00000000
8.13392830 -1.33781326 2.20876169 47 15 9934 8.53400000 2887527708 2887527708 15.00000000
2.16880131 -0.35982057 -0.58907217 4 0 9942 2.27600000 2887527728 2887527728 -15.00000000
8.07612133 -1.34133816 0.14290030 12 1 9943 8.18800000 2887527731 2887527731 1.00000000
2.55480337 -0.42477763 -0.59791988 6 2 9944 2.65800000 2887527733 2887527733 -13.00000000
8.09142590 -1.34678257 0.42988753 10 3 9945 8.21400000 2887527735 2887527735 3.00000000
3.05984616 -0.50929809 -0.60295641 5 4 9945 3.16000000 2887527738 2887527738 -11.00000000
8.09308052 -1.34850967 0.71781468 79 5 9946 8.23600000 2887527740 2887527740 5.00000000
3.80923152 -0.63539654 -0.61165875 6 6 9947 3.91000000 2887527742 2887527742 -9.00000000
8.09821415 -1.35227048 1.00810325 90 7 9948 8.27200000 2887527744 2887527744 7.00000000
5.08277369 -0.84965265 -0.63274562 8 8 9949 5.19200000 2887527747 2887527747 -7.00000000
8.18864441 -1.37030911 1.31498814 7 9 9950 8.40600000 2887527749 2887527749 9.00000000
7.98209381 -1.33574438 -0.70805323 17 10 9950 8.12400000 2887527751 2887527751 -5.00000000
8.08189487 -1.35534573 -0.42946887 17 12 9952 8.20600000 2887527756 2887527756 -3.00000000
8.09127998 -1.35982347 -0.14321445 14 14 9954 8.20600000 2887527761 2887527761 -1.00000000
8.13278008 -1.36825764 2.20979691 47 15 9955 8.53800000 2887527763 2887527763 15.00000000
2.16378665 -0.36636558 -0.58803689 4 0 9961 2.27200000 2887527784 2887527784 -15.00000000
8.07754326 -1.36911464 0.14300501 12 1 9962 8.19400000 2887527786 2887527786 1.00000000
2.53993154 -0.43096536 -0.59477061 7 2 9963 2.64400000 2887527788 2887527788 -13.00000000
8.08912373 -1.37252986 0.42999223 13 3 9963 8.21600000 2887527791 2887527791 3.00000000
3.06201148 -0.52009958 -0.60371965 5 4 9964 3.16400000 2887527793 2887527793 -11.00000000
8.10231400 -1.37767780 0.71903485 83 5 9965 8.25000000 2887527795 2887527795 5.00000000
3.79152465 -0.64537317 -0.60915583 6 6 9966 3.89400000 2887527797 2887527797 -9.00000000
8.09172916 -1.37878430 1.00785947 92 7 9967 8.27000000 2887527800 2887527800 7.00000000
5.06623030 -0.86416662 -0.63103944 8 8 9968 5.17800000 2887527802 2887527802 -7.00000000
8.20158005 -1.40044844 1.31780398 5 9 9969 8.42400000 2887527804 2887527804 9.00000000
7.87156630 -1.34409761 -0.69864041 13 10 9969 8.01600000 2887527807 2887527807 -5.00000000
8.06948185 -1.38079131 -0.42905018 17 12 9971 8.19800000 2887527811 2887527811 -3.00000000
8.08475494 -1.38630974 -0.14317954 12 14 9973 8.20400000 2887527816 2887527816 -1.00000000
8.14748192 -1.39706564 2.21497345 47 15 9973 8.55800000 2887527818 2887527818 15.00000000
2.18153071 -0.37720791 -0.59321326 4 0 9981 2.29200000 2887527839 2887527839 -15.00000000
8.08847809 -1.40003061 0.14328426 12 1 9982 8.21000000 2887527841 2887527841 1.00000000
2.54033208 -0.44016144 -0.59522051 6 2 9983 2.64600000 2887527843 2887527843 -13.00000000
8.08231544 -1.40041685 0.42988753 15 3 9983 8.21400000 2887527846 2887527846 3.00000000
3.06598067 -0.53179139 -0.60486454 5 4 9984 3.17000000 2887527848 2887527848 -11.00000000
8.10334492 -1.40697432 0.71955782 76 5 9985 8.25600000 2887527850 2887527850 5.00000000
3.79897976 -0.66029549 -0.61072016 6 6 9986 3.90400000 2887527853 2887527853 -9.00000000
8.09860039 -1.40906298 1.00932193 92 7 9987 8.28200000 2887527855 2887527855 7.00000000
5.06709433 -0.88252699 -0.63152695 8 8 9988 5.18200000 2887527857 2887527857 -7.00000000
8.18691158 -1.42737246 1.31623960 7 9 9989 8.41400000 2887527860 2887527860 9.00000000
7.81971979 -1.36335325 -0.69445693 12 10 9989 7.96800000 2887527862 2887527862 -5.00000000
8.07248211 -1.41032565 -0.42946887 17 12 9991 8.20600000 2887527867 2887527867 -3.00000000
8.07592678 -1.41383266 -0.14310974 16 14 9993 8.20000000 2887527871 2887527871 -1.00000000
8.15016747 -1.42682970 2.21704388 47 15 9993 8.56600000 2887527873 2887527873 15.00000000
2.16110969 -0.38183981 -0.58803689 4 0 10002 2.27200000 2887527894 2887527894 -15.00000000
8.08920002 -1.43071187 0.14338897 15 1 10003 8.21600000 2887527896 2887527896 1.00000000
2.55021501 -0.45150769 -0.59791988 6 2 10004 2.65800000 2887527899 2887527899 -13.00000000
8.08867836 -1.43353152 0.43051559 15 3 10005 8.22600000 2887527901 2887527901 3.00000000
3.04274654 -0.53925657 -0.60066670 5 4 10005 3.14800000 2887527903 2887527903 -11.00000000
8.10205746 -1.43736112 0.71990645 76 5 10006 8.26000000 2887527906 2887527906 5.00000000
3.78875422 -0.67283338 -0.60946870 6 6 10007 3.89600000 2887527908 2887527908 -9.00000000
8.10510826 -1.44082093 1.01078439 90 7 10008 8.29400000 2887527910 2887527910 7.00000000
5.04819059 -0.89831066 -0.62957704 8 8 10009 5.16600000 2887527913 2887527913 -7.00000000
8.17215443 -1.45421100 1.31467521 5 9 10009 8.40400000 2887527915 2887527915 9.00000000
7.78720951 -1.38711321 -0.69201660 12 10 10010 7.94000000 2887527917 2887527917 -5.00000000
8.06725883 -1.43990326 -0.42946887 17 12 10012 8.20600000 2887527922 2887527922 -3.00000000
8.06084824 -1.44166267 -0.14293520 20 14 10014 8.19000000 2887527926 2887527926 -1.00000000
8.14843178 -1.45879436 2.21807933 49 15 10015 8.57000000 2887527929 2887527929 15.00000000
2.15215874 -0.38801011 -0.58596629 4 0 10022 2.26400000 2887527949 2887527949 -15.00000000
8.07825279 -1.45787430 0.14328426 15 1 10023 8.21000000 2887527952 2887527952 1.00000000
2.54478812 -0.45971397 -0.59702009 6 2 10024 2.65400000 2887527954 2887527954 -13.00000000
8.09567261 -1.46247697 0.43114361 18 3 10024 8.23800000 2887527956 2887527956 3.00000000
3.04664135 -0.55092251 -0.60181159 5 4 10025 3.15400000 2887527959 2887527959 -11.00000000
8.09110832 -1.46456921 0.71938348 76 5 10026 8.25400000 2887527961 2887527961 5.00000000
3.79221368 -0.68711108 -0.61040729 4 6 10027 3.90200000 2887527963 2887527963 -9.00000000
8.10198307 -1.46945858 1.01102805 90 7 10028 8.29600000 2887527966 2887527966 7.00000000
5.05283642 -0.91734505 -0.63055199 8 8 10029 5.17400000 2887527968 2887527968 -7.00000000
8.18814945 -1.48803890 1.31811678 7 9 10030 8.42600000 2887527970 2887527970 9.00000000
7.76663780 -1.41143727 -0.69062209 12 10 10030 7.92400000 2887527973 2887527973 -5.00000000
8.09165764 -1.47342145 -0.43103895 17 12 10032 8.23600000 2887527977 2887527977 -3.00000000
8.07937336 -1.47409856 -0.14335407 14 14 10034 8.21400000 2887527982 2887527982 -1.00000000
8.13568878 -1.48584056 2.21600866 47 15 10035 8.56200000 2887527984 2887527984 15.00000000
2.15839124 -0.39691779 -0.58803689 4 0 10042 2.27200000 2887528005 2887528005 -15.00000000
8.07508183 -1.48642576 0.14331916 15 1 10043 8.21200000 2887528007 2887528007 1.00000000
2.53550196 -0.46718165 -0.59522051 6 2 10044 2.64600000 2887528009 2887528009 -13.00000000
8.09837532 -1.49217498 0.43156230 15 3 10044 8.24600000 2887528012 2887528012 3.00000000
3.04663038 -0.56190997 -0.60219318 5 4 10045 3.15600000 2887528014 2887528014 -11.00000000
8.08594704 -1.49280345 0.71938348 76 5 10046 8.25400000 2887528016 2887528016 5.00000000
3.77036738 -0.69675452 -0.60727859 4 6 10047 3.88200000 2887528019 2887528019 -9.00000000
8.10070801 -1.49845290 1.01151550 87 7 10048 8.30000000 2887528021 2887528021 7.00000000
5.04960394 -0.93497717 -0.63055199 8 8 10049 5.17400000 2887528023 2887528023 -7.00000000
8.20065117 -1.51842034 1.32093263 7 9 10049 8.44400000 2887528026 2887528026 9.00000000
7.76949978 -1.43999171 -0.69131935 12 10 10050 7.93200000 2887528028 2887528028 -5.00000000
8.07664680 -1.49983442 -0.43051559 17 12 10052 8.22600000 2887528032 2887528032 -3.00000000
8.08204269 -1.50375497 -0.14349368 14 14 10054 8.22200000 2887528037 2887528037 -1.00000000
8.13425064 -1.51493776 2.21704388 47 15 10055 8.56600000 2887528039 2887528039 15.00000000
2.16079021 -0.40516162 -0.58907217 4 0 10062 2.27600000 2887528060 2887528060 -15.00000000
8.07967091 -1.51644838 0.14349368 18 1 10063 8.22200000 2887528062 2887528062 1.00000000
2.52619481 -0.47459012 -0.59342086 6 2 10064 2.63800000 2887528065 2887528065 -13.00000000
8.08919144 -1.51969695 0.43135294 15 3 10064 8.24200000 2887528067 2887528067 3.00000000
3.03886199 -0.57145280 -0.60104835 4 4 10065 3.15000000 2887528069 2887528069 -11.00000000
8.09439278 -1.52359951 0.72060370 72 5 10066 8.26800000 2887528072 2887528072 5.00000000
3.78344202 -0.71283728 -0.60978156 6 6 10067 3.89800000 2887528074 2887528074 -9.00000000
8.08762550 -1.52524900 1.01054060 90 7 10068 8.29200000 2887528076 2887528076 7.00000000
5.03850651 -0.95112497 -0.62957704 8 8 10069 5.16600000 2887528079 2887528079 -7.00000000
8.17977142 -1.54410541 1.31842971 5 9 10069 8.42800000 2887528081 2887528081 9.00000000
7.74484825 -1.46340430 -0.68957621 17 10 10070 7.91200000 2887528083 2887528083 -5.00000000
8.06351280 -1.52653193 -0.43009689 17 12 10072 8.21800000 2887528088 2887528088 -3.00000000
8.08853245 -1.53419328 -0.14370312 14 14 10074 8.23400000 2887528092 2887528092 -1.00000000
8.14789295 -1.54692578 2.22222042 47 15 10075 8.58600000 2887528095 2887528095 15.00000000
2.16709709 -0.41339588 -0.59114271 4 0 10080 2.28400000 2887528115 2887528115 -15.00000000
8.09254456 -1.54519928 0.14380783 18 1 10081 8.24000000 2887528118 2887528118 1.00000000
2.53234768 -0.48398733 -0.59522051 6 2 10082 2.64600000 2887528120 2887528120 -13.00000000
8.08437729 -1.54510236 0.43135294 15 3 10082 8.24200000 2887528122 2887528122 3.00000000
3.02162552 -0.57804573 -0.59799540 4 4 10083 3.13400000 2887528125 2887528125 -11.00000000
8.09935093 -1.55089474 0.72147524 72 5 10084 8.27800000 2887528127 2887528127 5.00000000
3.77730370 -0.72397608 -0.60915583 4 6 10085 3.89400000 2887528129 2887528129 -9.00000000
8.10228920 -1.55438960 1.01297796 90 7 10086 8.31200000 2887528131 2887528131 7.00000000
5.02769613 -0.96545178 -0.62860209 8 8 10087 5.15800000 2887528134 2887528134 -7.00000000
8.18457985 -1.57165778 1.31999397 7 9 10087 8.43800000 2887528136 2887528136 9.00000000
7.71086407 -1.48208714 -0.68696159 17 10 10088 7.88200000 2887528138 2887528138 -5.00000000
8.07436752 -1.55487800 -0.43093425 17 12 10090 8.23400000 2887528143 2887528143 -3.00000000
8.07581902 -1.55808127 -0.14356349 14 14 10092 8.22600000 2887528148 2887528148 -1.00000000
8.15464783 -1.57328999 2.22532606 47 15 10092 8.59800000 2887528150 2887528150 15.00000000
2.15426278 -0.41874626 -0.58803689 4 0 10100 2.27200000 2887528171 2887528171 -15.00000000
8.09298992 -1.57458389 0.14391254 15 1 10101 8.24600000 2887528173 2887528173 1.00000000
2.53829408 -0.49431396 -0.59702009 6 2 10102 2.65400000 2887528175 2887528175 -13.00000000
8.08873653 -1.57522154 0.43187630 13 3 10102 8.25200000 2887528178 2887528178 3.00000000
3.02729726 -0.59009212 -0.59952188 4 4 10103 3.14200000 2887528180 2887528180 -11.00000000
8.09388733 -1.57915735 0.72147524 76 5 10104 8.27800000 2887528182 2887528182 5.00000000
3.77863121 -0.73791414 -0.60978156 6 6 10105 3.89800000 2887528184 2887528184 -9.00000000
8.10265923 -1.58380485 1.01370919 92 7 10106 8.31800000 2887528187 2887528187 7.00000000
5.02039909 -0.98223352 -0.62811458 8 8 10107 5.15400000 2887528189 2887528189 -7.00000000
8.17904377 -1.60021770 1.31999397 7 9 10107 8.43800000 2887528191 2887528191 9.00000000
7.71933031 -1.51167428 -0.68818176 17 10 10108 7.89600000 2887528194 2887528194 -5.00000000
8.06693077 -1.58266890 -0.43082958 12 12 10110 8.23200000 2887528198 2887528198 -3.00000000
8.07033062 -1.58626163 -0.14356349 10 14 10112 8.22600000 2887528203 2887528203 -1.00000000
8.14503574 -1.60242188 2.22429085 47 15 10113 8.59400000 2887528205 2887528205 15.00000000
2.13755369 -0.42363471 -0.58389574 4 0 10121 2.25600000 2887528226 2887528226 -15.00000000
8.07539558 -1.60190105 0.14370312 15 1 10122 8.23400000 2887528228 2887528228 1.00000000
2.53837657 -0.50399345 -0.59746999 7 2 10123 2.65600000 2887528231 2887528231 -13.00000000
8.09242344 -1.60821486 0.43239966 15 3 10124 8.26200000 2887528233 2887528233 3.00000000
3.01741171 -0.59965307 -0.59799540 4 4 10124 3.13400000 2887528235 2887528235 -11.00000000
8.08022881 -1.60725749 0.72077799 79 5 10125 8.27000000 2887528237 2887528237 5.00000000
3.76040244 -0.74867284 -0.60727859 4 6 10126 3.88200000 2887528240 2887528240 -9.00000000
8.10653400 -1.61543167 1.01492786 87 7 10127 8.32800000 2887528242 2887528242 7.00000000
5.02065849 -1.00140417 -0.62860209 8 8 10128 5.15800000 2887528244 2887528244 -7.00000000
8.17312431 -1.63018465 1.31999397 7 9 10128 8.43800000 2887528247 2887528247 9.00000000
7.72155333 -1.54151714 -0.68887901 12 10 10129 7.90400000 2887528249 2887528249 -5.00000000
8.07674313 -1.61535859 -0.43166697 12 12 10131 8.24800000 2887528254 2887528254 -3.00000000
8.07230568 -1.61740172 -0.14370312 10 14 10133 8.23400000 2887528258 2887528258 -1.00000000
8.13560486 -1.63008451 2.22325563 47 15 10133 8.59000000 2887528261 2887528261 15.00000000
2.14174271 -0.43224013 -0.58544868 4 0 10141 2.26200000 2887528281 2887528281 -15.00000000
8.06975460 -1.63007963 0.14370312 12 1 10142 8.23400000 2887528284 2887528284 1.00000000
2.53087163 -0.51169240 -0.59612030 6 2 10143 2.65000000 2887528286 2887528286 -13.00000000
8.10046387 -1.63922596 0.43313238 13 3 10144 8.27600000 2887528288 2887528288 3.00000000
3.01530027 -0.61018217 -0.59799540 4 4 10144 3.13400000 2887528290 2887528290 -11.00000000
8.09409714 -1.63940811 0.72252113 76 5 10145 8.29000000 2887528293 2887528293 5.00000000
3.74615002 -0.75943965 -0.60540140 6 6 10146 3.87000000 2887528295 2887528295 -9.00000000
8.10279083 -1.64411366 1.01517165 90 7 10147 8.33000000 2887528297 2887528297 7.00000000
5.02491379 -1.02050376 -0.62957704 8 8 10148 5.16600000 2887528300 2887528300 -7.00000000
8.17483711 -1.66170371 1.32124555 7 9 10149 8.44600000 2887528302 2887528302 9.00000000
7.72003031 -1.56925476 -0.68922764 12 10 10149 7.90800000 2887528304 2887528304 -5.00000000
8.06518459 -1.64234626 -0.43135294 17 12 10151 8.24200000 2887528309 2887528309 -3.00000000
8.07444763 -1.64716828 -0.14384273 14 14 10153 8.24200000 2887528314 2887528314 -1.00000000
8.13146782 -1.66027856 2.22377324 45 15 10154 8.59200000 2887528316 2887528316 15.00000000
2.15157485 -0.44204625 -0.58855450 4 0 10161 2.27400000 2887528337 2887528337 -15.00000000
8.06597424 -1.65864122 0.14373802 12 1 10162 8.23600000 2887528339 2887528339 1.00000000
2.51570892 -0.51777375 -0.59297097 6 2 10163 2.63600000 2887528341 2887528341 -13.00000000
8.08491135 -1.66547692 0.43260902 13 3 10164 8.26600000 2887528343 2887528343 3.00000000
3.02468920 -0.62308043 -0.60028511 4 4 10164 3.14600000 2887528346 2887528346 -11.00000000
8.09613037 -1.66926110 0.72321838 79 5 10165 8.29800000 2887528348 2887528348 5.00000000
3.75895333 -0.77570540 -0.60790431 6 6 10166 3.88600000 2887528350 2887528350 -9.00000000
8.09505844 -1.67198610 1.01492786 90 7 10167 8.32800000 2887528353 2887528353 7.00000000
5.01354504 -1.03643036 -0.62860209 8 8 10168 5.15800000 2887528355 2887528355 -7.00000000
8.17895412 -1.69080281 1.32280982 5 9 10168 8.45600000 2887528357 2887528357 9.00000000
7.70279932 -1.59377098 -0.68818176 12 10 10169 7.89600000 2887528360 2887528360 -5.00000000
8.05744648 -1.67008364 -0.43124828 17 12 10171 8.24000000 2887528364 2887528364 -3.00000000
8.07843876 -1.67737603 -0.14401726 14 14 10173 8.25200000 2887528369 2887528369 -1.00000000
8.14294147 -1.69076908 2.22843194 47 15 10173 8.61000000 2887528371 2887528371 15.00000000
2.15190983 -0.44994935 -0.58907217 4 0 10181 2.27600000 2887528392 2887528392 -15.00000000
8.07187939 -1.68924427 0.14394745 12 1 10182 8.24800000 2887528394 2887528394 1.00000000
2.51388621 -0.52655208 -0.59297097 5 2 10183 2.63600000 2887528396 2887528396 -13.00000000
8.08491325 -1.69491780 0.43292302 13 3 10184 8.27200000 2887528399 2887528399 3.00000000
3.01480985 -0.63202351 -0.59875864 4 4 10184 3.13800000 2887528401 2887528401 -11.00000000
8.09805393 -1.69914830 0.72391558 76 5 10185 8.30600000 2887528403 2887528403 5.00000000
3.76008892 -0.78963381 -0.60853004 4 6 10186 3.89000000 2887528406 2887528406 -9.00000000
8.10471344 -1.70349944 1.01687777 87 7 10187 8.34400000 2887528408 2887528408 7.00000000
4.99047089 -1.04983795 -0.62616467 8 8 10188 5.13800000 2887528410 2887528410 -7.00000000
8.17076969 -1.72036183 1.32249701 7 9 10189 8.45400000 2887528413 2887528413 9.00000000
7.69718885 -1.62064910 -0.68818176 12 10 10189 7.89600000 2887528415 2887528415 -5.00000000
8.06720161 -1.70149672 -0.43208566 12 12 10191 8.25600000 2887528419 2887528419 -3.00000000
8.06862164 -1.70473802 -0.14394745 12 14 10193 8.24800000 2887528424 2887528424 -1.00000000
8.14235973 -1.72180212 2.22998500 47 15 10194 8.61600000 2887528426 2887528426 15.00000000
2.14662647 -0.45627958 -0.58803689 4 0 10200 2.27200000 2887528447 2887528447 -15.00000000
8.08774853 -1.72057939 0.14433140 12 1 10201 8.27000000 2887528449 2887528449 1.00000000
2.51975036 -0.53650886 -0.59477061 5 2 10202 2.64400000 2887528452 2887528452 -13.00000000
8.07924747 -1.72171903 0.43292302 15 3 10203 8.27200000 2887528454 2887528454 3.00000000
3.00885701 -0.64119911 -0.59799540 4 4 10203 3.13400000 2887528456 2887528456 -11.00000000
8.09822083 -1.72723985 0.72443855 83 5 10204 8.31200000 2887528459 2887528459 5.00000000
3.75744987 -0.80209839 -0.60853004 4 6 10205 3.89000000 2887528461 2887528461 -9.00000000
8.10290241 -1.73119581 1.01736534 83 7 10206 8.34800000 2887528463 2887528463 7.00000000
4.98696232 -1.06638122 -0.62616467 8 8 10207 5.13800000 2887528466 2887528466 -7.00000000
8.16339302 -1.74560952 1.32218409 5 9 10207 8.45200000 2887528468 2887528468 9.00000000
7.68008280 -1.64366329 -0.68713588 12 10 10208 7.88400000 2887528470 2887528470 -5.00000000
8.07713795 -1.73158836 -0.43292302 12 12 10210 8.27200000 2887528475 2887528475 -3.00000000
8.06096840 -1.73106527 -0.14391254 14 14 10212 8.24600000 2887528479 2887528479 -1.00000000
8.14068794 -1.74818468 2.23102021 45 15 10212 8.62000000 2887528482 2887528482 15.00000000
2.13369155 -0.46132043 -0.58493102 4 0 10220 2.26000000 2887528502 2887528502 -15.00000000
8.06801224 -1.74583995 0.14408706 12 1 10221 8.25600000 2887528505 2887528505 1.00000000
2.52548075 -0.54695106 -0.59657019 4 2 10222 2.65200000 2887528507 2887528507 -13.00000000
8.08099651 -1.75160277 0.43334171 13 3 10223 8.28000000 2887528509 2887528509 3.00000000
3.00276327 -0.65086633 -0.59723216 4 4 10223 3.13000000 2887528512 2887528512 -11.00000000
8.08630085 -1.75423014 0.72391558 76 5 10224 8.30600000 2887528514 2887528514 5.00000000
3.73339272 -0.81059903 -0.60508853 6 6 10225 3.86800000 2887528516 2887528516 -9.00000000
8.10068989 -1.76031280 1.01785278 85 7 10226 8.35200000 2887528519 2887528519 7.00000000
5.00260687 -1.08800113 -0.62860209 8 8 10227 5.15800000 2887528521 2887528521 -7.00000000
8.15693951 -1.77551806 1.32218409 5 9 10228 8.45200000 2887528523 2887528523 9.00000000
7.63536263 -1.66198647 -0.68364966 12 10 10228 7.84400000 2887528525 2887528525 -5.00000000
8.08080196 -1.76189971 -0.43344638 17 12 10230 8.28200000 2887528530 2887528530 -3.00000000
8.05878448 -1.76004612 -0.14398235 12 14 10232 8.25000000 2887528535 2887528535 -1.00000000
8.12290192 -1.77553487 2.22791433 47 15 10233 8.60800000 2887528537 2887528537 15.00000000
2.13961530 -0.47042492 -0.58700162 4 0 10240 2.26800000 2887528558 2887528558 -15.00000000
8.06382179 -1.77442169 0.14412197 12 1 10241 8.25800000 2887528560 2887528560 1.00000000
2.50833106 -0.55241030 -0.59297097 4 2 10242 2.63600000 2887528562 2887528562 -13.00000000
