# .PCD v0.7 - Point Cloud Data file format
VERSION 0.7
FIELDS x y z intensity laser_id azimuth distance_m adjustedtime timestamp vertical_angle
SIZE 4 4 4 1 1 2 8 8 4 8
TYPE F F F U U U F U U F
COUNT 1 1 1 1 1 1 1 1 1 1
WIDTH 528
HEIGHT 1
VIEWPOINT 0 0 0 1 0 0 0
POINTS 528
DATA ascii
3.24896455 -1.74938726 -0.58443916 4 6 11830 3.73600000 2887833031 2887833031 -9.00000000
8.04449940 -4.33332825 1.12192917 35 7 11831 9.20600000 2887833034 2887833034 7.00000000
4.25865793 -2.29496908 -0.59399116 4 8 11832 4.87400000 2887833036 2887833036 -7.00000000
6.06661701 -3.27063513 1.09159970 15 9 11833 6.97800000 2887833038 2887833038 9.00000000
6.34159231 -3.41887999 -0.63031036 12 10 11833 7.23200000 2887833041 2887833041 -5.00000000
8.14037609 -4.39047432 1.79780233 3 11 11834 9.42200000 2887833043 2887833043 11.00000000
5.27314329 -2.84523368 -0.31401575 6 12 11835 6.00000000 2887833045 2887833045 -3.00000000
8.23301029 -4.44414663 2.15998006 50 13 11836 9.60200000 2887833048 2887833048 13.00000000
5.40350723 -2.91801000 -0.10719268 24 14 11837 6.14200000 2887833050 2887833050 -1.00000000
8.09119797 -4.36942053 2.46395731 51 15 11837 9.52000000 2887833052 2887833052 15.00000000
1.89897668 -1.02891552 -0.57871938 4 0 11845 2.23600000 2887833073 2887833073 -15.00000000
5.89644003 -3.19617772 0.11707074 54 1 11846 6.70800000 2887833075 2887833075 1.00000000
2.20986390 -1.19836044 -0.58037370 3 2 11847 2.58000000 2887833077 2887833077 -13.00000000
8.05350685 -4.36723900 0.48013008 2 3 11847 9.17400000 2887833080 2887833080 3.00000000
2.62129045 -1.42206001 -0.57967770 6 4 11848 3.03800000 2887833082 2887833082 -11.00000000
8.05861664 -4.37365103 0.80218148 41 5 11849 9.20400000 2887833084 2887833084 5.00000000
3.26019835 -1.77014327 -0.58756787 4 6 11850 3.75600000 2887833087 2887833087 -9.00000000
8.05025673 -4.37275219 1.12485409 38 7 11851 9.23000000 2887833089 2887833089 7.00000000
4.24887705 -2.30887270 -0.59374744 6 8 11852 4.87200000 2887833091 2887833091 -7.00000000
6.06210518 -3.29556561 1.09285116 15 9 11853 6.98600000 2887833094 2887833094 9.00000000
6.32611847 -3.43909216 -0.62996173 12 10 11853 7.22800000 2887833096 2887833096 -5.00000000
5.04988384 -2.74642968 1.11737752 3 11 11854 5.85600000 2887833098 2887833098 11.00000000
5.24914408 -2.85598683 -0.31317836 9 12 11855 5.98400000 2887833101 2887833101 -3.00000000
8.21059990 -4.46913147 2.15818048 50 13 11856 9.59400000 2887833103 2887833103 13.00000000
5.35992098 -2.91868401 -0.10652949 29 14 11857 6.10400000 2887833105 2887833105 -1.00000000
8.09116554 -4.40595245 2.46861601 47 15 11857 9.53800000 2887833107 2887833107 15.00000000
1.88350630 -1.02905428 -0.57509589 4 0 11865 2.22200000 2887833128 2887833128 -15.00000000
5.90103960 -3.22537231 0.11738489 40 1 11866 6.72600000 2887833130 2887833130 1.00000000
2.20566750 -1.20606697 -0.58037370 3 2 11867 2.58000000 2887833133 2887833133 -13.00000000
5.10422516 -2.79216623 0.30490929 2 3 11868 5.82600000 2887833135 2887833135 3.00000000
2.61458802 -1.43025911 -0.57929611 6 4 11868 3.03600000 2887833137 2887833137 -11.00000000
8.04854393 -4.40462351 0.80270439 41 5 11869 9.21000000 2887833140 2887833140 5.00000000
3.24706864 -1.77771819 -0.58631635 4 6 11870 3.74800000 2887833142 2887833142 -9.00000000
8.05235481 -4.41036224 1.12729144 38 7 11871 9.25000000 2887833144 2887833144 7.00000000
4.24601412 -2.32655168 -0.59447867 6 8 11872 4.87800000 2887833147 2887833147 -7.00000000
6.04594612 -3.31280255 1.09191251 17 9 11872 6.98000000 2887833149 2887833149 9.00000000
6.30533981 -3.45636511 -0.62909013 12 10 11873 7.21800000 2887833151 2887833151 -5.00000000
5.03510189 -2.76120830 1.11623263 27 11 11874 5.85000000 2887833154 2887833154 11.00000000
5.21637917 -2.86180377 -0.31181762 9 12 11875 5.95800000 2887833156 2887833156 -3.00000000
8.19836712 -4.49963999 2.15908027 48 13 11876 9.59800000 2887833158 2887833158 13.00000000
5.31113720 -2.91620207 -0.10576158 31 14 11877 6.06000000 2887833160 2887833160 -1.00000000
8.07665634 -4.43650866 2.46913362 45 15 11878 9.54000000 2887833163 2887833163 15.00000000
1.86298192 -1.02630115 -0.56991953 4 0 11885 2.20200000 2887833183 2887833183 -15.00000000
5.88799381 -3.24498606 0.11734998 37 1 11886 6.72400000 2887833186 2887833186 1.00000000
2.20827007 -1.21752250 -0.58217335 3 2 11887 2.58800000 2887833188 2887833188 -13.00000000
5.09493780 -2.80907726 0.30490929 2 3 11887 5.82600000 2887833190 2887833190 3.00000000
2.61817503 -1.44411814 -0.58120418 11 4 11888 3.04600000 2887833193 2887833193 -11.00000000
8.03312016 -4.43269110 0.80270439 41 5 11889 9.21000000 2887833195 2887833195 5.00000000
3.23046732 -1.78331375 -0.58443916 4 6 11890 3.73600000 2887833197 2887833197 -9.00000000
8.05081272 -4.44612074 1.12924135 40 7 11891 9.26600000 2887833200 2887833200 7.00000000
4.23265457 -2.33847880 -0.59374744 6 8 11892 4.87200000 2887833202 2887833202 -7.00000000
6.05623913 -3.34736204 1.09597981 25 9 11893 7.00600000 2887833204 2887833204 9.00000000
6.28451777 -3.47353458 -0.62821859 12 10 11893 7.20800000 2887833207 2887833207 -5.00000000
4.98763466 -2.75786734 1.10783708 33 11 11894 5.80600000 2887833209 2887833209 11.00000000
5.19062901 -2.87129402 -0.31087559 9 12 11895 5.94000000 2887833211 2887833211 -3.00000000
8.18943024 -4.53200436 2.16087985 50 13 11896 9.60600000 2887833213 2887833213 13.00000000
5.26593590 -2.91535258 -0.10506348 29 14 11897 6.02000000 2887833216 2887833216 -1.00000000
8.06450081 -4.46654606 2.47016907 45 15 11898 9.54400000 2887833218 2887833218 15.00000000
1.87084699 -1.04001737 -0.57354301 4 0 11907 2.21600000 2887833239 2887833239 -15.00000000
5.87898588 -3.26951408 0.11741979 37 1 11908 6.72800000 2887833241 2887833241 1.00000000
2.19336152 -1.22030795 -0.57947391 3 2 11909 2.57600000 2887833243 2887833243 -13.00000000
4.99684811 -2.78006792 0.29967567 2 3 11909 5.72600000 2887833246 2887833246 3.00000000
2.60917997 -1.45225084 -0.58044094 6 4 11910 3.04200000 2887833248 2887833248 -11.00000000
8.03692913 -4.47513485 0.80479610 37 5 11911 9.23400000 2887833250 2887833250 5.00000000
3.22014475 -1.79378211 -0.58381343 4 6 11912 3.73200000 2887833253 2887833253 -9.00000000
8.04755306 -4.48473120 1.13119125 40 7 11913 9.28200000 2887833255 2887833255 7.00000000
4.22017670 -2.35278058 -0.59325999 6 8 11914 4.86800000 2887833257 2887833257 -7.00000000
6.06290865 -3.38011765 1.09942138 25 9 11914 7.02800000 2887833260 2887833260 9.00000000
6.27461386 -3.49958086 -0.62856722 12 10 11915 7.21200000 2887833262 2887833262 -5.00000000
4.95986414 -2.76743197 1.10402083 30 11 11916 5.78600000 2887833264 2887833264 11.00000000
5.15166235 -2.87562776 -0.30920082 12 12 11917 5.90800000 2887833266 2887833266 -3.00000000
8.18217659 -4.56911659 2.16357923 48 13 11918 9.61800000 2887833269 2887833269 13.00000000
5.23375416 -2.92384768 -0.10464463 31 14 11919 5.99600000 2887833271 2887833271 -1.00000000
8.05572224 -4.50219107 2.47275710 42 15 11920 9.55400000 2887833273 2887833273 15.00000000
1.87563121 -1.05126417 -0.57613117 4 0 11927 2.22600000 2887833294 2887833294 -15.00000000
5.87974691 -3.29686165 0.11766412 46 1 11928 6.74200000 2887833296 2887833296 1.00000000
2.18908834 -1.22795677 -0.57947391 3 2 11929 2.57600000 2887833299 2887833299 -13.00000000
4.98014593 -2.79358482 0.29925701 4 3 11929 5.71800000 2887833301 2887833301 3.00000000
2.59724641 -1.45750666 -0.57891446 6 4 11930 3.03400000 2887833303 2887833303 -11.00000000
8.04036999 -4.51389027 0.80671358 37 5 11931 9.25600000 2887833306 2887833306 5.00000000
3.21386361 -1.80501151 -0.58381343 4 6 11932 3.73200000 2887833308 2887833308 -9.00000000
8.03531075 -4.51473999 1.13167870 38 7 11933 9.28600000 2887833310 2887833310 7.00000000
4.19463348 -2.35777068 -0.59082258 6 8 11934 4.84800000 2887833313 2887833313 -7.00000000
6.07001495 -3.41190767 1.10286295 35 9 11934 7.05000000 2887833315 2887833315 9.00000000
6.26583338 -3.52341509 -0.62891585 12 10 11935 7.21600000 2887833317 2887833317 -5.00000000
4.93477392 -2.77606511 1.10058630 8 11 11936 5.76800000 2887833319 2887833319 11.00000000
5.12766838 -2.88575649 -0.30836347 18 12 11937 5.89200000 2887833322 2887833322 -3.00000000
8.16957378 -4.59956217 2.16447902 50 13 11938 9.62200000 2887833324 2887833324 13.00000000
5.20086575 -2.92934132 -0.10419086 33 14 11939 5.97000000 2887833326 2887833326 -1.00000000
8.04164124 -4.53123188 2.47327471 40 15 11940 9.55600000 2887833329 2887833329 15.00000000
1.86390817 -1.05240238 -0.57354301 4 0 11945 2.21600000 2887833349 2887833349 -15.00000000
5.88677168 -3.32515216 0.11801317 54 1 11946 6.76200000 2887833352 2887833352 1.00000000
2.19200635 -1.23866284 -0.58127350 3 2 11947 2.58400000 2887833354 2887833354 -13.00000000
4.98873329 -2.81904244 0.30030373 47 3 11947 5.73800000 2887833356 2887833356 3.00000000
2.59778190 -1.46855736 -0.58005935 6 4 11948 3.04000000 2887833359 2887833359 -11.00000000
8.04522610 -4.54991627 0.80863100 37 5 11949 9.27800000 2887833361 2887833361 5.00000000
3.21849275 -1.82093561 -0.58569062 4 6 11950 3.74400000 2887833363 2887833363 -9.00000000
8.05218410 -4.55756187 1.13606596 35 7 11951 9.32200000 2887833365 2887833365 7.00000000
4.18375111 -2.36898065 -0.59033507 6 8 11952 4.84400000 2887833368 2887833368 -7.00000000
6.05582809 -3.42901373 1.10223722 32 9 11952 7.04600000 2887833370 2887833370 9.00000000
6.24086475 -3.53522635 -0.62752134 12 10 11953 7.20000000 2887833372 2887833372 -5.00000000
5.42990446 -3.07709837 1.21316361 3 11 11954 6.35800000 2887833375 2887833375 11.00000000
5.10988998 -2.89692616 -0.30784011 25 12 11955 5.88200000 2887833377 2887833377 -3.00000000
8.15508366 -4.62520504 2.16447902 48 13 11956 9.62200000 2887833379 2887833379 13.00000000
5.15163469 -2.92296886 -0.10338806 42 14 11957 5.92400000 2887833382 2887833382 -1.00000000
6.96793318 -3.95351243 2.14664507 6 15 11957 8.29400000 2887833384 2887833384 15.00000000
1.86526000 -1.06176925 -0.57509589 4 0 11965 2.22200000 2887833405 2887833405 -15.00000000
5.89598131 -3.35755515 0.11843203 48 1 11966 6.78600000 2887833407 2887833407 1.00000000
2.18428278 -1.24437749 -0.58037370 3 2 11967 2.58000000 2887833409 2887833409 -13.00000000
2.58411145 -1.47275579 -0.57815129 6 4 11968 3.03000000 2887833414 2887833414 -11.00000000
8.03448677 -4.58093214 0.80915391 37 5 11969 9.28400000 2887833416 2887833416 5.00000000
3.20868516 -1.83020175 -0.58506489 4 6 11970 3.74000000 2887833418 2887833418 -9.00000000
8.05691624 -4.59744740 1.13899088 33 7 11971 9.34600000 2887833421 2887833421 7.00000000
4.17200804 -2.38160181 -0.58984762 6 8 11972 4.84000000 2887833423 2887833423 -7.00000000
6.21810579 -3.55106115 -0.62647545 12 10 11973 7.18800000 2887833428 2887833428 -5.00000000
5.11229086 -2.92073131 1.14447236 3 11 11974 5.99800000 2887833430 2887833430 11.00000000
5.08240652 -2.90483475 -0.30679336 25 12 11975 5.86200000 2887833432 2887833432 -3.00000000
8.14565659 -4.65751219 2.16627860 50 13 11976 9.63000000 2887833435 2887833435 13.00000000
5.12404251 -2.93100476 -0.10303900 54 14 11977 5.90400000 2887833437 2887833437 -1.00000000
6.93662834 -3.96942973 2.14146876 6 15 11978 8.27400000 2887833439 2887833439 15.00000000
1.85316455 -1.06346607 -0.57250774 4 0 11985 2.21200000 2887833460 2887833460 -15.00000000
5.88769341 -3.38010669 0.11850184 46 1 11986 6.79000000 2887833462 2887833462 1.00000000
2.17992568 -1.25199449 -0.58037370 3 2 11987 2.58000000 2887833465 2887833465 -13.00000000
4.96670151 -2.85367346 0.30019903 4 3 11988 5.73600000 2887833467 2887833467 3.00000000
2.57384777 -1.47883284 -0.57700640 5 4 11988 3.02400000 2887833469 2887833469 -11.00000000
8.02190304 -4.61093569 0.80950254 33 5 11989 9.28800000 2887833471 2887833471 5.00000000
3.19885206 -1.83942163 -0.58443916 6 6 11990 3.73600000 2887833474 2887833474 -9.00000000
8.05802536 -4.63544178 1.14142823 33 7 11991 9.36600000 2887833476 2887833476 7.00000000
4.16366959 -2.39615035 -0.58984762 6 8 11992 4.84000000 2887833478 2887833478 -7.00000000
7.24048710 -4.16682863 1.32312274 10 9 11992 8.45800000 2887833481 2887833481 9.00000000
6.20049238 -3.56976247 -0.62595254 16 10 11993 7.18200000 2887833483 2887833483 -5.00000000
5.08505154 -2.92876029 1.14065623 3 11 11994 5.97800000 2887833485 2887833485 11.00000000
5.09127188 -2.93352628 -0.30794477 31 12 11995 5.88400000 2887833488 2887833488 -3.00000000
8.14454365 -4.69467640 2.17032766 51 13 11996 9.64800000 2887833490 2887833490 13.00000000
5.10685062 -2.94487739 -0.10289939 63 14 11997 5.89600000 2887833492 2887833492 -1.00000000
7.98612404 -4.60521698 2.47016907 27 15 11997 9.54400000 2887833495 2887833495 15.00000000
1.84776890 -1.06896091 -0.57199007 4 0 12005 2.21000000 2887833515 2887833515 -15.00000000
5.88278198 -3.40464473 0.11864146 37 1 12006 6.79800000 2887833518 2887833518 1.00000000
2.16879630 -1.25569057 -0.57857412 3 2 12007 2.57200000 2887833520 2887833520 -13.00000000
4.93942738 -2.86098266 0.29915231 4 3 12008 5.71600000 2887833522 2887833522 3.00000000
2.57376671 -1.49076033 -0.57815129 6 4 12008 3.03000000 2887833524 2887833524 -11.00000000
8.02816963 -4.65189505 0.81176859 37 5 12009 9.31400000 2887833527 2887833527 5.00000000
3.18557596 -1.84661376 -0.58318770 6 6 12010 3.72800000 2887833529 2887833529 -9.00000000
8.05553341 -4.67150831 1.14337814 33 7 12011 9.38200000 2887833531 2887833531 7.00000000
4.15871382 -2.41266203 -0.59033507 6 8 12012 4.84400000 2887833534 2887833534 -7.00000000
7.24225092 -4.20325375 1.32625139 7 9 12013 8.47800000 2887833536 2887833536 9.00000000
6.18971682 -3.59238458 -0.62612689 16 10 12013 7.18400000 2887833538 2887833538 -5.00000000
5.02386284 -2.91691923 1.12920761 3 11 12014 5.91800000 2887833541 2887833541 11.00000000
5.08100080 -2.95128012 -0.30794477 56 12 12015 5.88400000 2887833543 2887833543 -3.00000000
8.13821602 -4.72895193 2.17302728 50 13 12016 9.66000000 2887833545 2887833545 13.00000000
5.09653997 -2.96268582 -0.10289939 72 14 12017 5.89600000 2887833548 2887833548 -1.00000000
7.98255110 -4.64222622 2.47431016 33 15 12018 9.56000000 2887833550 2887833550 15.00000000
1.84402621 -1.07540429 -0.57199007 4 0 12025 2.21000000 2887833571 2887833571 -15.00000000
5.87949800 -3.43019700 0.11881598 20 1 12026 6.80800000 2887833573 2887833573 1.00000000
2.15766764 -1.25932419 -0.57677448 3 2 12027 2.56400000 2887833575 2887833575 -13.00000000
4.84662104 -2.82986784 0.29412806 22 3 12028 5.62000000 2887833577 2887833577 3.00000000
2.57363343 -1.50270510 -0.57929611 5 4 12028 3.03600000 2887833580 2887833580 -11.00000000
8.02048397 -4.68491507 0.81264013 11 5 12029 9.32400000 2887833582 2887833582 5.00000000
3.18593264 -1.86170876 -0.58443916 4 6 12030 3.73600000 2887833584 2887833584 -9.00000000
8.03917789 -4.69959879 1.14337814 31 7 12031 9.38200000 2887833587 2887833587 7.00000000
4.15369415 -2.42916822 -0.59082258 6 8 12032 4.84800000 2887833589 2887833589 -7.00000000
7.23168278 -4.22924137 1.32687712 7 9 12032 8.48200000 2887833591 2887833591 9.00000000
6.17713928 -3.61396885 -0.62612689 16 10 12033 7.18400000 2887833594 2887833594 -5.00000000
4.99162340 -2.92154574 1.12424660 12 11 12034 5.89200000 2887833596 2887833596 11.00000000
5.05170918 -2.95789719 -0.30679336 34 12 12035 5.86200000 2887833598 2887833598 -3.00000000
8.11661530 -4.75437593 2.17167759 48 13 12036 9.65400000 2887833601 2887833601 13.00000000
5.09306860 -2.98450208 -0.10303900 67 14 12037 5.90400000 2887833603 2887833603 -1.00000000
6.72871065 -3.94297647 2.08970499 6 15 12037 8.07400000 2887833605 2887833605 15.00000000
1.85025358 -1.08770883 -0.57509589 4 0 12045 2.22200000 2887833626 2887833626 -15.00000000
4.80396318 -2.82523489 0.09727971 47 1 12046 5.57400000 2887833628 2887833628 1.00000000
2.15661788 -1.26882446 -0.57767433 3 2 12047 2.56800000 2887833630 2887833630 -13.00000000
4.80573130 -2.82853293 0.29224399 22 3 12048 5.58400000 2887833633 2887833633 3.00000000
2.56329656 -1.50869215 -0.57815129 5 4 12048 3.03000000 2887833635 2887833635 -11.00000000
4.92228699 -2.89829159 0.49975103 3 5 12049 5.73400000 2887833637 2887833637 5.00000000
3.16239429 -1.86279261 -0.58131045 4 6 12050 3.71600000 2887833640 2887833640 -9.00000000
8.04495716 -4.74073362 1.14654684 33 7 12051 9.40800000 2887833642 2887833642 7.00000000
4.12808895 -2.43357158 -0.58838516 6 8 12052 4.82800000 2887833644 2887833644 -7.00000000
7.22123814 -4.25872898 1.32781577 10 9 12053 8.48800000 2887833647 2887833647 9.00000000
6.15933800 -3.63247275 -0.62560391 16 10 12053 7.17800000 2887833649 2887833649 -5.00000000
5.02366734 -2.96389222 1.13378704 3 11 12054 5.94200000 2887833651 2887833651 11.00000000
5.04995346 -2.98058891 -0.30731672 31 12 12055 5.87200000 2887833653 2887833653 -3.00000000
8.10668182 -4.78664255 2.17347717 50 13 12056 9.66200000 2887833656 2887833656 13.00000000
5.08261967 -3.00226188 -0.10303900 65 14 12057 5.90400000 2887833658 2887833658 -1.00000000
6.69425535 -3.95581841 2.08349323 9 15 12058 8.05000000 2887833660 2887833660 15.00000000
1.84165001 -1.09088492 -0.57354301 4 0 12064 2.21600000 2887833681 2887833681 -15.00000000
4.76532221 -2.82381964 0.09668633 30 1 12065 5.54000000 2887833683 2887833683 1.00000000
2.16245651 -1.28193164 -0.58037370 3 2 12066 2.58000000 2887833686 2887833686 -13.00000000
2.55827951 -1.51718402 -0.57815129 5 4 12067 3.03000000 2887833690 2887833690 -11.00000000
4.90750837 -2.91154885 0.49922809 30 5 12068 5.72800000 2887833693 2887833693 5.00000000
3.15959716 -1.87528563 -0.58193618 4 6 12069 3.72000000 2887833695 2887833695 -9.00000000
8.04796791 -4.77853394 1.14922786 33 7 12070 9.43000000 2887833697 2887833697 7.00000000
4.12682295 -2.45130253 -0.58936012 6 8 12071 4.83600000 2887833700 2887833700 -7.00000000
7.20952177 -4.28240252 1.32812858 10 9 12071 8.49000000 2887833702 2887833702 9.00000000
6.13526869 -3.64575338 -0.62438375 16 10 12072 7.16400000 2887833704 2887833704 -5.00000000
5.02731180 -2.98856068 1.13683999 3 11 12073 5.95800000 2887833706 2887833706 11.00000000
5.02630854 -2.98915172 -0.30647936 18 12 12074 5.85600000 2887833709 2887833709 -3.00000000
8.10751247 -4.82346296 2.17797613 55 13 12075 9.68200000 2887833711 2887833711 13.00000000
5.07950926 -3.02319098 -0.10317863 60 14 12076 5.91200000 2887833713 2887833713 -1.00000000
6.65689373 -3.96200895 2.07572865 9 15 12076 8.02000000 2887833716 2887833716 15.00000000
1.83285475 -1.09433579 -0.57199007 4 0 12084 2.21000000 2887833736 2887833736 -15.00000000
4.59406042 -2.74404621 0.09340528 7 1 12085 5.35200000 2887833739 2887833739 1.00000000
2.15796852 -1.28947222 -0.58037370 3 2 12086 2.58000000 2887833741 2887833741 -13.00000000
4.55493402 -2.72283363 0.27811328 2 3 12087 5.31400000 2887833743 2887833743 3.00000000
2.54285717 -1.52006090 -0.57586157 5 4 12087 3.01800000 2887833746 2887833746 -11.00000000
4.89731550 -2.92866135 0.49922809 36 5 12088 5.72800000 2887833748 2887833748 5.00000000
3.15642214 -1.88833165 -0.58256197 4 6 12089 3.72400000 2887833750 2887833750 -9.00000000
8.05167866 -4.81883049 1.15215278 38 7 12090 9.45400000 2887833753 2887833753 7.00000000
4.12505388 -2.46977162 -0.59033507 6 8 12091 4.84400000 2887833755 2887833755 -7.00000000
7.21072388 -4.31894827 1.33125734 10 9 12092 8.51000000 2887833757 2887833757 9.00000000
6.10712242 -3.65793324 -0.62281495 16 10 12092 7.14600000 2887833759 2887833759 -5.00000000
5.02021742 -3.00810933 1.13760328 3 11 12093 5.96200000 2887833762 2887833762 11.00000000
5.02783537 -3.01386666 -0.30721205 12 12 12094 5.87000000 2887833764 2887833764 -3.00000000
8.11235237 -4.86476278 2.18382478 56 13 12095 9.70800000 2887833766 2887833766 13.00000000
5.08092880 -3.04810429 -0.10342296 56 14 12096 5.92600000 2887833769 2887833769 -1.00000000
7.90619183 -4.74488688 2.47068667 22 15 12097 9.54600000 2887833771 2887833771 15.00000000
1.83067894 -1.10172307 -0.57250774 4 0 12104 2.21200000 2887833792 2887833792 -15.00000000
4.70951557 -2.83535886 0.09595333 27 1 12105 5.49800000 2887833794 2887833794 1.00000000
2.14343810 -1.29096448 -0.57767433 3 2 12106 2.56800000 2887833796 2887833796 -13.00000000
4.55908775 -2.74696279 0.27895066 2 3 12107 5.33000000 2887833799 2887833799 3.00000000
2.54594374 -1.53399384 -0.57776964 5 4 12107 3.02800000 2887833801 2887833801 -11.00000000
4.89559460 -2.95088100 0.50009966 30 5 12108 5.73800000 2887833803 2887833803 5.00000000
3.13966179 -1.89321780 -0.58068472 3 6 12109 3.71200000 2887833806 2887833806 -9.00000000
8.03820896 -4.84895754 1.15264022 33 7 12110 9.45800000 2887833808 2887833808 7.00000000
4.10620975 -2.47800183 -0.58887267 6 8 12111 4.83200000 2887833810 2887833810 -7.00000000
7.20989227 -4.35100126 1.33376026 10 9 12111 8.52600000 2887833812 2887833812 9.00000000
6.09943342 -3.68231797 -0.62333786 16 10 12112 7.15200000 2887833815 2887833815 -5.00000000
5.01640844 -3.02967453 1.13912976 3 11 12113 5.97000000 2887833817 2887833817 11.00000000
5.00531816 -3.02416897 -0.30647936 15 12 12114 5.85600000 2887833819 2887833819 -3.00000000
8.11533451 -4.90514708 2.18922377 62 13 12115 9.73200000 2887833822 2887833822 13.00000000
5.08394766 -3.07409906 -0.10370220 54 14 12116 5.94200000 2887833824 2887833824 -1.00000000
7.90363884 -4.77907562 2.47482777 36 15 12116 9.56200000 2887833826 2887833826 15.00000000
1.83177722 -1.11111236 -0.57406062 4 0 12124 2.21800000 2887833847 2887833847 -15.00000000
4.69787979 -2.85074353 0.09591842 27 1 12125 5.49600000 2887833849 2887833849 1.00000000
2.14225054 -1.30046105 -0.57857412 3 2 12126 2.57200000 2887833852 2887833852 -13.00000000
4.80212498 -2.91629481 0.29444209 9 3 12127 5.62600000 2887833854 2887833854 3.00000000
2.54225159 -1.54389060 -0.57815129 5 4 12127 3.03000000 2887833856 2887833856 -11.00000000
4.90569735 -2.98036575 0.50219136 30 5 12128 5.76200000 2887833859 2887833859 5.00000000
3.13978624 -1.90826952 -0.58193618 4 6 12129 3.72000000 2887833861 2887833861 -9.00000000
4.09753513 -2.49232006 -0.58887267 6 8 12131 4.83200000 2887833865 2887833865 -7.00000000
7.19895935 -4.38047838 1.33469880 12 9 12132 8.53200000 2887833868 2887833868 9.00000000
6.07973433 -3.69944382 -0.62264061 16 10 12132 7.14400000 2887833870 2887833870 -5.00000000
5.01921844 -3.05533338 1.14218259 3 11 12133 5.98600000 2887833872 2887833872 11.00000000
4.96232033 -3.02188492 -0.30449060 12 12 12134 5.81800000 2887833875 2887833875 -3.00000000
8.10482025 -4.93750048 2.19102335 68 13 12135 9.74000000 2887833877 2887833877 13.00000000
5.08343172 -3.09807062 -0.10391163 54 14 12136 5.95400000 2887833879 2887833879 -1.00000000
7.88442039 -4.80700588 2.47431016 40 15 12137 9.56000000 2887833882 2887833882 15.00000000
1.83118403 -1.11951494 -0.57509589 4 0 12144 2.22200000 2887833902 2887833902 -15.00000000
4.71178341 -2.88173175 0.09640709 25 1 12145 5.52400000 2887833905 2887833905 1.00000000
2.12772417 -1.30182874 -0.57587469 3 2 12146 2.56000000 2887833907 2887833907 -13.00000000
4.81406116 -2.94659448 0.29580283 18 3 12147 5.65200000 2887833909 2887833909 3.00000000
2.53014898 -1.54865563 -0.57662481 5 4 12147 3.02200000 2887833912 2887833912 -11.00000000
4.90885735 -3.00579524 0.50358588 33 5 12148 5.77800000 2887833914 2887833914 5.00000000
3.12636828 -1.91509044 -0.58068472 3 6 12149 3.71200000 2887833916 2887833916 -9.00000000
7.93645811 -4.86346769 1.14289069 6 7 12150 9.37800000 2887833918 2887833918 7.00000000
4.07188654 -2.49623299 -0.58643526 6 8 12151 4.81200000 2887833921 2887833921 -7.00000000
7.17934084 -4.40122938 1.33376026 12 9 12151 8.52600000 2887833923 2887833923 9.00000000
6.05659342 -3.71439385 -0.62159479 16 10 12152 7.13200000 2887833925 2887833925 -5.00000000
5.01521635 -3.07694173 1.14370906 3 11 12153 5.99400000 2887833928 2887833928 11.00000000
4.92620850 -3.02351689 -0.30292052 9 12 12154 5.78800000 2887833930 2887833930 -3.00000000
8.09749985 -4.97187948 2.19372272 64 13 12155 9.75200000 2887833932 2887833932 13.00000000
5.07940197 -3.11998296 -0.10405125 49 14 12156 5.96200000 2887833935 2887833935 -1.00000000
7.88654375 -4.84424734 2.48000407 42 15 12156 9.58200000 2887833937 2887833937 15.00000000
1.81081796 -1.11576605 -0.56991953 4 0 12164 2.20200000 2887833958 2887833958 -15.00000000
4.71871853 -2.90865445 0.09675614 25 1 12165 5.54400000 2887833960 2887833960 1.00000000
2.12980199 -1.31333935 -0.57767433 3 2 12166 2.56800000 2887833962 2887833962 -13.00000000
4.81564522 -2.97072101 0.29653552 20 3 12167 5.66600000 2887833965 2887833965 3.00000000
2.51971507 -1.55438578 -0.57547992 6 4 12167 3.01600000 2887833967 2887833967 -11.00000000
4.91020393 -3.03023648 0.50480604 36 5 12168 5.79200000 2887833969 2887833969 5.00000000
3.12302589 -1.92806721 -0.58131045 4 6 12169 3.71600000 2887833971 2887833971 -9.00000000
8.03934765 -4.96520233 1.16019619 24 7 12170 9.52000000 2887833974 2887833974 7.00000000
4.06652546 -2.51251793 -0.58692276 6 8 12171 4.81600000 2887833976 2887833976 -7.00000000
6.02325344 -3.72294211 -0.61950302 16 10 12172 7.10800000 2887833981 2887833981 -5.00000000
5.03450203 -3.11301446 1.15057826 3 11 12173 6.03000000 2887833983 2887833983 11.00000000
4.71179724 -2.91461158 -0.29035988 8 12 12174 5.54800000 2887833985 2887833985 -3.00000000
7.99889660 -4.94986725 2.17167759 16 13 12175 9.65400000 2887833988 2887833988 13.00000000
5.07358122 -3.14085197 -0.10415597 42 14 12176 5.96800000 2887833990 2887833990 -1.00000000
7.85316038 -4.86157846 2.47482777 42 15 12176 9.56200000 2887833992 2887833992 15.00000000
1.80362988 -1.12004197 -0.56888425 4 0 12184 2.19800000 2887834013 2887834013 -15.00000000
4.71193361 -2.92721844 0.09682595 25 1 12185 5.54800000 2887834015 2887834015 1.00000000
2.13513541 -1.32693756 -0.58037370 3 2 12186 2.58000000 2887834018 2887834018 -13.00000000
4.81711960 -2.99489450 0.29726824 21 3 12187 5.68000000 2887834020 2887834020 3.00000000
2.51427388 -1.56317174 -0.57547992 6 4 12187 3.01600000 2887834022 2887834022 -11.00000000
4.90467215 -3.05051470 0.50532901 39 5 12188 5.79800000 2887834024 2887834024 5.00000000
3.10621333 -1.93269539 -0.57943326 3 6 12189 3.70400000 2887834027 2887834027 -9.00000000
4.06447077 -2.53089476 -0.58789772 6 8 12191 4.82400000 2887834031 2887834031 -7.00000000
5.77111340 -3.59499717 1.07689488 2 9 12192 6.88400000 2887834034 2887834034 9.00000000
6.00007439 -3.73762393 -0.61845714 16 10 12192 7.09600000 2887834036 2887834036 -5.00000000
5.02027225 -3.12849259 1.14981496 3 11 12193 6.02600000 2887834038 2887834038 11.00000000
4.53041220 -2.82432318 -0.27978802 38 12 12194 5.34600000 2887834041 2887834041 -3.00000000
7.92865658 -4.94475937 2.15728068 14 13 12195 9.59000000 2887834043 2887834043 13.00000000
4.47387409 -2.79124594 -0.09204399 36 14 12196 5.27400000 2887834045 2887834045 -1.00000000
7.83450317 -4.88793898 2.47431016 38 15 12196 9.56000000 2887834047 2887834047 15.00000000
1.80953479 -1.13248014 -0.57199007 4 0 12204 2.21000000 2887834068 2887834068 -15.00000000
4.69999218 -2.94258738 0.09679104 25 1 12205 5.54600000 2887834071 2887834071 1.00000000
2.11727810 -1.32610714 -0.57677448 3 2 12206 2.56400000 2887834073 2887834073 -13.00000000
4.81848335 -3.01911426 0.29800093 21 3 12207 5.69400000 2887834075 2887834075 3.00000000
2.51046562 -1.57298100 -0.57586157 5 4 12207 3.01800000 2887834077 2887834077 -11.00000000
4.90074635 -3.07184911 0.50602627 36 5 12208 5.80600000 2887834080 2887834080 5.00000000
3.09610105 -1.94142747 -0.57880753 3 6 12209 3.70000000 2887834082 2887834082 -9.00000000
7.90359163 -4.95791340 1.14557183 6 7 12210 9.40000000 2887834084 2887834084 7.00000000
4.05224895 -2.54295659 -0.58741021 6 8 12211 4.82000000 2887834087 2887834087 -7.00000000
5.75852919 -3.61512017 1.07689488 5 9 12212 6.88400000 2887834089 2887834089 9.00000000
5.97517920 -3.75112987 -0.61723697 16 10 12212 7.08200000 2887834091 2887834091 -5.00000000
5.01264668 -3.14808583 1.15057826 3 11 12213 6.03000000 2887834094 2887834094 11.00000000
4.48501110 -2.81780720 -0.27758992 41 12 12214 5.30400000 2887834096 2887834096 -3.00000000
8.04664135 -5.05743885 2.19417262 30 13 12215 9.75400000 2887834098 2887834098 13.00000000
4.44886780 -2.79726601 -0.09172985 42 14 12216 5.25600000 2887834100 2887834100 -1.00000000
7.81817055 -4.91764975 2.47482777 40 15 12217 9.56200000 2887834103 2887834103 15.00000000
1.80557060 -1.13878965 -0.57199007 4 0 12224 2.21000000 2887834124 2887834124 -15.00000000
4.69814825 -2.96431065 0.09696557 25 1 12225 5.55600000 2887834126 2887834126 1.00000000
2.10274887 -1.32724881 -0.57407510 3 2 12226 2.55200000 2887834128 2887834128 -13.00000000
4.81129265 -3.03804827 0.29821029 21 3 12227 5.69800000 2887834130 2887834130 3.00000000
2.51159978 -1.58592737 -0.57738805 6 4 12227 3.02600000 2887834133 2887834133 -11.00000000
4.91694546 -3.10596204 0.50881523 36 5 12228 5.83800000 2887834135 2887834135 5.00000000
3.07928586 -1.94589162 -0.57693028 3 6 12229 3.68800000 2887834137 2887834137 -9.00000000
7.84596682 -4.96001434 1.13972211 6 7 12230 9.35200000 2887834140 2887834140 7.00000000
4.03999233 -2.55496407 -0.58692276 6 8 12231 4.81600000 2887834142 2887834142 -7.00000000
5.73919773 -3.63097477 1.07564342 10 9 12232 6.87600000 2887834144 2887834144 9.00000000
5.95026302 -3.76450777 -0.61601681 16 10 12232 7.06800000 2887834147 2887834147 -5.00000000
5.00494480 -3.16766405 1.15134144 3 11 12233 6.03400000 2887834149 2887834149 11.00000000
4.43971109 -2.81100893 -0.27539179 44 12 12234 5.26200000 2887834151 2887834151 -3.00000000
8.01082897 -5.07402611 2.18922377 37 13 12235 9.73200000 2887834153 2887834153 13.00000000
4.42218494 -2.80207515 -0.09138080 40 14 12236 5.23600000 2887834156 2887834156 -1.00000000
7.81161118 -4.94975281 2.47793365 45 15 12236 9.57400000 2887834158 2887834158 15.00000000
1.80158448 -1.14508533 -0.57199007 4 0 12244 2.21000000 2887834179 2887834179 -15.00000000
4.40934086 -2.80365324 0.09120627 54 1 12245 5.22600000 2887834181 2887834181 1.00000000
2.10796857 -1.34085619 -0.57677448 3 2 12246 2.56400000 2887834183 2887834183 -13.00000000
4.80908394 -3.06018543 0.29873365 16 3 12247 5.70800000 2887834186 2887834186 3.00000000
2.50439215 -1.59363091 -0.57700640 6 4 12247 3.02400000 2887834188 2887834188 -11.00000000
4.91111565 -3.12631631 0.50933814 39 5 12248 5.84400000 2887834190 2887834190 5.00000000
3.08247185 -1.96299493 -0.57880753 5 6 12249 3.70000000 2887834193 2887834193 -9.00000000
7.84534740 -4.99803734 1.14215946 6 7 12250 9.37200000 2887834195 2887834195 7.00000000
4.03439713 -2.57118440 -0.58741021 8 8 12251 4.82000000 2887834197 2887834197 -7.00000000
5.73148537 -3.65417194 1.07658195 10 9 12252 6.88200000 2887834200 2887834200 9.00000000
5.92700624 -3.77882862 -0.61497092 16 10 12252 7.05600000 2887834202 2887834202 -5.00000000
5.00047827 -3.18933797 1.15286791 3 11 12253 6.04200000 2887834204 2887834204 11.00000000
4.41135073 -2.81467175 -0.27424040 47 12 12254 5.24000000 2887834206 2887834206 -3.00000000
7.97664213 -5.09147310 2.18472457 27 13 12255 9.71200000 2887834209 2887834209 13.00000000
4.37866879 -2.79597044 -0.09068270 38 14 12256 5.19600000 2887834211 2887834211 -1.00000000
7.81056786 -4.98738718 2.48310995 45 15 12256 9.59400000 2887834213 2887834213 15.00000000
1.78781581 -1.14511538 -0.56888425 4 0 12264 2.19800000 2887834234 2887834234 -15.00000000
4.35406733 -2.78989887 0.09026384 52 1 12265 5.17200000 2887834236 2887834236 1.00000000
2.10327530 -1.34820616 -0.57677448 3 2 12266 2.56400000 2887834239 2887834239 -13.00000000
2.49055076 -1.59706438 -0.57509834 5 4 12267 3.01400000 2887834243 2887834243 -11.00000000
4.90352678 -3.14559174 0.50968677 37 5 12268 5.84800000 2887834246 2887834246 5.00000000
3.08391333 -1.97907722 -0.58037186 5 6 12269 3.71000000 2887834248 2887834248 -9.00000000
7.84789896 -5.03826141 1.14508438 6 7 12270 9.39600000 2887834250 2887834250 7.00000000
4.02205706 -2.58310604 -0.58692276 8 8 12271 4.81600000 2887834252 2887834252 -7.00000000
5.72266006 -3.67529321 1.07720768 17 9 12271 6.88600000 2887834255 2887834255 9.00000000
5.89366436 -3.78657126 -0.61287916 16 10 12272 7.03200000 2887834257 2887834257 -5.00000000
5.34439707 -3.43499470 1.23491585 6 11 12273 6.47200000 2887834259 2887834259 11.00000000
4.38301897 -2.81817126 -0.27308902 60 12 12274 5.21800000 2887834262 2887834262 -3.00000000
7.92768097 -5.09925556 2.17617655 17 13 12275 9.67400000 2887834264 2887834264 13.00000000
4.33356810 -2.78851414 -0.08994970 54 14 12276 5.15400000 2887834266 2887834266 -1.00000000
7.78173923 -5.00730324 2.47948647 38 15 12276 9.58000000 2887834269 2887834269 15.00000000
1.78056157 -1.14925373 -0.56784898 4 0 12284 2.19400000 2887834289 2887834289 -15.00000000
4.30902338 -2.78230119 0.08953085 49 1 12285 5.13000000 2887834292 2887834292 1.00000000
2.10510421 -1.35976923 -0.57857412 3 2 12286 2.57200000 2887834294 2887834294 -13.00000000
4.82786274 -3.11969995 0.30124578 23 3 12287 5.75600000 2887834296 2887834296 3.00000000
2.49155664 -1.61001039 -0.57662481 5 4 12287 3.02200000 2887834299 2887834299 -11.00000000
4.90088320 -3.16809726 0.51055837 40 5 12288 5.85800000 2887834301 2887834301 5.00000000
3.07201004 -1.98661196 -0.57943326 5 6 12289 3.70400000 2887834303 2887834303 -9.00000000
7.84359789 -5.07425117 1.14703429 6 7 12290 9.41200000 2887834305 2887834305 7.00000000
4.00301647 -2.59065866 -0.58546031 8 8 12291 4.80400000 2887834308 2887834308 -7.00000000
5.72241688 -3.70483160 1.07971072 25 9 12292 6.90200000 2887834310 2887834310 9.00000000
5.86368608 -3.79629278 -0.61113608 16 10 12292 7.01200000 2887834312 2887834312 -5.00000000
5.43948269 -3.52300072 1.25972104 9 11 12293 6.60200000 2887834315 2887834315 11.00000000
4.38488865 -2.84105587 -0.27382171 86 12 12294 5.23200000 2887834317 2887834317 -3.00000000
4.33051968 -2.80797601 -0.09008932 64 14 12296 5.16200000 2887834322 2887834322 -1.00000000
7.74874735 -5.02632904 2.47482777 40 15 12297 9.56200000 2887834324 2887834324 15.00000000
1.78463626 -1.16072857 -0.57043719 4 0 12304 2.20400000 2887834345 2887834345 -15.00000000
4.27414322 -2.78096700 0.08900727 49 1 12305 5.10000000 2887834347 2887834347 1.00000000
2.09381199 -1.36285686 -0.57677448 3 2 12306 2.56400000 2887834349 2887834349 -13.00000000
4.82586050 -3.14114022 0.30176914 23 3 12306 5.76600000 2887834352 2887834352 3.00000000
2.48098588 -1.61548388 -0.57547992 5 4 12307 3.01600000 2887834354 2887834354 -11.00000000
4.89814138 -3.19062257 0.51142991 37 5 12308 5.86800000 2887834356 2887834356 5.00000000
3.04519677 -1.98438156 -0.57567883 5 6 12309 3.68000000 2887834358 2887834358 -9.00000000
5.98329020 -3.90045786 0.87697178 5 7 12310 7.19600000 2887834361 2887834361 7.00000000
4.01057673 -2.61545944 -0.58789772 8 8 12311 4.82400000 2887834363 2887834363 -7.00000000
5.71772146 -3.73018050 1.08127499 25 9 12312 6.91200000 2887834365 2887834365 9.00000000
5.84706163 -3.81456065 -0.61078745 12 10 12312 7.00800000 2887834368 2887834368 -5.00000000
5.39920235 -3.52372551 1.25323343 12 11 12313 6.56800000 2887834370 2887834370 11.00000000
4.38832378 -2.86507964 -0.27465910 28 12 12314 5.24800000 2887834372 2887834372 -3.00000000
4.33910608 -2.83510685 -0.09047327 22 14 12316 5.18400000 2887834377 2887834377 -1.00000000
7.74335766 -5.05939388 2.47845125 38 15 12316 9.57600000 2887834379 2887834379 15.00000000
1.79026830 -1.17330468 -0.57354301 6 0 12324 2.21600000 2887834400 2887834400 -15.00000000
4.24601412 -2.78380895 0.08862332 54 1 12325 5.07800000 2887834402 2887834402 1.00000000
2.07926488 -1.36374474 -0.57407510 3 2 12326 2.55200000 2887834404 2887834404 -13.00000000
4.81319618 -3.15687108 0.30166444 23 3 12326 5.76400000 2887834407 2887834407 3.00000000
2.47369027 -1.62305725 -0.57509834 5 4 12327 3.01400000 2887834409 2887834409 -11.00000000
4.89696836 -3.21426058 0.51247579 34 5 12328 5.88000000 2887834411 2887834411 5.00000000
3.04485631 -1.99933612 -0.57693028 5 6 12329 3.68800000 2887834414 2887834414 -9.00000000
5.94143343 -3.90279222 0.87282825 12 7 12330 7.16200000 2887834416 2887834416 7.00000000
3.98151493 -2.61636138 -0.58497286 8 8 12331 4.80000000 2887834418 2887834418 -7.00000000
5.72777510 -3.76530790 1.08565521 25 9 12332 6.94000000 2887834421 2887834421 9.00000000
5.82705116 -3.83056951 -0.61009020 12 10 12332 7.00000000 2887834423 2887834423 -5.00000000
5.41639566 -3.56196809 1.26010263 15 11 12333 6.60400000 2887834425 2887834425 11.00000000
4.29586220 -2.82722330 1.18729162 42 13 12335 5.27800000 2887834430 2887834430 13.00000000
7.74178553 -5.09701586 2.48362756 38 15 12336 9.59600000 2887834434 2887834434 15.00000000
1.78153098 -1.17604208 -0.57199007 4 0 12343 2.21000000 2887834455 2887834455 -15.00000000
4.22007275 -2.78685427 0.08827427 69 1 12344 5.05800000 2887834457 2887834457 1.00000000
2.08123493 -1.37492895 -0.57587469 3 2 12345 2.56000000 2887834460 2887834460 -13.00000000
4.80214739 -3.17365313 0.30166444 23 3 12346 5.76400000 2887834462 2887834462 3.00000000
2.47157001 -1.63341630 -0.57586157 5 4 12346 3.01800000 2887834464 2887834464 -11.00000000
4.90124035 -3.24037099 0.51404458 37 5 12347 5.89800000 2887834467 2887834467 5.00000000
3.02832389 -2.00288391 -0.57505310 5 6 12348 3.67600000 2887834469 2887834469 -9.00000000
5.89038134 -3.89727998 0.86722225 40 7 12349 7.11600000 2887834471 2887834471 7.00000000
3.96785069 -2.62626314 -0.58424163 8 8 12350 4.79400000 2887834474 2887834474 -7.00000000
5.72415400 -3.78873491 1.08721948 25 9 12350 6.95000000 2887834476 2887834476 9.00000000
5.80268812 -3.84217191 -0.60887003 12 10 12351 6.98600000 2887834478 2887834478 -5.00000000
5.41110086 -3.58424640 1.26162910 15 11 12352 6.61200000 2887834481 2887834481 11.00000000
4.43032169 -2.93570304 -0.27853197 2 12 12353 5.32200000 2887834483 2887834483 -3.00000000
4.26372290 -2.82637954 1.18099308 44 13 12354 5.25000000 2887834485 2887834485 13.00000000
4.44469929 -2.94746327 -0.09309114 2 14 12355 5.33400000 2887834487 2887834487 -1.00000000
7.71911669 -5.12080479 2.48207474 38 15 12356 9.59000000 2887834490 2887834490 15.00000000
1.77419794 -1.18011379 -0.57095480 4 0 12363 2.20600000 2887834510 2887834510 -15.00000000
4.21198416 -2.80267596 0.08830918 72 1 12364 5.06000000 2887834513 2887834513 1.00000000
2.07966733 -1.38434505 -0.57677448 3 2 12365 2.56400000 2887834515 2887834515 -13.00000000
4.81653595 -3.20616078 0.30323452 28 3 12365 5.79400000 2887834517 2887834517 3.00000000
2.45931697 -1.63768113 -0.57433510 5 4 12366 3.01000000 2887834520 2887834520 -11.00000000
4.23492813 -2.82114363 0.44519153 22 5 12367 5.10800000 2887834522 2887834522 5.00000000
3.03446460 -2.02220631 -0.57755607 5 6 12368 3.69200000 2887834524 2887834524 -9.00000000
5.85692072 -3.90460396 0.86429739 47 7 12369 7.09200000 2887834527 2887834527 7.00000000
3.97352266 -2.65001035 -0.58643526 12 8 12370 4.81200000 2887834529 2887834529 -7.00000000
5.72173214 -3.81736374 1.08940959 10 9 12371 6.96400000 2887834531 2887834531 9.00000000
4.31251192 -2.87717557 -0.45355847 3 10 12371 5.20400000 2887834534 2887834534 -5.00000000
5.40998745 -3.61074209 1.26430035 12 11 12372 6.62600000 2887834536 2887834536 11.00000000
4.24729824 -2.83580995 -0.26764607 7 12 12373 5.11400000 2887834538 2887834538 -3.00000000
4.24086714 -2.83258629 1.17739379 44 13 12374 5.23400000 2887834540 2887834540 13.00000000
4.43438339 -2.96296024 -0.09309114 2 14 12375 5.33400000 2887834543 2887834543 -1.00000000
7.71243763 -5.15523338 2.48569822 40 15 12376 9.60400000 2887834545 2887834545 15.00000000
1.76043904 -1.17984653 -0.56784898 4 0 12383 2.19400000 2887834566 2887834566 -15.00000000
4.18556595 -2.80622554 0.08796013 56 1 12384 5.04000000 2887834568 2887834568 1.00000000
2.07482219 -1.39159608 -0.57677448 3 2 12385 2.56400000 2887834570 2887834570 -13.00000000
4.80365610 -3.22184157 0.30312985 21 3 12385 5.79200000 2887834573 2887834573 3.00000000
2.45684600 -1.64844346 -0.57509834 5 4 12386 3.01400000 2887834575 2887834575 -11.00000000
4.20189476 -2.82036376 0.44275117 35 5 12387 5.08000000 2887834577 2887834577 5.00000000
3.01590729 -2.02507782 -0.57536596 5 6 12388 3.67800000 2887834580 2887834580 -9.00000000
5.83172083 -3.91727638 0.86259121 47 7 12389 7.07800000 2887834582 2887834582 7.00000000
3.96424842 -2.66386437 -0.58643526 8 8 12390 4.81200000 2887834584 2887834584 -7.00000000
4.17438841 -2.80507255 0.79656428 9 9 12390 5.09200000 2887834587 2887834587 9.00000000
4.23630190 -2.84775019 -0.44658601 9 10 12391 5.12400000 2887834589 2887834589 -5.00000000
4.21785116 -2.83641577 0.98800898 31 11 12392 5.17800000 2887834591 2887834591 11.00000000
4.23405933 -2.84838891 -0.26743674 10 12 12393 5.11000000 2887834593 2887834593 -3.00000000
4.23742056 -2.85172462 1.17919338 38 13 12394 5.24200000 2887834596 2887834596 13.00000000
4.42401361 -2.97842121 -0.09309114 2 14 12395 5.33400000 2887834598 2887834598 -1.00000000
7.68317890 -5.17456913 2.48207474 45 15 12396 9.59000000 2887834600 2887834600 15.00000000
1.76911795 -1.19463336 -0.57199007 4 0 12403 2.21000000 2887834621 2887834621 -15.00000000
4.14923191 -2.80290890 0.08740165 54 1 12404 5.00800000 2887834623 2887834623 1.00000000
2.06995201 -1.39883006 -0.57677448 3 2 12405 2.56400000 2887834626 2887834626 -13.00000000
4.10562706 -2.77449632 0.25969100 8 3 12405 4.96200000 2887834628 2887834628 3.00000000
2.44945049 -1.65590990 -0.57471669 5 4 12406 3.01200000 2887834630 2887834630 -11.00000000
4.16726828 -2.81827164 0.44013649 35 5 12407 5.05000000 2887834633 2887834633 5.00000000
3.00391173 -2.03227234 -0.57442737 5 6 12408 3.67200000 2887834635 2887834635 -9.00000000
4.12636566 -2.79270935 0.61178410 29 7 12409 5.02000000 2887834637 2887834637 7.00000000
3.96314430 -2.68325043 -0.58765399 8 8 12410 4.82200000 2887834640 2887834640 -7.00000000
4.21973753 -2.85805106 -0.44588879 9 10 12411 5.11600000 2887834644 2887834644 -5.00000000
4.18517017 -2.83570433 0.98266631 44 11 12412 5.15000000 2887834646 2887834646 11.00000000
4.19929171 -2.84634209 -0.26586667 17 12 12413 5.08000000 2887834649 2887834649 -3.00000000
4.22744036 -2.86649847 1.17919338 28 13 12414 5.24200000 2887834651 2887834651 13.00000000
4.41358995 -2.99384570 -0.09309114 2 14 12415 5.33400000 2887834653 2887834653 -1.00000000
7.66347122 -5.20027208 2.48155689 45 15 12416 9.58800000 2887834656 2887834656 15.00000000
1.76493716 -1.20080149 -0.57199007 4 0 12423 2.21000000 2887834676 2887834676 -15.00000000
4.12289143 -2.80612397 0.08705261 47 1 12424 4.98800000 2887834679 2887834679 1.00000000
2.05539179 -1.39946651 -0.57407510 3 2 12425 2.55200000 2887834681 2887834681 -13.00000000
4.10582304 -2.79555535 0.26031905 44 3 12425 4.97400000 2887834683 2887834683 3.00000000
2.44852304 -1.66776562 -0.57586157 5 4 12426 3.01800000 2887834686 2887834686 -11.00000000
4.09319210 -2.78904676 0.43333834 54 5 12427 4.97200000 2887834688 2887834688 5.00000000
3.00332856 -2.04719591 -0.57567883 5 6 12428 3.68000000 2887834690 2887834690 -9.00000000
4.10511160 -2.79926753 0.61007792 63 7 12429 5.00600000 2887834692 2887834692 7.00000000
3.94883442 -2.69371223 -0.58692276 8 8 12430 4.81600000 2887834695 2887834695 -7.00000000
4.13838530 -2.82301497 0.79343563 49 9 12430 5.07200000 2887834697 2887834697 9.00000000
4.18998671 -2.85928679 -0.44379705 15 10 12431 5.09200000 2887834699 2887834699 -5.00000000
4.15903139 -2.83922672 0.97885013 52 11 12432 5.13000000 2887834702 2887834702 11.00000000
4.19757748 -2.86661482 -0.26639003 25 12 12433 5.09000000 2887834704 2887834704 -3.00000000
4.21419048 -2.87903905 1.17829359 41 13 12434 5.23800000 2887834706 2887834706 13.00000000
4.37009382 -2.98666739 -0.09239304 2 14 12435 5.29400000 2887834709 2887834709 -1.00000000
7.60790539 -5.19949579 2.46913362 45 15 12435 9.54000000 2887834711 2887834711 15.00000000
1.76232827 -1.20804715 -0.57250774 4 0 12443 2.21200000 2887834732 2887834732 -15.00000000
4.09987783 -2.81145096 0.08677337 49 1 12444 4.97200000 2887834734 2887834734 1.00000000
2.04728031 -1.40442789 -0.57317531 3 2 12445 2.54800000 2887834736 2887834736 -13.00000000
4.05157089 -2.77936506 0.25749290 46 3 12445 4.92000000 2887834739 2887834739 3.00000000
2.43297410 -1.66963720 -0.57357186 4 4 12446 3.00600000 2887834741 2887834741 -11.00000000
4.05222273 -2.78189254 0.43002644 49 5 12447 4.93400000 2887834743 2887834743 5.00000000
2.99942088 -2.05990362 -0.57630455 3 6 12448 3.68400000 2887834745 2887834745 -9.00000000
4.07568169 -2.80009103 0.60715306 44 7 12449 4.98200000 2887834748 2887834748 7.00000000
3.93286371 -2.70298219 -0.58594781 8 8 12450 4.80800000 2887834750 2887834750 -7.00000000
4.10571432 -2.82177925 0.78905547 76 9 12450 5.04400000 2887834752 2887834752 9.00000000
4.16027880 -2.86034966 -0.44170532 6 10 12451 5.06800000 2887834755 2887834755 -5.00000000
4.16041851 -2.86151528 0.98152149 60 11 12452 5.14400000 2887834757 2887834757 11.00000000
4.18096399 -2.87672114 -0.26597133 12 12 12453 5.08200000 2887834759 2887834759 -3.00000000
4.21374655 -2.90036130 1.18099308 29 13 12454 5.25000000 2887834762 2887834762 13.00000000
4.35470057 -2.99850130 -0.09228832 2 14 12455 5.28800000 2887834764 2887834764 -1.00000000
7.55697823 -5.20542765 2.45878100 45 15 12456 9.50000000 2887834766 2887834766 15.00000000
1.75015259 -1.20870245 -0.56991953 4 0 12463 2.20200000 2887834787 2887834787 -15.00000000
4.07852221 -2.81778860 0.08652903 47 1 12464 4.95800000 2887834789 2887834789 1.00000000
2.04236555 -1.41156566 -0.57317531 3 2 12465 2.54800000 2887834792 2887834792 -13.00000000
4.02492857 -2.78283763 0.25644618 44 3 12466 4.90000000 2887834794 2887834794 3.00000000
2.42390156 -1.67588663 -0.57280862 5 4 12466 3.00200000 2887834796 2887834796 -11.00000000
4.02446222 -2.78355336 0.42810902 47 5 12467 4.91200000 2887834798 2887834798 5.00000000
2.98896337 -2.06811309 -0.57567883 5 6 12468 3.68000000 2887834801 2887834801 -9.00000000
4.04956007 -2.80300283 0.60471570 59 7 12469 4.96200000 2887834803 2887834803 7.00000000
3.92177248 -2.71556401 -0.58570409 8 8 12470 4.80600000 2887834805 2887834805 -7.00000000
4.08771896 -2.83047104 0.78749108 60 9 12470 5.03400000 2887834808 2887834808 9.00000000
4.11751223 -2.85216403 -0.43821907 12 10 12471 5.02800000 2887834810 2887834810 -5.00000000
4.16815519 -2.88832068 0.98571926 23 11 12472 5.16600000 2887834812 2887834812 11.00000000
4.13314342 -2.86512733 -0.26356387 7 12 12473 5.03600000 2887834815 2887834815 -3.00000000
4.33927822 -3.01026440 -0.09218361 2 14 12475 5.28200000 2887834819 2887834819 -1.00000000
7.50634146 -5.20733452 2.44791055 42 15 12475 9.45800000 2887834822 2887834822 15.00000000
1.74275124 -1.21259749 -0.56888425 4 0 12483 2.19800000 2887834842 2887834842 -15.00000000
4.03911924 -2.81144476 0.08590075 47 1 12484 4.92200000 2887834845 2887834845 1.00000000
2.05021954 -1.42759478 -0.57677448 3 2 12485 2.56400000 2887834847 2887834847 -13.00000000
4.00207949 -2.78773761 0.25560880 42 3 12486 4.88400000 2887834849 2887834849 3.00000000
2.41642570 -1.68321526 -0.57242697 5 4 12486 3.00000000 2887834851 2887834851 -11.00000000
4.00981760 -2.79416728 0.42758608 85 5 12487 4.90600000 2887834854 2887834854 5.00000000
2.97524405 -2.07401538 -0.57442737 5 6 12488 3.67200000 2887834856 2887834856 -9.00000000
4.05277729 -2.82620525 0.60666561 57 7 12489 4.97800000 2887834858 2887834858 7.00000000
3.90575719 -2.72469401 -0.58472914 8 8 12490 4.79800000 2887834861 2887834861 -7.00000000
5.64539194 -3.93974495 1.09034824 32 9 12491 6.97000000 2887834863 2887834863 9.00000000
4.10099602 -2.86195850 -0.43752182 12 10 12491 5.02000000 2887834865 2887834865 -5.00000000
5.30098772 -3.70077181 1.25666809 18 11 12492 6.58600000 2887834868 2887834868 11.00000000
4.06908131 -2.84179902 -0.26010969 25 12 12493 4.97000000 2887834870 2887834870 -3.00000000
4.22854042 -2.95426154 1.19089091 1 13 12494 5.29400000 2887834872 2887834872 13.00000000
4.12550116 -2.88334489 -0.08785541 2 14 12495 5.03400000 2887834875 2887834875 -1.00000000
7.44129086 -5.20270967 2.43289900 45 15 12496 9.40000000 2887834877 2887834877 15.00000000
1.73534417 -1.21645570 -0.56784898 4 0 12503 2.19400000 2887834898 2887834898 -15.00000000
4.00799656 -2.81060123 0.08544698 49 1 12504 4.89600000 2887834900 2887834900 1.00000000
2.02607989 -1.42131293 -0.57137567 3 2 12505 2.54000000 2887834902 2887834902 -13.00000000
