# .PCD v0.7 - Point Cloud Data file format
VERSION 0.7
FIELDS x y z intensity laser_id azimuth distance_m adjustedtime timestamp vertical_angle
SIZE 4 4 4 1 1 2 8 8 4 8
TYPE F F F U U U F U U F
COUNT 1 1 1 1 1 1 1 1 1 1
WIDTH 528
HEIGHT 1
VIEWPOINT 0 0 0 1 0 0 0
POINTS 528
DATA ascii
3.81031322 -2.95451689 -0.42183378 2 10 12779 4.84000000 2885535600 2885535600 -5.00000000
4.97493982 -3.85895896 1.22384894 34 11 12780 6.41400000 2885535602 2885535602 11.00000000
3.81385827 -2.95939803 -0.25299200 2 12 12781 4.83400000 2885535604 2885535604 -3.00000000
4.53966045 -3.52386045 1.32676136 13 13 12782 5.89800000 2885535606 2885535606 13.00000000
3.69901896 -2.87235665 -0.08174707 41 14 12783 4.68400000 2885535609 2885535609 -1.00000000
6.66335249 -5.17421627 2.26052547 45 15 12783 8.73400000 2885535611 2885535611 15.00000000
1.66288722 -1.29498851 -0.56474316 4 0 12791 2.18200000 2885535632 2885535632 -15.00000000
3.89642239 -3.03546691 0.08621489 22 1 12792 4.94000000 2885535634 2885535634 1.00000000
1.95210791 -1.52131677 -0.57137567 3 2 12793 2.54000000 2885535636 2885535636 -13.00000000
3.56141067 -2.77647781 0.23666319 5 3 12794 4.52200000 2885535639 2885535639 3.00000000
2.30236745 -1.79492700 -0.56746596 3 4 12794 2.97400000 2885535641 2885535641 -11.00000000
3.88217354 -3.02763438 0.43072367 9 5 12795 4.94200000 2885535643 2885535643 5.00000000
2.83147454 -2.20900869 -0.56879574 5 6 12796 3.63600000 2885535646 2885535646 -9.00000000
3.92010903 -3.05942082 0.61056542 22 7 12797 5.01000000 2885535648 2885535648 7.00000000
3.72085810 -2.90496182 -0.57961059 6 8 12798 4.75600000 2885535650 2885535650 -7.00000000
6.81268930 -5.32074165 1.36911440 49 9 12799 8.75200000 2885535653 2885535653 9.00000000
3.81410885 -2.97883654 -0.42340261 2 10 12799 4.85800000 2885535655 2885535655 -5.00000000
4.94596863 -3.86421418 1.22003269 31 11 12800 6.39400000 2885535657 2885535657 11.00000000
4.06473017 -3.17685795 -0.27036756 2 12 12801 5.16600000 2885535659 2885535659 -3.00000000
4.54114914 -3.55048800 1.33081043 16 13 12802 5.91600000 2885535662 2885535662 13.00000000
6.61633825 -5.17483139 2.25069046 45 15 12803 8.69600000 2885535666 2885535666 15.00000000
1.65964949 -1.30226719 -0.56526077 4 0 12812 2.18400000 2885535687 2885535687 -15.00000000
3.88527060 -3.04972768 0.08621489 22 1 12813 4.94000000 2885535689 2885535689 1.00000000
1.94345343 -1.52605438 -0.57047588 3 2 12814 2.53600000 2885535692 2885535692 -13.00000000
3.60824800 -2.83329773 0.24043138 18 3 12814 4.59400000 2885535694 2885535694 3.00000000
2.30812430 -1.81305552 -0.57051891 3 4 12815 2.99000000 2885535696 2885535696 -11.00000000
3.90081596 -3.06523228 0.43403560 28 5 12816 4.98000000 2885535699 2885535699 5.00000000
2.82025313 -2.21693015 -0.56816995 3 6 12817 3.63200000 2885535701 2885535701 -9.00000000
3.91979241 -3.08235741 0.61227161 22 7 12818 5.02400000 2885535703 2885535703 7.00000000
3.72266746 -2.92839861 -0.58156049 6 8 12819 4.77200000 2885535705 2885535705 -7.00000000
6.77078629 -5.32617044 1.36442137 52 9 12819 8.72200000 2885535708 2885535708 9.00000000
5.31566334 -4.18301439 -0.59178752 12 10 12820 6.79000000 2885535710 2885535710 -5.00000000
4.91326094 -3.86774373 1.21545327 31 11 12821 6.37000000 2885535712 2885535712 11.00000000
4.17545128 -3.28811669 -0.27853197 2 12 12822 5.32200000 2885535715 2885535715 -3.00000000
4.52504396 -3.56469631 1.32991064 18 13 12823 5.91200000 2885535717 2885535717 13.00000000
3.70821190 -2.92226934 -0.08241026 9 14 12824 4.72200000 2885535719 2885535719 -1.00000000
6.57456732 -5.18111038 2.24292588 45 15 12824 8.66600000 2885535722 2885535722 15.00000000
1.65660930 -1.30925035 -0.56577843 4 0 12832 2.18600000 2885535742 2885535742 -15.00000000
3.92636728 -3.10419750 0.08736674 31 1 12833 5.00600000 2885535745 2885535745 1.00000000
1.93505776 -1.53041124 -0.56957608 3 2 12834 2.53200000 2885535747 2885535747 -13.00000000
3.56494641 -2.82047987 0.23823327 26 3 12835 4.55200000 2885535749 2885535749 3.00000000
2.31255913 -1.82962823 -0.57319021 4 4 12835 3.00400000 2885535752 2885535752 -11.00000000
3.90883994 -3.09366775 0.43612733 28 5 12836 5.00400000 2885535754 2885535754 5.00000000
2.81869221 -2.23166609 -0.56942147 5 6 12837 3.64000000 2885535756 2885535756 -9.00000000
3.91056514 -3.09725380 0.61251533 22 7 12838 5.02600000 2885535758 2885535758 7.00000000
3.70775509 -2.93767691 -0.58082926 4 8 12839 4.76600000 2885535761 2885535761 -7.00000000
6.72180605 -5.32763767 1.35847688 52 9 12840 8.68400000 2885535763 2885535763 9.00000000
5.30102968 -4.20154428 -0.59178752 8 10 12840 6.79000000 2885535765 2885535765 -5.00000000
4.88896132 -3.87633252 1.21278203 34 11 12841 6.35600000 2885535768 2885535768 11.00000000
4.16081858 -3.30018950 -0.27832261 2 12 12842 5.31800000 2885535770 2885535770 -3.00000000
4.50646687 -3.57562494 1.32811105 18 13 12843 5.90400000 2885535772 2885535772 13.00000000
3.71835017 -2.95135713 -0.08286402 7 14 12844 4.74800000 2885535775 2885535775 -1.00000000
6.53132629 -5.18595219 2.23464370 45 15 12845 8.63400000 2885535777 2885535777 15.00000000
1.66004741 -1.32046127 -0.56836665 4 0 12850 2.19600000 2885535798 2885535798 -15.00000000
3.97918630 -3.16632175 0.08876294 47 1 12851 5.08600000 2885535800 2885535800 1.00000000
1.93633902 -1.54133749 -0.57137567 3 2 12852 2.54000000 2885535802 2885535802 -13.00000000
3.52999735 -2.80989909 0.23645385 22 3 12852 4.51800000 2885535805 2885535805 3.00000000
2.29144168 -1.82465470 -0.56937402 3 4 12853 2.98400000 2885535807 2885535807 -11.00000000
3.89910150 -3.10593224 0.43612733 28 5 12854 5.00400000 2885535809 2885535809 5.00000000
2.81475711 -2.24297214 -0.57004720 5 6 12855 3.64400000 2885535811 2885535811 -9.00000000
3.91323352 -3.11942291 0.61446524 22 7 12856 5.04200000 2885535814 2885535814 7.00000000
3.68919563 -2.94188476 -0.57936686 4 8 12857 4.75400000 2885535816 2885535816 -7.00000000
6.66797400 -5.31916380 1.35096800 50 9 12858 8.63600000 2885535818 2885535818 9.00000000
5.27845860 -4.21072245 -0.59074163 12 10 12858 6.77800000 2885535821 2885535821 -5.00000000
4.86755228 -3.88432503 1.21049225 34 11 12859 6.34400000 2885535823 2885535823 11.00000000
4.05833721 -3.23972797 -0.27214697 2 12 12860 5.20000000 2885535825 2885535825 -3.00000000
4.49368858 -3.58854890 1.32766116 20 13 12861 5.90200000 2885535828 2885535828 13.00000000
3.70437288 -2.95927978 -0.08275931 5 14 12862 4.74200000 2885535830 2885535830 -1.00000000
6.49930763 -5.19204473 2.22894955 45 15 12862 8.61200000 2885535832 2885535832 15.00000000
1.64939725 -1.32141638 -0.56629604 4 0 12870 2.18800000 2885535853 2885535853 -15.00000000
4.00555944 -3.21020603 0.08960065 42 1 12871 5.13400000 2885535855 2885535855 1.00000000
1.92182434 -1.54077339 -0.56867629 3 2 12872 2.52800000 2885535857 2885535857 -13.00000000
3.51860905 -2.82095456 0.23634918 26 3 12872 4.51600000 2885535860 2885535860 3.00000000
2.27740073 -1.82650065 -0.56746596 3 4 12873 2.97400000 2885535862 2885535862 -11.00000000
3.89134431 -3.12201738 0.43647596 26 5 12874 5.00800000 2885535864 2885535864 5.00000000
2.80382943 -2.25031114 -0.56942147 5 6 12875 3.64000000 2885535867 2885535867 -9.00000000
3.90851259 -3.13803482 0.61544019 22 7 12876 5.05000000 2885535869 2885535869 7.00000000
3.67116547 -2.94852924 -0.57814819 6 8 12877 4.74400000 2885535871 2885535871 -7.00000000
6.62164736 -5.32013655 1.34533644 42 9 12878 8.60000000 2885535874 2885535874 9.00000000
5.26372814 -4.22912216 -0.59074163 12 10 12878 6.77800000 2885535876 2885535876 -5.00000000
4.85243320 -3.90006232 1.21011066 31 11 12879 6.34200000 2885535878 2885535878 11.00000000
4.06412554 -3.26764083 -0.27329835 2 12 12880 5.22200000 2885535881 2885535881 -3.00000000
4.48113489 -3.60421276 1.32766116 21 13 12881 5.90200000 2885535883 2885535883 13.00000000
3.70181060 -2.97846007 -0.08293384 7 14 12882 4.75200000 2885535885 2885535885 -1.00000000
6.45405197 -5.19290113 2.21963215 45 15 12882 8.57600000 2885535887 2885535887 15.00000000
1.63274705 -1.31746078 -0.56215495 4 0 12890 2.17200000 2885535908 2885535908 -15.00000000
3.99899721 -3.22793651 0.08970537 54 1 12891 5.14000000 2885535910 2885535910 1.00000000
1.92856371 -1.55726647 -0.57227546 3 2 12892 2.54400000 2885535913 2885535913 -13.00000000
3.50203133 -2.82881188 0.23593049 30 3 12893 4.50800000 2885535915 2885535915 3.00000000
2.27712011 -1.83937371 -0.56899244 3 4 12893 2.98200000 2885535917 2885535917 -11.00000000
3.88817120 -3.14184284 0.43734753 26 5 12894 5.01800000 2885535920 2885535920 5.00000000
2.79288483 -2.25760078 -0.56879574 5 6 12895 3.63600000 2885535922 2885535922 -9.00000000
3.92995024 -3.17787075 0.62055868 22 7 12896 5.09200000 2885535924 2885535924 7.00000000
3.65622067 -2.95758080 -0.57741696 4 8 12897 4.73800000 2885535927 2885535927 -7.00000000
6.57786036 -5.32094574 1.34001768 50 9 12897 8.56600000 2885535929 2885535929 9.00000000
5.23344564 -4.23493671 -0.58899850 12 10 12898 6.75800000 2885535931 2885535931 -5.00000000
4.81742668 -3.89968324 1.20476794 25 11 12899 6.31400000 2885535934 2885535934 11.00000000
4.04027700 -3.27175188 -0.27246100 2 12 12900 5.20600000 2885535936 2885535936 -3.00000000
4.47609758 -3.62596607 1.32991064 21 13 12901 5.91200000 2885535938 2885535938 13.00000000
3.70848107 -3.00521255 -0.08331779 5 14 12902 4.77400000 2885535940 2885535940 -1.00000000
6.41546679 -5.20070648 2.21290278 40 15 12903 8.55000000 2885535943 2885535943 15.00000000
1.63263595 -1.32680726 -0.56370789 4 0 12910 2.17800000 2885535963 2885535963 -15.00000000
3.98770523 -3.24187589 0.08970537 54 1 12911 5.14000000 2885535966 2885535966 1.00000000
1.91404474 -1.55661166 -0.56957608 3 2 12912 2.53200000 2885535968 2885535968 -13.00000000
3.49108195 -2.83914948 0.23582582 30 3 12912 4.50600000 2885535970 2885535970 3.00000000
2.26611686 -1.84359419 -0.56784755 3 4 12913 2.97600000 2885535973 2885535973 -11.00000000
3.89263344 -3.16797233 0.43909064 23 5 12914 5.03800000 2885535975 2885535975 5.00000000
2.78192353 -2.26484179 -0.56816995 5 6 12915 3.63200000 2885535977 2885535977 -9.00000000
3.90805888 -3.18279457 0.61885250 22 7 12916 5.07800000 2885535980 2885535980 7.00000000
3.65818644 -2.98035598 -0.57936686 4 8 12917 4.75400000 2885535982 2885535982 -7.00000000
6.53381395 -5.32505178 1.33501172 50 9 12918 8.53400000 2885535984 2885535984 9.00000000
5.22635317 -4.25947285 -0.58987010 12 10 12918 6.76800000 2885535987 2885535987 -5.00000000
4.75052786 -3.87305570 1.19141138 9 11 12919 6.24400000 2885535989 2885535989 11.00000000
4.45284367 -3.63294506 1.32676136 21 13 12921 5.89800000 2885535993 2885535993 13.00000000
3.71655869 -3.03331232 -0.08373664 5 14 12922 4.79800000 2885535996 2885535996 -1.00000000
6.39278412 -5.21940374 2.21134996 47 15 12923 8.54400000 2885535998 2885535998 15.00000000
1.63374090 -1.33767760 -0.56577843 4 0 12931 2.18600000 2885536019 2885536019 -15.00000000
3.99436045 -3.27167511 0.09012423 54 1 12932 5.16400000 2885536021 2885536021 1.00000000
1.89626765 -1.55373585 -0.56597686 3 2 12933 2.51600000 2885536023 2885536023 -13.00000000
3.47292805 -2.84559655 0.23530246 30 3 12933 4.49600000 2885536026 2885536026 3.00000000
2.25327110 -1.84690940 -0.56632107 3 4 12934 2.96800000 2885536028 2885536028 -11.00000000
3.90256572 -3.19990420 0.44153100 23 5 12935 5.06600000 2885536030 2885536030 5.00000000
2.77207637 -2.27377009 -0.56785709 5 6 12936 3.63000000 2885536033 2885536033 -9.00000000
3.91478252 -3.21220732 0.62177742 22 7 12937 5.10200000 2885536035 2885536035 7.00000000
3.65030718 -2.99626279 -0.57985431 4 8 12938 4.75800000 2885536037 2885536037 -7.00000000
6.48464870 -5.32276058 1.32875431 50 9 12938 8.49400000 2885536040 2885536040 9.00000000
5.20916653 -4.27733517 -0.58969575 12 10 12939 6.76600000 2885536042 2885536042 -5.00000000
4.63162231 -3.80445766 1.16507971 12 11 12940 6.10600000 2885536044 2885536044 11.00000000
3.79763770 -3.12052488 -0.25759757 2 12 12941 4.92200000 2885536046 2885536046 -3.00000000
4.42594957 -3.63810420 1.32271218 11 13 12942 5.88000000 2885536049 2885536049 13.00000000
3.72395086 -3.06215477 -0.08415551 8 14 12943 4.82200000 2885536051 2885536051 -1.00000000
6.37808704 -5.24648142 2.21290278 42 15 12944 8.55000000 2885536053 2885536053 15.00000000
1.63055205 -1.34460139 -0.56629604 4 0 12951 2.18800000 2885536074 2885536074 -15.00000000
3.99834156 -3.29832315 0.09047327 54 1 12952 5.18400000 2885536076 2885536076 1.00000000
1.90285695 -1.57026827 -0.56957608 4 2 12953 2.53200000 2885536079 2885536079 -13.00000000
3.46297383 -2.85770202 0.23530246 30 3 12953 4.49600000 2885536081 2885536081 3.00000000
2.25286651 -1.85976291 -0.56784755 3 4 12954 2.97600000 2885536083 2885536083 -11.00000000
3.90212607 -3.22238779 0.44275117 27 5 12955 5.08000000 2885536086 2885536086 5.00000000
2.76107669 -2.28091645 -0.56723136 5 6 12956 3.62600000 2885536088 2885536088 -9.00000000
3.91578746 -3.23596907 0.62372732 22 7 12957 5.11800000 2885536090 2885536090 7.00000000
3.61381626 -2.98748469 -0.57571077 6 8 12958 4.72400000 2885536093 2885536093 -7.00000000
6.42948914 -5.31515694 1.32124555 50 9 12958 8.44600000 2885536095 2885536095 9.00000000
5.18345642 -4.28660440 -0.58847558 12 10 12959 6.75200000 2885536097 2885536097 -5.00000000
4.62133980 -3.82310462 1.16584301 21 11 12960 6.11000000 2885536099 2885536099 11.00000000
3.74671578 -3.10065460 -0.25487611 2 12 12961 4.87000000 2885536102 2885536102 -3.00000000
4.40421677 -3.64607525 1.32001281 10 13 12962 5.86800000 2885536104 2885536104 13.00000000
3.70861888 -3.07130861 -0.08405079 20 14 12963 4.81600000 2885536106 2885536106 -1.00000000
6.34188271 -5.25392342 2.20669127 33 15 12964 8.52600000 2885536109 2885536109 15.00000000
1.62459779 -1.34876704 -0.56577843 4 0 12970 2.18600000 2885536129 2885536129 -15.00000000
4.00584221 -3.32689524 0.09089214 61 1 12971 5.20800000 2885536132 2885536132 1.00000000
1.89464140 -1.57407916 -0.56867629 3 2 12972 2.52800000 2885536134 2885536134 -13.00000000
3.45962334 -2.87427521 0.23572114 30 3 12972 4.50400000 2885536136 2885536136 3.00000000
3.63878727 -3.02419925 -0.91969937 4 4 12973 4.82000000 2885536139 2885536139 -11.00000000
3.89907908 -3.24167871 0.44362274 25 5 12974 5.09000000 2885536141 2885536141 5.00000000
2.75501657 -2.29132318 -0.56754422 5 6 12975 3.62800000 2885536143 2885536143 -9.00000000
3.92029524 -3.26163268 0.62616467 20 7 12976 5.13800000 2885536145 2885536145 7.00000000
3.60083795 -2.99691224 -0.57522333 6 8 12977 4.72000000 2885536148 2885536148 -7.00000000
6.37994385 -5.30991173 1.31467521 45 9 12977 8.40400000 2885536150 2885536150 9.00000000
5.16002607 -4.29612112 -0.58742970 12 10 12978 6.74000000 2885536152 2885536152 -5.00000000
4.61467075 -3.84343433 1.16736948 15 11 12979 6.11800000 2885536155 2885536155 11.00000000
3.74408531 -3.11945438 -0.25539947 14 12 12980 4.88000000 2885536157 2885536157 -3.00000000
4.38012600 -3.65067887 1.31641352 10 13 12981 5.85200000 2885536159 2885536159 13.00000000
3.69227028 -3.07846785 -0.08391117 32 14 12982 4.80800000 2885536162 2885536162 -1.00000000
6.28676748 -5.24165630 2.19323254 33 15 12982 8.47400000 2885536164 2885536164 15.00000000
1.61098754 -1.34699464 -0.56267262 4 0 12990 2.17400000 2885536185 2885536185 -15.00000000
4.00033998 -3.34598994 0.09103175 54 1 12991 5.21600000 2885536187 2885536187 1.00000000
1.89212441 -1.58318412 -0.56957608 3 2 12992 2.53200000 2885536189 2885536189 -13.00000000
3.45416451 -2.89017916 0.23603517 31 3 12992 4.51000000 2885536192 2885536192 3.00000000
3.64175797 -3.04822350 -0.92313391 4 4 12993 4.83800000 2885536194 2885536194 -11.00000000
3.88773966 -3.25526929 0.44362274 27 5 12994 5.09000000 2885536196 2885536196 5.00000000
2.72882962 -2.28570485 -0.56378978 5 6 12995 3.60400000 2885536198 2885536198 -9.00000000
3.92562318 -3.28932142 0.62884581 20 7 12996 5.16000000 2885536201 2885536201 7.00000000
3.59644032 -3.01456404 -0.57619828 6 8 12997 4.72800000 2885536203 2885536203 -7.00000000
6.34320307 -5.31692219 1.31092083 50 9 12997 8.38000000 2885536205 2885536205 9.00000000
5.13278484 -4.30386543 -0.58603519 12 10 12998 6.72400000 2885536208 2885536208 -5.00000000
4.70200539 -3.94405246 1.19293785 21 11 12999 6.25200000 2885536210 2885536210 11.00000000
3.75918341 -3.15432954 -0.25717890 2 12 13000 4.91400000 2885536212 2885536212 -3.00000000
4.35840034 -3.65842867 1.31371415 11 13 13001 5.84000000 2885536215 2885536215 13.00000000
3.70141006 -3.10805440 -0.08436494 32 14 13002 4.83400000 2885536217 2885536217 -1.00000000
6.23497057 -5.23732710 2.18184447 31 15 13003 8.43000000 2885536219 2885536219 15.00000000
1.61218667 -1.35758722 -0.56474316 4 0 13010 2.18200000 2885536240 2885536240 -15.00000000
3.99475360 -3.36508656 0.09117137 57 1 13011 5.22400000 2885536242 2885536242 1.00000000
1.88956702 -1.59229076 -0.57047588 3 2 13012 2.53600000 2885536245 2885536245 -13.00000000
3.45271063 -2.91054344 0.23666319 30 3 13013 4.52200000 2885536247 2885536247 3.00000000
3.64310408 -3.07104015 -0.92618686 4 4 13013 4.85400000 2885536249 2885536249 -11.00000000
3.89463067 -3.28423309 0.44571447 25 5 13014 5.11400000 2885536251 2885536251 5.00000000
2.74046302 -2.31177449 -0.56785709 5 6 13015 3.63000000 2885536254 2885536254 -9.00000000
3.92473698 -3.31196594 0.63055199 20 7 13016 5.17400000 2885536256 2885536256 7.00000000
3.57679439 -3.01941681 -0.57473582 4 8 13017 4.71600000 2885536258 2885536258 -7.00000000
6.29894447 -5.31736946 1.30560207 50 9 13017 8.34600000 2885536261 2885536261 9.00000000
5.11620808 -4.32047081 -0.58586091 12 10 13018 6.72200000 2885536263 2885536263 -5.00000000
4.67021227 -3.94523835 1.18835843 31 11 13019 6.22800000 2885536265 2885536265 11.00000000
3.97544932 -3.35951495 -0.27277499 5 12 13020 5.21200000 2885536268 2885536268 -3.00000000
4.34560347 -3.67361999 1.31371415 10 13 13021 5.84000000 2885536270 2885536270 13.00000000
3.69511914 -3.12482953 -0.08446965 28 14 13022 4.84000000 2885536272 2885536272 -1.00000000
6.20281744 -5.24550009 2.17666817 33 15 13022 8.41000000 2885536275 2885536275 15.00000000
1.60743797 -1.36320662 -0.56474316 4 0 13030 2.18200000 2885536295 2885536295 -15.00000000
3.99518180 -3.38935971 0.09145061 54 1 13031 5.24000000 2885536298 2885536298 1.00000000
1.87211096 -1.58878934 -0.56687665 3 2 13032 2.52000000 2885536300 2885536300 -13.00000000
3.43796229 -2.91870022 0.23634918 30 3 13033 4.51600000 2885536302 2885536302 3.00000000
3.64732838 -3.09644413 -0.93000305 4 4 13033 4.87400000 2885536304 2885536304 -11.00000000
3.89529181 -3.30812573 0.44710895 27 5 13034 5.13000000 2885536307 2885536307 5.00000000
2.72936583 -2.31876850 -0.56723136 5 6 13035 3.62600000 2885536309 2885536309 -9.00000000
3.91315222 -3.32564569 0.63055199 20 7 13036 5.17400000 2885536311 2885536311 7.00000000
3.55867076 -3.02545476 -0.57351714 4 8 13037 4.70600000 2885536314 2885536314 -7.00000000
6.25834608 -5.32250404 1.30122185 52 9 13038 8.31800000 2885536316 2885536316 9.00000000
5.08895397 -4.32797718 -0.58446640 12 10 13038 6.70600000 2885536318 2885536318 -5.00000000
4.65790749 -3.96278858 1.18874002 34 11 13039 6.23000000 2885536321 2885536321 11.00000000
3.96521902 -3.37466598 -0.27287969 23 12 13040 5.21400000 2885536323 2885536323 -3.00000000
4.30159378 -3.66223788 1.30426621 11 13 13041 5.79800000 2885536325 2885536325 13.00000000
3.69941282 -3.15067458 -0.08481870 28 14 13042 4.86000000 2885536328 2885536328 -1.00000000
6.16002178 -5.24815369 2.16838598 33 15 13043 8.37800000 2885536330 2885536330 15.00000000
1.60290861 -1.36852956 -0.56474316 4 0 13049 2.18200000 2885536351 2885536351 -15.00000000
3.99912620 -3.41557646 0.09179966 35 1 13050 5.26000000 2885536353 2885536353 1.00000000
1.86683202 -1.59498870 -0.56687665 3 2 13051 2.52000000 2885536355 2885536355 -13.00000000
3.43281937 -2.93397784 0.23666319 30 3 13052 4.52200000 2885536357 2885536357 3.00000000
3.64002490 -3.11107326 -0.93076628 4 4 13052 4.87800000 2885536360 2885536360 -11.00000000
3.90398669 -3.33785653 0.44937500 30 5 13053 5.15600000 2885536362 2885536362 5.00000000
2.71865916 -2.32523870 -0.56660563 5 6 13054 3.62200000 2885536364 2885536364 -9.00000000
3.91567755 -3.35021877 0.63274562 18 7 13055 5.19200000 2885536367 2885536367 7.00000000
3.53052092 -3.02174950 -0.57059228 4 8 13056 4.68200000 2885536369 2885536369 -7.00000000
6.20407534 -5.31002712 1.29340017 52 9 13056 8.26800000 2885536371 2885536371 9.00000000
5.07154655 -4.34223700 -0.58411777 12 10 13057 6.70200000 2885536374 2885536374 -5.00000000
4.63728571 -3.97182727 1.18683195 34 11 13058 6.22000000 2885536376 2885536376 11.00000000
3.96158981 -3.39429402 -0.27340305 10 12 13059 5.22400000 2885536378 2885536378 -3.00000000
4.27906799 -3.66760492 1.30111694 12 13 13060 5.78400000 2885536381 2885536381 13.00000000
3.69198084 -3.16552806 -0.08488850 26 14 13061 4.86400000 2885536383 2885536383 -1.00000000
6.12003851 -5.24736071 2.16010380 33 15 13061 8.34600000 2885536385 2885536385 15.00000000
1.59812176 -1.37411642 -0.56474316 4 0 13069 2.18200000 2885536406 2885536406 -15.00000000
4.01598406 -3.45429111 0.09246285 7 1 13070 5.29800000 2885536408 2885536408 1.00000000
1.87011623 -1.60912168 -0.56957608 3 2 13071 2.53200000 2885536410 2885536410 -13.00000000
3.43012571 -2.95245743 0.23718655 30 3 13072 4.53200000 2885536413 2885536413 3.00000000
3.63807082 -3.13144469 -0.93305600 4 4 13072 4.89000000 2885536415 2885536415 -11.00000000
3.89835095 -3.35666370 0.45007226 30 5 13073 5.16400000 2885536417 2885536417 5.00000000
2.70753264 -2.33213592 -0.56597990 5 6 13074 3.61800000 2885536420 2885536420 -9.00000000
3.91899776 -3.37682438 0.63518304 18 7 13075 5.21200000 2885536422 2885536422 7.00000000
3.52596593 -3.03923917 -0.57156724 4 8 13076 4.69000000 2885536424 2885536424 -7.00000000
6.15614700 -5.30822134 1.28745568 52 9 13077 8.23000000 2885536427 2885536427 9.00000000
5.04126978 -4.34690285 -0.58237469 12 10 13077 6.68200000 2885536429 2885536429 -5.00000000
4.61744642 -3.98286104 1.18530548 34 11 13078 6.21200000 2885536431 2885536431 11.00000000
3.96332669 -3.41984487 -0.27434507 10 12 13079 5.24200000 2885536433 2885536433 -3.00000000
4.23231030 -3.65323234 1.29076910 21 13 13080 5.73800000 2885536436 2885536436 13.00000000
3.68847609 -3.18493080 -0.08506303 26 14 13081 4.87400000 2885536438 2885536438 -1.00000000
6.08322144 -5.25460243 2.15389204 24 15 13082 8.32200000 2885536440 2885536440 15.00000000
1.58723390 -1.37490511 -0.56267262 4 0 13090 2.17400000 2885536461 2885536461 -15.00000000
4.00480747 -3.47029686 0.09249775 57 1 13091 5.30000000 2885536463 2885536463 1.00000000
1.86420596 -1.61596513 -0.56957608 3 2 13092 2.53200000 2885536466 2885536466 -13.00000000
3.41928124 -2.96500945 0.23718655 26 3 13093 4.53200000 2885536468 2885536468 3.00000000
2.20115685 -1.90872014 -0.56632107 3 4 13093 2.96800000 2885536470 2885536470 -11.00000000
3.89505219 -3.37876248 0.45111811 30 5 13094 5.17600000 2885536473 2885536473 5.00000000
2.69598269 -2.33945465 -0.56535417 5 6 13095 3.61400000 2885536475 2885536475 -9.00000000
3.92758179 -3.40938377 0.63859534 18 7 13096 5.24000000 2885536477 2885536477 7.00000000
3.51330400 -3.05084038 -0.57132345 4 8 13097 4.68800000 2885536480 2885536480 -7.00000000
6.11520767 -5.31024981 1.28276265 50 9 13097 8.20000000 2885536482 2885536482 9.00000000
5.01327038 -4.35489798 -0.58098018 12 10 13098 6.66600000 2885536484 2885536484 -5.00000000
4.58948040 -3.98816824 1.18187094 34 11 13099 6.19400000 2885536486 2885536486 11.00000000
3.95679522 -3.43958950 -0.27476376 7 12 13100 5.25000000 2885536489 2885536489 -3.00000000
4.21006918 -3.66104770 1.28806973 51 13 13101 5.72600000 2885536491 2885536491 13.00000000
3.69488287 -3.21417761 -0.08548189 8 14 13102 4.89800000 2885536493 2885536493 -1.00000000
6.06921530 -5.27960873 2.15544510 40 15 13102 8.32800000 2885536496 2885536496 15.00000000
1.58096910 -1.37916732 -0.56215495 4 0 13110 2.17200000 2885536516 2885536516 -15.00000000
3.91884303 -3.41982913 0.09078742 16 1 13111 5.20200000 2885536519 2885536519 1.00000000
1.85855377 -1.62246263 -0.56957608 3 2 13112 2.53200000 2885536521 2885536521 -13.00000000
3.43448496 -2.99926043 0.23896597 28 3 13113 4.56600000 2885536523 2885536523 3.00000000
2.19743824 -1.91897476 -0.56708431 3 4 13113 2.97200000 2885536526 2885536526 -11.00000000
3.89673877 -3.40413547 0.45268694 30 5 13114 5.19400000 2885536528 2885536528 5.00000000
2.68928742 -2.35015106 -0.56566703 5 6 13115 3.61600000 2885536530 2885536530 -9.00000000
3.92163491 -3.42829871 0.63957030 18 7 13116 5.24800000 2885536533 2885536533 7.00000000
3.49815035 -3.05916524 -0.57059228 4 8 13117 4.68200000 2885536535 2885536535 -7.00000000
6.07934904 -5.31832075 1.27932107 50 9 13118 8.17800000 2885536537 2885536537 9.00000000
4.98904133 -4.36450005 -0.57993430 12 10 13118 6.65400000 2885536539 2885536539 -5.00000000
4.55484724 -3.98606348 1.17652822 43 11 13119 6.16600000 2885536542 2885536542 11.00000000
3.90719557 -3.42049098 -0.27214697 7 12 13120 5.20000000 2885536544 2885536544 -3.00000000
4.20166206 -3.67957282 1.28941941 44 13 13121 5.73200000 2885536546 2885536546 13.00000000
3.68965721 -3.23232651 -0.08562151 10 14 13122 4.90600000 2885536549 2885536549 -1.00000000
6.02367163 -5.27889967 2.14612746 51 15 13123 8.29200000 2885536551 2885536551 15.00000000
1.57638693 -1.38440239 -0.56215495 4 0 13129 2.17200000 2885536572 2885536572 -15.00000000
3.51988745 -3.09229684 0.08178198 6 1 13130 4.68600000 2885536574 2885536574 1.00000000
1.83559775 -1.61317980 -0.56417722 3 2 13131 2.50800000 2885536576 2885536576 -13.00000000
3.42602038 -3.01195192 0.23907065 24 3 13132 4.56800000 2885536579 2885536579 3.00000000
2.19401169 -1.92884374 -0.56784755 3 4 13132 2.97600000 2885536581 2885536581 -11.00000000
3.90637445 -3.43545938 0.45512730 30 5 13133 5.22200000 2885536583 2885536583 5.00000000
2.67554688 -2.35383677 -0.56441557 5 6 13134 3.60800000 2885536586 2885536586 -9.00000000
3.92514658 -3.45439935 0.64200771 19 7 13135 5.26800000 2885536588 2885536588 7.00000000
3.48798656 -3.07074881 -0.57059228 4 8 13136 4.68200000 2885536590 2885536590 -7.00000000
6.04185390 -5.31911898 1.27494085 50 9 13136 8.15000000 2885536592 2885536592 9.00000000
4.96556902 -4.37311935 -0.57888842 12 10 13137 6.64200000 2885536595 2885536595 -5.00000000
4.52245378 -3.98427439 1.17156720 46 11 13138 6.14000000 2885536597 2885536597 11.00000000
3.92430091 -3.45851946 -0.27413574 2 12 13139 5.23800000 2885536599 2885536599 -3.00000000
4.18212843 -3.68704224 1.28716993 18 13 13140 5.72200000 2885536602 2885536602 13.00000000
3.68641710 -3.25115752 -0.08579603 12 14 13141 4.91600000 2885536604 2885536604 -1.00000000
5.99401808 -5.28629732 2.14146876 47 15 13141 8.27400000 2885536606 2885536606 15.00000000
1.58167458 -1.39885533 -0.56577843 4 0 13149 2.18600000 2885536627 2885536627 -15.00000000
3.38176894 -2.99193645 0.07881507 8 1 13150 4.51600000 2885536629 2885536629 1.00000000
1.83871126 -1.62732649 -0.56687665 3 2 13151 2.52000000 2885536632 2885536632 -13.00000000
3.41997194 -3.02786446 0.23938467 24 3 13152 4.57400000 2885536634 2885536634 3.00000000
2.18726540 -1.93649042 -0.56784755 3 4 13152 2.97600000 2885536636 2885536636 -11.00000000
3.90629077 -3.45964217 0.45652178 28 5 13153 5.23800000 2885536639 2885536639 5.00000000
2.67618537 -2.37102175 -0.56629276 5 6 13154 3.62000000 2885536641 2885536641 -9.00000000
3.92346382 -3.47729611 0.64371389 9 7 13155 5.28200000 2885536643 2885536643 7.00000000
3.45645118 -3.06446862 -0.56717992 4 8 13156 4.65400000 2885536645 2885536645 -7.00000000
5.99128246 -5.31370258 1.26837063 52 9 13157 8.10800000 2885536648 2885536648 9.00000000
4.77140236 -4.23178339 -0.55797106 15 10 13157 6.40200000 2885536650 2885536650 -5.00000000
4.48942709 -3.98309827 1.16660619 37 11 13158 6.11400000 2885536652 2885536652 11.00000000
3.91519189 -3.47484827 -0.27434507 2 12 13159 5.24200000 2885536655 2885536655 -3.00000000
4.13863039 -3.67444777 1.27772200 7 13 13160 5.68000000 2885536657 2885536657 13.00000000
3.69149232 -3.27861261 -0.08617999 8 14 13161 4.93800000 2885536659 2885536659 -1.00000000
5.94716263 -5.28385162 2.13163376 45 15 13162 8.23600000 2885536662 2885536662 15.00000000
1.56812632 -1.39665866 -0.56267262 4 0 13169 2.17400000 2885536682 2885536682 -15.00000000
3.37130451 -3.00372267 0.07881507 8 1 13170 4.51600000 2885536685 2885536685 1.00000000
1.83883882 -1.63892138 -0.56867629 3 2 13171 2.52800000 2885536687 2885536687 -13.00000000
3.41832638 -3.04775882 0.24001269 24 3 13172 4.58600000 2885536689 2885536689 3.00000000
2.17170024 -1.93627453 -0.56555784 3 4 13172 2.96400000 2885536692 2885536692 -11.00000000
3.90013814 -3.47856140 0.45721903 28 5 13173 5.24600000 2885536694 2885536694 5.00000000
2.66494489 -2.37771869 -0.56566703 7 6 13174 3.61600000 2885536696 2885536696 -9.00000000
3.93055487 -3.50815415 0.64688247 9 7 13175 5.30800000 2885536698 2885536698 7.00000000
3.45906019 -3.08841395 -0.56937355 4 8 13176 4.67200000 2885536701 2885536701 -7.00000000
5.94268513 -5.30591297 1.26180041 52 9 13176 8.06600000 2885536703 2885536703 9.00000000
4.75362968 -4.24575853 -0.55762243 15 10 13177 6.39800000 2885536705 2885536705 -5.00000000
5.93219185 -5.30026674 1.54631615 31 11 13178 8.10400000 2885536708 2885536708 11.00000000
3.89261460 -3.47917676 -0.27361238 2 12 13179 5.22800000 2885536710 2885536710 -3.00000000
4.12723160 -3.69017076 1.27817190 9 13 13180 5.68200000 2885536712 2885536712 13.00000000
3.68300629 -3.29414463 -0.08624979 16 14 13181 4.94200000 2885536715 2885536715 -1.00000000
5.90368938 -5.28036213 2.12231612 47 15 13181 8.20000000 2885536717 2885536717 15.00000000
1.55461276 -1.39438450 -0.55956680 4 0 13189 2.16200000 2885536738 2885536738 -15.00000000
3.37419462 -3.02749157 0.07912921 6 1 13190 4.53400000 2885536740 2885536740 1.00000000
1.82730567 -1.64012337 -0.56687665 3 2 13191 2.52000000 2885536742 2885536742 -13.00000000
3.41806984 -3.06901288 0.24074540 26 3 13192 4.60000000 2885536745 2885536745 3.00000000
2.16784978 -1.94646657 -0.56632107 3 4 13192 2.96800000 2885536747 2885536747 -11.00000000
3.89093661 -3.49481678 0.45756766 28 5 13193 5.25000000 2885536749 2885536749 5.00000000
2.65075135 -2.38172555 -0.56441557 5 6 13194 3.60800000 2885536751 2885536751 -9.00000000
3.93895435 -3.54043102 0.65029484 9 7 13195 5.33600000 2885536754 2885536754 7.00000000
3.45711517 -3.10843301 -0.57083601 4 8 13196 4.68400000 2885536756 2885536756 -7.00000000
5.90062523 -5.30549240 1.25679445 52 9 13196 8.03400000 2885536758 2885536758 9.00000000
4.90320778 -4.41022158 -0.57697099 12 10 13197 6.62000000 2885536761 2885536761 -5.00000000
5.89905977 -5.30780983 1.54249990 56 11 13198 8.08400000 2885536763 2885536763 11.00000000
3.93685675 -3.54351783 -0.27758992 5 12 13199 5.30400000 2885536765 2885536765 -3.00000000
4.10563612 -3.69673133 1.27547252 9 13 13200 5.67000000 2885536768 2885536768 13.00000000
3.42929506 -3.08883500 -0.08056031 5 14 13201 4.61600000 2885536770 2885536770 -1.00000000
5.85507774 -5.27378654 2.11144567 47 15 13201 8.15800000 2885536772 2885536772 15.00000000
1.56120491 -1.41016197 -0.56370789 4 0 13209 2.17800000 2885536793 2885536793 -15.00000000
4.00309181 -3.61707115 0.09417319 67 1 13210 5.39600000 2885536795 2885536795 1.00000000
1.82735217 -1.65171885 -0.56867629 3 2 13211 2.52800000 2885536798 2885536798 -13.00000000
3.41918778 -3.09164190 0.24158278 28 3 13212 4.61600000 2885536800 2885536800 3.00000000
2.15812945 -1.95138848 -0.56555784 3 4 13212 2.96400000 2885536802 2885536802 -11.00000000
3.89792252 -3.52575231 0.45983371 26 5 13213 5.27600000 2885536804 2885536804 5.00000000
2.63802719 -2.38698792 -0.56347692 5 6 13214 3.60200000 2885536807 2885536807 -9.00000000
3.94276094 -3.56881261 0.65297592 7 7 13215 5.35800000 2885536809 2885536809 7.00000000
3.43888617 -3.11381984 -0.56961733 4 8 13216 4.67400000 2885536811 2885536811 -7.00000000
5.86649942 -5.31382227 1.25366580 50 9 13217 8.01400000 2885536814 2885536814 9.00000000
4.88926029 -4.42864799 -0.57714534 12 10 13217 6.62200000 2885536816 2885536816 -5.00000000
5.85285378 -5.30332232 1.53524923 15 11 13218 8.04600000 2885536818 2885536818 11.00000000
3.93038297 -3.56260371 -0.27800861 5 12 13219 5.31200000 2885536821 2885536821 -3.00000000
4.10136890 -3.71889424 1.27817190 13 13 13220 5.68200000 2885536823 2885536823 13.00000000
3.31184936 -3.00405502 -0.07804716 20 14 13221 4.47200000 2885536825 2885536825 -1.00000000
5.81516981 -5.27472353 2.10368109 47 15 13221 8.12800000 2885536827 2885536827 15.00000000
1.55627298 -1.41560304 -0.56370789 4 0 13229 2.17800000 2885536848 2885536848 -15.00000000
4.01262712 -3.65120983 0.09469676 67 1 13230 5.42600000 2885536851 2885536851 1.00000000
1.81004655 -1.64759326 -0.56507707 3 2 13231 2.51200000 2885536853 2885536853 -13.00000000
3.41280532 -3.10759234 0.24189679 26 3 13232 4.62200000 2885536855 2885536855 3.00000000
2.15420794 -1.96155345 -0.56632107 3 4 13232 2.96800000 2885536857 2885536857 -11.00000000
3.89884806 -3.55141211 0.46140251 26 5 13233 5.29400000 2885536860 2885536860 5.00000000
2.63551927 -2.40150356 -0.56472844 5 6 13234 3.61000000 2885536862 2885536862 -9.00000000
3.95228529 -3.60261273 0.65663201 7 7 13235 5.38800000 2885536864 2885536864 7.00000000
3.42066193 -3.11911702 -0.56839859 4 8 13236 4.66400000 2885536867 2885536867 -7.00000000
5.82894230 -5.31696177 1.24959850 47 9 13237 7.98800000 2885536869 2885536869 9.00000000
4.88113165 -4.45240116 -0.57801688 12 10 13237 6.63200000 2885536871 2885536871 -5.00000000
4.26804972 -3.89453363 1.12310171 54 11 13238 5.88600000 2885536874 2885536874 11.00000000
4.16279316 -3.79982042 -0.29538414 9 12 13239 5.64400000 2885536876 2885536876 -3.00000000
4.06965494 -3.71610546 1.27232313 11 13 13240 5.65600000 2885536878 2885536878 13.00000000
3.29248428 -3.00750542 -0.07783774 5 14 13241 4.46000000 2885536880 2885536880 -1.00000000
5.77868414 -5.28036404 2.09746957 45 15 13242 8.10400000 2885536883 2885536883 15.00000000
1.54989755 -1.41972184 -0.56319022 4 0 13249 2.17600000 2885536904 2885536904 -15.00000000
4.00133181 -3.66654515 0.09473166 85 1 13250 5.42800000 2885536906 2885536906 1.00000000
1.80428433 -1.65390146 -0.56507707 3 2 13251 2.51200000 2885536908 2885536908 -13.00000000
3.40488124 -3.12218595 0.24210614 26 3 13252 4.62600000 2885536910 2885536910 3.00000000
2.13866591 -1.96109998 -0.56403136 3 4 13252 2.95600000 2885536913 2885536913 -11.00000000
3.91138744 -3.58789587 0.46436581 28 5 13253 5.32800000 2885536915 2885536915 5.00000000
2.62566495 -2.40935302 -0.56441557 5 6 13254 3.60800000 2885536917 2885536917 -9.00000000
5.80423641 -5.32792854 0.96739882 10 7 13255 7.93800000 2885536920 2885536920 7.00000000
3.40390468 -3.12566781 -0.56742364 4 8 13256 4.65600000 2885536922 2885536922 -7.00000000
5.78561592 -5.31455851 1.24427974 52 9 13257 7.95400000 2885536924 2885536924 9.00000000
4.85088682 -4.45593405 -0.57627380 8 10 13257 6.61200000 2885536927 2885536927 -5.00000000
4.24141836 -3.89745283 1.11966717 60 11 13258 5.86800000 2885536929 2885536929 11.00000000
4.21126127 -3.87109709 -0.29978037 24 12 13259 5.72800000 2885536931 2885536931 -3.00000000
4.02223110 -3.69863129 1.26152551 9 13 13260 5.60800000 2885536933 2885536933 13.00000000
3.65725827 -3.36419964 -0.08673846 22 14 13261 4.97000000 2885536936 2885536936 -1.00000000
5.73839331 -5.27857208 2.08918738 45 15 13261 8.07200000 2885536938 2885536938 15.00000000
1.53783250 -1.41857409 -0.56060207 4 0 13269 2.16600000 2885536959 2885536959 -15.00000000
3.98997855 -3.68184614 0.09476656 77 1 13270 5.43000000 2885536961 2885536961 1.00000000
1.80279601 -1.66415489 -0.56642675 4 2 13271 2.51800000 2885536963 2885536963 -13.00000000
3.40863538 -3.14760184 0.24315286 22 3 13272 4.64600000 2885536966 2885536966 3.00000000
2.12603784 -1.96322572 -0.56250495 3 4 13272 2.94800000 2885536968 2885536968 -11.00000000
3.89737606 -3.60017538 0.46419150 26 5 13273 5.32600000 2885536970 2885536970 5.00000000
2.62594366 -2.42654753 -0.56629276 5 6 13274 3.62000000 2885536973 2885536973 -9.00000000
5.75936460 -5.32390213 0.96301156 22 7 13275 7.90200000 2885536975 2885536975 7.00000000
3.39151573 -3.13618302 -0.56717992 4 8 13276 4.65400000 2885536977 2885536977 -7.00000000
5.73367739 -5.30386972 1.23708379 52 9 13277 7.90800000 2885536980 2885536980 9.00000000
4.20931721 -3.89377856 -0.50166845 10 10 13277 5.75600000 2885536982 2885536982 -5.00000000
4.21770144 -3.90290046 1.11699581 60 11 13278 5.85400000 2885536984 2885536984 11.00000000
4.21531153 -3.90205479 -0.30103642 12 12 13279 5.75200000 2885536986 2885536986 -3.00000000
3.68656874 -3.41499543 -0.08771580 30 14 13281 5.02600000 2885536991 2885536991 -1.00000000
5.69725704 -5.27756548 2.08090520 45 15 13281 8.04000000 2885536993 2885536993 15.00000000
1.53170431 -1.42235136 -0.56008440 4 0 13288 2.16400000 2885537014 2885537014 -15.00000000
3.98507261 -3.70186210 0.09494109 67 1 13289 5.44000000 2885537016 2885537016 1.00000000
1.79869509 -1.67145061 -0.56687665 3 2 13290 2.52000000 2885537019 2885537019 -13.00000000
3.41043472 -3.16917157 0.24399023 22 3 13290 4.66200000 2885537021 2885537021 3.00000000
2.12239170 -1.97293854 -0.56326813 3 4 13291 2.95200000 2885537023 2885537023 -11.00000000
3.89854741 -3.62529063 0.46576029 28 5 13292 5.34400000 2885537026 2885537026 5.00000000
2.60631180 -2.42447853 -0.56378978 5 6 13293 3.60400000 2885537028 2885537028 -9.00000000
5.72569275 -5.32809591 0.96033043 42 7 13294 7.88000000 2885537030 2885537030 7.00000000
3.38400316 -3.15011740 -0.56766742 4 8 13295 4.65800000 2885537032 2885537032 -7.00000000
5.69963598 -5.30570507 1.23332930 42 9 13295 7.88400000 2885537035 2885537035 9.00000000
4.16722012 -3.88056016 -0.49818224 10 10 13296 5.71600000 2885537037 2885537037 -5.00000000
4.20473576 -3.91686535 1.11699581 45 11 13297 5.85400000 2885537039 2885537039 11.00000000
4.14974594 -3.86699343 -0.29726824 27 12 13298 5.68000000 2885537042 2885537042 -3.00000000
4.13950729 -3.85880280 1.30651569 22 13 13299 5.80800000 2885537044 2885537044 13.00000000
3.68692374 -3.43811202 -0.08799503 30 14 13300 5.04200000 2885537046 2885537046 -1.00000000
5.65429306 -5.27271366 2.07158756 47 15 13300 8.00400000 2885537049 2885537049 15.00000000
1.52955210 -1.43032837 -0.56111968 4 0 13308 2.16800000 2885537069 2885537069 -15.00000000
3.97796774 -3.72121429 0.09508071 80 1 13309 5.44800000 2885537072 2885537072 1.00000000
1.80138695 -1.68570817 -0.56957608 3 2 13310 2.53200000 2885537074 2885537074 -13.00000000
3.41629314 -3.19802928 0.24524629 22 3 13311 4.68600000 2885537076 2885537076 3.00000000
2.12122488 -1.98570180 -0.56479460 3 4 13311 2.96000000 2885537079 2885537079 -11.00000000
3.89168620 -3.64432430 0.46645755 26 5 13312 5.35200000 2885537081 2885537081 5.00000000
2.58918285 -2.42545867 -0.56191260 5 6 13313 3.59200000 2885537083 2885537083 -9.00000000
5.67084694 -5.31411552 0.95423698 55 7 13314 7.83000000 2885537085 2885537085 7.00000000
3.36719370 -3.15648007 -0.56669247 4 8 13315 4.65000000 2885537088 2885537088 -7.00000000
4.21040154 -3.94830203 0.91420299 45 9 13316 5.84400000 2885537090 2885537090 9.00000000
4.15655565 -3.89780855 -0.49853083 10 10 13316 5.72000000 2885537092 2885537092 -5.00000000
5.64007425 -5.29082775 1.50319326 53 11 13317 7.87800000 2885537095 2885537095 11.00000000
4.13476610 -3.88008857 -0.29716355 12 12 13318 5.67800000 2885537097 2885537097 -3.00000000
4.02513552 -3.77853203 1.27457273 16 13 13319 5.66600000 2885537099 2885537099 13.00000000
3.68656182 -3.46191192 -0.08827427 28 14 13320 5.05800000 2885537102 2885537102 -1.00000000
5.61380911 -5.27356195 2.06382298 47 15 13321 7.97400000 2885537104 2885537104 15.00000000
1.52876914 -1.43963206 -0.56267262 4 0 13328 2.17400000 2885537125 2885537125 -15.00000000
3.98824310 -3.75701618 0.09563918 100 1 13329 5.48000000 2885537127 2885537127 1.00000000
1.77989113 -1.67728460 -0.56462717 4 2 13330 2.51000000 2885537129 2885537129 -13.00000000
3.41003013 -3.21344972 0.24556030 22 3 13330 4.69200000 2885537132 2885537132 3.00000000
2.11999488 -1.99848092 -0.56632107 3 4 13331 2.96800000 2885537134 2885537134 -11.00000000
3.90068436 -3.67839050 0.46907219 26 5 13332 5.38200000 2885537136 2885537136 5.00000000
2.59363294 -2.44668126 -0.56472844 5 6 13333 3.61000000 2885537138 2885537138 -9.00000000
5.62627554 -5.30935478 0.94984967 55 7 13334 7.79400000 2885537141 2885537141 7.00000000
3.35038090 -3.16276383 -0.56571752 4 8 13335 4.64200000 2885537143 2885537143 -7.00000000
4.18223143 -3.94941258 0.91107434 49 9 13336 5.82400000 2885537145 2885537145 9.00000000
4.12119579 -3.89177489 -0.49591619 14 10 13336 5.69000000 2885537148 2885537148 -5.00000000
5.60159111 -5.29160833 1.49785066 53 11 13337 7.85000000 2885537150 2885537150 11.00000000
4.09942245 -3.87392116 -0.29559347 6 12 13338 5.64800000 2885537152 2885537152 -3.00000000
3.91987252 -3.70554328 1.24532902 7 13 13339 5.53600000 2885537155 2885537155 13.00000000
3.69189000 -3.49124694 -0.08869313 30 14 13340 5.08200000 2885537157 2885537157 -1.00000000
5.57944727 -5.27622080 2.05761147 47 15 13340 7.95000000 2885537159 2885537159 15.00000000
1.51952922 -1.44097173 -0.56111968 4 0 13348 2.16800000 2885537180 2885537180 -15.00000000
3.98090744 -3.77641988 0.09577881 95 1 13349 5.48800000 2885537182 2885537182 1.00000000
1.76978481 -1.67946303 -0.56327742 3 2 13350 2.50400000 2885537184 2885537184 -13.00000000
3.40458727 -3.23083258 0.24597900 22 3 13350 4.70000000 2885537187 2885537187 3.00000000
2.10161519 -1.99505556 -0.56326813 3 4 13351 2.95200000 2885537189 2885537189 -11.00000000
3.89648914 -3.70021582 0.47011808 27 5 13352 5.39400000 2885537191 2885537191 5.00000000
2.57075500 -2.44211483 -0.56159973 5 6 13353 3.59000000 2885537194 2885537194 -9.00000000
5.59044027 -5.31255198 0.94692481 47 7 13354 7.77000000 2885537196 2885537196 7.00000000
3.32205558 -3.15802717 -0.56279260 4 8 13355 4.61800000 2885537198 2885537198 -7.00000000
4.14837933 -3.94492960 0.90669417 52 9 13356 5.79600000 2885537201 2885537201 9.00000000
4.09603548 -3.89515281 -0.49452168 21 10 13356 5.67400000 2885537203 2885537203 -5.00000000
5.57170630 -5.30030394 1.49479771 53 11 13357 7.83400000 2885537205 2885537205 11.00000000
4.05549097 -3.85929346 -0.29339537 2 12 13358 5.60600000 2885537208 2885537208 -3.00000000
3.87162733 -3.68561268 1.23408151 5 13 13359 5.48600000 2885537210 2885537210 13.00000000
3.68836951 -3.51238704 -0.08890256 30 14 13360 5.09400000 2885537212 2885537212 -1.00000000
5.53581381 -5.27168417 2.04829383 47 15 13360 7.91400000 2885537214 2885537214 15.00000000
1.51029873 -1.44226444 -0.55956680 4 0 13368 2.16200000 2885537235 2885537235 -15.00000000
3.95902538 -3.78200483 0.09556938 75 1 13369 5.47600000 2885537237 2885537237 1.00000000
1.76532054 -1.68697691 -0.56372732 4 2 13370 2.50600000 2885537240 2885537240 -13.00000000
3.39849758 -3.24880981 0.24639769 22 3 13371 4.70800000 2885537242 2885537242 3.00000000
2.10315299 -2.01051927 -0.56555784 3 4 13371 2.96400000 2885537244 2885537244 -11.00000000
3.89218879 -3.72205663 0.47116396 27 5 13372 5.40600000 2885537247 2885537247 5.00000000
2.57077932 -2.45926666 -0.56347692 5 6 13373 3.60200000 2885537249 2885537249 -9.00000000
4.15917635 -3.98015428 0.70684218 31 7 13374 5.80000000 2885537251 2885537251 7.00000000
3.31961536 -3.17784047 -0.56425506 4 8 13375 4.63000000 2885537254 2885537254 -7.00000000
4.12956715 -3.95320034 0.90544266 52 9 13375 5.78800000 2885537256 2885537256 9.00000000
4.06226826 -3.89013481 -0.49208131 17 10 13376 5.64600000 2885537258 2885537258 -5.00000000
5.53899384 -5.30613947 1.49098146 53 11 13377 7.81400000 2885537261 2885537261 11.00000000
4.03622675 -3.86789870 -0.29297668 2 12 13378 5.59800000 2885537263 2885537263 -3.00000000
3.84748459 -3.68831611 1.23048222 14 13 13379 5.47000000 2885537265 2885537265 13.00000000
3.68763304 -3.53631306 -0.08918180 28 14 13380 5.11000000 2885537267 2885537267 -1.00000000
5.50111961 -5.27722740 2.04259992 47 15 13381 7.89200000 2885537270 2885537270 15.00000000
1.51360989 -1.45556200 -0.56267262 4 0 13388 2.17400000 2885537290 2885537290 -15.00000000
3.92274141 -3.77362013 0.09501090 65 1 13389 5.44400000 2885537293 2885537293 1.00000000
1.76784611 -1.70123625 -0.56642675 4 2 13390 2.51800000 2885537295 2885537295 -13.00000000
3.40497494 -3.27668071 0.24765374 22 3 13390 4.73200000 2885537297 2885537297 3.00000000
2.08480716 -2.00695562 -0.56250495 3 4 13391 2.94800000 2885537300 2885537300 -11.00000000
3.88921881 -3.74529457 0.47238412 27 5 13392 5.42000000 2885537302 2885537302 5.00000000
2.55933380 -2.46548438 -0.56285119 5 6 13393 3.59800000 2885537304 2885537304 -9.00000000
4.14954567 -3.99878049 0.70757341 78 7 13394 5.80600000 2885537307 2885537307 7.00000000
3.30707335 -3.18803096 -0.56401134 6 8 13395 4.62800000 2885537309 2885537309 -7.00000000
5.50853634 -5.31210470 1.21205425 40 9 13396 7.74800000 2885537311 2885537311 9.00000000
4.03145456 -3.88769460 -0.48998958 17 10 13396 5.62200000 2885537314 2885537314 -5.00000000
5.48935318 -5.29545498 1.48258591 56 11 13397 7.77000000 2885537316 2885537316 11.00000000
4.03707266 -3.89583349 -0.29402339 5 12 13398 5.61800000 2885537318 2885537318 -3.00000000
3.68821263 -3.56166553 -0.08949594 24 14 13400 5.12800000 2885537323 2885537323 -1.00000000
5.45209789 -5.26686907 2.03121185 47 15 13401 7.84800000 2885537325 2885537325 15.00000000
1.49653530 -1.44821906 -0.55801386 4 0 13406 2.15600000 2885537346 2885537346 -15.00000000
3.89075232 -3.76645303 0.09452223 35 1 13407 5.41600000 2885537348 2885537348 1.00000000
1.76109290 -1.70542610 -0.56597686 3 2 13408 2.51600000 2885537350 2885537350 -13.00000000
3.41188145 -3.30403447 0.24890980 24 3 13408 4.75600000 2885537353 2885537353 3.00000000
2.07285142 -2.00803137 -0.56097847 3 4 13409 2.94000000 2885537355 2885537355 -11.00000000
3.89889526 -3.77829218 0.47499880 27 5 13410 5.45000000 2885537357 2885537357 5.00000000
2.54590225 -2.46801281 -0.56159973 5 6 13411 3.59000000 2885537360 2885537360 -9.00000000
4.11131144 -3.98692179 0.70318609 55 7 13412 5.77000000 2885537362 2885537362 7.00000000
3.29419184 -3.19564033 -0.56352383 4 8 13413 4.62400000 2885537364 2885537364 -7.00000000
5.47148323 -5.30779409 1.20736122 52 9 13413 7.71800000 2885537367 2885537367 9.00000000
4.00492287 -3.88646531 -0.48824647 17 10 13414 5.60200000 2885537369 2885537369 -5.00000000
5.44733381 -5.28805923 1.47571683 56 11 13415 7.73400000 2885537371 2885537371 11.00000000
3.95603800 -3.84170890 -0.28899914 11 12 13416 5.52200000 2885537373 2885537373 -3.00000000
5.43877602 -5.28344059 1.75056911 57 13 13417 7.78200000 2885537376 2885537376 13.00000000
3.68991208 -3.58577752 -0.08981008 10 14 13418 5.14600000 2885537378 2885537378 -1.00000000
5.42167282 -5.27050543 2.02603555 45 15 13419 7.82800000 2885537380 2885537380 15.00000000
1.49977231 -1.46152377 -0.56111968 4 0 13426 2.16800000 2885537401 2885537401 -15.00000000
3.69429827 -3.60134006 0.09005442 9 1 13427 5.16000000 2885537403 2885537403 1.00000000
1.74117732 -1.69795763 -0.56147784 3 2 13428 2.49600000 2885537406 2885537406 -13.00000000
3.40890694 -3.32429075 0.24953784 24 3 13428 4.76800000 2885537408 2885537408 3.00000000
2.07426143 -2.02348018 -0.56326813 3 4 13429 2.95200000 2885537410 2885537410 -11.00000000
3.90136814 -3.80718565 0.47691622 27 5 13430 5.47200000 2885537413 2885537413 5.00000000
2.54009891 -2.47964430 -0.56222546 5 6 13431 3.59400000 2885537415 2885537415 -9.00000000
4.08032703 -3.98460579 0.70026124 65 7 13432 5.74600000 2885537417 2885537417 7.00000000
3.27023697 -3.19463515 -0.56133020 4 8 13433 4.60600000 2885537420 2885537420 -7.00000000
5.42890024 -5.30339432 1.20204246 55 9 13433 7.68400000 2885537422 2885537422 9.00000000
3.98990703 -3.89902902 -0.48807216 14 10 13434 5.60000000 2885537424 2885537424 -5.00000000
5.40637970 -5.28508377 1.46961093 56 11 13435 7.70200000 2885537426 2885537426 11.00000000
3.96116734 -3.87364793 -0.29035988 2 12 13436 5.54800000 2885537429 2885537429 -3.00000000
5.40219069 -5.28467798 1.74472034 70 13 13437 7.75600000 2885537431 2885537431 13.00000000
