# .PCD v0.7 - Point Cloud Data file format
VERSION 0.7
FIELDS x y z intensity laser_id azimuth distance_m adjustedtime timestamp vertical_angle
SIZE 4 4 4 1 1 2 8 8 4 8
TYPE F F F U U U F U U F
COUNT 1 1 1 1 1 1 1 1 1 1
WIDTH 521
HEIGHT 1
VIEWPOINT 0 0 0 1 0 0 0
POINTS 521
DATA ascii
-1.17555606 -1.69203365 -0.32632229 48 6 21479 2.08600000 2891259619 2891259619 -9.00000000
-1.21902096 -1.75394130 0.26226282 22 7 21480 2.15200000 2891259622 2891259622 7.00000000
-1.17626536 -1.69179392 -0.25300077 59 8 21481 2.07600000 2891259624 2891259624 -7.00000000
-1.17178428 -1.68472147 -0.17954083 69 10 21482 2.06000000 2891259629 2891259629 -5.00000000
-1.16610968 -1.67531502 -0.10697469 51 12 21484 2.04400000 2891259633 2891259633 -3.00000000
-1.16697466 -1.67531013 -0.03563781 63 14 21486 2.04200000 2891259638 2891259638 -1.00000000
-6.00019312 -8.61388493 2.81284547 59 15 21486 10.86800000 2891259640 2891259640 15.00000000
-1.10308754 -1.57888877 -0.51608515 5 0 21494 1.99400000 2891259661 2891259661 -15.00000000
-1.17418694 -1.68003130 0.03577743 60 1 21495 2.05000000 2891259663 2891259663 1.00000000
-1.26961589 -1.81589639 -0.51153868 4 2 21496 2.27400000 2891259665 2891259665 -13.00000000
-1.18907142 -1.70069563 0.10875412 54 3 21496 2.07800000 2891259668 2891259668 3.00000000
-1.19932878 -1.71409214 0.18302706 13 5 21498 2.10000000 2891259672 2891259672 5.00000000
-1.17239320 -1.67497313 -0.32381934 47 6 21499 2.07000000 2891259675 2891259675 -9.00000000
-1.18558025 -1.69255531 -0.25373197 57 8 21501 2.08200000 2891259679 2891259679 -7.00000000
-1.17994463 -1.68388426 -0.17988946 69 10 21502 2.06400000 2891259684 2891259684 -5.00000000
-1.17309725 -1.67286968 -0.10707936 40 12 21504 2.04600000 2891259689 2891259689 -3.00000000
-1.17281544 -1.67122650 -0.03563781 63 14 21506 2.04200000 2891259693 2891259693 -1.00000000
-6.03244400 -8.59605026 2.81388068 54 15 21506 10.87200000 2891259695 2891259695 15.00000000
-1.10775495 -1.57325566 -0.51556754 5 0 21515 1.99200000 2891259716 2891259716 -15.00000000
-1.18494284 -1.68225574 0.03591705 60 1 21516 2.05800000 2891259718 2891259718 1.00000000
-1.27065063 -1.80326581 -0.50928921 4 2 21517 2.26400000 2891259721 2891259721 -13.00000000
-1.19329131 -1.69285250 0.10854477 55 3 21518 2.07400000 2891259723 2891259723 3.00000000
-1.17636812 -1.66884458 -0.39688271 49 4 21518 2.08000000 2891259725 2891259725 -11.00000000
-1.17852449 -1.67066491 -0.32381934 48 6 21520 2.07000000 2891259730 2891259730 -9.00000000
-1.18376195 -1.67684662 -0.25202581 61 8 21522 2.06800000 2891259735 2891259735 -7.00000000
-1.19300449 -1.68931305 -0.18093532 65 10 21523 2.07600000 2891259739 2891259739 -5.00000000
-1.17460990 -1.66203463 -0.10666068 40 12 21525 2.03800000 2891259744 2891259744 -3.00000000
-6.35278320 -8.98565197 2.54059720 41 13 21526 11.29400000 2891259746 2891259746 13.00000000
-1.18355167 -1.67344713 -0.03577743 60 14 21527 2.05000000 2891259748 2891259748 -1.00000000
-6.06875324 -8.57755470 2.81543350 52 15 21528 10.87800000 2891259751 2891259751 15.00000000
-1.12218153 -1.58198464 -0.51970863 6 0 21535 2.00800000 2891259771 2891259771 -15.00000000
-1.19312227 -1.68137085 0.03598686 54 1 21536 2.06200000 2891259774 2891259774 1.00000000
-1.26340103 -1.77975070 -0.50389034 4 2 21537 2.24000000 2891259776 2891259776 -13.00000000
-1.20121074 -1.69214344 0.10875412 51 3 21537 2.07800000 2891259778 2891259778 3.00000000
-1.17650270 -1.65672457 -0.39497462 54 4 21538 2.07000000 2891259781 2891259781 -11.00000000
-1.18206036 -1.66332054 -0.32319361 48 6 21540 2.06600000 2891259785 2891259785 -9.00000000
-1.19075859 -1.67432201 -0.25226954 66 8 21542 2.07000000 2891259790 2891259790 -7.00000000
-1.20351398 -1.69163227 -0.18163256 65 10 21543 2.08400000 2891259795 2891259795 -5.00000000
-1.18735468 -1.66768634 -0.10728871 44 12 21545 2.05000000 2891259799 2891259799 -3.00000000
-1.18474436 -1.66279125 -0.03563781 49 14 21547 2.04200000 2891259804 2891259804 -1.00000000
-6.10202169 -8.56103802 2.81698656 59 15 21548 10.88400000 2891259806 2891259806 15.00000000
-1.12068379 -1.56882286 -0.51660281 5 0 21554 1.99600000 2891259827 2891259827 -15.00000000
-1.20566726 -1.68716693 0.03619629 52 1 21555 2.07400000 2891259829 2891259829 1.00000000
-1.23416364 -1.72640657 -0.48994339 9 2 21556 2.17800000 2891259831 2891259831 -13.00000000
-1.20681548 -1.68815076 0.10875412 15 3 21556 2.07800000 2891259834 2891259834 3.00000000
-1.17513800 -1.64323258 -0.39268491 60 4 21557 2.05800000 2891259836 2891259836 -11.00000000
-1.18756962 -1.65939152 -0.32319361 51 6 21559 2.06600000 2891259841 2891259841 -9.00000000
-1.19630420 -1.67036414 -0.25226954 66 8 21561 2.07000000 2891259845 2891259845 -7.00000000
-1.20215476 -1.67791426 -0.18058670 65 10 21562 2.07200000 2891259850 2891259850 -5.00000000
-1.20917141 -1.68646407 -0.10875412 42 12 21564 2.07800000 2891259854 2891259854 -3.00000000
-6.12474489 -8.53290939 2.81439829 49 15 21567 10.87400000 2891259861 2891259861 15.00000000
-1.12389636 -1.56176531 -0.51556754 6 0 21574 1.99200000 2891259882 2891259882 -15.00000000
-1.21388590 -1.68619382 0.03626610 52 1 21575 2.07800000 2891259884 2891259884 1.00000000
-1.23562706 -1.71576262 -0.48814380 4 2 21576 2.17000000 2891259887 2891259887 -13.00000000
-1.18316197 -1.64230633 -0.39344814 67 4 21577 2.06200000 2891259891 2891259891 -11.00000000
-1.18988907 -1.65042901 -0.32225499 53 6 21579 2.06000000 2891259896 2891259896 -9.00000000
-1.20909643 -1.67583704 -0.25373197 63 8 21581 2.08200000 2891259901 2891259901 -7.00000000
-1.20334041 -1.66724563 -0.17988946 69 10 21582 2.06400000 2891259905 2891259905 -5.00000000
-1.23727036 -1.71299565 -0.11074288 12 12 21584 2.11600000 2891259910 2891259910 -3.00000000
-6.15222931 -8.50834656 2.81336308 45 15 21587 10.87000000 2891259917 2891259917 15.00000000
-1.13982034 -1.57171059 -0.52022630 6 0 21595 2.01000000 2891259937 2891259937 -15.00000000
-1.21558118 -1.67494750 -0.47779605 2 2 21597 2.12400000 2891259942 2891259942 -13.00000000
-1.19032681 -1.63954759 -0.39382976 69 4 21598 2.06400000 2891259947 2891259947 -11.00000000
-1.19128585 -1.63966429 -0.32100353 55 6 21600 2.05200000 2891259951 2891259951 -9.00000000
-1.21523058 -1.67139423 -0.25373197 63 8 21602 2.08200000 2891259956 2891259956 -7.00000000
-1.21061492 -1.66443515 -0.18006377 62 10 21603 2.06600000 2891259960 2891259960 -5.00000000
-6.19099092 -8.49931145 2.81750417 14 15 21607 10.88600000 2891259972 2891259972 15.00000000
-1.15327692 -1.57864177 -0.52384973 8 0 21615 2.02400000 2891259993 2891259993 -15.00000000
-1.19956827 -1.64080417 -0.46924791 2 2 21617 2.08600000 2891259997 2891259997 -13.00000000
-1.19372475 -1.63221323 -0.39306653 64 4 21618 2.06000000 2891260002 2891260002 -11.00000000
-1.19700205 -1.63549590 -0.32100353 55 6 21620 2.05200000 2891260006 2891260006 -9.00000000
-1.22105742 -1.66714215 -0.25373197 63 8 21622 2.08200000 2891260011 2891260011 -7.00000000
-1.22937071 -1.67787802 -0.18198119 60 10 21623 2.08800000 2891260016 2891260016 -5.00000000
-4.43464947 -6.04809904 -0.39304304 4 12 21625 7.51000000 2891260020 2891260020 -3.00000000
-5.11668634 -6.97062254 2.31694818 4 15 21628 8.95200000 2891260027 2891260027 15.00000000
-1.16079509 -1.57792091 -0.52488500 8 0 21634 2.02800000 2891260048 2891260048 -15.00000000
-1.19576025 -1.62426257 -0.46564868 3 2 21636 2.07000000 2891260053 2891260053 -13.00000000
-1.19563818 -1.62350321 -0.39192167 60 4 21637 2.05400000 2891260057 2891260057 -11.00000000
-1.20124698 -1.62992728 -0.32069066 58 6 21639 2.05000000 2891260062 2891260062 -9.00000000
-1.22186613 -1.65669346 -0.25275701 63 8 21641 2.07400000 2891260066 2891260066 -7.00000000
-1.23965955 -1.68020499 -0.18267843 52 10 21642 2.09600000 2891260071 2891260071 -5.00000000
-6.35859728 -8.61514378 2.08134460 9 11 21643 10.90800000 2891260073 2891260073 11.00000000
-4.46654463 -6.04942751 -0.39408976 4 12 21644 7.53000000 2891260076 2891260076 -3.00000000
-5.14889193 -6.96849728 2.32160687 6 15 21646 8.97000000 2891260083 2891260083 15.00000000
-1.16284537 -1.56920302 -0.52333212 9 0 21654 2.02200000 2891260103 2891260103 -15.00000000
-1.19910109 -1.61694813 -0.46474889 3 2 21656 2.06600000 2891260108 2891260108 -13.00000000
-1.19895852 -1.61616623 -0.39115843 60 4 21657 2.05000000 2891260112 2891260112 -11.00000000
-1.21046174 -1.63048244 -0.32162926 47 6 21659 2.05600000 2891260117 2891260117 -9.00000000
-1.23237693 -1.65879202 -0.25373197 54 8 21661 2.08200000 2891260122 2891260122 -7.00000000
-1.24313998 -1.67266929 -0.18232982 41 10 21662 2.09200000 2891260126 2891260126 -5.00000000
-6.40385914 -8.61337757 2.08630562 21 11 21663 10.93400000 2891260129 2891260129 11.00000000
-4.48763418 -6.03379917 -0.39408976 4 12 21664 7.53000000 2891260131 2891260131 -3.00000000
-6.73174047 -9.04778957 2.60358357 18 13 21665 11.57400000 2891260133 2891260133 13.00000000
-5.17555189 -6.95112848 2.32212448 9 15 21667 8.97200000 2891260138 2891260138 15.00000000
-1.16396546 -1.55873883 -0.52126157 11 0 21675 2.01400000 2891260159 2891260159 -15.00000000
-1.20035338 -1.60629821 -0.46294928 3 2 21677 2.05800000 2891260163 2891260163 -13.00000000
-1.20369852 -1.61018860 -0.39077681 64 4 21678 2.04800000 2891260168 2891260168 -11.00000000
-1.21997941 -1.63078022 -0.32256788 40 6 21680 2.06200000 2891260172 2891260172 -9.00000000
-1.24796581 -1.66697693 -0.25568187 50 8 21682 2.09800000 2891260177 2891260177 -7.00000000
-1.25762260 -1.67926502 -0.18355000 23 10 21683 2.10600000 2891260182 2891260182 -5.00000000
-4.51690578 -6.02690029 -0.39471778 4 12 21685 7.54200000 2891260186 2891260186 -3.00000000
-5.20557976 -6.94074726 2.32471275 9 15 21687 8.98200000 2891260193 2891260193 15.00000000
-1.17172194 -1.55775404 -0.52229685 14 0 21695 2.01800000 2891260214 2891260214 -15.00000000
-1.18954551 -1.58030117 -0.45665064 3 2 21697 2.03000000 2891260218 2891260218 -13.00000000
-1.20813084 -1.60440874 -0.39039519 58 4 21698 2.04600000 2891260223 2891260223 -11.00000000
-1.22209811 -1.62177896 -0.32162926 32 6 21700 2.05600000 2891260228 2891260228 -9.00000000
-1.26214349 -1.67370522 -0.25738806 40 8 21702 2.11200000 2891260232 2891260232 -7.00000000
-4.51625538 -5.98240376 -0.39283368 4 12 21705 7.50600000 2891260241 2891260241 -3.00000000
-5.24379635 -6.93857479 2.33040667 9 15 21708 9.00400000 2891260248 2891260248 15.00000000
-1.17715240 -1.55365443 -0.52229685 17 0 21715 2.01800000 2891260269 2891260269 -15.00000000
-1.19387722 -1.57458639 -0.45620075 4 2 21717 2.02800000 2891260274 2891260274 -13.00000000
-1.22084260 -1.60956705 -0.39268491 58 4 21718 2.05800000 2891260278 2891260278 -11.00000000
-1.23252892 -1.62379694 -0.32288074 31 6 21720 2.06400000 2891260283 2891260283 -9.00000000
-1.26317525 -1.66296625 -0.25641310 16 8 21722 2.10400000 2891260288 2891260288 -7.00000000
-3.10879803 -4.09123993 -0.44954932 3 10 21723 5.15800000 2891260292 2891260292 -5.00000000
-4.52502108 -5.95070457 -0.39178696 3 12 21725 7.48600000 2891260297 2891260297 -3.00000000
-5.28198528 -6.94113302 2.33713603 13 15 21727 9.03000000 2891260304 2891260304 15.00000000
-1.18374050 -1.55107176 -0.52281445 18 0 21735 2.02000000 2891260324 2891260324 -15.00000000
-1.20409739 -1.57660425 -0.45800033 17 2 21737 2.03600000 2891260329 2891260329 -13.00000000
-1.22526169 -1.60373569 -0.39230329 55 4 21738 2.05600000 2891260334 2891260334 -11.00000000
-1.24418855 -1.62733102 -0.32444507 21 6 21740 2.07400000 2891260338 2891260338 -9.00000000
-3.11579442 -4.07087040 -0.44850346 3 10 21743 5.14600000 2891260347 2891260347 -5.00000000
-4.55305195 -5.94438648 -0.39241499 3 12 21745 7.49800000 2891260352 2891260352 -3.00000000
-5.31796980 -6.93552446 2.34179473 18 15 21748 9.04800000 2891260359 2891260359 15.00000000
-1.17148697 -1.52395606 -0.51504987 14 0 21755 1.99000000 2891260380 2891260380 -15.00000000
-1.21078169 -1.57393622 -0.45845026 19 2 21757 2.03800000 2891260384 2891260384 -13.00000000
-1.22965491 -1.59789300 -0.39192167 59 4 21758 2.05400000 2891260389 2891260389 -11.00000000
-2.36047602 -3.06292844 -0.47480297 1 8 21762 3.89600000 2891260398 2891260398 -7.00000000
-3.11173820 -4.03630066 -0.44588879 3 10 21763 5.11600000 2891260403 2891260403 -5.00000000
-4.58841419 -5.94743347 -0.39367107 4 12 21765 7.52200000 2891260407 2891260407 -3.00000000
-5.34802294 -6.92702627 2.34490061 18 15 21767 9.06000000 2891260414 2891260414 15.00000000
-1.17325127 -1.51527500 -0.51349699 14 0 21775 1.98400000 2891260435 2891260435 -15.00000000
-1.20552611 -1.55583632 -0.45440114 18 2 21777 2.02000000 2891260440 2891260440 -13.00000000
-1.24604988 -1.60755622 -0.39535624 48 4 21778 2.07200000 2891260444 2891260444 -11.00000000
-1.89114821 -2.43805361 -0.48870125 2 6 21780 3.12400000 2891260449 2891260449 -9.00000000
-2.35898113 -3.03898907 -0.47236559 1 8 21782 3.87600000 2891260453 2891260453 -7.00000000
-3.12947440 -4.03013515 -0.44641173 3 10 21783 5.12200000 2891260458 2891260458 -5.00000000
-4.57973433 -5.89353085 -0.39115894 3 12 21785 7.47400000 2891260463 2891260463 -3.00000000
-5.37812042 -6.91347742 2.34697104 20 15 21788 9.06800000 2891260470 2891260470 15.00000000
-1.17496932 -1.50660026 -0.51194406 24 0 21795 1.97800000 2891260490 2891260490 -15.00000000
-1.20375586 -1.54240119 -0.45170173 18 2 21797 2.00800000 2891260495 2891260495 -13.00000000
-1.25648642 -1.60938692 -0.39688271 30 4 21798 2.08000000 2891260500 2891260500 -11.00000000
-1.89721477 -2.42832422 -0.48807552 2 6 21800 3.12000000 2891260504 2891260504 -9.00000000
-2.37935638 -3.04324698 -0.47431549 1 8 21802 3.89200000 2891260509 2891260509 -7.00000000
-3.14597821 -4.02232552 -0.44676033 3 10 21803 5.12600000 2891260513 2891260513 -5.00000000
-4.60274076 -5.88065434 -0.39136827 3 12 21805 7.47800000 2891260518 2891260518 -3.00000000
-5.42245913 -6.92298031 2.35628867 20 15 21807 9.10400000 2891260525 2891260525 15.00000000
-1.17902780 -1.50097048 -0.51142645 40 0 21815 1.97600000 2891260546 2891260546 -15.00000000
-1.20672381 -1.53512573 -0.45080191 24 2 21817 2.00400000 2891260550 2891260550 -13.00000000
-1.90445805 -2.42013454 -0.48776266 2 6 21820 3.11800000 2891260559 2891260559 -9.00000000
-2.38013959 -3.02244639 -0.47236559 1 8 21822 3.87600000 2891260564 2891260564 -7.00000000
-3.15753365 -4.00818920 -0.44641173 3 10 21823 5.12200000 2891260569 2891260569 -5.00000000
-4.60840178 -5.84572983 -0.39011222 3 12 21825 7.45400000 2891260573 2891260573 -3.00000000
-4.35720968 -5.52312756 -0.12279513 2 14 21827 7.03600000 2891260578 2891260578 -1.00000000
-4.30630112 -5.45859718 1.86297953 15 15 21827 7.19800000 2891260580 2891260580 15.00000000
-1.18160200 -1.49402201 -0.51039118 47 0 21834 1.97200000 2891260601 2891260601 -15.00000000
-4.33265829 -5.47626448 0.12188761 11 1 21835 6.98400000 2891260603 2891260603 1.00000000
-1.21422672 -1.53417182 -0.45170173 29 2 21836 2.00800000 2891260606 2891260606 -13.00000000
-4.33920670 -5.48060894 0.36635169 20 3 21837 7.00000000 2891260608 2891260608 3.00000000
-1.59401429 -2.01331019 -0.49915633 3 4 21837 2.61600000 2891260610 2891260610 -11.00000000
-4.33824015 -5.47742367 0.61131036 13 5 21838 7.01400000 2891260612 2891260612 5.00000000
-1.91860676 -2.42154741 -0.48932701 2 6 21839 3.12800000 2891260615 2891260615 -9.00000000
-4.34028578 -5.47607756 0.85796016 7 7 21840 7.04000000 2891260617 2891260617 7.00000000
-2.37534952 -2.99587107 -0.46944070 1 8 21841 3.85200000 2891260619 2891260619 -7.00000000
-4.34304047 -5.47562599 1.10693026 47 9 21842 7.07600000 2891260622 2891260622 9.00000000
-3.16214108 -3.98676968 -0.44519153 3 10 21842 5.10800000 2891260624 2891260624 -5.00000000
-4.32588053 -5.45203590 1.35283577 50 11 21843 7.09000000 2891260626 2891260626 11.00000000
-4.36079931 -5.49407578 -0.36760774 7 12 21844 7.02400000 2891260629 2891260629 -3.00000000
-4.30669403 -5.42396545 1.59895205 51 13 21845 7.10800000 2891260631 2891260631 13.00000000
-4.34938240 -5.47576571 -0.12206213 12 14 21846 6.99400000 2891260633 2891260633 -1.00000000
-4.30875874 -5.42462111 1.85625017 54 15 21846 7.17200000 2891260635 2891260635 15.00000000
-1.17958796 -1.48082209 -0.50728536 58 0 21854 1.96000000 2891260656 2891260656 -15.00000000
-4.36047077 -5.47205448 0.12213194 8 1 21855 6.99800000 2891260659 2891260659 1.00000000
-1.21957457 -1.52992404 -0.45170173 36 2 21856 2.00800000 2891260661 2891260661 -13.00000000
-4.34087801 -5.44356680 0.36488628 2 3 21857 6.97200000 2891260663 2891260663 3.00000000
-1.60715246 -2.01540852 -0.50106442 3 4 21857 2.62600000 2891260665 2891260665 -11.00000000
-4.32999897 -5.42798138 0.60747552 3 5 21858 6.97000000 2891260668 2891260668 5.00000000
-1.92704785 -2.41483545 -0.48932701 2 6 21859 3.12800000 2891260670 2891260670 -9.00000000
-4.34698963 -5.44537973 0.85552281 10 7 21860 7.02000000 2891260672 2891260672 7.00000000
-2.40065742 -3.00617552 -0.47236559 1 8 21861 3.87600000 2891260675 2891260675 -7.00000000
-4.32760525 -5.41721821 1.09816992 55 9 21862 7.02000000 2891260677 2891260677 9.00000000
-3.18225598 -3.98349071 -0.44606310 3 10 21862 5.11800000 2891260679 2891260679 -5.00000000
-4.33262873 -5.42156553 1.34901965 62 11 21863 7.07000000 2891260682 2891260682 11.00000000
-4.36498499 -5.46010017 -0.36635169 10 12 21864 7.00000000 2891260684 2891260684 -3.00000000
-4.31586409 -5.39672375 1.59535289 75 13 21865 7.09200000 2891260686 2891260686 13.00000000
-4.34848261 -5.43556595 -0.12150365 8 14 21866 6.96200000 2891260688 2891260688 -1.00000000
-4.30326319 -5.37711811 1.84537983 58 15 21867 7.13000000 2891260691 2891260691 15.00000000
-1.16903365 -1.45710671 -0.50055605 65 0 21874 1.93400000 2891260712 2891260712 -15.00000000
-4.36077070 -5.43340731 0.12160837 8 1 21875 6.96800000 2891260714 2891260714 1.00000000
-1.23222768 -1.53477502 -0.45440114 31 2 21876 2.02000000 2891260716 2891260716 -13.00000000
-4.35359955 -5.42059517 0.36436293 7 3 21877 6.96200000 2891260718 2891260718 3.00000000
-1.61171901 -2.00672483 -0.50030118 3 4 21877 2.62200000 2891260721 2891260721 -11.00000000
-4.33394527 -5.39419556 0.60538381 13 5 21878 6.94600000 2891260723 2891260723 5.00000000
-1.94041538 -2.41425276 -0.49057847 2 6 21879 3.13600000 2891260725 2891260725 -9.00000000
-4.35104465 -5.41160822 0.85259795 10 7 21880 6.99600000 2891260728 2891260728 7.00000000
-2.41113639 -2.99777722 -0.47236559 1 8 21881 3.87600000 2891260730 2891260730 -7.00000000
-4.33286715 -5.38514948 1.09472835 60 9 21882 6.99800000 2891260732 2891260732 9.00000000
-3.20113754 -3.97856760 -0.44676033 3 10 21882 5.12600000 2891260735 2891260735 -5.00000000
-4.33183146 -5.38193846 1.34291375 59 11 21883 7.03800000 2891260737 2891260737 11.00000000
-4.37023926 -5.42771769 -0.36520031 10 12 21884 6.97800000 2891260739 2891260739 -3.00000000
-4.31511736 -5.35734320 1.58815444 76 13 21885 7.06000000 2891260741 2891260741 13.00000000
-4.35111952 -5.40011120 -0.12104989 14 14 21886 6.93600000 2891260744 2891260744 -1.00000000
-4.29682922 -5.33273220 1.83502698 67 15 21886 7.09000000 2891260746 2891260746 15.00000000
-1.17532694 -1.45451975 -0.50107366 71 0 21894 1.93600000 2891260767 2891260767 -15.00000000
-4.34828281 -5.37927341 0.12073575 11 1 21895 6.91800000 2891260769 2891260769 1.00000000
-1.23145092 -1.52288783 -0.45215163 26 2 21896 2.01000000 2891260771 2891260771 -13.00000000
-4.34988451 -5.37741470 0.36247882 7 3 21897 6.92600000 2891260774 2891260774 3.00000000
-1.62118340 -2.00413942 -0.50106442 3 4 21897 2.62600000 2891260776 2891260776 -11.00000000
-4.34146833 -5.36509514 0.60381496 13 5 21898 6.92800000 2891260778 2891260778 5.00000000
-1.93391645 -2.38904023 -0.48682407 2 6 21899 3.11200000 2891260781 2891260781 -9.00000000
-4.34742165 -5.36861849 0.84821063 10 7 21900 6.96000000 2891260783 2891260783 7.00000000
-2.43408108 -3.00476742 -0.47480297 1 8 21901 3.89600000 2891260785 2891260785 -7.00000000
-4.33298349 -5.34697151 1.09003532 55 9 21902 6.96800000 2891260788 2891260788 9.00000000
-3.20246196 -3.95188975 -0.44501722 3 10 21902 5.10600000 2891260790 2891260790 -5.00000000
-4.32833767 -5.33933353 1.33604455 62 11 21903 7.00200000 2891260792 2891260792 11.00000000
-4.36274099 -5.37985277 -0.36300218 10 12 21904 6.93600000 2891260794 2891260794 -3.00000000
-4.31537628 -5.31954718 1.58140588 74 13 21905 7.03000000 2891260797 2891260797 13.00000000
-4.35104179 -5.36159897 -0.12052632 14 14 21906 6.90600000 2891260799 2891260799 -1.00000000
-4.30202723 -5.30120039 1.82933307 63 15 21906 7.06800000 2891260801 2891260801 15.00000000
-1.18161643 -1.45190656 -0.50159132 77 0 21914 1.93800000 2891260822 2891260822 -15.00000000
-4.35062075 -5.34390259 0.12028199 14 1 21915 6.89200000 2891260824 2891260824 1.00000000
-1.23429811 -1.51555800 -0.45125180 21 2 21916 2.00600000 2891260827 2891260827 -13.00000000
-4.34751272 -5.33818197 0.36080408 10 3 21916 6.89400000 2891260829 2891260829 3.00000000
-1.62816930 -1.99846828 -0.50106442 3 4 21917 2.62600000 2891260831 2891260831 -11.00000000
-4.34380627 -5.32983017 0.60154891 13 5 21918 6.90200000 2891260834 2891260834 5.00000000
-1.94598866 -2.38686824 -0.48776266 2 6 21919 3.11800000 2891260836 2891260836 -9.00000000
-4.33602381 -5.31649017 0.84236091 10 7 21920 6.91200000 2891260838 2891260838 7.00000000
-4.39216757 -5.38341093 -0.85308540 2 8 21921 7.00000000 2891260840 2891260840 -7.00000000
-4.33820295 -5.31726742 1.08690667 55 9 21921 6.94800000 2891260843 2891260843 9.00000000
-3.22253609 -3.94840479 -0.44588879 3 10 21922 5.11600000 2891260845 2891260845 -5.00000000
-4.32459974 -5.29681826 1.32917547 62 11 21923 6.96600000 2891260847 2891260847 11.00000000
-4.34611845 -5.32127857 -0.36007139 7 12 21924 6.88000000 2891260850 2891260850 -3.00000000
-4.31542397 -5.28181505 1.57465732 70 13 21925 7.00000000 2891260852 2891260852 13.00000000
-4.35201406 -5.32470179 -0.12003765 8 14 21926 6.87800000 2891260854 2891260854 -1.00000000
-4.30583477 -5.26820183 1.82312131 56 15 21926 7.04400000 2891260857 2891260857 15.00000000
-1.19035125 -1.45225537 -0.50314420 74 0 21934 1.94400000 2891260877 2891260877 -15.00000000
-4.35276508 -5.30858135 0.11982822 17 1 21935 6.86600000 2891260880 2891260880 1.00000000
-1.24946785 -1.52329397 -0.45485103 20 2 21936 2.02200000 2891260882 2891260882 -13.00000000
-4.34297800 -5.29287577 0.35881531 10 3 21937 6.85600000 2891260884 2891260884 3.00000000
-1.63015389 -1.98670185 -0.49953794 3 4 21937 2.61800000 2891260887 2891260887 -11.00000000
-4.33963060 -5.28691435 0.59841132 10 5 21938 6.86600000 2891260889 2891260889 5.00000000
-1.95430851 -2.38006091 -0.48776266 2 6 21939 3.11800000 2891260891 2891260891 -9.00000000
-4.34069538 -5.28444910 0.83967978 10 7 21940 6.89000000 2891260893 2891260893 7.00000000
-4.37564468 -5.32510185 -0.84626073 2 8 21941 6.94400000 2891260896 2891260896 -7.00000000
-4.33132076 -5.26928520 1.08033645 60 9 21942 6.90600000 2891260898 2891260898 9.00000000
-3.23756409 -3.93867111 -0.44606310 3 10 21942 5.11800000 2891260900 2891260900 -5.00000000
-4.31812429 -5.25136185 1.32154310 62 11 21943 6.92600000 2891260903 2891260903 11.00000000
-4.35451603 -5.29373550 -0.35923401 7 12 21944 6.86400000 2891260905 2891260905 -3.00000000
-4.30906963 -5.23662376 1.56565928 78 13 21945 6.96000000 2891260907 2891260907 13.00000000
-4.35278177 -5.28786325 -0.11954898 6 14 21946 6.85000000 2891260910 2891260910 -1.00000000
-4.31283474 -5.23747158 1.81794500 60 15 21947 7.02400000 2891260912 2891260912 15.00000000
-1.18828547 -1.43894517 -0.50003839 69 0 21955 1.93200000 2891260933 2891260933 -15.00000000
-4.35818338 -5.27563334 0.11944427 14 1 21956 6.84400000 2891260935 2891260935 1.00000000
-1.27118063 -1.53823256 -0.46069977 12 2 21957 2.04800000 2891260937 2891260937 -13.00000000
-4.33089161 -5.24073362 0.35630319 17 3 21957 6.80800000 2891260940 2891260940 3.00000000
-1.63742459 -1.98071361 -0.49953794 3 4 21958 2.61800000 2891260942 2891260942 -11.00000000
-4.34882116 -5.25869036 0.59701681 10 5 21959 6.85000000 2891260944 2891260944 5.00000000
-1.97057366 -2.38201427 -0.48963988 2 6 21960 3.13000000 2891260946 2891260946 -9.00000000
-4.33978510 -5.24403477 0.83577996 10 7 21961 6.85800000 2891260949 2891260949 7.00000000
-4.37994242 -5.29067945 -0.84333587 2 8 21962 6.92000000 2891260951 2891260951 -7.00000000
-4.32288599 -5.21990395 1.07345331 67 9 21963 6.86200000 2891260953 2891260953 9.00000000
-3.25451994 -3.92984748 -0.44641173 3 10 21963 5.12200000 2891260956 2891260956 -5.00000000
-4.32481766 -5.22038174 1.31772697 62 11 21964 6.90600000 2891260958 2891260958 11.00000000
-4.36624289 -5.26851320 -0.35860598 7 12 21965 6.85200000 2891260960 2891260960 -3.00000000
-4.30460310 -5.19229078 1.55711114 29 13 21966 6.92200000 2891260963 2891260963 13.00000000
-4.35170889 -5.24724627 -0.11899051 6 14 21967 6.81800000 2891260965 2891260965 -1.00000000
-4.30149317 -5.18669701 1.80552161 65 15 21967 6.97600000 2891260967 2891260967 15.00000000
-1.18959510 -1.43033266 -0.49848548 65 0 21975 1.92600000 2891260988 2891260988 -15.00000000
-4.35227203 -5.23118114 0.11878107 11 1 21976 6.80600000 2891260990 2891260990 1.00000000
-1.38375199 -1.66260004 -0.49939135 4 2 21977 2.22000000 2891260992 2891260992 -13.00000000
-4.31721735 -5.18720579 0.35368639 37 3 21977 6.75800000 2891260995 2891260995 3.00000000
-1.64684093 -1.97800350 -0.50030118 3 4 21978 2.62200000 2891260997 2891260997 -11.00000000
-4.32889843 -5.19754982 0.59178752 10 5 21979 6.79000000 2891260999 2891260999 5.00000000
-1.97887647 -2.37512136 -0.48963988 1 6 21980 3.13000000 2891261002 2891261002 -9.00000000
-4.34154129 -5.20903063 0.83261138 10 7 21981 6.83200000 2891261004 2891261004 7.00000000
-2.44453526 -2.93194056 -0.46870950 1 8 21982 3.84600000 2891261006 2891261006 -7.00000000
-4.32969332 -5.19112968 1.07063746 50 9 21983 6.84400000 2891261009 2891261009 9.00000000
-3.25673246 -3.90469265 -0.44484290 3 10 21983 5.10400000 2891261011 2891261011 -5.00000000
-4.32163191 -5.17962646 1.31123936 65 11 21984 6.87200000 2891261013 2891261013 11.00000000
-4.35517120 -5.21797276 -0.35619852 10 12 21985 6.80600000 2891261016 2891261016 -3.00000000
-4.30646467 -5.15778685 1.55126250 19 13 21986 6.89600000 2891261018 2891261018 13.00000000
-4.35333395 -5.21207237 -0.11853675 8 14 21987 6.79200000 2891261020 2891261020 -1.00000000
-4.29356527 -5.14051342 1.79465127 69 15 21987 6.93400000 2891261022 2891261022 15.00000000
-1.19805241 -1.43082356 -0.50003839 42 0 21994 1.93200000 2891261043 2891261043 -15.00000000
-4.35033464 -5.19372511 0.11825751 11 1 21995 6.77600000 2891261045 2891261045 1.00000000
-1.41428936 -1.68787611 -0.50838935 4 2 21996 2.26000000 2891261048 2891261048 -13.00000000
-4.30835485 -5.13996029 0.35148829 25 3 21997 6.71600000 2891261050 2891261050 3.00000000
-1.65591347 -1.97554064 -0.50106442 3 4 21997 2.62600000 2891261052 2891261052 -11.00000000
-4.32946873 -5.16331911 0.58952147 10 5 21998 6.76400000 2891261055 2891261055 5.00000000
-1.97912478 -2.35946536 -0.48776266 1 6 21999 3.11800000 2891261057 2891261057 -9.00000000
-4.33582354 -5.16723299 0.82822406 10 7 22000 6.79600000 2891261059 2891261059 7.00000000
-2.46317816 -2.93446112 -0.47041565 1 8 22001 3.86000000 2891261062 2891261062 -7.00000000
-4.32819986 -5.15632010 1.06625736 27 9 22001 6.81600000 2891261064 2891261064 9.00000000
-3.26966310 -3.89387155 -0.44484290 3 10 22002 5.10400000 2891261066 2891261066 -5.00000000
-4.32236862 -5.14572430 1.30627835 59 11 22003 6.84600000 2891261069 2891261069 11.00000000
-4.36088657 -5.18974018 -0.35525647 10 12 22004 6.78800000 2891261071 2891261071 -3.00000000
-4.31225920 -5.13005209 1.54721332 60 13 22005 6.87800000 2891261073 2891261073 13.00000000
-4.35257626 -5.17618036 -0.11804808 6 14 22006 6.76400000 2891261075 2891261075 -1.00000000
-4.29034185 -5.10036278 1.78585136 60 15 22007 6.90000000 2891261078 2891261078 15.00000000
-1.20428503 -1.42810965 -0.50055605 20 0 22014 1.93400000 2891261098 2891261098 -15.00000000
-4.34780741 -5.15405226 0.11769903 8 1 22015 6.74400000 2891261101 2891261101 1.00000000
-1.41891575 -1.68143976 -0.50793946 4 2 22016 2.25800000 2891261103 2891261103 -13.00000000
-4.30090237 -5.09664345 0.34949952 27 3 22016 6.67800000 2891261105 2891261105 3.00000000
-1.66279936 -1.96974838 -0.50106442 3 4 22017 2.62600000 2891261108 2891261108 -11.00000000
-4.32561255 -5.12229681 0.58655816 10 5 22018 6.73000000 2891261110 2891261110 5.00000000
-1.99117315 -2.35706949 -0.48870125 2 6 22019 3.12400000 2891261112 2891261112 -9.00000000
-4.33845854 -5.13387203 0.82529920 10 7 22020 6.77200000 2891261115 2891261115 7.00000000
-2.47853255 -2.93190908 -0.47139063 1 8 22021 3.86800000 2891261117 2891261117 -7.00000000
-4.33686543 -5.12835503 1.06375432 62 9 22022 6.80000000 2891261119 2891261119 9.00000000
-4.37035656 -5.16795826 -0.59213614 4 10 22022 6.79400000 2891261122 2891261122 -5.00000000
-4.31494474 -5.10062790 1.29864597 53 11 22023 6.80600000 2891261124 2891261124 11.00000000
-4.35833263 -5.15009260 -0.35358173 10 12 22024 6.75600000 2891261126 2891261126 -3.00000000
-4.30747604 -5.08819628 1.53911507 19 13 22025 6.84200000 2891261128 2891261128 13.00000000
-4.34994078 -5.13653946 -0.11748960 8 14 22026 6.73200000 2891261131 2891261131 -1.00000000
-4.29812956 -5.07356358 1.78171027 63 15 22027 6.88400000 2891261133 2891261133 15.00000000
-1.23302281 -1.45187449 -0.51039118 18 0 22034 1.97200000 2891261154 2891261154 -15.00000000
-4.36059332 -5.13274813 0.11755941 8 1 22035 6.73600000 2891261156 2891261156 1.00000000
-1.42477643 -1.67647660 -0.50793946 4 2 22036 2.25800000 2891261158 2891261158 -13.00000000
-4.29409170 -5.05268335 0.34751076 37 3 22036 6.64000000 2891261161 2891261161 3.00000000
-1.66712165 -1.96094060 -0.50030118 3 4 22037 2.62200000 2891261163 2891261163 -11.00000000
-4.34088469 -5.10413122 0.58620954 13 5 22038 6.72600000 2891261165 2891261165 5.00000000
-1.99042857 -2.33957291 -0.48651120 2 6 22039 3.11000000 2891261168 2891261168 -9.00000000
-4.34348679 -5.10357952 0.82286179 10 7 22040 6.75200000 2891261170 2891261170 7.00000000
-2.49389911 -2.92928553 -0.47236559 1 8 22041 3.87600000 2891261172 2891261172 -7.00000000
-4.33079815 -5.08687162 1.05812275 30 9 22041 6.76400000 2891261175 2891261175 9.00000000
-4.36253262 -5.12233496 -0.58864987 4 10 22042 6.75400000 2891261177 2891261177 -5.00000000
-4.31489801 -5.06461287 1.29330337 59 11 22043 6.77800000 2891261179 2891261179 11.00000000
-4.34907722 -5.10292625 -0.35138360 10 12 22044 6.71400000 2891261181 2891261181 -3.00000000
-4.29233885 -5.03457260 1.52741766 49 13 22045 6.79000000 2891261184 2891261184 13.00000000
-4.34708166 -5.09698009 -0.11693113 14 14 22046 6.70000000 2891261186 2891261186 -1.00000000
-4.30076694 -5.04089355 1.77549863 63 15 22047 6.86000000 2891261188 2891261188 15.00000000
-1.24436152 -1.45490217 -0.51297933 10 0 22054 1.98200000 2891261209 2891261209 -15.00000000
-4.36028290 -5.09622335 0.11707074 8 1 22055 6.70800000 2891261211 2891261211 1.00000000
-1.43188691 -1.67297339 -0.50838935 4 2 22056 2.26000000 2891261214 2891261214 -13.00000000
-4.30261183 -5.02704191 0.34677804 52 3 22056 6.62600000 2891261216 2891261216 3.00000000
-1.66884899 -1.94914412 -0.49877471 3 4 22057 2.61400000 2891261218 2891261218 -11.00000000
-4.33923388 -5.06624937 0.58359486 13 5 22058 6.69600000 2891261221 2891261221 5.00000000
-2.00886512 -2.34461117 -0.48901415 2 6 22059 3.12600000 2891261223 2891261223 -9.00000000
-4.33543825 -5.05824232 0.81798702 10 7 22060 6.71200000 2891261225 2891261225 7.00000000
-2.48601961 -2.89946437 -0.46895322 1 8 22061 3.84800000 2891261228 2891261228 -7.00000000
-4.31895494 -5.03723192 1.05092669 45 9 22061 6.71800000 2891261230 2891261230 9.00000000
-4.36222696 -5.08590317 -0.58620954 4 10 22062 6.72600000 2891261232 2891261232 -5.00000000
-4.31976652 -5.03462076 1.28948724 62 11 22063 6.75800000 2891261234 2891261234 11.00000000
-4.36296082 -5.08316708 -0.35106960 10 12 22064 6.70800000 2891261237 2891261237 -3.00000000
-4.31242561 -5.02251625 1.52831745 35 13 22065 6.79400000 2891261239 2891261239 13.00000000
-4.33878851 -5.05143595 -0.11623303 15 14 22066 6.66000000 2891261241 2891261241 -1.00000000
-4.30071115 -5.00533676 1.76825166 63 15 22067 6.83200000 2891261244 2891261244 15.00000000
-1.25447571 -1.45640457 -0.51504987 10 0 22074 1.99000000 2891261264 2891261264 -15.00000000
-4.34149647 -5.03855467 0.11609340 8 1 22075 6.65200000 2891261267 2891261267 1.00000000
-1.44407952 -1.67534542 -0.51063889 4 2 22076 2.27000000 2891261269 2891261269 -13.00000000
-4.31361341 -5.00442839 0.34625468 80 3 22076 6.61600000 2891261271 2891261271 3.00000000
-1.67564261 -1.94330680 -0.49877471 3 4 22077 2.61400000 2891261274 2891261274 -11.00000000
-4.33867311 -5.02995014 0.58115447 13 5 22078 6.66800000 2891261276 2891261276 5.00000000
-2.01058459 -2.33010674 -0.48744980 2 6 22079 3.11600000 2891261278 2891261278 -9.00000000
-4.34269142 -5.03105640 0.81603712 10 7 22080 6.69600000 2891261280 2891261280 7.00000000
-2.50390959 -2.89978385 -0.47041565 1 8 22081 3.86000000 2891261283 2891261283 -7.00000000
-4.32618380 -5.01016426 1.04842377 60 9 22081 6.70200000 2891261285 2891261285 9.00000000
-4.36302233 -5.05104399 -0.58394349 4 10 22082 6.70000000 2891261287 2891261287 -5.00000000
-4.31420946 -4.99277210 1.28261805 62 11 22083 6.72200000 2891261290 2891261290 11.00000000
-4.35194349 -5.03466463 -0.34876680 10 12 22084 6.66400000 2891261292 2891261292 -3.00000000
-4.30698776 -4.98089886 1.52021921 17 13 22085 6.75800000 2891261294 2891261294 13.00000000
-4.34854555 -5.02718544 -0.11602360 15 14 22086 6.64800000 2891261297 2891261297 -1.00000000
-4.29706430 -4.96766996 1.75996947 65 15 22086 6.80000000 2891261299 2891261299 15.00000000
-1.26588118 -1.45931339 -0.51763809 10 0 22094 2.00000000 2891261320 2891261320 -15.00000000
-4.33939886 -5.00071430 0.11556984 11 1 22095 6.62200000 2891261322 2891261322 1.00000000
-1.44353151 -1.66293633 -0.50838935 4 2 22096 2.26000000 2891261324 2891261324 -13.00000000
-4.33891153 -4.99839020 0.34688273 90 3 22096 6.62800000 2891261327 2891261327 3.00000000
-1.68499029 -1.94041061 -0.49953794 3 4 22097 2.61800000 2891261329 2891261329 -11.00000000
-4.33529902 -4.99070835 0.57836550 13 5 22098 6.63600000 2891261331 2891261331 5.00000000
-2.01611471 -2.32009220 -0.48682407 2 6 22099 3.11200000 2891261333 2891261333 -9.00000000
-4.33027315 -4.98140907 0.81043112 10 7 22100 6.65000000 2891261336 2891261336 7.00000000
-4.38194370 -5.03907299 -0.81993693 2 8 22101 6.72800000 2891261338 2891261338 -7.00000000
-4.32549906 -4.97416401 1.04404366 60 9 22101 6.67400000 2891261340 2891261340 9.00000000
-3.33189178 -3.83020210 -0.44414568 3 10 22102 5.09600000 2891261343 2891261343 -5.00000000
-4.31099033 -4.95398617 1.27651215 59 11 22103 6.69000000 2891261345 2891261345 11.00000000
-4.35244322 -4.99985933 -0.34740609 10 12 22104 6.63800000 2891261347 2891261347 -3.00000000
-4.30131197 -4.93938160 1.51212096 45 13 22105 6.72200000 2891261350 2891261350 13.00000000
-4.34505129 -4.98785067 -0.11546512 18 14 22106 6.61600000 2891261352 2891261352 -1.00000000
-4.29366636 -4.92712784 1.75116968 69 15 22107 6.76600000 2891261354 2891261354 15.00000000
-1.26715457 -1.45052111 -0.51608515 6 0 22114 1.99400000 2891261375 2891261375 -15.00000000
-4.34366941 -4.97047901 0.11522079 11 1 22115 6.60200000 2891261377 2891261377 1.00000000
-1.44932747 -1.65788734 -0.50838935 4 2 22116 2.26000000 2891261380 2891261380 -13.00000000
-1.69692290 -1.94042850 -0.50106442 3 4 22117 2.62600000 2891261384 2891261384 -11.00000000
-4.33432770 -4.95455122 0.57592517 13 5 22118 6.60800000 2891261386 2891261386 5.00000000
-2.02680278 -2.31601357 -0.48744980 2 6 22119 3.11600000 2891261389 2891261389 -9.00000000
-4.33063650 -4.94684649 0.80726254 15 7 22120 6.62400000 2891261391 2891261391 7.00000000
-4.41520023 -5.04166698 -0.82286179 2 8 22121 6.75200000 2891261393 2891261393 -7.00000000
-4.32461596 -4.93822956 1.03966343 60 9 22121 6.64600000 2891261396 2891261396 9.00000000
-3.34261560 -3.81555080 -0.44379705 3 10 22122 5.09200000 2891261398 2891261398 -5.00000000
-4.31014156 -4.91823673 1.27116954 59 11 22123 6.66200000 2891261400 2891261400 11.00000000
-4.34748697 -4.95910454 -0.34562665 10 12 22124 6.60400000 2891261403 2891261403 -3.00000000
-4.30567884 -4.90968561 1.50762200 72 13 22125 6.70200000 2891261405 2891261405 13.00000000
-4.35584164 -4.96513700 -0.11529060 15 14 22126 6.60600000 2891261407 2891261407 -1.00000000
-4.29724169 -4.89834023 1.74599326 67 15 22126 6.74600000 2891261410 2891261410 15.00000000
-1.27731431 -1.45189083 -0.51815575 6 0 22134 2.00200000 2891261430 2891261430 -15.00000000
-4.34249783 -4.93427038 0.11473212 11 1 22135 6.57400000 2891261433 2891261433 1.00000000
-1.45896876 -1.65720606 -0.50973910 4 2 22136 2.26600000 2891261435 2891261435 -13.00000000
-4.33232689 -4.91925049 0.34353322 7 3 22137 6.56400000 2891261437 2891261437 3.00000000
-1.70109081 -1.93154669 -0.50030118 3 4 22137 2.62200000 2891261439 2891261439 -11.00000000
-4.32657146 -4.91098690 0.57261324 9 5 22138 6.57000000 2891261442 2891261442 5.00000000
-2.04009914 -2.31485248 -0.48870125 2 6 22139 3.12400000 2891261444 2891261444 -9.00000000
-4.33868885 -4.92127609 0.80555636 36 7 22140 6.61000000 2891261446 2891261446 7.00000000
-2.52888608 -2.86744905 -0.46944070 1 8 22141 3.85200000 2891261449 2891261449 -7.00000000
-4.32046986 -4.89716387 1.03434467 55 9 22142 6.61200000 2891261451 2891261451 9.00000000
-3.36909509 -3.81880021 -0.44554016 3 10 22142 5.11200000 2891261453 2891261453 -5.00000000
-4.31559134 -4.88991356 1.26773500 59 11 22143 6.64400000 2891261456 2891261456 11.00000000
-4.35551786 -4.93341780 -0.34489396 10 12 22144 6.59000000 2891261458 2891261458 -3.00000000
-4.29699039 -4.86541319 1.49862397 74 13 22145 6.66200000 2891261460 2891261460 13.00000000
-4.34799099 -4.92142868 -0.11462741 6 14 22146 6.56800000 2891261463 2891261463 -1.00000000
-4.29725552 -4.86229134 1.73874629 69 15 22147 6.71800000 2891261465 2891261465 15.00000000
-1.26572037 -1.42862558 -0.51142645 4 0 22154 1.97600000 2891261486 2891261486 -15.00000000
-4.34775782 -4.90561342 0.11441798 11 1 22155 6.55600000 2891261488 2891261488 1.00000000
-1.46215904 -1.64918697 -0.50883931 4 2 22156 2.26200000 2891261490 2891261490 -13.00000000
-4.33621931 -4.88915539 0.34248650 10 3 22157 6.54400000 2891261492 2891261492 3.00000000
-1.70261216 -1.91972184 -0.49877471 3 4 22157 2.61400000 2891261495 2891261495 -11.00000000
-4.33046484 -4.88095093 0.57087010 9 5 22158 6.55000000 2891261497 2891261497 5.00000000
-2.05996823 -2.32101393 -0.49151710 2 6 22159 3.14200000 2891261499 2891261499 -9.00000000
-4.33607149 -4.88383484 0.80190027 55 7 22160 6.58000000 2891261502 2891261502 7.00000000
-2.53887987 -2.85860419 -0.46944070 1 8 22161 3.85200000 2891261504 2891261504 -7.00000000
-4.31569767 -4.85917854 1.02933884 55 9 22161 6.58000000 2891261506 2891261506 9.00000000
-3.36917162 -3.79212236 -0.44379705 3 10 22162 5.09200000 2891261509 2891261509 -5.00000000
-4.31437492 -4.85427570 1.26239228 59 11 22163 6.61600000 2891261511 2891261511 11.00000000
-4.36209536 -4.90624332 -0.34405658 10 12 22164 6.57400000 2891261513 2891261513 -3.00000000
-4.30229187 -4.83727884 1.49457479 72 13 22165 6.64400000 2891261516 2891261516 13.00000000
-4.34121752 -4.87932968 -0.11399912 6 14 22166 6.53200000 2891261518 2891261518 -1.00000000
-4.29409409 -4.82636547 1.73098183 65 15 22166 6.68800000 2891261520 2891261520 15.00000000
-1.27198553 -1.42564023 -0.51194406 4 0 22174 1.97800000 2891261541 2891261541 -15.00000000
-4.34355021 -4.86653709 0.11385950 14 1 22175 6.52400000 2891261543 2891261543 1.00000000
-1.47569418 -1.65279484 -0.51153868 4 2 22176 2.27400000 2891261545 2891261545 -13.00000000
-4.34261560 -4.86207247 0.34164912 10 3 22177 6.52800000 2891261548 2891261548 3.00000000
-1.71191847 -1.91669536 -0.49953794 3 4 22177 2.61800000 2891261550 2891261550 -11.00000000
-4.32358170 -4.83906174 0.56773251 9 5 22178 6.51400000 2891261552 2891261552 5.00000000
-2.05226088 -2.29613519 -0.48776266 2 6 22179 3.11800000 2891261555 2891261555 -9.00000000
-4.33456898 -4.84795141 0.79848796 60 7 22180 6.55200000 2891261557 2891261557 7.00000000
-2.56737018 -2.87043905 -0.47285306 1 8 22181 3.88000000 2891261559 2891261559 -7.00000000
-4.31503773 -4.82271814 1.02495861 57 9 22182 6.55200000 2891261562 2891261562 9.00000000
-3.36378884 -3.75955105 -0.44135669 3 10 22182 5.06400000 2891261564 2891261564 -5.00000000
-4.31819963 -4.82455730 1.25857615 59 11 22183 6.59600000 2891261566 2891261566 11.00000000
-4.36720467 -4.87759495 -0.34311453 10 12 22184 6.55600000 2891261568 2891261568 -3.00000000
-4.30354881 -4.80481243 1.48917603 64 13 22185 6.62000000 2891261571 2891261571 13.00000000
-4.34220982 -4.84627438 -0.11358026 6 14 22186 6.50800000 2891261573 2891261573 -1.00000000
-4.29370308 -4.79045391 1.72373486 56 15 22187 6.66000000 2891261575 2891261575 15.00000000
-1.27824533 -1.42262840 -0.51246172 5 0 22194 1.98000000 2891261596 2891261596 -15.00000000
-4.34045982 -4.82903719 0.11333593 17 1 22195 6.49400000 2891261598 2891261598 1.00000000
-1.47493970 -1.64038813 -0.50928921 4 2 22196 2.26400000 2891261601 2891261601 -13.00000000
-4.34754038 -4.83351994 0.34070706 15 3 22197 6.51000000 2891261603 2891261603 3.00000000
-1.72647595 -1.91946602 -0.50182766 3 4 22197 2.63000000 2891261605 2891261605 -11.00000000
-4.33245087 -4.81505346 0.56668663 9 5 22198 6.50200000 2891261608 2891261608 5.00000000
-2.06158495 -2.29042578 -0.48807552 2 6 22199 3.12000000 2891261610 2891261610 -9.00000000
-4.33552551 -4.81508875 0.79556310 63 7 22200 6.52800000 2891261612 2891261612 7.00000000
-2.57338881 -2.85703468 -0.47212183 1 8 22201 3.87400000 2891261615 2891261615 -7.00000000
-4.32307482 -4.79957581 1.02308142 55 9 22201 6.54000000 2891261617 2891261617 9.00000000
-3.39022851 -3.76258802 -0.44309980 3 10 22202 5.08400000 2891261619 2891261619 -5.00000000
-4.31266880 -4.78466368 1.25208867 62 11 22203 6.56200000 2891261621 2891261621 11.00000000
-4.35076714 -4.82523775 -0.34049773 10 12 22204 6.50600000 2891261624 2891261624 -3.00000000
-4.31246328 -4.78107834 1.48647654 70 13 22205 6.60800000 2891261626 2891261626 13.00000000
-4.34034586 -4.81030226 -0.11309160 9 14 22206 6.48000000 2891261628 2891261628 -1.00000000
-4.29921198 -4.76471519 1.71959376 56 15 22206 6.64400000 2891261631 2891261631 15.00000000
-1.28838813 -1.42388785 -0.51453227 5 0 22214 1.98800000 2891261651 2891261651 -15.00000000
-4.33984470 -4.79458332 0.11288217 11 1 22215 6.46800000 2891261654 2891261654 1.00000000
-1.47673285 -1.63089597 -0.50793946 4 2 22216 2.25800000 2891261656 2891261656 -13.00000000
-4.33756924 -4.78870869 0.33861363 10 3 22217 6.47000000 2891261658 2891261658 3.00000000
-1.73316562 -1.91342783 -0.50182766 3 4 22217 2.63000000 2891261661 2891261661 -11.00000000
-4.32782745 -4.77627802 0.56389767 9 5 22218 6.47000000 2891261663 2891261663 5.00000000
-2.08018064 -2.29492426 -0.49057847 2 6 22219 3.13600000 2891261665 2891261665 -9.00000000
-4.32297134 -4.76757336 0.79020083 63 7 22220 6.48400000 2891261668 2891261668 7.00000000
-2.57667756 -2.84068298 -0.47090313 1 8 22221 3.86400000 2891261670 2891261670 -7.00000000
-4.32205343 -4.76321840 1.01870120 65 9 22222 6.51200000 2891261672 2891261672 9.00000000
-3.41405249 -3.76253510 -0.44449428 3 10 22222 5.10000000 2891261674 2891261674 -5.00000000
-4.31350994 -4.75213623 1.24750924 62 11 22223 6.53800000 2891261677 2891261677 11.00000000
-4.35012960 -4.79079914 -0.33913699 6 12 22224 6.48000000 2891261679 2891261679 -3.00000000
-4.30423117 -4.73858881 1.47792840 74 13 22225 6.57000000 2891261681 2891261681 13.00000000
-4.33962822 -4.77588272 -0.11263783 9 14 22226 6.45400000 2891261684 2891261684 -1.00000000
-4.29975414 -4.73034143 1.71286440 67 15 22227 6.61800000 2891261686 2891261686 15.00000000
-1.29725409 -1.42366564 -0.51608515 5 0 22234 1.99400000 2891261707 2891261707 -15.00000000
-4.32961226 -4.74984789 0.11218407 11 1 22235 6.42800000 2891261709 2891261709 1.00000000
-1.48766887 -1.63149118 -0.50973910 4 2 22236 2.26600000 2891261711 2891261711 -13.00000000
-4.31657124 -4.73222208 0.33568281 7 3 22237 6.41400000 2891261714 2891261714 3.00000000
-1.73454189 -1.90156436 -0.50030118 3 4 22237 2.62200000 2891261716 2891261716 -11.00000000
-4.31895685 -4.73317862 0.56058574 3 5 22238 6.43200000 2891261718 2891261718 5.00000000
-2.07752466 -2.27597737 -0.48807552 2 6 22239 3.12000000 2891261721 2891261721 -9.00000000
-4.32620144 -4.73779535 0.78776342 60 7 22240 6.46400000 2891261723 2891261723 7.00000000
-2.57318950 -2.81701469 -0.46846575 1 8 22241 3.84400000 2891261725 2891261725 -7.00000000
-4.32050562 -4.72989893 1.01463389 67 9 22241 6.48600000 2891261727 2891261727 9.00000000
-3.43522930 -3.75941992 -0.44554016 3 10 22242 5.11200000 2891261730 2891261730 -5.00000000
-4.31417656 -4.71966124 1.24292982 62 11 22243 6.51400000 2891261732 2891261732 11.00000000
-4.35065269 -4.75789785 -0.33788094 10 12 22244 6.45600000 2891261734 2891261734 -3.00000000
-4.29970074 -4.70052862 1.47072995 53 13 22245 6.53800000 2891261737 2891261737 13.00000000
-4.33332348 -4.73562574 -0.11204445 6 14 22246 6.42000000 2891261739 2891261739 -1.00000000
-4.30367994 -4.70322990 1.70820570 36 15 22246 6.60000000 2891261741 2891261741 15.00000000
-1.30352187 -1.42055213 -0.51660281 5 0 22254 1.99600000 2891261762 2891261762 -15.00000000
-4.32452965 -4.71113539 0.11162559 2 1 22255 6.39600000 2891261764 2891261764 1.00000000
-1.49599087 -1.62915909 -0.51063889 4 2 22256 2.27000000 2891261767 2891261767 -13.00000000
-4.30468988 -4.68623734 0.33348471 7 3 22257 6.37200000 2891261769 2891261769 3.00000000
-1.73851275 -1.89260638 -0.49953794 3 4 22257 2.61800000 2891261771 2891261771 -11.00000000
-4.29635811 -4.67552900 0.55553073 9 5 22258 6.37400000 2891261774 2891261774 5.00000000
-2.08813024 -2.27162027 -0.48870125 2 6 22259 3.12400000 2891261776 2891261776 -9.00000000
-4.33330774 -4.71243668 0.78605729 26 7 22260 6.45000000 2891261778 2891261778 7.00000000
-2.58300710 -2.80801535 -0.46846575 1 8 22261 3.84400000 2891261780 2891261780 -7.00000000
-4.33112431 -4.70676374 1.01306963 22 9 22262 6.47600000 2891261783 2891261783 9.00000000
-3.43753839 -3.73567677 -0.44414568 3 10 22262 5.09600000 2891261785 2891261785 -5.00000000
-4.33195496 -4.70601749 1.24331141 18 11 22263 6.51600000 2891261787 2891261787 11.00000000
-4.34964657 -4.72358227 -0.33652020 10 12 22264 6.43000000 2891261790 2891261790 -3.00000000
-4.31080103 -4.67975807 1.46893036 17 13 22265 6.53000000 2891261792 2891261792 13.00000000
-4.32950115 -4.69841290 -0.11152088 6 14 22266 6.39000000 2891261794 2891261794 -1.00000000
-4.31172371 -4.67748165 1.70458221 13 15 22267 6.58600000 2891261797 2891261797 15.00000000
-1.30322814 -1.41031802 -0.51453227 5 0 22274 1.98800000 2891261817 2891261817 -15.00000000
-4.34230566 -4.69747972 0.11166050 8 1 22275 6.39800000 2891261820 2891261820 1.00000000
-1.50166857 -1.62392724 -0.51063889 4 2 22276 2.27000000 2891261822 2891261822 -13.00000000
-4.32644653 -4.67704725 0.33390340 2 3 22277 6.38000000 2891261824 2891261824 3.00000000
-1.74244237 -1.88364398 -0.49877471 3 4 22277 2.61400000 2891261827 2891261827 -11.00000000
-4.31671190 -4.66489029 0.55605364 3 5 22278 6.38000000 2891261829 2891261829 5.00000000
-2.09873080 -2.26721668 -0.48932701 2 6 22279 3.12800000 2891261831 2891261831 -9.00000000
-4.35512590 -4.70310783 0.78703225 13 7 22280 6.45800000 2891261833 2891261833 7.00000000
-2.59549117 -2.80189443 -0.46895322 1 8 22281 3.84800000 2891261836 2891261836 -7.00000000
-4.33999681 -4.68512964 1.01150525 12 9 22281 6.46600000 2891261838 2891261838 9.00000000
-3.44514036 -3.71780920 -0.44344842 3 10 22282 5.08800000 2891261840 2891261840 -5.00000000
-4.34702063 -4.68942785 1.24292982 12 11 22283 6.51400000 2891261843 2891261843 11.00000000
-4.36475039 -4.70690584 -0.33641553 10 12 22284 6.42800000 2891261845 2891261845 -3.00000000
-4.34433937 -4.68325520 1.47477913 12 13 22285 6.55600000 2891261847 2891261847 13.00000000
-4.35947752 -4.69792938 -0.11186992 2 14 22286 6.41000000 2891261850 2891261850 -1.00000000
