# .PCD v0.7 - Point Cloud Data file format
VERSION 0.7
FIELDS x y z intensity laser_id azimuth distance_m adjustedtime timestamp vertical_angle
SIZE 4 4 4 1 1 2 8 8 4 8
TYPE F F F U U U F U U F
COUNT 1 1 1 1 1 1 1 1 1 1
WIDTH 539
HEIGHT 1
VIEWPOINT 0 0 0 1 0 0 0
POINTS 539
DATA ascii
7.23781490 2.83646870 2.08297563 40 15 6860 8.04800000 2893618847 2893618847 15.00000000
2.09478593 0.81756532 -0.60253072 4 0 6868 2.32800000 2893618868 2893618868 -15.00000000
8.18030930 3.19101429 0.15326703 15 1 6869 8.78200000 2893618870 2893618870 1.00000000
2.50374556 0.97616965 -0.62041503 4 2 6870 2.75800000 2893618873 2893618873 -13.00000000
8.20123005 3.19587731 0.46128911 13 3 6871 8.81400000 2893618875 2893618875 3.00000000
2.99817562 1.16833711 -0.62547189 5 4 6871 3.27800000 2893618877 2893618877 -11.00000000
8.18735981 3.18882632 0.76871365 86 5 6872 8.82000000 2893618879 2893618879 5.00000000
3.75894737 1.46328545 -0.63887835 6 6 6873 4.08400000 2893618882 2893618882 -9.00000000
8.19733238 3.18941545 1.08000612 95 7 6874 8.86200000 2893618884 2893618884 7.00000000
5.11743641 1.99006224 -0.67418122 9 8 6875 5.53200000 2893618886 2893618886 -7.00000000
7.81446028 3.03730750 -0.73350275 13 10 6876 8.41600000 2893618891 2893618891 -5.00000000
8.19023418 3.18007183 -0.46045175 17 12 6878 8.79800000 2893618896 2893618896 -3.00000000
8.30247307 3.22198439 2.05605268 60 13 6879 9.14000000 2893618898 2893618898 13.00000000
8.19387817 3.17819595 -0.15340665 14 14 6880 8.79000000 2893618900 2893618900 -1.00000000
7.24406958 2.80978942 2.08194041 42 15 6880 8.04400000 2893618902 2893618902 15.00000000
2.11024141 0.81512082 -0.60615420 4 0 6888 2.34200000 2893618923 2893618923 -15.00000000
8.17647457 3.15667844 0.15298779 15 1 6889 8.76600000 2893618926 2893618926 1.00000000
2.49259305 0.96181166 -0.61681581 4 2 6890 2.74200000 2893618928 2893618928 -13.00000000
8.20115471 3.16291809 0.46066108 13 3 6891 8.80200000 2893618930 2893618930 3.00000000
3.01322627 1.16210306 -0.62776160 5 4 6891 3.29000000 2893618932 2893618932 -11.00000000
8.19286442 3.15807796 0.76819074 78 5 6892 8.81400000 2893618935 2893618935 5.00000000
3.77509212 1.45441639 -0.64075559 6 6 6893 4.09600000 2893618937 2893618937 -9.00000000
8.19359589 3.15507531 1.07805622 95 7 6894 8.84600000 2893618939 2893618939 7.00000000
5.10953093 1.96648276 -0.67223132 6 8 6895 5.51600000 2893618942 2893618942 -7.00000000
7.82129574 3.00858068 -0.73315412 13 10 6896 8.41200000 2893618946 2893618946 -5.00000000
8.19196320 3.14788127 -0.45992839 17 12 6898 8.78800000 2893618951 2893618951 -3.00000000
8.30639267 3.19018888 2.05425310 56 13 6899 9.13200000 2893618953 2893618953 13.00000000
8.19185352 3.14455819 -0.15316232 16 14 6900 8.77600000 2893618955 2893618955 -1.00000000
7.25792646 2.78460360 2.08297563 42 15 6901 8.04800000 2893618958 2893618958 15.00000000
2.12209654 0.81119871 -0.60874242 4 0 6908 2.35200000 2893618979 2893618979 -15.00000000
8.18370724 3.12669063 0.15291798 15 1 6909 8.76200000 2893618981 2893618981 1.00000000
2.51049948 0.95866656 -0.62041503 4 2 6910 2.75800000 2893618983 2893618983 -13.00000000
8.19348621 3.12714958 0.45961437 13 3 6911 8.78200000 2893618985 2893618985 3.00000000
3.00625896 1.14737761 -0.62547189 5 4 6911 3.27800000 2893618988 2893618988 -11.00000000
8.19825363 3.12732983 0.76766777 86 5 6912 8.80800000 2893618990 2893618990 5.00000000
3.76907134 1.43700767 -0.63887835 4 6 6913 4.08400000 2893618992 2893618992 -9.00000000
8.19713879 3.12362766 1.07708120 97 7 6914 8.83800000 2893618995 2893618995 7.00000000
5.10894394 1.94580913 -0.67125636 6 8 6915 5.50800000 2893618997 2893618997 -7.00000000
7.84664679 2.98693156 -0.73454863 13 10 6916 8.42800000 2893619002 2893619002 -5.00000000
8.18423271 3.11216784 -0.45888168 17 12 6918 8.76800000 2893619006 2893619006 -3.00000000
8.31201363 3.15909791 2.05290341 54 13 6919 9.12600000 2893619008 2893619008 13.00000000
8.18595600 3.10955310 -0.15284817 16 14 6920 8.75800000 2893619011 2893619011 -1.00000000
7.26892662 2.76120615 2.08349323 40 15 6920 8.05000000 2893619013 2893619013 15.00000000
2.11407375 0.79968530 -0.60563654 4 0 6928 2.34000000 2893619034 2893619034 -15.00000000
8.18896008 3.09598374 0.15281327 18 1 6929 8.75600000 2893619036 2893619036 1.00000000
2.51383066 0.94989741 -0.62041503 4 2 6930 2.75800000 2893619038 2893619038 -13.00000000
8.19127274 3.09359050 0.45888168 10 3 6931 8.76800000 2893619041 2893619041 3.00000000
2.99922609 1.13271487 -0.62318218 5 4 6931 3.26600000 2893619043 2893619043 -11.00000000
8.18488789 3.08954668 0.76540172 78 5 6932 8.78200000 2893619045 2893619045 5.00000000
3.79254675 1.43081510 -0.64200705 4 6 6933 4.10400000 2893619048 2893619048 -9.00000000
8.20242023 3.09289408 1.07635009 99 7 6934 8.83200000 2893619050 2893619050 7.00000000
5.12685013 1.93216407 -0.67271876 9 8 6935 5.52000000 2893619052 2893619052 -7.00000000
7.84024477 2.95320272 -0.73297977 13 10 6936 8.41000000 2893619057 2893619057 -5.00000000
8.19130802 3.08217382 -0.45867231 17 12 6938 8.76400000 2893619061 2893619061 -3.00000000
8.33393383 3.13418007 2.05560279 54 13 6939 9.13800000 2893619064 2893619064 13.00000000
8.17429924 3.07251692 -0.15242931 14 14 6940 8.73400000 2893619066 2893619066 -1.00000000
7.27671242 2.73513651 2.08297563 42 15 6940 8.04800000 2893619068 2893619068 15.00000000
2.11295748 0.79168421 -0.60460126 4 0 6946 2.33600000 2893619089 2893619089 -15.00000000
8.17617416 3.06182647 0.15239441 15 1 6947 8.73200000 2893619091 2893619091 1.00000000
2.52045250 0.94336152 -0.62131482 4 2 6948 2.76200000 2893619094 2893619094 -13.00000000
8.19293308 3.06647229 0.45846298 13 3 6948 8.76000000 2893619096 2893619096 3.00000000
3.01196384 1.12672639 -0.62509024 5 4 6949 3.27600000 2893619098 2893619098 -11.00000000
8.17215824 3.05544496 0.76331002 75 5 6950 8.75800000 2893619101 2893619101 5.00000000
3.78962159 1.41612756 -0.64075559 4 6 6951 4.09600000 2893619103 2893619103 -9.00000000
8.20837688 3.06572104 1.07586253 100 7 6952 8.82800000 2893619105 2893619105 7.00000000
5.14033365 1.91882491 -0.67369372 6 8 6953 5.52800000 2893619107 2893619107 -7.00000000
7.85508394 2.93064666 -0.73350275 13 10 6954 8.41600000 2893619112 2893619112 -5.00000000
8.20282173 3.05712247 -0.45877698 17 12 6956 8.76600000 2893619117 2893619117 -3.00000000
8.35104370 3.11070371 2.05740237 54 13 6957 9.14600000 2893619119 2893619119 13.00000000
8.17641449 3.04403067 -0.15228970 14 14 6958 8.72600000 2893619121 2893619121 -1.00000000
7.27259588 2.70754433 2.07935214 45 15 6958 8.03400000 2893619124 2893619124 15.00000000
2.12295365 0.78698975 -0.60667187 4 0 6966 2.34400000 2893619144 2893619144 -15.00000000
8.17368603 3.02840447 0.15215008 12 1 6967 8.71800000 2893619147 2893619147 1.00000000
2.51642036 0.93185085 -0.61951518 9 2 6968 2.75400000 2893619149 2893619149 -13.00000000
8.19100571 3.03157043 0.45773026 10 3 6969 8.74600000 2893619151 2893619151 3.00000000
3.01403737 1.11552429 -0.62470865 5 4 6969 3.27400000 2893619154 2893619154 -11.00000000
8.19024944 3.02966499 0.76400727 93 5 6970 8.76600000 2893619156 2893619156 5.00000000
3.78713036 1.40015066 -0.63950408 6 6 6971 4.08800000 2893619158 2893619158 -9.00000000
8.19482231 3.02810526 1.07269394 90 7 6972 8.80200000 2893619160 2893619160 7.00000000
5.13582754 1.89674377 -0.67223132 9 8 6973 5.51600000 2893619163 2893619163 -7.00000000
8.21691990 3.03301120 1.38726079 34 9 6974 8.86800000 2893619165 2893619165 9.00000000
7.87461138 2.90665913 -0.73437428 13 10 6974 8.42600000 2893619167 2893619167 -5.00000000
8.20201778 3.02588391 1.69934487 37 11 6975 8.90600000 2893619170 2893619170 11.00000000
8.18158627 3.01672435 -0.45699757 12 12 6976 8.73200000 2893619172 2893619172 -3.00000000
8.21739769 3.02829981 2.02186012 75 13 6977 8.98800000 2893619174 2893619174 13.00000000
8.18136120 3.01339769 -0.15218498 12 14 6978 8.72000000 2893619177 2893619177 -1.00000000
7.28972244 2.68354034 2.08142281 42 15 6979 8.04200000 2893619179 2893619179 15.00000000
2.12568784 0.77957445 -0.60667187 4 0 6986 2.34400000 2893619200 2893619200 -15.00000000
8.17294216 2.99572539 0.15194064 12 1 6987 8.70600000 2893619202 2893619202 1.00000000
2.50867891 0.91903919 -0.61681581 10 2 6988 2.74200000 2893619204 2893619204 -13.00000000
8.18788624 2.99958229 0.45699757 13 3 6988 8.73200000 2893619207 2893619207 3.00000000
3.02160001 1.10634661 -0.62547189 5 4 6989 3.27800000 2893619209 2893619209 -11.00000000
8.17832184 2.99284077 0.76191550 78 5 6990 8.74200000 2893619211 2893619211 5.00000000
3.79199481 1.38692260 -0.63950408 4 6 6991 4.08800000 2893619213 2893619213 -9.00000000
8.19415569 2.99539232 1.07123148 92 7 6992 8.79000000 2893619216 2893619216 7.00000000
5.12750053 1.87335515 -0.67028141 9 8 6993 5.50000000 2893619218 2893619218 -7.00000000
8.21446800 2.99956751 1.38507080 78 9 6994 8.85400000 2893619220 2893619220 9.00000000
7.90342474 2.88598776 -0.73611742 13 10 6994 8.44600000 2893619223 2893619223 -5.00000000
8.20699692 2.99521589 1.69820011 75 11 6995 8.90000000 2893619225 2893619225 11.00000000
8.17517948 2.98198724 -0.45605552 12 12 6996 8.71400000 2893619227 2893619227 -3.00000000
8.21327114 2.99425745 2.01826096 103 13 6997 8.97200000 2893619230 2893619230 13.00000000
8.17679977 2.97934437 -0.15190575 12 14 6998 8.70400000 2893619232 2893619232 -1.00000000
7.29858160 2.65935183 2.08142281 40 15 6998 8.04200000 2893619234 2893619234 15.00000000
2.13384414 0.77412617 -0.60822475 4 0 7006 2.35000000 2893619255 2893619255 -15.00000000
8.17958927 2.96581507 0.15187085 12 1 7007 8.70200000 2893619257 2893619257 1.00000000
2.50454307 0.90762085 -0.61501616 10 2 7008 2.73400000 2893619259 2893619259 -13.00000000
8.17389584 2.96213651 0.45563683 10 3 7008 8.70600000 2893619262 2893619262 3.00000000
3.01621389 1.09244967 -0.62356383 5 4 7009 3.26800000 2893619264 2893619264 -11.00000000
8.18309879 2.96224046 0.76139259 78 5 7010 8.73600000 2893619266 2893619266 5.00000000
3.80795813 1.37770998 -0.64138132 4 6 7011 4.10000000 2893619269 2893619269 -9.00000000
8.19709492 2.96407104 1.07025659 90 7 7012 8.78200000 2893619271 2893619271 7.00000000
5.13960934 1.85746944 -0.67101258 6 8 7013 5.50600000 2893619273 2893619273 -7.00000000
8.21559906 2.96752000 1.38350642 100 9 7014 8.84400000 2893619276 2893619276 9.00000000
7.91345072 2.85838199 -0.73611742 13 10 7014 8.44600000 2893619278 2893619278 -5.00000000
8.21924877 2.96721649 1.69858170 90 11 7015 8.90200000 2893619280 2893619280 11.00000000
8.16111565 2.94462013 -0.45469478 12 12 7016 8.68800000 2893619283 2893619283 -3.00000000
8.20900822 2.96028090 2.01466155 106 13 7017 8.95600000 2893619285 2893619285 13.00000000
8.16645622 2.94332552 -0.15152179 14 14 7018 8.68200000 2893619287 2893619287 -1.00000000
7.30418491 2.63254881 2.08038759 45 15 7018 8.03800000 2893619289 2893619289 15.00000000
2.12380528 0.76210552 -0.60460126 4 0 7026 2.33600000 2893619310 2893619310 -15.00000000
8.18236256 2.93454456 0.15173122 12 1 7027 8.69400000 2893619312 2893619312 1.00000000
2.51686811 0.90216058 -0.61726570 5 2 7028 2.74400000 2893619315 2893619315 -13.00000000
8.18093777 2.93081069 0.45542750 10 3 7029 8.70200000 2893619317 2893619317 3.00000000
3.02000880 1.08191442 -0.62356383 5 4 7029 3.26800000 2893619319 2893619319 -11.00000000
8.17275620 2.92627025 0.75947517 75 5 7030 8.71400000 2893619322 2893619322 5.00000000
3.80530453 1.36174703 -0.64012980 4 6 7031 4.09200000 2893619324 2893619324 -9.00000000
8.19430733 2.93076015 1.06855035 85 7 7032 8.76800000 2893619326 2893619326 7.00000000
5.15166950 1.84152210 -0.67174381 6 8 7033 5.51200000 2893619329 2893619329 -7.00000000
8.19563293 2.92962098 1.37850046 86 9 7033 8.81200000 2893619331 2893619331 9.00000000
7.93088484 2.83342290 -0.73681468 13 10 7034 8.45400000 2893619333 2893619333 -5.00000000
8.21476460 2.93322635 1.69552875 90 11 7035 8.88600000 2893619336 2893619336 11.00000000
8.17510700 2.91745710 -0.45490414 12 12 7036 8.69200000 2893619338 2893619338 -3.00000000
8.20460701 2.92637086 2.01106238 106 13 7037 8.94000000 2893619340 2893619340 13.00000000
8.16537857 2.91077256 -0.15131237 14 14 7038 8.67000000 2893619342 2893619342 -1.00000000
7.31196499 2.60511160 2.07986975 45 15 7039 8.03600000 2893619345 2893619345 15.00000000
2.12463188 0.75404131 -0.60408366 4 0 7046 2.33400000 2893619365 2893619365 -15.00000000
8.16617107 2.89660597 0.15124255 12 1 7047 8.66600000 2893619368 2893619368 1.00000000
2.52367544 0.89467186 -0.61816549 4 2 7048 2.74800000 2893619370 2893619370 -13.00000000
8.17366886 2.89765930 0.45448545 13 3 7048 8.68400000 2893619372 2893619372 3.00000000
3.02746820 1.07267737 -0.62432700 5 4 7049 3.27200000 2893619375 2893619375 -11.00000000
8.17916393 2.89639401 0.75912654 93 5 7050 8.71000000 2893619377 2893619377 5.00000000
3.80258608 1.34581947 -0.63887835 4 6 7051 4.08400000 2893619379 2893619379 -9.00000000
8.20261574 2.90147686 1.06830668 90 7 7052 8.76600000 2893619382 2893619382 7.00000000
5.14309359 1.81823504 -0.66979390 6 8 7053 5.49600000 2893619384 2893619384 -7.00000000
8.20445347 2.89890480 1.37818766 81 9 7054 8.81000000 2893619386 2893619386 9.00000000
7.95199871 2.80970430 -0.73786050 13 10 7054 8.46600000 2893619389 2893619389 -5.00000000
8.20458984 2.89734268 1.69133091 84 11 7055 8.86400000 2893619391 2893619391 11.00000000
8.17017365 2.88358498 -0.45406675 12 12 7056 8.67600000 2893619393 2893619393 -3.00000000
8.20374584 2.89382410 2.00836301 106 13 7057 8.92800000 2893619395 2893619395 13.00000000
8.17171764 2.88092256 -0.15124255 14 14 7058 8.66600000 2893619398 2893619398 -1.00000000
7.31008148 2.57572031 2.07676411 45 15 7059 8.02400000 2893619400 2893619400 15.00000000
2.13467312 0.74880689 -0.60615420 4 0 7067 2.34200000 2893619421 2893619421 -15.00000000
8.16918468 2.86400962 0.15110293 12 1 7068 8.65800000 2893619423 2893619423 1.00000000
2.53245497 0.88734937 -0.61951518 4 2 7069 2.75400000 2893619425 2893619425 -13.00000000
8.18988991 2.86966324 0.45479947 13 3 7069 8.69000000 2893619428 2893619428 3.00000000
3.03508520 1.06287169 -0.62509024 5 4 7070 3.27600000 2893619430 2893619430 -11.00000000
8.16903973 2.85915637 0.75720912 75 5 7071 8.68800000 2893619432 2893619432 5.00000000
3.80376387 1.33056879 -0.63825262 4 6 7072 4.08000000 2893619435 2893619435 -9.00000000
8.19258308 2.86418676 1.06562555 90 7 7073 8.74400000 2893619437 2893619437 7.00000000
5.15721941 1.80199158 -0.67076886 6 8 7074 5.50400000 2893619439 2893619439 -7.00000000
8.20146847 2.86568713 1.37599754 86 9 7074 8.79600000 2893619442 2893619442 9.00000000
7.99610090 2.79236341 -0.74099815 13 10 7075 8.50200000 2893619444 2893619444 -5.00000000
8.19847202 2.86142921 1.68789637 90 11 7076 8.84600000 2893619446 2893619446 11.00000000
8.15805817 2.84572673 -0.45281070 12 12 7077 8.65200000 2893619448 2893619448 -3.00000000
8.21061707 2.86245322 2.00746322 104 13 7078 8.92400000 2893619451 2893619451 13.00000000
8.17278004 2.84766269 -0.15106803 14 14 7079 8.65600000 2893619453 2893619453 -1.00000000
7.31764841 2.54827476 2.07624626 45 15 7080 8.02200000 2893619455 2893619455 15.00000000
2.13544869 0.74071783 -0.60563654 4 0 7087 2.34000000 2893619476 2893619476 -15.00000000
8.17157459 2.83285642 0.15096332 12 1 7088 8.65000000 2893619478 2893619478 1.00000000
2.52633023 0.87531412 -0.61726570 3 2 7089 2.74400000 2893619481 2893619481 -13.00000000
8.18287182 2.83517289 0.45385742 13 3 7089 8.67200000 2893619483 2893619483 3.00000000
3.04248714 1.05355561 -0.62585348 5 4 7090 3.28000000 2893619485 2893619485 -11.00000000
8.17520428 2.82932043 0.75686049 71 5 7091 8.68400000 2893619488 2893619488 5.00000000
3.81958652 1.32115746 -0.64012980 4 6 7092 4.09200000 2893619490 2893619490 -9.00000000
8.18939781 2.83103204 1.06391943 95 7 7093 8.73000000 2893619492 2893619492 7.00000000
5.16347790 1.78397858 -0.67076886 6 8 7094 5.50400000 2893619495 2893619495 -7.00000000
8.20582008 2.83510590 1.37505889 76 9 7094 8.79000000 2893619497 2893619497 9.00000000
8.03028202 2.77288890 -0.74326420 13 10 7095 8.52800000 2893619499 2893619499 -5.00000000
8.19541931 2.82831049 1.68522501 81 11 7096 8.83200000 2893619501 2893619501 11.00000000
8.15472507 2.81267381 -0.45207798 12 12 7097 8.63800000 2893619504 2893619504 -3.00000000
8.19845009 2.82615447 2.00206447 106 13 7098 8.90000000 2893619506 2893619506 13.00000000
8.17132664 2.81520867 -0.15085860 14 14 7099 8.64400000 2893619508 2893619508 -1.00000000
7.32832575 2.52334499 2.07676411 45 15 7100 8.02400000 2893619511 2893619511 15.00000000
2.14507389 0.73651493 -0.60770714 4 0 7105 2.34800000 2893619531 2893619531 -15.00000000
8.17286873 2.80457449 0.15082370 12 1 7106 8.64200000 2893619534 2893619534 1.00000000
2.52906752 0.86737311 -0.61726570 3 2 7107 2.74400000 2893619536 2893619536 -13.00000000
8.17284584 2.80297232 0.45281070 13 3 7107 8.65200000 2893619538 2893619538 3.00000000
3.02906728 1.03826296 -0.62241894 5 4 7108 3.26200000 2893619541 2893619541 -11.00000000
8.18593693 2.80426908 0.75703478 78 5 7109 8.68600000 2893619543 2893619543 5.00000000
3.82745600 1.31043100 -0.64075559 4 6 7110 4.09600000 2893619545 2893619545 -9.00000000
8.19073868 2.80271959 1.06294441 97 7 7111 8.72200000 2893619547 2893619547 7.00000000
5.15778732 1.76389408 -0.66930646 6 8 7112 5.49200000 2893619550 2893619550 -7.00000000
8.20347214 2.80547738 1.37318170 76 9 7112 8.77800000 2893619552 2893619552 9.00000000
8.05026531 2.75151348 -0.74431002 13 10 7113 8.54000000 2893619554 2893619554 -5.00000000
8.20426464 2.80255008 1.68522501 75 11 7114 8.83200000 2893619557 2893619557 11.00000000
8.17108154 2.78962231 -0.45249668 12 12 7115 8.64600000 2893619559 2893619559 -3.00000000
8.19253349 2.79534984 1.99846518 106 13 7116 8.88400000 2893619561 2893619561 13.00000000
8.16688156 2.78500581 -0.15061426 14 14 7117 8.63000000 2893619564 2893619564 -1.00000000
7.33943748 2.50283718 2.07779932 45 15 7117 8.02800000 2893619566 2893619566 15.00000000
2.14214373 0.72715980 -0.60615420 4 0 7125 2.34200000 2893619587 2893619587 -15.00000000
8.17503357 2.77345896 0.15068407 12 1 7126 8.63400000 2893619589 2893619589 1.00000000
2.52469778 0.85603666 -0.61546606 3 2 7127 2.73600000 2893619591 2893619591 -13.00000000
8.17690563 2.77250266 0.45249668 13 3 7127 8.64600000 2893619594 2893619594 3.00000000
3.03639174 1.02894342 -0.62318218 4 4 7128 3.26600000 2893619596 2893619596 -11.00000000
8.18435383 2.77184296 0.75598890 78 5 7129 8.67400000 2893619598 2893619598 5.00000000
3.82452250 1.29452944 -0.63950408 4 6 7130 4.08800000 2893619600 2893619600 -9.00000000
8.20047188 2.77411151 1.06294441 95 7 7131 8.72200000 2893619603 2893619603 7.00000000
5.16767406 1.74715090 -0.66979390 6 8 7132 5.49600000 2893619605 2893619605 -7.00000000
8.20011616 2.77239609 1.37099171 89 9 7132 8.76400000 2893619607 2893619607 9.00000000
8.05604553 2.72212052 -0.74396139 13 10 7133 8.53600000 2893619610 2893619610 -5.00000000
8.21027660 2.77263832 1.68446183 78 11 7134 8.82800000 2893619612 2893619612 11.00000000
8.16563034 2.75597334 -0.45165929 12 12 7135 8.63000000 2893619614 2893619614 -3.00000000
8.19116211 2.76299834 1.99576581 103 13 7136 8.87200000 2893619617 2893619617 13.00000000
8.15949917 2.75073195 -0.15030013 12 14 7137 8.61200000 2893619619 2893619619 -1.00000000
7.33940744 2.47283602 2.07521105 42 15 7138 8.01800000 2893619621 2893619621 15.00000000
2.13551140 0.71660501 -0.60356599 4 0 7145 2.33200000 2893619642 2893619642 -15.00000000
8.16949749 2.73981905 0.15040484 12 1 7146 8.61800000 2893619644 2893619644 1.00000000
2.54245210 0.85217315 -0.61906528 4 2 7147 2.75200000 2893619647 2893619647 -13.00000000
8.18701267 2.74251437 0.45249668 13 3 7148 8.64600000 2893619649 2893619649 3.00000000
3.03996491 1.01833820 -0.62318218 5 4 7148 3.26600000 2893619651 2893619651 -11.00000000
8.17508602 2.73693228 0.75424582 76 5 7149 8.65400000 2893619653 2893619653 5.00000000
3.82152462 1.27866423 -0.63825262 4 6 7150 4.08000000 2893619656 2893619656 -9.00000000
8.19880962 2.74169230 1.06148195 95 7 7151 8.71000000 2893619658 2893619658 7.00000000
5.18127203 1.73161864 -0.67076886 6 8 7152 5.50400000 2893619660 2893619660 -7.00000000
8.19850254 2.73999858 1.36911440 89 9 7152 8.75200000 2893619663 2893619663 9.00000000
8.05416012 2.69019580 -0.74291557 13 10 7153 8.52400000 2893619665 2893619665 -5.00000000
8.20500755 2.73898911 1.68140888 75 11 7154 8.81200000 2893619667 2893619667 11.00000000
8.17330551 2.72682118 -0.45155463 12 12 7155 8.62800000 2893619670 2893619670 -3.00000000
8.19705963 2.73315620 1.99486589 103 13 7156 8.86800000 2893619672 2893619672 13.00000000
8.16146278 2.71970439 -0.15016051 14 14 7157 8.60400000 2893619674 2893619674 -1.00000000
7.33473825 2.44420886 2.07158756 45 15 7157 8.00400000 2893619677 2893619677 15.00000000
2.14716792 0.71218723 -0.60615420 4 0 7165 2.34200000 2893619697 2893619697 -15.00000000
8.16382694 2.70625186 0.15012559 12 1 7166 8.60200000 2893619700 2893619700 1.00000000
2.53801179 0.84084171 -0.61726570 4 2 7167 2.74400000 2893619702 2893619702 -13.00000000
8.18705559 2.71078062 0.45197332 13 3 7168 8.63600000 2893619704 2893619704 3.00000000
3.05095625 1.01018894 -0.62470865 5 4 7168 3.27400000 2893619706 2893619706 -11.00000000
8.17702389 2.70587540 0.75354856 76 5 7169 8.64600000 2893619709 2893619709 5.00000000
3.82971573 1.26655734 -0.63887835 4 6 7170 4.08400000 2893619711 2893619711 -9.00000000
8.18571186 2.70558071 1.05855715 95 7 7171 8.68600000 2893619713 2893619713 7.00000000
5.17786074 1.71040881 -0.66955018 6 8 7172 5.49400000 2893619716 2893619716 -7.00000000
8.20473766 2.70869255 1.36848867 89 9 7173 8.74800000 2893619718 2893619718 9.00000000
8.07863712 2.66706204 -0.74431002 13 10 7173 8.54000000 2893619720 2893619720 -5.00000000
8.19587421 2.70418024 1.67759264 78 11 7174 8.79200000 2893619723 2893619723 11.00000000
8.16001320 2.69076872 -0.45029858 17 12 7175 8.60400000 2893619725 2893619725 -3.00000000
8.19914722 2.70208669 1.99306631 103 13 7176 8.86000000 2893619727 2893619727 13.00000000
8.16710758 2.68994784 -0.15009069 14 14 7177 8.60000000 2893619730 2893619730 -1.00000000
7.34731722 2.41851735 2.07262301 45 15 7178 8.00800000 2893619732 2893619732 15.00000000
2.14596939 0.70348430 -0.60511893 4 0 7185 2.33800000 2893619753 2893619753 -15.00000000
8.16562271 2.67524791 0.14998598 12 1 7186 8.59400000 2893619755 2893619755 1.00000000
2.54463553 0.83319002 -0.61816549 4 2 7187 2.74800000 2893619757 2893619757 -13.00000000
8.18697739 2.67908025 0.45144996 13 3 7188 8.62600000 2893619759 2893619759 3.00000000
3.04326844 0.99586940 -0.62241894 5 4 7188 3.26200000 2893619762 2893619762 -11.00000000
8.18641949 2.67731571 0.75354856 79 5 7189 8.64600000 2893619764 2893619764 5.00000000
3.84162402 1.25563633 -0.64012980 6 6 7190 4.09200000 2893619766 2893619766 -9.00000000
8.18001080 2.67205954 1.05660725 95 7 7191 8.67000000 2893619769 2893619769 7.00000000
5.18191242 1.69170821 -0.66930646 9 8 7192 5.49200000 2893619771 2893619771 -7.00000000
8.20616436 2.67901778 1.36723721 86 9 7192 8.74000000 2893619773 2893619773 9.00000000
8.09926224 2.64255404 -0.74535590 17 10 7193 8.55200000 2893619776 2893619776 -5.00000000
8.20153046 2.67433739 1.67682946 87 11 7194 8.78800000 2893619778 2893619778 11.00000000
8.15796185 2.65855551 -0.44967052 12 12 7195 8.59200000 2893619780 2893619780 -3.00000000
8.19370556 2.66862202 1.98946714 103 13 7196 8.84400000 2893619783 2893619783 13.00000000
8.17264462 2.66018510 -0.15002088 12 14 7197 8.59600000 2893619785 2893619785 -1.00000000
7.35897112 2.39533520 2.07365823 45 15 7197 8.01200000 2893619787 2893619787 15.00000000
2.15576339 0.69837070 -0.60718948 4 0 7205 2.34600000 2893619808 2893619808 -15.00000000
8.17110634 2.64549637 0.14991617 12 1 7206 8.59000000 2893619810 2893619810 1.00000000
2.54752827 0.82430255 -0.61816549 4 2 7207 2.74800000 2893619812 2893619812 -13.00000000
8.18107605 2.64556956 0.45061257 13 3 7208 8.61000000 2893619815 2893619815 3.00000000
3.05233026 0.98705256 -0.62356383 5 4 7208 3.26800000 2893619817 2893619817 -11.00000000
8.18813133 2.64627266 0.75285131 79 5 7209 8.63800000 2893619819 2893619819 5.00000000
3.84222412 1.24100459 -0.63950408 6 6 7210 4.08800000 2893619822 2893619822 -9.00000000
8.18173218 2.64105058 1.05563223 95 7 7211 8.66200000 2893619824 2893619824 7.00000000
5.17645073 1.66995287 -0.66784400 6 8 7212 5.48000000 2893619826 2893619826 -7.00000000
8.20276737 2.64467955 1.36504710 94 9 7213 8.72600000 2893619829 2893619829 9.00000000
8.10464478 2.61304355 -0.74500728 17 10 7213 8.54800000 2893619831 2893619831 -5.00000000
8.20334148 2.64328408 1.67530298 84 11 7214 8.78000000 2893619833 2893619833 11.00000000
8.17099476 2.63128710 -0.44987988 12 12 7215 8.59600000 2893619835 2893619835 -3.00000000
8.18813038 2.63522816 1.98586786 92 13 7216 8.82800000 2893619838 2893619838 13.00000000
8.16665173 2.62674260 -0.14974165 12 14 7217 8.58000000 2893619840 2893619840 -1.00000000
7.37137938 2.36952972 2.07469344 45 15 7218 8.01600000 2893619842 2893619842 15.00000000
2.15254807 0.68945026 -0.60563654 4 0 7224 2.34000000 2893619863 2893619863 -15.00000000
8.17221546 2.61594701 0.14977655 12 1 7225 8.58200000 2893619865 2893619865 1.00000000
2.54839182 0.81525630 -0.61771560 4 2 7226 2.74600000 2893619868 2893619868 -13.00000000
8.17838955 2.61477637 0.44998455 13 3 7227 8.59800000 2893619870 2893619870 3.00000000
3.04810667 0.97453374 -0.62203735 5 4 7227 3.26000000 2893619872 2893619872 -11.00000000
8.18357658 2.61486053 0.75163114 83 5 7228 8.62400000 2893619875 2893619875 5.00000000
3.85008192 1.22945833 -0.64012980 6 6 7229 4.09200000 2893619877 2893619877 -9.00000000
8.19233608 2.61450791 1.05587602 99 7 7230 8.66400000 2893619879 2893619879 7.00000000
5.17817736 1.65157151 -0.66735655 6 8 7231 5.47600000 2893619882 2893619882 -7.00000000
8.18845177 2.61169362 1.36129272 99 9 7231 8.70200000 2893619884 2893619884 9.00000000
8.11326599 2.58615327 -0.74500728 17 10 7232 8.54800000 2893619886 2893619886 -5.00000000
8.20083809 2.61249065 1.67301333 87 11 7233 8.76800000 2893619888 2893619888 11.00000000
8.16635323 2.59993529 -0.44914716 17 12 7234 8.58200000 2893619891 2893619891 -3.00000000
8.19311047 2.60687923 1.98496807 90 13 7235 8.82400000 2893619893 2893619893 13.00000000
8.16007233 2.59479880 -0.14946240 14 14 7236 8.56400000 2893619895 2893619895 -1.00000000
7.37694597 2.34577465 2.07417583 45 15 7236 8.01400000 2893619898 2893619898 15.00000000
2.14389038 0.67843515 -0.60253072 4 0 7244 2.32800000 2893619918 2893619918 -15.00000000
8.17367077 2.58499265 0.14963694 12 1 7245 8.57400000 2893619921 2893619921 1.00000000
2.55493832 0.80753040 -0.61861539 4 2 7246 2.75000000 2893619923 2893619923 -13.00000000
8.18556309 2.58561087 0.44987988 13 3 7247 8.59600000 2893619925 2893619925 3.00000000
3.04774570 0.96270519 -0.62127411 5 4 7247 3.25600000 2893619928 2893619928 -11.00000000
8.16985512 2.57908106 0.74953938 83 5 7248 8.60000000 2893619930 2893619930 5.00000000
3.83927917 1.21125686 -0.63762689 6 6 7249 4.07600000 2893619932 2893619932 -9.00000000
8.18815994 2.58171701 1.05416977 97 7 7250 8.65000000 2893619935 2893619935 7.00000000
5.19527102 1.63706577 -0.66881895 9 8 7251 5.48800000 2893619937 2893619937 -7.00000000
8.18854809 2.57869720 1.35972834 91 9 7252 8.69200000 2893619939 2893619939 9.00000000
8.11654282 2.55602145 -0.74448436 8 10 7252 8.54200000 2893619941 2893619941 -5.00000000
8.19867134 2.58031225 1.67072356 87 11 7253 8.75600000 2893619944 2893619944 11.00000000
8.17728424 2.57201290 -0.44925186 12 12 7254 8.58400000 2893619946 2893619946 -3.00000000
8.19844246 2.57709527 1.98406827 90 13 7255 8.82000000 2893619948 2893619948 13.00000000
8.16526413 2.56510043 -0.14939260 14 14 7256 8.56000000 2893619951 2893619951 -1.00000000
7.37996483 2.31698513 2.07262301 45 15 7257 8.00800000 2893619953 2893619953 15.00000000
2.15177727 0.67267668 -0.60408366 4 0 7264 2.33400000 2893619974 2893619974 -15.00000000
8.15592289 2.54809690 0.14914827 12 1 7265 8.54600000 2893619976 2893619976 1.00000000
2.55402112 0.79744548 -0.61771560 4 2 7266 2.74600000 2893619978 2893619978 -13.00000000
8.17928600 2.55226278 0.44904250 13 3 7267 8.58000000 2893619981 2893619981 3.00000000
3.06233239 0.95556957 -0.62356383 5 4 7267 3.26800000 2893619983 2893619983 -11.00000000
8.15978718 2.54461575 0.74779630 72 5 7268 8.58000000 2893619985 2893619985 5.00000000
3.83594036 1.19549680 -0.63637543 6 6 7269 4.06800000 2893619988 2893619988 -9.00000000
8.17627335 2.54662561 1.05148864 99 7 7270 8.62800000 2893619990 2893619990 7.00000000
5.20095396 1.61892092 -0.66881895 6 8 7271 5.48800000 2893619992 2893619992 -7.00000000
8.19516850 2.55094171 1.35941553 99 9 7271 8.69000000 2893619994 2893619994 9.00000000
6.64339733 2.06664419 -0.60869569 12 10 7272 6.98400000 2893619997 2893619997 -5.00000000
8.18700600 2.54526663 1.66652572 90 11 7273 8.73400000 2893619999 2893619999 11.00000000
8.16904640 2.53811979 -0.44830981 17 12 7274 8.56600000 2893620001 2893620001 -3.00000000
8.20366573 2.54730582 1.98316848 90 13 7275 8.81600000 2893620004 2893620004 13.00000000
8.16652870 2.53421211 -0.14925298 12 14 7276 8.55200000 2893620006 2893620006 -1.00000000
7.41897345 2.30223298 2.08142281 45 15 7276 8.04200000 2893620008 2893620008 15.00000000
2.15595794 0.66573149 -0.60460126 4 0 7284 2.33600000 2893620029 2893620029 -15.00000000
8.16858864 2.52079129 0.14921808 12 1 7285 8.55000000 2893620031 2893620031 1.00000000
2.53630519 0.78220803 -0.61276668 5 2 7286 2.72400000 2893620034 2893620034 -13.00000000
8.17860126 2.52075481 0.44851914 13 3 7287 8.57000000 2893620036 2893620036 3.00000000
3.06189680 0.94371772 -0.62280059 5 4 7287 3.26400000 2893620038 2893620038 -11.00000000
8.17052460 2.51670384 0.74797058 76 5 7288 8.58200000 2893620041 2893620041 5.00000000
3.84386587 1.18326199 -0.63700116 6 6 7289 4.07200000 2893620043 2893620043 -9.00000000
8.17562675 2.51515126 1.05026996 95 7 7290 8.61800000 2893620045 2893620045 7.00000000
5.18759871 1.59492278 -0.66638160 9 8 7291 5.46800000 2893620047 2893620047 -7.00000000
8.19690990 2.51856709 1.35816407 99 9 7292 8.68200000 2893620050 2893620050 9.00000000
6.65437984 2.04461217 -0.60904431 12 10 7292 6.98800000 2893620052 2893620052 -5.00000000
8.18645668 2.51379156 1.66461766 84 11 7293 8.72400000 2893620054 2893620054 11.00000000
8.16449070 2.50548744 -0.44757709 17 12 7294 8.55200000 2893620057 2893620057 -3.00000000
8.19387627 2.51294041 1.97866952 101 13 7295 8.79600000 2893620059 2893620059 13.00000000
8.17150116 2.50451803 -0.14918317 12 14 7296 8.54800000 2893620061 2893620061 -1.00000000
7.46615171 2.28690696 2.09229326 45 15 7297 8.08400000 2893620064 2893620064 15.00000000
2.16381216 0.65989232 -0.60615420 4 0 7304 2.34200000 2893620084 2893620084 -15.00000000
8.16203594 2.48759842 0.14893883 12 1 7305 8.53400000 2893620087 2893620087 1.00000000
2.54647684 0.77562112 -0.61456627 5 2 7306 2.73200000 2893620089 2893620089 -13.00000000
8.16633320 2.48579311 0.44736776 10 3 7307 8.54800000 2893620091 2893620091 3.00000000
3.06892872 0.93416733 -0.62356383 5 4 7307 3.26800000 2893620094 2893620094 -11.00000000
8.17163467 2.48584867 0.74727333 76 5 7308 8.57400000 2893620096 2893620096 5.00000000
3.85931253 1.17328465 -0.63887835 6 6 7309 4.08400000 2893620098 2893620098 -9.00000000
8.17675877 2.48428941 1.04929507 95 7 7310 8.61000000 2893620100 2893620100 7.00000000
5.20073223 1.57911181 -0.66735655 9 8 7311 5.47600000 2893620103 2893620103 -7.00000000
8.19009590 2.48677993 1.35566103 97 9 7311 8.66600000 2893620105 2893620105 9.00000000
6.66147614 2.02137160 -0.60904431 8 10 7312 6.98800000 2893620107 2893620107 -5.00000000
8.19706059 2.48576999 1.66499925 96 11 7313 8.72600000 2893620110 2893620110 11.00000000
8.16745281 2.47523499 -0.44726309 17 12 7314 8.54600000 2893620112 2893620112 -3.00000000
8.19140816 2.48093390 1.97597003 103 13 7315 8.78400000 2893620114 2893620114 13.00000000
8.16488266 2.47134447 -0.14890394 14 14 7316 8.53200000 2893620117 2893620117 -1.00000000
7.55505085 2.28676081 2.11506915 45 15 7316 8.17200000 2893620119 2893620119 15.00000000
2.16610241 0.65233517 -0.60615420 4 0 7324 2.34200000 2893620140 2893620140 -15.00000000
8.18215847 2.46255016 0.14914827 12 1 7325 8.54600000 2893620142 2893620142 1.00000000
2.55290103 0.76785010 -0.61546606 5 2 7326 2.73600000 2893620144 2893620144 -13.00000000
8.17496014 2.45727205 0.44736776 13 3 7327 8.54800000 2893620147 2893620147 3.00000000
3.06088996 0.92005819 -0.62127411 5 4 7327 3.25600000 2893620149 2893620149 -11.00000000
8.16499710 2.45272350 0.74587888 76 5 7328 8.55800000 2893620151 2893620151 5.00000000
3.86527658 1.16037393 -0.63919121 6 6 7329 4.08600000 2893620153 2893620153 -9.00000000
8.18538094 2.45573187 1.04929507 95 7 7330 8.61000000 2893620156 2893620156 7.00000000
5.19860697 1.55866790 -0.66638160 9 8 7331 5.46800000 2893620158 2893620158 -7.00000000
8.18358898 2.45363760 1.35315812 90 9 7331 8.65000000 2893620160 2893620160 9.00000000
6.65131474 1.99295950 -0.60747552 12 10 7332 6.97000000 2893620163 2893620163 -5.00000000
8.19628334 2.45432591 1.66309118 90 11 7333 8.71600000 2893620165 2893620165 11.00000000
8.16647625 2.44384718 -0.44673973 12 12 7334 8.53600000 2893620167 2893620167 -3.00000000
8.19254971 2.45009208 1.97417045 104 13 7335 8.77600000 2893620170 2893620170 13.00000000
8.15621567 2.43767500 -0.14858979 14 14 7336 8.51400000 2893620172 2893620172 -1.00000000
7.63517427 2.28194952 2.13525701 42 15 7336 8.25000000 2893620174 2893620174 15.00000000
2.14984918 0.63926393 -0.60097784 4 0 7344 2.32200000 2893620195 2893620195 -15.00000000
8.16770267 2.42713881 0.14872941 12 1 7345 8.52200000 2893620197 2893620197 1.00000000
2.55930209 0.76004368 -0.61636591 5 2 7346 2.74000000 2893620200 2893620200 -13.00000000
8.17582893 2.42644811 0.44694906 10 3 7347 8.54000000 2893620202 2893620202 3.00000000
3.06784725 0.91048527 -0.62203735 5 4 7347 3.26000000 2893620204 2893620204 -11.00000000
8.15058708 2.41740894 0.74378711 72 5 7348 8.53400000 2893620206 2893620206 5.00000000
3.85983372 1.14406765 -0.63762689 6 6 7349 4.07600000 2893620209 2893620209 -9.00000000
8.19390297 2.42714477 1.04929507 95 7 7350 8.61000000 2893620211 2893620211 7.00000000
5.21733999 1.54445612 -0.66808772 9 8 7351 5.48200000 2893620213 2893620213 -7.00000000
8.18684387 2.42194557 1.35221946 87 9 7352 8.64400000 2893620216 2893620216 9.00000000
6.62766218 1.96068680 -0.60468656 20 10 7352 6.93800000 2893620218 2893620218 -5.00000000
8.19162178 2.42180419 1.66041982 46 11 7353 8.70200000 2893620220 2893620220 11.00000000
8.17495728 2.41532588 -0.44673973 12 12 7354 8.53600000 2893620223 2893620223 -3.00000000
8.19357681 2.41927242 1.97237086 49 13 7355 8.76800000 2893620225 2893620225 13.00000000
8.16467571 2.40918970 -0.14858979 14 14 7356 8.51400000 2893620227 2893620227 -1.00000000
7.70423794 2.27332616 2.15233922 45 15 7356 8.31600000 2893620229 2893620229 15.00000000
2.16318917 0.63502055 -0.60408366 4 0 7364 2.33400000 2893620250 2893620250 -15.00000000
8.15693665 2.39298415 0.14838035 12 1 7365 8.50200000 2893620253 2893620253 1.00000000
2.54884934 0.74726766 -0.61321658 6 2 7366 2.72600000 2893620255 2893620255 -13.00000000
8.19766617 2.40182543 0.44768175 23 3 7367 8.55400000 2893620257 2893620257 3.00000000
3.08042693 0.90253097 -0.62394542 5 4 7367 3.27000000 2893620259 2893620259 -11.00000000
8.18383312 2.39622164 0.74605316 94 5 7368 8.56000000 2893620262 2893620262 5.00000000
3.86001205 1.12947786 -0.63700116 6 6 7369 4.07200000 2893620264 2893620264 -9.00000000
8.17946148 2.39184213 1.04637015 90 7 7370 8.58600000 2893620266 2893620266 7.00000000
5.22269964 1.52623475 -0.66808772 9 8 7371 5.48200000 2893620269 2893620269 -7.00000000
6.63255358 1.93698144 -0.60451221 48 10 7372 6.93600000 2893620273 2893620273 -5.00000000
8.25656509 2.40969634 1.67186844 12 11 7373 8.76200000 2893620276 2893620276 11.00000000
8.16416454 2.38118291 -0.44569302 12 12 7374 8.51600000 2893620278 2893620278 -3.00000000
8.28429031 2.41465044 1.99216652 21 13 7375 8.85600000 2893620280 2893620280 13.00000000
8.16919518 2.37955642 -0.14851998 14 14 7376 8.51000000 2893620282 2893620282 -1.00000000
7.80526114 2.27207041 2.17822099 45 15 7377 8.41600000 2893620285 2893620285 15.00000000
2.16168165 0.62639040 -0.60304838 4 0 7384 2.33000000 2893620306 2893620306 -15.00000000
8.16908169 2.36560893 0.14845017 12 1 7385 8.50600000 2893620308 2893620308 1.00000000
2.54395437 0.73619908 -0.61141694 6 2 7386 2.71800000 2893620310 2893620310 -13.00000000
8.16954613 2.36265302 0.44569302 13 3 7387 8.51600000 2893620312 2893620312 3.00000000
3.07790065 0.89013648 -0.62280059 5 4 7387 3.26400000 2893620315 2893620315 -11.00000000
8.16152287 2.35878921 0.74326420 76 5 7388 8.52800000 2893620317 2893620317 5.00000000
3.86013556 1.11490071 -0.63637543 4 6 7389 4.06800000 2893620319 2893620319 -9.00000000
8.17441082 2.35942245 1.04466403 90 7 7390 8.57200000 2893620322 2893620322 7.00000000
5.22227335 1.50634432 -0.66735655 9 8 7391 5.47600000 2893620324 2893620324 -7.00000000
8.34211349 2.40467310 1.37505889 10 9 7392 8.79000000 2893620326 2893620326 9.00000000
6.65841866 1.91933620 -0.60625535 32 10 7392 6.95600000 2893620329 2893620329 -5.00000000
8.29888344 2.39064312 1.67873752 12 11 7393 8.79800000 2893620331 2893620331 11.00000000
8.15707207 2.34824991 -0.44485563 12 12 7394 8.50000000 2893620333 2893620333 -3.00000000
8.28517818 2.38356304 1.99036694 5 13 7395 8.84800000 2893620335 2893620335 13.00000000
8.17552948 2.35047364 -0.14848508 12 14 7396 8.50800000 2893620338 2893620338 -1.00000000
7.90187168 2.27179670 2.20306778 45 15 7396 8.51200000 2893620340 2893620340 15.00000000
2.17871404 0.62309045 -0.60718948 4 0 7404 2.34600000 2893620361 2893620361 -15.00000000
8.17344379 2.33598018 0.14838035 12 1 7405 8.50200000 2893620363 2893620363 1.00000000
2.55400395 0.72945529 -0.61321658 6 2 7406 2.72600000 2893620365 2893620365 -13.00000000
8.16622066 2.33083248 0.44506496 13 3 7407 8.50400000 2893620368 2893620368 3.00000000
3.07154965 0.87669301 -0.62089247 5 4 7407 3.25400000 2893620370 2893620370 -11.00000000
8.16779137 2.32973909 0.74308985 76 5 7408 8.52600000 2893620372 2893620372 5.00000000
3.86780310 1.10250258 -0.63700116 4 6 7409 4.07200000 2893620375 2893620375 -9.00000000
8.18068790 2.33033013 1.04442024 92 7 7410 8.57000000 2893620377 2893620377 7.00000000
5.21222544 1.48375809 -0.66540664 9 8 7411 5.46000000 2893620379 2893620379 -7.00000000
6.65932894 1.89444673 -0.60573244 12 10 7412 6.95000000 2893620384 2893620384 -5.00000000
8.43936729 2.39924049 1.70545077 6 11 7413 8.93800000 2893620386 2893620386 11.00000000
8.16329765 2.31921625 -0.44475096 17 12 7414 8.49800000 2893620388 2893620388 -3.00000000
8.50340843 2.41423869 2.04075599 15 13 7415 9.07200000 2893620391 2893620391 13.00000000
8.16059971 2.31537151 -0.14806622 14 14 7416 8.48400000 2893620393 2893620393 -1.00000000
8.01754665 2.27478361 2.23309064 45 15 7416 8.62800000 2893620395 2893620395 15.00000000
2.16600204 0.61128390 -0.60304838 4 0 7424 2.33000000 2893620416 2893620416 -15.00000000
8.17385006 2.30526400 0.14824075 15 1 7425 8.49400000 2893620418 2893620418 1.00000000
2.55841041 0.72106433 -0.61366647 7 2 7426 2.72800000 2893620421 2893620421 -13.00000000
8.16813755 2.30211401 0.44475096 23 3 7426 8.49800000 2893620423 2893620423 3.00000000
3.07270145 0.86543369 -0.62051088 5 4 7427 3.25200000 2893620425 2893620425 -11.00000000
8.16628456 2.29851508 0.74221832 72 5 7428 8.51600000 2893620428 2893620428 5.00000000
3.88303757 1.09220397 -0.63887835 4 6 7429 4.08400000 2893620430 2893620430 -9.00000000
8.18303871 2.30014849 1.04368901 90 7 7430 8.56400000 2893620432 2893620432 7.00000000
5.21737337 1.46555495 -0.66540664 9 8 7431 5.46000000 2893620434 2893620434 -7.00000000
8.56177807 2.40499496 1.40853596 10 9 7431 9.00400000 2893620437 2893620437 9.00000000
6.65055513 1.86688209 -0.60433793 12 10 7432 6.93400000 2893620439 2893620439 -5.00000000
8.60458469 2.41377926 1.73712504 12 11 7433 9.10400000 2893620441 2893620441 11.00000000
8.16749763 2.28962874 -0.44454160 17 12 7434 8.49400000 2893620444 2893620444 -3.00000000
8.58872032 2.40609503 2.05920196 40 13 7435 9.15400000 2893620446 2893620446 13.00000000
8.15900421 2.28417611 -0.14789169 14 14 7436 8.47400000 2893620448 2893620448 -1.00000000
8.09613037 2.26657414 2.25276089 47 15 7436 8.70400000 2893620451 2893620451 15.00000000
2.16998363 0.60423762 -0.60356599 4 0 7444 2.33200000 2893620471 2893620471 -15.00000000
8.15872860 2.27028489 0.14782189 12 1 7445 8.47000000 2893620474 2893620474 1.00000000
2.56466675 0.71317363 -0.61456627 7 2 7446 2.73200000 2893620476 2893620476 -13.00000000
8.18036938 2.27323055 0.44496030 28 3 7447 8.50200000 2893620478 2893620478 3.00000000
3.08516169 0.85733092 -0.62241894 5 4 7447 3.26200000 2893620481 2893620481 -11.00000000
8.15505981 2.26466417 0.74047518 72 5 7448 8.49600000 2893620483 2893620483 5.00000000
3.87921262 1.07653010 -0.63762689 4 6 7449 4.07600000 2893620485 2893620485 -9.00000000
8.18910503 2.27103996 1.04344535 90 7 7450 8.56200000 2893620487 2893620487 7.00000000
5.23584795 1.45104516 -0.66711277 9 8 7451 5.47400000 2893620490 2893620490 -7.00000000
8.66572094 2.39995980 1.42417932 10 9 7452 9.10400000 2893620492 2893620492 9.00000000
6.63975000 1.83886993 -0.60276914 16 10 7452 6.91600000 2893620494 2893620494 -5.00000000
8.70188808 2.40834117 1.75506115 12 11 7453 9.19800000 2893620497 2893620497 11.00000000
8.16966534 2.25950766 -0.44422761 12 12 7454 8.48800000 2893620499 2893620499 -3.00000000
8.62336254 2.38336802 2.06550050 16 13 7455 9.18200000 2893620501 2893620501 13.00000000
8.15536213 2.25248766 -0.14768226 14 14 7456 8.46200000 2893620504 2893620504 -1.00000000
8.20308113 2.26412654 2.28019571 47 15 7457 8.81000000 2893620506 2893620506 15.00000000
2.17011261 0.59652632 -0.60304838 4 0 7463 2.33000000 2893620527 2893620527 -15.00000000
8.16235542 2.24215794 0.14775208 12 1 7464 8.46600000 2893620529 2893620529 1.00000000
2.55950069 0.70260149 -0.61276668 7 2 7465 2.72400000 2893620531 2893620531 -13.00000000
8.18939590 2.24804854 0.44506496 31 3 7465 8.50400000 2893620534 2893620534 3.00000000
3.08230782 0.84553730 -0.62127411 5 4 7466 3.25600000 2893620536 2893620536 -11.00000000
8.16060352 2.23708200 0.74030089 76 5 7467 8.49400000 2893620538 2893620538 5.00000000
3.86370945 1.05844104 -0.63449818 4 6 7468 4.05600000 2893620540 2893620540 -9.00000000
8.18701839 2.24125051 1.04222667 90 7 7469 8.55200000 2893620543 2893620543 7.00000000
5.23680162 1.43262684 -0.66662532 9 8 7470 5.47000000 2893620545 2893620545 -7.00000000
6.63620234 1.81421459 -0.60189754 32 10 7471 6.90600000 2893620550 2893620550 -5.00000000
8.13977718 2.22373748 1.64019418 3 11 7472 8.59600000 2893620552 2893620552 11.00000000
8.16169930 2.22819567 -0.44339022 12 12 7473 8.47200000 2893620554 2893620554 -3.00000000
8.09165001 2.20755434 1.93637872 15 13 7474 8.60800000 2893620557 2893620557 13.00000000
8.16664505 2.22648311 -0.14775208 14 14 7475 8.46600000 2893620559 2893620559 -1.00000000
8.10018730 2.20836473 2.24965525 20 15 7475 8.69200000 2893620561 2893620561 15.00000000
2.17591071 0.58995867 -0.60408366 4 0 7483 2.33400000 2893620582 2893620582 -15.00000000
8.15855217 2.21051455 0.14754264 12 1 7484 8.45400000 2893620584 2893620584 1.00000000
2.55817556 0.69264430 -0.61186689 7 2 7485 2.72000000 2893620586 2893620586 -13.00000000
8.16249275 2.21005297 0.44318089 36 3 7485 8.46800000 2893620589 2893620589 3.00000000
3.10040140 0.83887500 -0.62432700 5 4 7486 3.27200000 2893620591 2893620591 -11.00000000
8.13566685 2.19974184 0.73733759 39 5 7487 8.46000000 2893620593 2893620593 5.00000000
3.86356664 1.04391718 -0.63387245 6 6 7488 4.05200000 2893620596 2893620596 -9.00000000
8.08938599 2.18419862 1.02882099 30 7 7489 8.44200000 2893620598 2893620598 7.00000000
5.23027134 1.41123545 -0.66516286 9 8 7490 5.45800000 2893620600 2893620600 -7.00000000
8.08297634 2.17944098 1.32593858 20 9 7491 8.47600000 2893620603 2893620603 9.00000000
6.63864708 1.79000151 -0.60154891 36 10 7491 6.90200000 2893620605 2893620605 -5.00000000
8.06408119 2.17283654 1.62340295 21 11 7492 8.50800000 2893620607 2893620607 11.00000000
8.11735630 2.18567157 -0.44056407 12 12 7493 8.41800000 2893620610 2893620610 -3.00000000
8.04849815 2.16562462 1.92423129 23 13 7494 8.55400000 2893620612 2893620612 13.00000000
8.07008839 2.16992331 -0.14586721 14 14 7495 8.35800000 2893620614 2893620614 -1.00000000
8.07240105 2.17054534 2.23982000 22 15 7495 8.65400000 2893620616 2893620616 15.00000000
2.18728828 0.58485484 -0.60667187 4 0 7503 2.34400000 2893620637 2893620637 -15.00000000
8.03678036 2.14743638 0.14520402 21 1 7504 8.32000000 2893620639 2893620639 1.00000000
2.55681229 0.68270493 -0.61096704 7 2 7505 2.71600000 2893620642 2893620642 -13.00000000
8.03352547 2.14356256 0.43574917 26 3 7506 8.32600000 2893620644 2893620644 3.00000000
3.09572315 0.82602292 -0.62280059 5 4 7506 3.26400000 2893620646 2893620646 -11.00000000
8.04318905 2.14463735 0.72827339 29 5 7507 8.35600000 2893620649 2893620649 5.00000000
3.87863970 1.03347611 -0.63574964 4 6 7508 4.06400000 2893620651 2893620651 -9.00000000
8.05667782 2.14522195 1.02370250 30 7 7509 8.40000000 2893620653 2893620653 7.00000000
5.22173691 1.38939679 -0.66345668 9 8 7510 5.44400000 2893620656 2893620656 -7.00000000
8.07488728 2.14856124 1.32343554 30 9 7510 8.46000000 2893620658 2893620658 9.00000000
6.64485502 1.76681745 -0.60154891 44 10 7511 6.90200000 2893620660 2893620660 -5.00000000
8.06782246 2.14366627 1.62263966 31 11 7512 8.50400000 2893620663 2893620663 11.00000000
8.02262592 2.13015842 -0.43501648 29 12 7513 8.31200000 2893620665 2893620665 -3.00000000
8.06730938 2.14051557 1.92693079 32 13 7514 8.56600000 2893620667 2893620667 13.00000000
8.02542496 2.12790275 -0.14492479 22 14 7515 8.30400000 2893620669 2893620669 -1.00000000
8.09150696 2.14391255 2.24292588 20 15 7516 8.66600000 2893620672 2893620672 15.00000000
2.17997646 0.57475364 -0.60408366 4 0 7523 2.33400000 2893620692 2893620692 -15.00000000
8.04809475 2.12038851 0.14527383 37 1 7524 8.32400000 2893620695 2893620695 1.00000000
2.56106424 0.67427200 -0.61141694 9 2 7525 2.71800000 2893620697 2893620697 -13.00000000
8.05411053 2.12047029 0.43648186 34 3 7525 8.34000000 2893620699 2893620699 3.00000000
3.08909440 0.81271416 -0.62089247 5 4 7526 3.25400000 2893620702 2893620702 -11.00000000
8.05255318 2.11705470 0.72844768 29 5 7527 8.35800000 2893620704 2893620704 5.00000000
3.88413405 1.02043271 -0.63606256 6 6 7528 4.06600000 2893620706 2893620706 -9.00000000
8.07371712 2.11960626 1.02492118 23 7 7529 8.41000000 2893620709 2893620709 7.00000000
5.23423576 1.37317598 -0.66443163 9 8 7530 5.45200000 2893620711 2893620711 -7.00000000
8.07315350 2.11644626 1.32187128 20 9 7531 8.45000000 2893620713 2893620713 9.00000000
6.63749123 1.74007511 -0.60032874 52 10 7531 6.88800000 2893620716 2893620716 -5.00000000
8.09044933 2.11947131 1.62569261 12 11 7532 8.52000000 2893620718 2893620718 11.00000000
8.03194523 2.10264707 -0.43512115 34 12 7533 8.31400000 2893620720 2893620720 -3.00000000
8.03086853 2.09937024 -0.14488988 28 14 7535 8.30200000 2893620725 2893620725 -1.00000000
8.20361233 2.14299774 2.27191353 40 15 7536 8.77800000 2893620727 2893620727 15.00000000
2.17262077 0.56471074 -0.60149544 4 0 7543 2.32400000 2893620748 2893620748 -15.00000000
8.07093048 2.09630418 0.14555307 25 1 7544 8.34000000 2893620750 2893620750 1.00000000
2.57471991 0.66826552 -0.61411637 9 2 7545 2.73000000 2893620752 2893620752 -13.00000000
8.11365891 2.10589075 0.43930802 26 3 7545 8.39400000 2893620755 2893620755 3.00000000
3.08621144 0.80044764 -0.61974764 5 4 7546 3.24800000 2893620757 2893620757 -11.00000000
8.14282608 2.11042738 0.73594308 54 5 7547 8.44400000 2893620759 2893620759 5.00000000
3.88384771 1.00587785 -0.63543677 6 6 7548 4.06200000 2893620762 2893620762 -9.00000000
8.18484211 2.11826825 1.03808308 97 7 7549 8.51800000 2893620764 2893620764 7.00000000
