# .PCD v0.7 - Point Cloud Data file format
VERSION 0.7
FIELDS x y z intensity laser_id azimuth distance_m adjustedtime timestamp vertical_angle
SIZE 4 4 4 1 1 2 8 8 4 8
TYPE F F F U U U F U U F
COUNT 1 1 1 1 1 1 1 1 1 1
WIDTH 536
HEIGHT 1
VIEWPOINT 0 0 0 1 0 0 0
POINTS 536
DATA ascii
1.39258158 11.19624424 -0.59129161 4 12 709 11.29800000 2891701780 2891701780 -3.00000000
1.27611423 10.24525642 2.38358140 62 13 710 10.59600000 2891701783 2891701783 13.00000000
1.28928816 10.33631516 -0.18181917 10 14 711 10.41800000 2891701785 2891701785 -1.00000000
1.09739423 8.78540325 2.37233543 45 15 712 9.16600000 2891701787 2891701787 15.00000000
0.28313690 2.24440956 -0.60615420 4 0 719 2.34200000 2891701808 2891701808 -15.00000000
1.32482111 10.48703957 0.18450683 3 1 720 10.57200000 2891701810 2891701810 1.00000000
0.33507368 2.64866352 -0.61636591 3 2 721 2.74000000 2891701813 2891701813 -13.00000000
0.40169418 3.17083526 -0.62127411 2 4 722 3.25600000 2891701817 2891701817 -11.00000000
0.50934857 4.00939655 -0.64012980 2 6 724 4.09200000 2891701822 2891701822 -9.00000000
1.31701648 10.33818245 -1.27962816 186 8 726 10.50000000 2891701827 2891701827 -7.00000000
1.02842760 8.06162262 -0.71101654 4 10 727 8.15800000 2891701831 2891701831 -5.00000000
1.34714580 10.54532337 2.06646132 53 11 728 10.83000000 2891701833 2891701833 11.00000000
1.40124309 10.95358181 -0.57873100 4 12 729 11.05800000 2891701836 2891701836 -3.00000000
1.31038332 10.22914219 2.38088202 59 13 730 10.58400000 2891701838 2891701838 13.00000000
1.32765067 10.34960270 -0.18213332 8 14 731 10.43600000 2891701840 2891701840 -1.00000000
1.12903881 8.78918362 2.37440586 45 15 732 9.17400000 2891701843 2891701843 15.00000000
0.28958550 2.23579502 -0.60408366 4 0 738 2.33400000 2891701863 2891701863 -15.00000000
1.36421978 10.51828384 0.18513513 3 1 739 10.60800000 2891701866 2891701866 1.00000000
0.34385514 2.64753795 -0.61636591 3 2 740 2.74000000 2891701868 2891701868 -13.00000000
0.41423243 3.18506074 -0.62432700 2 4 741 3.27200000 2891701873 2891701873 -11.00000000
0.52519590 4.02727365 -0.64325851 2 6 743 4.11200000 2891701877 2891701877 -9.00000000
1.35257888 10.34360027 -1.28084683 157 8 745 10.51000000 2891701882 2891701882 -7.00000000
1.06446779 8.12928677 -0.71729177 4 10 746 8.23000000 2891701886 2891701886 -5.00000000
1.38363934 10.55247688 2.06875110 53 11 747 10.84200000 2891701889 2891701889 11.00000000
1.44067883 10.97263813 -0.57998705 4 12 748 11.08200000 2891701891 2891701891 -3.00000000
1.34328115 10.21701241 2.37908244 59 13 749 10.57600000 2891701893 2891701893 13.00000000
1.36196387 10.34514236 -0.18213332 8 14 750 10.43600000 2891701896 2891701896 -1.00000000
1.15740168 8.79133892 2.37595892 42 15 750 9.18000000 2891701898 2891701898 15.00000000
0.29662362 2.22902560 -0.60253072 4 0 758 2.32800000 2891701919 2891701919 -15.00000000
1.40911508 10.57490540 0.18621717 3 1 759 10.67000000 2891701921 2891701921 1.00000000
0.35412559 2.65404797 -0.61816549 3 2 760 2.74800000 2891701923 2891701923 -13.00000000
0.42326790 3.16802764 -0.62127411 2 4 761 3.25600000 2891701928 2891701928 -11.00000000
0.53767681 4.01366854 -0.64138132 2 6 763 4.10000000 2891701932 2891701932 -9.00000000
1.09549356 8.14526749 -0.71903485 4 10 766 8.25000000 2891701942 2891701942 -5.00000000
1.42098999 10.55147457 2.06951427 56 11 767 10.84600000 2891701944 2891701944 11.00000000
1.47843790 10.96358395 -0.57977772 4 12 768 11.07800000 2891701946 2891701946 -3.00000000
1.37945855 10.21612358 2.37998223 60 13 769 10.58000000 2891701949 2891701949 13.00000000
1.39860272 10.34428883 -0.18220313 6 14 770 10.44000000 2891701951 2891701951 -1.00000000
1.18935668 8.78512383 2.37544131 45 15 771 9.17800000 2891701953 2891701953 15.00000000
0.30387953 2.22414851 -0.60149544 4 0 778 2.32400000 2891701974 2891701974 -15.00000000
0.36391675 2.65665698 -0.61906528 3 2 780 2.75200000 2891701979 2891701979 -13.00000000
0.43592450 3.17820096 -0.62356383 4 4 781 3.26800000 2891701983 2891701983 -11.00000000
0.55383676 4.02742290 -0.64388424 2 6 783 4.11600000 2891701988 2891701988 -9.00000000
1.45835054 10.55033970 2.07027769 56 11 787 10.85000000 2891701999 2891701999 11.00000000
1.51943707 10.97813988 -0.58082443 4 12 788 11.09800000 2891702002 2891702002 -3.00000000
1.41511106 10.21124649 2.37998223 57 13 789 10.58000000 2891702004 2891702004 13.00000000
1.43800068 10.36311245 -0.18262199 2 14 790 10.46400000 2891702006 2891702006 -1.00000000
1.21662402 8.76773643 2.37181783 45 15 790 9.16400000 2891702009 2891702009 15.00000000
0.31325057 2.23455310 -0.60460126 4 0 798 2.33600000 2891702029 2891702029 -15.00000000
0.37318799 2.65537047 -0.61906528 3 2 800 2.75200000 2891702034 2891702034 -13.00000000
0.44646871 3.17277193 -0.62280059 4 4 801 3.26400000 2891702038 2891702038 -11.00000000
0.56402850 3.99808073 -0.63950408 2 6 803 4.08800000 2891702043 2891702043 -9.00000000
1.14562654 8.09007645 -0.71485138 4 10 806 8.20200000 2891702052 2891702052 -5.00000000
1.49406672 10.53740978 2.06875110 53 11 807 10.84200000 2891702055 2891702055 11.00000000
1.55831015 10.97672462 -0.58103377 4 12 808 11.10200000 2891702057 2891702057 -3.00000000
1.45074630 10.20624447 2.37998223 57 13 809 10.58000000 2891702059 2891702059 13.00000000
1.24902368 8.76513100 2.37233543 45 15 811 9.16600000 2891702064 2891702064 15.00000000
0.32049897 2.22962165 -0.60356599 4 0 818 2.33200000 2891702085 2891702085 -15.00000000
0.38023111 2.63862109 -0.61546606 3 2 820 2.73600000 2891702089 2891702089 -13.00000000
0.45922315 3.18285275 -0.62509024 4 4 821 3.27600000 2891702094 2891702094 -11.00000000
0.58137423 4.01954794 -0.64325851 2 6 823 4.11200000 2891702098 2891702098 -9.00000000
0.78047830 5.38286543 -0.66784400 2 8 825 5.48000000 2891702103 2891702103 -7.00000000
1.17786658 8.11363220 -0.71729177 4 10 826 8.23000000 2891702108 2891702108 -5.00000000
1.53084004 10.53213024 2.06875110 53 11 827 10.84200000 2891702110 2891702110 11.00000000
1.48523998 10.19340420 2.37818265 56 13 829 10.57200000 2891702115 2891702115 13.00000000
1.27891970 8.76667595 2.37388825 42 15 830 9.17200000 2891702119 2891702119 15.00000000
0.33025065 2.24186778 -0.60718948 4 0 838 2.34600000 2891702140 2891702140 -15.00000000
0.39114738 2.64884496 -0.61816549 3 2 840 2.74800000 2891702144 2891702144 -13.00000000
0.46918204 3.17346191 -0.62356383 4 4 841 3.26800000 2891702149 2891702149 -11.00000000
0.60003501 4.04875851 -0.64826441 2 6 843 4.14400000 2891702154 2891702154 -9.00000000
0.79576284 5.35654545 -0.66491914 2 8 845 5.45600000 2891702158 2891702158 -7.00000000
1.20207763 8.08188057 -0.71485138 4 10 846 8.20200000 2891702163 2891702163 -5.00000000
1.56990814 10.54225731 2.07180405 53 11 847 10.85800000 2891702165 2891702165 11.00000000
1.51908636 10.17659378 2.37548304 57 13 849 10.56000000 2891702170 2891702170 13.00000000
1.31132841 8.76383972 2.37440586 45 15 851 9.17400000 2891702174 2891702174 15.00000000
0.33663315 2.23115015 -0.60460126 4 0 858 2.33600000 2891702195 2891702195 -15.00000000
0.39980838 2.64360976 -0.61726570 3 2 860 2.74400000 2891702200 2891702200 -13.00000000
0.47908098 3.16404033 -0.62203735 4 4 861 3.26000000 2891702204 2891702204 -11.00000000
0.60942155 4.01539135 -0.64325851 2 6 863 4.11200000 2891702209 2891702209 -9.00000000
0.82042688 5.39298534 -0.66979390 2 8 865 5.49600000 2891702214 2891702214 -7.00000000
1.22008145 8.01066685 -0.70892483 4 10 866 8.13400000 2891702218 2891702218 -5.00000000
1.60788167 10.54447556 2.07333064 56 11 867 10.86600000 2891702220 2891702220 11.00000000
1.55518889 10.17508125 2.37638283 59 13 869 10.56400000 2891702225 2891702225 13.00000000
1.34009099 8.75753403 2.37388825 45 15 870 9.17200000 2891702230 2891702230 15.00000000
0.34265000 2.21850634 -0.60149544 4 0 878 2.32400000 2891702250 2891702250 -15.00000000
0.41201517 2.66145611 -0.62176472 3 2 880 2.76400000 2891702255 2891702255 -13.00000000
0.48891985 3.15458846 -0.62051088 2 4 881 3.25200000 2891702260 2891702260 -11.00000000
0.62161481 4.00152779 -0.64138132 2 6 883 4.10000000 2891702264 2891702264 -9.00000000
0.83680373 5.37439728 -0.66784400 2 8 885 5.48000000 2891702269 2891702269 -7.00000000
1.24803650 8.00635910 -0.70892483 4 10 886 8.13400000 2891702273 2891702273 -5.00000000
1.64346802 10.53104019 2.07180405 53 11 887 10.85800000 2891702276 2891702276 11.00000000
1.59069705 10.16959095 2.37638283 59 13 889 10.56400000 2891702280 2891702280 13.00000000
1.37008548 8.73920345 2.37026477 45 15 891 9.15800000 2891702285 2891702285 15.00000000
0.35189965 2.22683764 -0.60408366 4 0 898 2.33400000 2891702306 2891702306 -15.00000000
0.41947377 2.64845324 -0.61906528 3 2 900 2.75200000 2891702310 2891702310 -13.00000000
0.50238812 3.16837478 -0.62356383 2 4 901 3.26800000 2891702315 2891702315 -11.00000000
0.63805926 4.01494074 -0.64388424 2 6 903 4.11600000 2891702320 2891702320 -9.00000000
0.86055475 5.40280962 -0.67174381 2 8 905 5.51200000 2891702324 2891702324 -7.00000000
1.27723122 8.00982380 -0.70962209 4 10 906 8.14200000 2891702329 2891702329 -5.00000000
1.68083727 10.52911663 2.07256722 56 11 907 10.86200000 2891702331 2891702331 11.00000000
1.62741733 10.17167377 2.37818265 60 13 909 10.57200000 2891702336 2891702336 13.00000000
1.40058589 8.74414921 2.37285304 45 15 910 9.16800000 2891702340 2891702340 15.00000000
0.36182803 2.23894548 -0.60770714 4 0 918 2.34800000 2891702361 2891702361 -15.00000000
0.42560038 2.62773609 -0.61456627 3 2 920 2.73200000 2891702366 2891702366 -13.00000000
0.51595855 3.18210530 -0.62661672 2 4 921 3.28400000 2891702370 2891702370 -11.00000000
0.65016907 4.00099039 -0.64200705 2 6 923 4.10400000 2891702375 2891702375 -9.00000000
0.87430340 5.36842394 -0.66784400 2 8 925 5.48000000 2891702379 2891702379 -7.00000000
1.30774772 8.02104855 -0.71101654 4 10 926 8.15800000 2891702384 2891702384 -5.00000000
1.71758044 10.52318478 2.07256722 56 11 927 10.86200000 2891702386 2891702386 11.00000000
1.66039646 10.15054512 2.37458324 59 13 929 10.55600000 2891702391 2891702391 13.00000000
1.43325043 8.74277020 2.37388825 45 15 931 9.17200000 2891702396 2891702396 15.00000000
0.36862162 2.23392105 -0.60667187 4 0 937 2.34400000 2891702416 2891702416 -15.00000000
0.43749136 2.64553642 -0.61906528 3 2 939 2.75200000 2891702421 2891702421 -13.00000000
0.52137756 3.14938664 -0.62051088 2 4 940 3.25200000 2891702426 2891702426 -11.00000000
0.66666639 4.01829958 -0.64513576 2 6 942 4.12400000 2891702430 2891702430 -9.00000000
0.89210093 5.36549520 -0.66784400 2 8 944 5.48000000 2891702435 2891702435 -7.00000000
1.34611583 8.08742046 -0.71729177 4 10 945 8.23000000 2891702439 2891702439 -5.00000000
1.75375783 10.52517796 2.07409382 56 11 946 10.87000000 2891702442 2891702442 11.00000000
1.69019628 10.12191772 2.36918449 57 13 948 10.53200000 2891702446 2891702446 13.00000000
1.46039104 8.73631859 2.37337065 45 15 949 9.17000000 2891702451 2891702451 15.00000000
0.37481132 2.22309589 -0.60408366 3 0 957 2.33400000 2891702472 2891702472 -15.00000000
0.44802195 2.65167928 -0.62086493 3 2 959 2.76000000 2891702476 2891702476 -13.00000000
0.53302264 3.15141892 -0.62127411 2 4 960 3.25600000 2891702481 2891702481 -11.00000000
0.68002856 4.01205301 -0.64450997 2 6 962 4.12000000 2891702485 2891702485 -9.00000000
0.91082454 5.36234856 -0.66784400 2 8 964 5.48000000 2891702490 2891702490 -7.00000000
1.36632240 8.03553104 -0.71310830 4 10 965 8.18200000 2891702495 2891702495 -5.00000000
1.79312241 10.53447533 2.07714677 56 11 966 10.88600000 2891702497 2891702497 11.00000000
1.72682869 10.12364006 2.37098408 56 13 968 10.54000000 2891702502 2891702502 13.00000000
1.49217820 8.73878479 2.37544131 45 15 969 9.17800000 2891702506 2891702506 15.00000000
0.38158563 2.21606255 -0.60253072 4 0 977 2.32800000 2891702527 2891702527 -15.00000000
0.45594987 2.64241791 -0.61906528 3 2 979 2.75200000 2891702532 2891702532 -13.00000000
0.54602486 3.16114688 -0.62356383 2 4 980 3.26800000 2891702536 2891702536 -11.00000000
0.69335526 4.00576162 -0.64388424 2 6 982 4.11600000 2891702541 2891702541 -9.00000000
0.93496507 5.39043093 -0.67174381 2 8 984 5.51200000 2891702545 2891702545 -7.00000000
1.39163661 8.01500893 -0.71171379 4 10 985 8.16600000 2891702550 2891702550 -5.00000000
1.82988369 10.52815151 2.07714677 56 11 986 10.88600000 2891702552 2891702552 11.00000000
1.76148748 10.11371136 2.37008429 57 13 988 10.53600000 2891702557 2891702557 13.00000000
1.52001870 8.71829796 2.37129998 45 15 989 9.16200000 2891702561 2891702561 15.00000000
0.39065668 2.22232771 -0.60460126 4 0 997 2.33600000 2891702582 2891702582 -15.00000000
0.46584699 2.64464855 -0.61996508 3 2 999 2.75600000 2891702587 2891702587 -13.00000000
0.55705601 3.15922165 -0.62356383 2 4 1000 3.26800000 2891702591 2891702591 -11.00000000
0.70664638 3.99942660 -0.64325851 2 6 1002 4.11200000 2891702596 2891702596 -9.00000000
1.41821504 8.00225544 -0.71101654 4 10 1005 8.15800000 2891702605 2891702605 -5.00000000
1.86456501 10.51010227 2.07485700 56 11 1006 10.87400000 2891702608 2891702608 11.00000000
1.79746234 10.11133862 2.37098408 55 13 1008 10.54000000 2891702612 2891702612 13.00000000
1.55297899 8.71837425 2.37285304 42 15 1010 9.16800000 2891702617 2891702617 15.00000000
0.39938712 2.22862625 -0.60667187 4 0 1016 2.34400000 2891702638 2891702638 -15.00000000
0.47254786 2.63158083 -0.61726570 3 2 1018 2.74400000 2891702642 2891702642 -13.00000000
0.56822395 3.16122150 -0.62432700 2 4 1019 3.27200000 2891702647 2891702647 -11.00000000
0.72130567 4.00483751 -0.64450997 2 6 1021 4.12000000 2891702651 2891702651 -9.00000000
0.96317333 5.33705711 -0.66589409 2 8 1023 5.46400000 2891702656 2891702656 -7.00000000
1.45041072 8.02887821 -0.71380556 4 10 1024 8.19000000 2891702661 2891702661 -5.00000000
1.90080488 10.51158905 2.07638359 56 11 1025 10.88200000 2891702663 2891702663 11.00000000
1.82959318 10.09765244 2.36918449 55 13 1027 10.53200000 2891702667 2891702667 13.00000000
1.58070564 8.71535301 2.37337065 45 15 1028 9.17000000 2891702672 2891702672 15.00000000
0.40855369 2.23482013 -0.60874242 4 0 1036 2.35200000 2891702693 2891702693 -15.00000000
0.48243314 2.63374901 -0.61816549 3 2 1038 2.74800000 2891702697 2891702697 -13.00000000
0.57996333 3.16308093 -0.62509024 2 4 1039 3.27600000 2891702702 2891702702 -11.00000000
0.73456693 3.99840975 -0.64388424 2 6 1041 4.11600000 2891702707 2891702707 -9.00000000
0.98467225 5.34928083 -0.66784400 2 8 1043 5.48000000 2891702711 2891702711 -7.00000000
1.47553957 8.00809193 -0.71241105 4 10 1044 8.17400000 2891702716 2891702716 -5.00000000
1.94069040 10.52226543 2.07981801 59 11 1045 10.90000000 2891702718 2891702718 11.00000000
1.86270463 10.07970619 2.36648512 55 13 1047 10.52000000 2891702723 2891702723 13.00000000
1.61357796 8.72307968 2.37699413 45 15 1048 9.18400000 2891702727 2891702727 15.00000000
0.41351983 2.21818733 -0.60460126 4 0 1056 2.33600000 2891702748 2891702748 -15.00000000
0.49377051 2.64354253 -0.62086493 3 2 1058 2.76000000 2891702753 2891702753 -13.00000000
0.58955777 3.15331793 -0.62356383 2 4 1059 3.26800000 2891702757 2891702757 -11.00000000
0.75070173 4.00747108 -0.64576149 2 6 1061 4.12800000 2891702762 2891702762 -9.00000000
1.00993001 5.38092947 -0.67223132 2 8 1063 5.51600000 2891702766 2891702766 -7.00000000
1.50274837 7.99897575 -0.71206242 4 10 1064 8.17000000 2891702771 2891702771 -5.00000000
1.97885942 10.52314472 2.08134460 59 11 1065 10.90800000 2891702773 2891702773 11.00000000
1.89787805 10.07314301 2.36648512 60 13 1067 10.52000000 2891702778 2891702778 13.00000000
1.64115322 8.70220757 2.37285304 45 15 1068 9.16800000 2891702783 2891702783 15.00000000
0.42126024 2.21673036 -0.60460126 4 0 1076 2.33600000 2891702803 2891702803 -15.00000000
0.50226623 2.63797426 -0.61996508 3 2 1078 2.75600000 2891702808 2891702808 -13.00000000
0.60276657 3.16281199 -0.62585348 2 4 1079 3.28000000 2891702813 2891702813 -11.00000000
0.76468587 4.00482607 -0.64576149 2 6 1081 4.12800000 2891702817 2891702817 -9.00000000
1.02348495 5.35007524 -0.66881895 2 8 1083 5.48800000 2891702822 2891702822 -7.00000000
1.52466559 7.96237230 -0.70927346 4 10 1084 8.13800000 2891702826 2891702826 -5.00000000
2.01631904 10.52003002 2.08210778 56 11 1085 10.91200000 2891702829 2891702829 11.00000000
1.93376327 10.07028389 2.36738491 57 13 1087 10.52400000 2891702833 2891702833 13.00000000
1.67194247 8.69044209 2.37129998 45 15 1089 9.16200000 2891702838 2891702838 15.00000000
0.42864689 2.21137834 -0.60356599 4 0 1097 2.33200000 2891702859 2891702859 -15.00000000
0.51416051 2.64759350 -0.62266451 3 2 1099 2.76800000 2891702863 2891702863 -13.00000000
0.61585325 3.16829014 -0.62737995 2 4 1100 3.28800000 2891702868 2891702868 -11.00000000
0.77709359 3.99036264 -0.64388424 2 6 1102 4.11600000 2891702872 2891702872 -9.00000000
1.04840899 5.37356472 -0.67223132 2 8 1104 5.51600000 2891702877 2891702877 -7.00000000
1.55994880 7.98801756 -0.71206242 4 10 1105 8.17000000 2891702882 2891702882 -5.00000000
2.05260372 10.50100803 2.07981801 59 11 1106 10.90000000 2891702884 2891702884 11.00000000
1.96841276 10.05165482 2.36468554 56 13 1108 10.51200000 2891702889 2891702889 13.00000000
1.70301080 8.68834496 2.37233543 45 15 1109 9.16600000 2891702893 2891702893 15.00000000
0.43860886 2.22124004 -0.60667187 4 0 1117 2.34400000 2891702914 2891702914 -15.00000000
0.52037376 2.63048911 -0.61906528 3 2 1119 2.75200000 2891702918 2891702918 -13.00000000
0.62538356 3.15841770 -0.62585348 2 4 1120 3.28000000 2891702923 2891702923 -11.00000000
0.78871161 3.97600007 -0.64200705 2 6 1122 4.10400000 2891702928 2891702928 -9.00000000
1.06329048 5.35040236 -0.66979390 2 8 1124 5.49600000 2891702932 2891702932 -7.00000000
1.59404182 8.01378918 -0.71485138 4 10 1125 8.20200000 2891702937 2891702937 -5.00000000
2.09269667 10.51110840 2.08325267 56 11 1126 10.91800000 2891702939 2891702939 11.00000000
2.00653696 10.06001091 2.36828470 59 13 1128 10.52800000 2891702944 2891702944 13.00000000
1.73332834 8.68234730 2.37233543 42 15 1129 9.16600000 2891702948 2891702948 15.00000000
0.44788319 2.22727132 -0.60874242 4 0 1137 2.35200000 2891702969 2891702969 -15.00000000
0.52878302 2.62483597 -0.61816549 3 2 1139 2.74800000 2891702974 2891702974 -13.00000000
0.63718081 3.16006446 -0.62661672 2 4 1140 3.28400000 2891702978 2891702978 -11.00000000
0.80493242 3.98484039 -0.64388424 2 6 1142 4.11600000 2891702983 2891702983 -9.00000000
1.08117294 5.34276676 -0.66930646 2 8 1144 5.49200000 2891702988 2891702988 -7.00000000
1.62200546 8.00817680 -0.71485138 4 10 1145 8.20200000 2891702992 2891702992 -5.00000000
2.13171506 10.51528454 2.08554220 56 11 1146 10.93000000 2891702995 2891702995 11.00000000
2.03892589 10.03957748 2.36513543 54 13 1148 10.51400000 2891702999 2891702999 13.00000000
1.76706481 8.68540096 2.37492347 45 15 1150 9.17600000 2891703004 2891703004 15.00000000
0.45255539 2.21055365 -0.60460126 4 0 1157 2.33600000 2891703024 2891703024 -15.00000000
0.53950828 2.63061023 -0.61996508 3 2 1159 2.75600000 2891703029 2891703029 -13.00000000
0.64425993 3.13858962 -0.62280059 4 4 1160 3.26400000 2891703034 2891703034 -11.00000000
0.82281595 4.00135517 -0.64701295 2 6 1162 4.13600000 2891703038 2891703038 -9.00000000
1.09901500 5.33507204 -0.66881895 2 8 1164 5.48800000 2891703043 2891703043 -7.00000000
1.64994931 8.00246620 -0.71485138 4 10 1165 8.20200000 2891703048 2891703048 -5.00000000
2.17039108 10.51739311 2.08745050 59 11 1166 10.94000000 2891703050 2891703050 11.00000000
2.07514167 10.03812408 2.36648512 60 13 1168 10.52000000 2891703054 2891703054 13.00000000
1.79580474 8.67161369 2.37285304 45 15 1170 9.16800000 2891703059 2891703059 15.00000000
0.46105704 2.21274281 -0.60563654 4 0 1177 2.34000000 2891703080 2891703080 -15.00000000
0.55147475 2.64206433 -0.62311441 3 2 1179 2.77000000 2891703084 2891703084 -13.00000000
0.65842354 3.15169573 -0.62585348 2 4 1180 3.28000000 2891703089 2891703089 -11.00000000
0.83677828 3.99845886 -0.64701295 2 6 1182 4.13600000 2891703094 2891703094 -9.00000000
1.12170422 5.35063171 -0.67125636 2 8 1184 5.50800000 2891703098 2891703098 -7.00000000
2.20910788 10.51935959 2.08935857 59 11 1186 10.95000000 2891703105 2891703105 11.00000000
2.11016846 10.03081894 2.36648512 60 13 1188 10.52000000 2891703110 2891703110 13.00000000
1.82327497 8.65205956 2.36922956 45 15 1190 9.15400000 2891703114 2891703114 15.00000000
0.46797681 2.20734024 -0.60460126 4 0 1197 2.33600000 2891703135 2891703135 -15.00000000
0.55786008 2.62677956 -0.61996508 3 2 1199 2.75600000 2891703140 2891703140 -13.00000000
0.67105371 3.15705967 -0.62737995 2 4 1200 3.28800000 2891703144 2891703144 -11.00000000
0.84579390 3.97232866 -0.64325851 2 6 1202 4.11200000 2891703149 2891703149 -9.00000000
1.14368725 5.36221504 -0.67320627 2 8 1204 5.52400000 2891703154 2891703154 -7.00000000
2.24417305 10.50390434 2.08783197 59 11 1206 10.94200000 2891703160 2891703160 11.00000000
2.14680099 10.03101444 2.36828470 56 13 1208 10.52800000 2891703165 2891703165 13.00000000
1.85427511 8.64942074 2.37026477 42 15 1210 9.15800000 2891703170 2891703170 15.00000000
0.47692177 2.21333027 -0.60667187 4 0 1216 2.34400000 2891703190 2891703190 -15.00000000
0.56574541 2.62110543 -0.61906528 3 2 1218 2.75200000 2891703195 2891703195 -13.00000000
0.68400651 3.16633081 -0.62966967 2 4 1219 3.30000000 2891703200 2891703200 -11.00000000
0.86063308 3.97722483 -0.64450997 2 6 1221 4.12000000 2891703204 2891703204 -9.00000000
1.16062164 5.35451269 -0.67271876 2 8 1223 5.52000000 2891703209 2891703209 -7.00000000
1.73733413 8.00841713 -0.71694314 4 10 1224 8.22600000 2891703213 2891703213 -5.00000000
2.28149223 10.50791645 2.09012175 59 11 1225 10.95400000 2891703216 2891703216 11.00000000
2.17839670 10.01622391 2.36648512 59 13 1227 10.52000000 2891703220 2891703220 13.00000000
1.88267148 8.64921570 2.37181783 45 15 1228 9.16400000 2891703225 2891703225 15.00000000
0.48464483 2.21165204 -0.60667187 4 0 1236 2.34400000 2891703246 2891703246 -15.00000000
0.57322019 2.61150098 -0.61726570 3 2 1238 2.74400000 2891703250 2891703250 -13.00000000
0.69000000 3.14091349 -0.62509024 2 4 1239 3.27600000 2891703255 2891703255 -11.00000000
0.87366194 3.97033811 -0.64388424 2 6 1241 4.11600000 2891703259 2891703259 -9.00000000
1.17503250 5.33104324 -0.67028141 2 8 1243 5.50000000 2891703264 2891703264 -7.00000000
2.32112050 10.51330757 2.09279299 59 11 1245 10.96800000 2891703271 2891703271 11.00000000
2.21082187 9.99714184 2.36378574 59 13 1247 10.50800000 2891703276 2891703276 13.00000000
1.91435981 8.64225674 2.37181783 45 15 1249 9.16400000 2891703280 2891703280 15.00000000
0.49236196 2.20994687 -0.60667187 4 0 1256 2.34400000 2891703301 2891703301 -15.00000000
0.58615249 2.62660193 -0.62131482 4 2 1258 2.76200000 2891703306 2891703306 -13.00000000
0.70010370 3.13465381 -0.62432700 2 4 1259 3.27200000 2891703310 2891703310 -11.00000000
0.89355320 3.99425244 -0.64826441 2 6 1261 4.14400000 2891703315 2891703315 -9.00000000
1.19710648 5.34240532 -0.67223132 2 8 1263 5.51600000 2891703319 2891703319 -7.00000000
1.79407263 7.99998093 -0.71729177 4 10 1264 8.23000000 2891703324 2891703324 -5.00000000
2.35952449 10.51280403 2.09431958 53 11 1265 10.97600000 2891703326 2891703326 11.00000000
2.24655986 9.99316597 2.36468554 60 13 1267 10.51200000 2891703331 2891703331 13.00000000
1.94088781 8.62643719 2.36922956 45 15 1268 9.15400000 2891703336 2891703336 15.00000000
0.49836639 2.20067811 -0.60460126 4 0 1276 2.33600000 2891703356 2891703356 -15.00000000
0.59488636 2.62263942 -0.62086493 3 2 1278 2.76000000 2891703361 2891703361 -13.00000000
0.71364915 3.14367819 -0.62661672 2 4 1279 3.28400000 2891703365 2891703365 -11.00000000
0.90311050 3.97184682 -0.64513576 2 6 1281 4.12400000 2891703370 2891703370 -9.00000000
1.21310282 5.32658100 -0.67076886 2 8 1283 5.50400000 2891703375 2891703375 -7.00000000
2.39838982 10.51407433 2.09622765 50 11 1285 10.98600000 2891703382 2891703382 11.00000000
2.28142881 9.98526382 2.36468554 57 13 1287 10.51200000 2891703386 2891703386 13.00000000
1.97033739 8.60984993 2.36664128 45 15 1289 9.14400000 2891703391 2891703391 15.00000000
0.50691170 2.20269036 -0.60563654 4 0 1296 2.34000000 2891703412 2891703412 -15.00000000
0.60316205 2.61674881 -0.61996508 3 2 1298 2.75600000 2891703416 2891703416 -13.00000000
0.72373569 3.13734198 -0.62585348 2 4 1299 3.28000000 2891703421 2891703421 -11.00000000
0.91785872 3.97251964 -0.64576149 2 6 1301 4.12800000 2891703425 2891703425 -9.00000000
1.23526919 5.33778620 -0.67271876 2 8 1303 5.52000000 2891703430 2891703430 -7.00000000
2.43507624 10.50563812 2.09622765 37 11 1305 10.98600000 2891703437 2891703437 11.00000000
2.31715131 9.98103523 2.36558533 60 13 1307 10.51600000 2891703442 2891703442 13.00000000
1.99975228 8.60703182 2.36767673 40 15 1308 9.14800000 2891703446 2891703446 15.00000000
0.51723635 2.21219420 -0.60874242 4 0 1316 2.35200000 2891703467 2891703467 -15.00000000
0.60962653 2.60324311 -0.61726570 3 2 1318 2.74400000 2891703471 2891703471 -13.00000000
0.73289078 3.12715054 -0.62432700 2 4 1319 3.27200000 2891703476 2891703476 -11.00000000
0.93081701 3.96544528 -0.64513576 2 6 1321 4.12400000 2891703481 2891703481 -9.00000000
1.24844229 5.31025267 -0.66979390 2 8 1323 5.49600000 2891703485 2891703485 -7.00000000
1.89371943 8.04863548 -0.72339267 4 10 1324 8.30000000 2891703490 2891703490 -5.00000000
2.46903300 10.48560810 2.09393787 46 11 1325 10.97400000 2891703492 2891703492 11.00000000
2.35108304 9.96909332 2.36468554 57 13 1327 10.51200000 2891703497 2891703497 13.00000000
2.03128529 8.59964466 2.36767673 45 15 1329 9.14800000 2891703501 2891703501 15.00000000
0.52456945 2.21046686 -0.60874242 4 0 1335 2.35200000 2891703522 2891703522 -15.00000000
0.61825585 2.60120726 -0.61726570 3 2 1337 2.74400000 2891703527 2891703527 -13.00000000
0.74961710 3.15144253 -0.62966967 2 4 1338 3.30000000 2891703531 2891703531 -11.00000000
0.94487733 3.96617985 -0.64576149 2 6 1340 4.12800000 2891703536 2891703536 -9.00000000
1.26696634 5.30994511 -0.67028141 2 8 1342 5.50000000 2891703541 2891703541 -7.00000000
1.90651691 7.98417425 -0.71816331 4 10 1343 8.24000000 2891703545 2891703545 -5.00000000
2.50972295 10.50218582 2.09889889 43 11 1344 11.00000000 2891703547 2891703547 11.00000000
2.38049984 9.94608021 2.36108637 62 13 1346 10.49600000 2891703552 2891703552 13.00000000
2.06054163 8.60261440 2.37026477 42 15 1347 9.15800000 2891703557 2891703557 15.00000000
0.53047174 2.20110989 -0.60667187 4 0 1355 2.34400000 2891703577 2891703577 -15.00000000
0.63098991 2.61418796 -0.62086493 3 2 1357 2.76000000 2891703582 2891703582 -13.00000000
0.75600338 3.12972307 -0.62585348 2 4 1358 3.28000000 2891703587 2891703587 -11.00000000
0.96429008 3.98589730 -0.64951593 2 6 1360 4.15200000 2891703591 2891703591 -9.00000000
1.28642869 5.30934906 -0.67076886 2 8 1362 5.50400000 2891703596 2891703596 -7.00000000
1.92968011 7.95810747 -0.71642023 4 10 1363 8.22000000 2891703600 2891703600 -5.00000000
2.41520357 9.93770981 2.36108637 57 13 1366 10.49600000 2891703607 2891703607 13.00000000
2.08977365 8.58561897 2.36767673 45 15 1368 9.14800000 2891703612 2891703612 15.00000000
0.53272063 2.17869639 -0.60097784 4 0 1374 2.32200000 2891703633 2891703633 -15.00000000
0.63872838 2.60829544 -0.61996508 3 2 1376 2.75600000 2891703637 2891703637 -13.00000000
0.76824695 3.13482618 -0.62737995 2 4 1377 3.28800000 2891703642 2891703642 -11.00000000
0.96996874 3.95198274 -0.64450997 2 6 1379 4.12000000 2891703647 2891703647 -9.00000000
1.30402803 5.30505371 -0.67076886 2 8 1381 5.50400000 2891703651 2891703651 -7.00000000
1.95130026 7.93231773 -0.71467710 4 10 1382 8.20000000 2891703656 2891703656 -5.00000000
2.36855745 9.62128830 1.92602599 9 11 1383 10.09400000 2891703658 2891703658 11.00000000
2.44907808 9.93343067 2.36198616 60 13 1385 10.50000000 2891703663 2891703663 13.00000000
2.11442184 8.56963348 2.36508846 42 15 1386 9.13800000 2891703667 2891703667 15.00000000
0.54358023 2.18994832 -0.60460126 4 0 1394 2.33600000 2891703688 2891703688 -15.00000000
0.64782912 2.60605001 -0.61996508 3 2 1396 2.75600000 2891703693 2891703693 -13.00000000
0.77728903 3.12450457 -0.62585348 2 4 1397 3.28000000 2891703697 2891703697 -11.00000000
0.98566800 3.95623994 -0.64576149 2 6 1399 4.12800000 2891703702 2891703702 -9.00000000
1.32926619 5.32743406 -0.67418122 2 8 1401 5.53200000 2891703706 2891703706 -7.00000000
1.98863089 7.96411896 -0.71816331 4 10 1402 8.24000000 2891703711 2891703711 -5.00000000
2.40165162 9.61105728 1.92564440 12 11 1403 10.09200000 2891703713 2891703713 11.00000000
2.48468351 9.92860222 2.36288595 56 13 1405 10.50400000 2891703718 2891703718 13.00000000
2.14769554 8.56932163 2.36715889 45 15 1407 9.14600000 2891703723 2891703723 15.00000000
0.55594063 2.20677066 -0.60977769 4 0 1414 2.35600000 2891703743 2891703743 -15.00000000
0.65596855 2.59999371 -0.61906528 3 2 1416 2.75200000 2891703748 2891703748 -13.00000000
0.79011327 3.12938643 -0.62737995 2 4 1417 3.28800000 2891703753 2891703753 -11.00000000
1.00237727 3.96426582 -0.64763868 2 6 1419 4.14000000 2891703757 2891703757 -9.00000000
1.34687972 5.31891298 -0.67369372 2 8 1421 5.52800000 2891703762 2891703762 -7.00000000
2.01152444 7.93781519 -0.71642023 4 10 1422 8.22000000 2891703766 2891703766 -5.00000000
2.43808150 9.61403370 1.92793405 12 11 1423 10.10400000 2891703769 2891703769 11.00000000
2.51740694 9.91231346 2.36108637 59 13 1425 10.49600000 2891703773 2891703773 13.00000000
2.17657638 8.56402493 2.36767673 45 15 1426 9.14800000 2891703778 2891703778 15.00000000
0.56364030 2.20481682 -0.60977769 4 0 1434 2.35600000 2891703799 2891703799 -15.00000000
0.66600686 2.60146379 -0.61996508 3 2 1436 2.75600000 2891703803 2891703803 -13.00000000
0.79810858 3.11519837 -0.62509024 4 4 1437 3.27600000 2891703808 2891703808 -11.00000000
1.02013648 3.97604990 -0.65014166 2 6 1439 4.15600000 2891703812 2891703812 -9.00000000
1.36049795 5.29495287 -0.67125636 2 8 1441 5.50800000 2891703817 2891703817 -7.00000000
2.04120517 7.93846369 -0.71711743 4 10 1442 8.22800000 2891703822 2891703822 -5.00000000
2.47602892 9.62257671 1.93136871 15 11 1443 10.12200000 2891703824 2891703824 11.00000000
2.54907417 9.89214230 2.35838675 59 13 1445 10.48400000 2891703829 2891703829 13.00000000
2.20549250 8.55263424 2.36664128 45 15 1446 9.14400000 2891703833 2891703833 15.00000000
0.56880558 2.19151664 -0.60667187 4 0 1455 2.34400000 2891703854 2891703854 -15.00000000
0.67357630 2.59146094 -0.61816549 3 2 1457 2.74800000 2891703859 2891703859 -13.00000000
0.80952102 3.11225224 -0.62509024 2 4 1458 3.27600000 2891703863 2891703863 -11.00000000
1.03370667 3.96846104 -0.64951593 2 6 1460 4.15200000 2891703868 2891703868 -9.00000000
1.38390410 5.30529737 -0.67320627 2 8 1462 5.52400000 2891703872 2891703872 -7.00000000
2.06324196 7.90394020 -0.71467710 4 10 1463 8.20000000 2891703877 2891703877 -5.00000000
2.51227331 9.61723614 1.93213189 18 11 1464 10.12600000 2891703879 2891703879 11.00000000
2.58432722 9.87896252 2.35748696 62 13 1466 10.48000000 2891703884 2891703884 13.00000000
2.23633528 8.54262447 2.36612368 42 15 1467 9.14200000 2891703888 2891703888 15.00000000
0.57448453 2.18204498 -0.60460126 4 0 1475 2.33600000 2891703909 2891703909 -15.00000000
0.68857980 2.61170626 -0.62356430 3 2 1477 2.77200000 2891703914 2891703914 -13.00000000
0.82338488 3.12079740 -0.62737995 2 4 1478 3.28800000 2891703918 2891703918 -11.00000000
1.04654372 3.96100903 -0.64889014 2 6 1480 4.14800000 2891703923 2891703923 -9.00000000
1.40241468 5.30043411 -0.67320627 2 8 1482 5.52400000 2891703928 2891703928 -7.00000000
2.10203838 7.93906212 -0.71851194 4 10 1483 8.24400000 2891703932 2891703932 -5.00000000
2.54834247 9.61789703 1.93403995 15 11 1484 10.13600000 2891703935 2891703935 11.00000000
2.62179422 9.88118267 2.36018658 60 13 1486 10.49200000 2891703939 2891703939 13.00000000
2.26515031 8.52503490 2.36353540 45 15 1488 9.13200000 2891703944 2891703944 15.00000000
0.58608478 2.19495821 -0.60874242 4 0 1495 2.35200000 2891703965 2891703965 -15.00000000
0.69416845 2.59610844 -0.62041503 3 2 1497 2.75800000 2891703969 2891703969 -13.00000000
0.83731830 3.12928343 -0.62966967 2 4 1498 3.30000000 2891703974 2891703974 -11.00000000
1.05627370 3.94206715 -0.64638722 2 6 1500 4.13200000 2891703978 2891703978 -9.00000000
1.42142248 5.29742384 -0.67344999 2 8 1502 5.52600000 2891703983 2891703983 -7.00000000
2.13387156 7.94707012 -0.71990645 4 10 1503 8.26000000 2891703988 2891703988 -5.00000000
2.58342814 9.61463070 1.93518484 18 11 1504 10.14200000 2891703990 2891703990 11.00000000
2.65627003 9.87197113 2.36018658 60 13 1506 10.49200000 2891703994 2891703994 13.00000000
2.29491472 8.52307224 2.36508846 42 15 1507 9.13800000 2891703999 2891703999 15.00000000
0.59374303 2.19289899 -0.60874242 4 0 1515 2.35200000 2891704020 2891704020 -15.00000000
0.70373631 2.59555054 -0.62086493 3 2 1517 2.76000000 2891704024 2891704024 -13.00000000
0.84206742 3.10360456 -0.62509024 2 4 1518 3.27600000 2891704029 2891704029 -11.00000000
1.06588423 3.92310596 -0.64388424 2 6 1520 4.11600000 2891704034 2891704034 -9.00000000
1.44459558 5.30966902 -0.67564362 2 8 1522 5.54400000 2891704038 2891704038 -7.00000000
2.15636516 7.92034912 -0.71816331 4 10 1523 8.24000000 2891704043 2891704043 -5.00000000
2.61645770 9.60365963 1.93480325 21 11 1524 10.14000000 2891704045 2891704045 11.00000000
2.68968749 9.85887909 2.35928655 56 13 1526 10.48800000 2891704050 2891704050 13.00000000
2.32363415 8.51128292 2.36405325 42 15 1527 9.13400000 2891704054 2891704054 15.00000000
0.59960783 2.18729663 -0.60770714 4 0 1533 2.34800000 2891704075 2891704075 -15.00000000
0.70982355 2.58580995 -0.61906528 3 2 1535 2.75200000 2891704080 2891704080 -13.00000000
0.85389364 3.10851622 -0.62661672 2 4 1536 3.28400000 2891704084 2891704084 -11.00000000
1.08344293 3.93878436 -0.64701295 2 6 1538 4.13600000 2891704089 2891704089 -9.00000000
1.45178044 5.27065563 -0.67125636 2 8 1540 5.50800000 2891704093 2891704093 -7.00000000
2.18123698 7.91353559 -0.71816331 4 10 1541 8.24000000 2891704098 2891704098 -5.00000000
2.65079165 9.61053371 1.93785620 25 11 1542 10.15600000 2891704100 2891704100 11.00000000
2.71753383 9.83910942 2.35658717 59 13 1544 10.47600000 2891704105 2891704105 13.00000000
2.35344934 8.51511288 2.36715889 42 15 1545 9.14600000 2891704110 2891704110 15.00000000
0.60723925 2.18519020 -0.60770714 4 0 1553 2.34800000 2891704130 2891704130 -15.00000000
0.72250229 2.59645820 -0.62221462 3 2 1555 2.76600000 2891704135 2891704135 -13.00000000
0.86684579 3.11308193 -0.62814319 2 4 1556 3.29200000 2891704140 2891704140 -11.00000000
1.09665465 3.93307567 -0.64670008 2 6 1558 4.13400000 2891704144 2891704144 -9.00000000
1.46376371 5.24261236 -0.66833150 2 8 1560 5.48400000 2891704149 2891704149 -7.00000000
2.20563030 7.89436007 -0.71711743 4 10 1561 8.22800000 2891704153 2891704153 -5.00000000
2.68590832 9.60689449 1.93900096 25 11 1562 10.16200000 2891704156 2891704156 11.00000000
2.75291300 9.83331680 2.35748696 59 13 1564 10.48000000 2891704160 2891704160 13.00000000
2.38255715 8.49898911 2.36508846 40 15 1566 9.13800000 2891704165 2891704165 15.00000000
0.61119711 2.17004085 -0.60408366 4 0 1573 2.33400000 2891704186 2891704186 -15.00000000
0.73261917 2.59767151 -0.62311441 3 2 1575 2.77000000 2891704190 2891704190 -13.00000000
0.87770718 3.11003709 -0.62814319 2 4 1576 3.29200000 2891704195 2891704195 -11.00000000
1.10983980 3.92732263 -0.64638722 2 6 1578 4.13200000 2891704199 2891704199 -9.00000000
1.49286497 5.27567291 -0.67320627 2 8 1580 5.52400000 2891704204 2891704204 -7.00000000
2.23751593 7.90194893 -0.71851194 4 10 1581 8.24400000 2891704209 2891704209 -5.00000000
2.72317266 9.61068249 1.94167233 25 11 1582 10.17600000 2891704211 2891704211 11.00000000
2.78828478 9.82739735 2.35838675 59 13 1584 10.48400000 2891704216 2891704216 13.00000000
2.40967250 8.48732471 2.36405325 42 15 1585 9.13400000 2891704220 2891704220 15.00000000
0.62247980 2.18089771 -0.60770714 4 0 1593 2.34800000 2891704241 2891704241 -15.00000000
0.73793370 2.58198237 -0.61996508 3 2 1595 2.75600000 2891704245 2891704245 -13.00000000
0.89071721 3.11450458 -0.62966967 2 4 1596 3.30000000 2891704250 2891704250 -11.00000000
1.12082279 3.91392946 -0.64482284 2 6 1598 4.12200000 2891704255 2891704255 -9.00000000
1.51072419 5.26852131 -0.67296249 2 8 1600 5.52200000 2891704259 2891704259 -7.00000000
2.26288724 7.88643026 -0.71781468 4 10 1601 8.23600000 2891704264 2891704264 -5.00000000
2.75887084 9.60866642 1.94319880 25 11 1602 10.18400000 2891704266 2891704266 11.00000000
3.20821738 11.16631413 -0.60887653 4 12 1603 11.63400000 2891704269 2891704269 -3.00000000
2.82257175 9.81760406 2.35838675 59 13 1604 10.48400000 2891704271 2891704271 13.00000000
3.21050453 11.15959549 -0.20269226 4 14 1605 11.61400000 2891704273 2891704273 -1.00000000
2.44142056 8.48628807 2.36612368 42 15 1605 9.14200000 2891704275 2891704275 15.00000000
0.63154310 2.18231297 -0.60874242 4 0 1614 2.35200000 2891704296 2891704296 -15.00000000
3.22552705 11.13860893 0.20241301 3 1 1615 11.59800000 2891704298 2891704298 1.00000000
0.74739218 2.57926035 -0.61996508 3 2 1616 2.75600000 2891704301 2891704301 -13.00000000
3.23827314 11.16803265 0.60939986 18 3 1617 11.64400000 2891704303 2891704303 3.00000000
0.89884597 3.09990549 -0.62737995 2 4 1617 3.28800000 2891704305 2891704305 -11.00000000
3.24509144 11.18424892 1.01885068 12 5 1618 11.69000000 2891704308 2891704308 5.00000000
1.13240659 3.90031004 -0.64325851 2 6 1619 4.11200000 2891704310 2891704310 -9.00000000
3.25647974 11.20887661 1.43318343 8 7 1620 11.76000000 2891704312 2891704312 7.00000000
1.52503669 5.24579334 -0.67076886 2 8 1621 5.50400000 2891704315 2891704315 -7.00000000
2.30290771 7.91634512 -0.72130090 4 10 1622 8.27600000 2891704319 2891704319 -5.00000000
2.79681349 9.60791492 1.94510686 18 11 1623 10.19400000 2891704322 2891704322 11.00000000
3.20220375 10.99340439 -0.60008407 4 12 1624 11.46600000 2891704324 2891704324 -3.00000000
2.85526419 9.79596806 2.35568738 56 13 1625 10.47200000 2891704326 2891704326 13.00000000
3.22003007 11.04024982 -0.20073758 6 14 1626 11.50200000 2891704328 2891704328 -1.00000000
2.47507000 8.48056030 2.36715889 42 15 1627 9.14600000 2891704331 2891704331 15.00000000
0.63915694 2.18009520 -0.60874242 4 0 1634 2.35200000 2891704351 2891704351 -15.00000000
3.23173881 11.01599026 0.20038854 6 1 1635 11.48200000 2891704354 2891704354 1.00000000
0.75529307 2.57289624 -0.61906528 3 2 1636 2.75200000 2891704356 2891704356 -13.00000000
3.24266076 11.04608250 0.60332888 34 3 1636 11.52800000 2891704358 2891704358 3.00000000
0.91408777 3.11181831 -0.63043290 2 4 1637 3.30400000 2891704361 2891704361 -11.00000000
3.25601864 11.07727718 1.01013505 17 5 1638 11.59000000 2891704363 2891704363 5.00000000
1.15047359 3.91149426 -0.64576149 2 6 1639 4.12800000 2891704365 2891704365 -9.00000000
3.26419973 11.09079933 1.41953409 31 7 1640 11.64800000 2891704368 2891704368 7.00000000
1.54558194 5.24805498 -0.67174381 2 8 1641 5.51200000 2891704370 2891704370 -7.00000000
3.27776217 11.12254429 1.83654058 28 9 1642 11.74000000 2891704372 2891704372 9.00000000
2.33277965 7.91590261 -0.72199816 4 10 1642 8.28400000 2891704375 2891704375 -5.00000000
2.83255553 9.60562611 1.94663334 18 11 1643 10.20200000 2891704377 2891704377 11.00000000
3.19986057 10.84423637 -0.59254771 4 12 1644 11.32200000 2891704379 2891704379 -3.00000000
2.88723373 9.77846527 2.35388780 55 13 1645 10.46400000 2891704381 2891704381 13.00000000
3.21718597 10.88894749 -0.19818953 6 14 1646 11.35600000 2891704384 2891704384 -1.00000000
2.50465751 8.47186947 2.36715889 40 15 1647 9.14600000 2891704386 2891704386 15.00000000
0.64418429 2.17055559 -0.60667187 4 0 1653 2.34400000 2891704407 2891704407 -15.00000000
3.23751020 10.90169716 0.19850367 6 1 1654 11.37400000 2891704409 2891704409 1.00000000
0.76715159 2.58158541 -0.62176472 3 2 1655 2.76400000 2891704411 2891704411 -13.00000000
3.23717284 10.89359379 0.59558320 26 3 1655 11.38000000 2891704414 2891704414 3.00000000
0.91992539 3.09371543 -0.62737995 2 4 1656 3.28800000 2891704416 2891704416 -11.00000000
3.24045968 10.89073086 0.99409842 8 5 1657 11.40600000 2891704418 2891704418 5.00000000
1.16682029 3.91901708 -0.64763868 2 6 1658 4.14000000 2891704421 2891704421 -9.00000000
3.25845122 10.93722916 1.40125370 29 7 1659 11.49800000 2891704423 2891704423 7.00000000
1.56751359 5.25811958 -0.67369372 2 8 1660 5.52800000 2891704425 2891704425 -7.00000000
3.25964022 10.93424606 1.80713093 25 9 1660 11.55200000 2891704428 2891704428 9.00000000
2.34876537 7.87375689 -0.71886057 4 10 1661 8.24800000 2891704430 2891704430 -5.00000000
2.87057018 9.61687374 1.95083117 15 11 1662 10.22400000 2891704432 2891704432 11.00000000
3.20150805 10.71874237 -0.58626735 4 12 1663 11.20200000 2891704434 2891704434 -3.00000000
2.92076063 9.77257156 2.35478759 57 13 1664 10.46800000 2891704437 2891704437 13.00000000
3.20228362 10.70770741 -0.19508299 6 14 1665 11.17800000 2891704439 2891704439 -1.00000000
2.52941442 8.45241261 2.36405325 42 15 1666 9.13400000 2891704441 2891704441 15.00000000
0.65175700 2.16829371 -0.60667187 4 0 1673 2.34400000 2891704462 2891704462 -15.00000000
3.22255516 10.71415424 0.19529243 6 1 1674 11.19000000 2891704464 2891704464 1.00000000
0.77840483 2.58635592 -0.62356430 3 2 1675 2.77200000 2891704467 2891704467 -13.00000000
3.23488665 10.74835205 0.58825612 28 3 1675 11.24000000 2891704469 2891704469 3.00000000
0.92845434 3.08296609 -0.62585348 2 4 1676 3.28000000 2891704471 2891704471 -11.00000000
3.24166441 10.75726318 0.98294246 20 5 1677 11.27800000 2891704474 2891704474 5.00000000
1.17707145 3.90357256 -0.64576149 2 6 1678 4.12800000 2891704476 2891704476 -9.00000000
3.25704336 10.79465675 1.38443577 29 7 1679 11.36000000 2891704478 2891704478 7.00000000
1.58930075 5.26401806 -0.67515618 2 8 1680 5.54000000 2891704481 2891704481 -7.00000000
3.26181841 10.80366325 1.78742015 31 9 1680 11.42600000 2891704483 2891704483 9.00000000
2.36816883 7.83880854 -0.71642023 4 10 1681 8.22000000 2891704485 2891704485 -5.00000000
2.90469003 9.60867405 1.95121276 12 11 1682 10.22600000 2891704487 2891704487 11.00000000
3.20709896 10.60235786 -0.58051044 8 12 1683 11.09200000 2891704490 2891704490 -3.00000000
2.95711350 9.76977730 2.35658717 56 13 1684 10.47600000 2891704492 2891704492 13.00000000
3.20660114 10.58737564 -0.19309342 6 14 1685 11.06400000 2891704494 2891704494 -1.00000000
2.55442119 8.42874050 2.35991216 42 15 1686 9.11800000 2891704497 2891704497 15.00000000
0.65988439 2.16785359 -0.60718948 3 0 1693 2.34600000 2891704517 2891704517 -15.00000000
3.22788906 10.59762859 0.19337267 10 1 1694 11.08000000 2891704520 2891704520 1.00000000
0.78401935 2.57243872 -0.62086493 3 2 1695 2.76000000 2891704522 2891704522 -13.00000000
3.24618340 10.65102196 0.58354592 13 3 1695 11.15000000 2891704524 2891704524 3.00000000
0.94608247 3.10224080 -0.63043290 2 4 1696 3.30400000 2891704527 2891704527 -11.00000000
3.24721098 10.64107227 0.97335535 16 5 1697 11.16800000 2891704529 2891704529 5.00000000
1.18838274 3.89188313 -0.64450997 2 6 1698 4.12000000 2891704531 2891704531 -9.00000000
3.25816035 10.66361904 1.36908019 19 7 1699 11.23400000 2891704533 2891704533 7.00000000
3.23680615 10.58711624 -1.35933065 4 8 1700 11.15400000 2891704536 2891704536 -7.00000000
3.26716781 10.68642426 1.76989949 18 9 1700 11.31400000 2891704538 2891704538 9.00000000
3.24239922 10.59879303 -0.96969479 9 10 1701 11.12600000 2891704540 2891704540 -5.00000000
2.94108605 9.60786247 1.95312083 12 11 1702 10.23600000 2891704543 2891704543 11.00000000
3.24291849 10.58727932 -0.58030111 17 12 1703 11.08800000 2891704545 2891704545 -3.00000000
2.99234056 9.76312160 2.35748696 59 13 1704 10.48000000 2891704547 2891704547 13.00000000
3.24998808 10.59714794 -0.19347738 23 14 1705 11.08600000 2891704550 2891704550 -1.00000000
2.58462358 8.42761135 2.36198258 45 15 1705 9.12600000 2891704552 2891704552 15.00000000
0.66801655 2.16738319 -0.60770714 4 0 1713 2.34800000 2891704573 2891704573 -15.00000000
3.26898742 10.59967327 0.19361700 27 1 1714 11.09400000 2891704575 2891704575 1.00000000
0.78954625 2.55851364 -0.61816549 3 2 1715 2.74800000 2891704577 2891704577 -13.00000000
3.28039789 10.63008308 0.58302253 10 3 1715 11.14000000 2891704580 2891704580 3.00000000
0.95458859 3.09141612 -0.62890643 2 4 1716 3.29600000 2891704582 2891704582 -11.00000000
3.28433537 10.62967300 0.97335535 12 5 1717 11.16800000 2891704584 2891704584 5.00000000
1.20546150 3.89903450 -0.64638722 2 6 1718 4.13200000 2891704586 2891704586 -9.00000000
3.28832340 10.62942410 1.36615539 10 7 1719 11.21000000 2891704589 2891704589 7.00000000
1.62131548 5.23762417 -0.67320627 2 8 1720 5.52400000 2891704591 2891704591 -7.00000000
3.29744077 10.65231037 1.76614511 12 9 1720 11.29000000 2891704593 2891704593 9.00000000
2.42637277 7.83350372 -0.71746606 4 10 1721 8.23200000 2891704596 2891704596 -5.00000000
2.98332405 9.62566662 1.95884514 12 11 1722 10.26600000 2891704598 2891704598 11.00000000
3.28695464 10.59878635 -0.58155715 12 12 1723 11.11200000 2891704600 2891704600 -3.00000000
3.02178144 9.73772812 2.35388780 60 13 1724 10.46400000 2891704603 2891704603 13.00000000
3.29407501 10.60865593 -0.19389623 8 14 1725 11.11000000 2891704605 2891704605 -1.00000000
2.61549497 8.41808224 2.36198258 45 15 1726 9.12600000 2891704607 2891704607 15.00000000
0.67654669 2.17080688 -0.60926002 4 0 1731 2.35400000 2891704628 2891704628 -15.00000000
3.31239152 10.62180424 0.19421038 10 1 1732 11.12800000 2891704630 2891704630 1.00000000
0.79874110 2.55974126 -0.61906528 3 2 1733 2.75200000 2891704633 2891704633 -13.00000000
3.31563044 10.61914730 0.58302253 10 3 1734 11.14000000 2891704635 2891704635 3.00000000
0.96312559 3.08465385 -0.62814319 2 4 1734 3.29200000 2891704637 2891704637 -11.00000000
3.32246637 10.63451672 0.97474980 12 5 1735 11.18400000 2891704639 2891704639 5.00000000
1.21888351 3.89899898 -0.64701295 2 6 1736 4.13600000 2891704642 2891704642 -9.00000000
3.32466364 10.62851334 1.36737406 10 7 1737 11.22000000 2891704644 2891704644 7.00000000
1.63479710 5.22303247 -0.67198753 2 8 1738 5.51400000 2891704646 2891704646 -7.00000000
3.32970953 10.63812828 1.76551938 12 9 1738 11.28600000 2891704649 2891704649 9.00000000
2.44858861 7.81823730 -0.71676880 4 10 1739 8.22400000 2891704651 2891704651 -5.00000000
3.03409743 9.68181610 1.97220182 12 11 1740 10.33600000 2891704653 2891704653 11.00000000
3.32680893 10.60937119 -0.58270854 12 12 1741 11.13400000 2891704656 2891704656 -3.00000000
3.05002499 9.72074890 2.35208821 55 13 1742 10.45600000 2891704658 2891704658 13.00000000
3.33157992 10.61160946 -0.19414057 12 14 1743 11.12400000 2891704660 2891704660 -1.00000000
2.64219618 8.41581345 2.36353540 40 15 1743 9.13200000 2891704663 2891704663 15.00000000
0.68237638 2.16290522 -0.60770714 4 0 1751 2.34800000 2891704683 2891704683 -15.00000000
3.35306025 10.62161922 0.19441980 13 1 1752 11.14000000 2891704686 2891704686 1.00000000
0.81354111 2.57551980 -0.62356430 3 2 1753 2.77200000 2891704688 2891704688 -13.00000000
3.35869718 10.62655258 0.58406925 10 3 1754 11.16000000 2891704690 2891704690 3.00000000
0.97625387 3.08876109 -0.62966967 2 4 1754 3.30000000 2891704692 2891704692 -11.00000000
3.35656357 10.61335564 0.97387826 12 5 1755 11.17400000 2891704695 2891704695 5.00000000
1.23487008 3.90225387 -0.64826441 2 6 1756 4.14400000 2891704697 2891704697 -9.00000000
3.36773634 10.63576794 1.36981142 12 7 1757 11.24000000 2891704699 2891704699 7.00000000
1.64762282 5.20026255 -0.66979390 2 8 1758 5.49600000 2891704702 2891704702 -7.00000000
3.37166286 10.63526821 1.76708376 12 9 1759 11.29600000 2891704704 2891704704 9.00000000
3.37420821 10.64329624 -0.97684157 4 10 1759 11.20800000 2891704706 2891704706 -5.00000000
3.16107440 9.96496964 2.03211570 43 11 1760 10.65000000 2891704709 2891704709 11.00000000
3.36684346 10.60721207 -0.58323193 12 12 1761 11.14400000 2891704711 2891704711 -3.00000000
