# .PCD v0.7 - Point Cloud Data file format
VERSION 0.7
FIELDS x y z intensity laser_id azimuth distance_m adjustedtime timestamp vertical_angle
SIZE 4 4 4 1 1 2 8 8 4 8
TYPE F F F U U U F U U F
COUNT 1 1 1 1 1 1 1 1 1 1
WIDTH 523
HEIGHT 1
VIEWPOINT 0 0 0 1 0 0 0
POINTS 523
DATA ascii
2.99111414 -11.49128628 0.20726478 3 1 16541 11.87600000 2893545769 2893545769 1.00000000
0.58474678 -2.24809408 -0.53628331 3 2 16542 2.38400000 2893545771 2893545771 -13.00000000
0.68600130 -2.63926411 -0.53006738 3 4 16543 2.77800000 2893545776 2893545776 -11.00000000
2.96968293 -11.43350506 1.03349280 17 5 16544 11.85800000 2893545778 2893545778 5.00000000
0.83570784 -3.21984839 -0.52687126 1 6 16545 3.36800000 2893545780 2893545780 -9.00000000
1.07077229 -4.13144398 -0.52403820 2 8 16547 4.30000000 2893545785 2893545785 -7.00000000
1.50807428 -5.82290506 -0.52624637 3 10 16548 6.03800000 2893545789 2893545789 -5.00000000
2.34684610 -9.07458019 -0.49122527 8 12 16550 9.38600000 2893545794 2893545794 -3.00000000
2.67495322 -10.35072899 2.46816301 51 13 16551 10.97200000 2893545796 2893545796 13.00000000
2.46110988 -9.53012753 2.63736606 45 15 16552 10.19000000 2893545801 2893545801 15.00000000
0.49916881 -1.94413424 -0.53782600 4 0 16560 2.07800000 2893545822 2893545822 -15.00000000
0.58076769 -2.26522303 -0.53988254 3 2 16562 2.40000000 2893545826 2893545826 -13.00000000
0.68068236 -2.65685725 -0.53312033 3 4 16563 2.79400000 2893545831 2893545831 -11.00000000
2.92481303 -11.42450047 1.03174973 17 5 16564 11.83800000 2893545833 2893545833 5.00000000
0.82642174 -3.23040080 -0.52812278 1 6 16565 3.37600000 2893545835 2893545835 -9.00000000
1.05585301 -4.13323355 -0.52379441 2 8 16567 4.29800000 2893545840 2893545840 -7.00000000
1.46654928 -5.74512291 -0.51875097 3 10 16568 5.95200000 2893545845 2893545845 -5.00000000
2.31614208 -9.08658791 -0.49143463 8 12 16570 9.39000000 2893545849 2893545849 -3.00000000
2.67247653 -10.49219418 2.49965620 40 13 16571 11.11200000 2893545852 2893545852 13.00000000
2.42544603 -9.52929974 2.63477778 40 15 16572 10.18000000 2893545856 2893545856 15.00000000
0.49237949 -1.94586480 -0.53782600 4 0 16580 2.07800000 2893545877 2893545877 -15.00000000
0.56999278 -2.25590038 -0.53718311 3 2 16582 2.38800000 2893545882 2893545882 -13.00000000
0.66948164 -2.65160298 -0.53159386 3 4 16583 2.78600000 2893545886 2893545886 -11.00000000
2.88150454 -11.42111683 1.03052950 25 5 16584 11.82400000 2893545888 2893545888 5.00000000
0.81514049 -3.23326588 -0.52812278 1 6 16585 3.37600000 2893545891 2893545891 -9.00000000
1.03996515 -4.13111877 -0.52306324 2 8 16587 4.29200000 2893545895 2893545895 -7.00000000
1.44600010 -5.74827480 -0.51857668 3 10 16588 5.95000000 2893545900 2893545900 -5.00000000
2.27954435 -9.07524681 -0.49038792 4 12 16590 9.37000000 2893545905 2893545905 -3.00000000
2.66857004 -10.63187599 2.53069925 48 13 16591 11.25000000 2893545907 2893545907 13.00000000
2.39122772 -9.53396034 2.63374257 40 15 16592 10.17600000 2893545911 2893545911 15.00000000
0.48651886 -1.95132053 -0.53886127 4 0 16600 2.08200000 2893545932 2893545932 -15.00000000
2.85611296 -11.46376705 0.20621763 40 1 16601 11.81600000 2893545935 2893545935 1.00000000
0.56305629 -2.26165843 -0.53808290 4 2 16602 2.39200000 2893545937 2893545937 -13.00000000
2.85297585 -11.46823883 0.61934370 21 3 16603 11.83400000 2893545939 2893545939 3.00000000
0.66116965 -2.65773416 -0.53235710 3 4 16603 2.79000000 2893545941 2893545941 -11.00000000
0.80337310 -3.23417449 -0.52780986 1 6 16605 3.37400000 2893545946 2893545946 -9.00000000
1.02267122 -4.12316322 -0.52160078 2 8 16607 4.28000000 2893545951 2893545951 -7.00000000
1.42592609 -5.75328732 -0.51857668 3 10 16608 5.95000000 2893545955 2893545955 -5.00000000
2.24737215 -9.08120918 -0.49028325 4 12 16610 9.36800000 2893545960 2893545960 -3.00000000
2.66699553 -10.78489971 2.56489182 47 13 16611 11.40200000 2893545962 2893545962 13.00000000
2.83361912 -11.46728802 -0.20618273 8 14 16612 11.81400000 2893545964 2893545964 -1.00000000
2.35580492 -9.54078579 2.63322496 7 15 16613 10.17400000 2893545967 2893545967 15.00000000
0.48004538 -1.95292318 -0.53886127 4 0 16619 2.08200000 2893545988 2893545988 -15.00000000
0.55462426 -2.25972795 -0.53718311 3 2 16621 2.38800000 2893545992 2893545992 -13.00000000
0.65048212 -2.65228510 -0.53083062 3 4 16622 2.78200000 2893545997 2893545997 -11.00000000
0.79170406 -3.23298335 -0.52718413 1 6 16624 3.37000000 2893546001 2893546001 -9.00000000
1.01559353 -4.15352821 -0.52501315 2 8 16626 4.30800000 2893546006 2893546006 -7.00000000
1.41109562 -5.77540302 -0.52014548 3 10 16627 5.96800000 2893546011 2893546011 -5.00000000
2.21014500 -9.05950642 -0.48871315 4 12 16629 9.33800000 2893546015 2893546015 -3.00000000
2.66398573 -10.92810917 2.59683490 53 13 16630 11.54400000 2893546017 2893546017 13.00000000
2.32810616 -9.55752373 2.63581324 30 15 16631 10.18400000 2893546022 2893546022 15.00000000
0.47277090 -1.95270932 -0.53834361 4 0 16639 2.08000000 2893546043 2893546043 -15.00000000
0.54764873 -2.26543856 -0.53808290 3 2 16641 2.39200000 2893546047 2893546047 -13.00000000
0.64214188 -2.65835619 -0.53159386 3 4 16642 2.78600000 2893546052 2893546052 -11.00000000
0.78365612 -3.24916935 -0.52937424 1 6 16644 3.38400000 2893546057 2893546057 -9.00000000
0.99830025 -4.14546824 -0.52355069 2 8 16646 4.29600000 2893546061 2893546061 -7.00000000
1.38673198 -5.76285982 -0.51857668 3 10 16647 5.95000000 2893546066 2893546066 -5.00000000
2.17337537 -9.04580402 -0.48756176 4 12 16649 9.31600000 2893546070 2893546070 -3.00000000
2.65903282 -11.07566833 2.62967777 53 13 16650 11.69000000 2893546073 2893546073 13.00000000
2.29382849 -9.56183529 2.63477778 33 15 16651 10.18000000 2893546077 2893546077 15.00000000
0.46460769 -1.94871020 -0.53679073 4 0 16659 2.07400000 2893546098 2893546098 -15.00000000
0.54154271 -2.27491951 -0.53988254 3 2 16661 2.40000000 2893546103 2893546103 -13.00000000
0.63194996 -2.65676165 -0.53083062 3 4 16662 2.78200000 2893546107 2893546107 -11.00000000
0.77322251 -3.25572896 -0.52999997 1 6 16664 3.38800000 2893546112 2893546112 -9.00000000
0.98748797 -4.16438007 -0.52550060 2 8 16666 4.31200000 2893546116 2893546116 -7.00000000
1.36109507 -5.74440050 -0.51648492 3 10 16667 5.92600000 2893546121 2893546121 -5.00000000
2.15052271 -9.09026432 -0.48955053 4 12 16669 9.35400000 2893546126 2893546126 -3.00000000
2.64994359 -11.21005058 2.65937138 51 13 16670 11.82200000 2893546128 2893546128 13.00000000
2.26132584 -9.57354450 2.63581324 38 15 16671 10.18400000 2893546133 2893546133 15.00000000
0.45691964 -1.94655859 -0.53575540 4 0 16679 2.07000000 2893546153 2893546153 -15.00000000
0.53181976 -2.26920652 -0.53808290 3 2 16681 2.39200000 2893546158 2893546158 -13.00000000
0.62356758 -2.66277432 -0.53159386 3 4 16682 2.78600000 2893546163 2893546163 -11.00000000
0.75825530 -3.24302006 -0.52749699 1 6 16684 3.37200000 2893546167 2893546167 -9.00000000
0.97655576 -4.18326664 -0.52745050 2 8 16686 4.32800000 2893546172 2893546172 -7.00000000
1.34284544 -5.75687790 -0.51718217 3 10 16687 5.93400000 2893546176 2893546176 -5.00000000
2.11424851 -9.07826424 -0.48850381 4 12 16689 9.33400000 2893546181 2893546181 -3.00000000
2.61344719 -11.23062038 2.66207075 46 13 16690 11.83400000 2893546183 2893546183 13.00000000
2.22753334 -9.58741379 2.63736606 35 15 16692 10.19000000 2893546188 2893546188 15.00000000
0.45325866 -1.96327901 -0.53989655 4 0 16700 2.08600000 2893546209 2893546209 -15.00000000
0.52087289 -2.25974679 -0.53538352 3 2 16702 2.38000000 2893546213 2893546213 -13.00000000
0.61380380 -2.66504192 -0.53159386 3 4 16703 2.78600000 2893546218 2893546218 -11.00000000
0.74370784 -3.23422670 -0.52561980 1 6 16705 3.36000000 2893546222 2893546222 -9.00000000
0.94966793 -4.13651419 -0.52111334 2 8 16707 4.27600000 2893546227 2893546227 -7.00000000
1.32708216 -5.78506470 -0.51927394 3 10 16708 5.95800000 2893546232 2893546232 -5.00000000
2.07739377 -9.07037735 -0.48766643 4 12 16710 9.31800000 2893546236 2893546236 -3.00000000
2.57226729 -11.24012375 2.66207075 48 13 16711 11.83400000 2893546239 2893546239 13.00000000
2.19792914 -9.61207962 2.64202476 38 15 16712 10.20800000 2893546243 2893546243 15.00000000
0.44640279 -1.96484923 -0.53989655 4 0 16720 2.08600000 2893546264 2893546264 -15.00000000
0.51384389 -2.26535225 -0.53628331 3 2 16722 2.38400000 2893546268 2893546268 -13.00000000
0.60406339 -2.66525364 -0.53121227 3 4 16723 2.78400000 2893546273 2893546273 -11.00000000
0.73633742 -3.25414300 -0.52843565 1 6 16725 3.37800000 2893546278 2893546278 -9.00000000
0.93041128 -4.11850452 -0.51843220 2 8 16727 4.25400000 2893546282 2893546282 -7.00000000
1.29898381 -5.75467873 -0.51613629 3 10 16728 5.92200000 2893546287 2893546287 -5.00000000
2.05011034 -9.09705734 -0.48871315 4 12 16730 9.33800000 2893546292 2893546292 -3.00000000
2.53216004 -11.24523163 2.66117096 46 13 16731 11.83000000 2893546294 2893546294 13.00000000
2.16605949 -9.62723255 2.64409542 38 15 16732 10.21600000 2893546298 2893546298 15.00000000
0.43819764 -1.95877767 -0.53782600 4 0 16739 2.07800000 2893546319 2893546319 -15.00000000
0.50760323 -2.27274942 -0.53763300 4 2 16741 2.39000000 2893546324 2893546324 -13.00000000
0.59351134 -2.65957761 -0.52968580 3 4 16742 2.77600000 2893546328 2893546328 -11.00000000
0.72468311 -3.25271082 -0.52780986 1 6 16744 3.37400000 2893546333 2893546333 -9.00000000
0.92235178 -4.14675760 -0.52160078 2 8 16746 4.28000000 2893546338 2893546338 -7.00000000
1.28508043 -5.78229380 -0.51822805 3 10 16747 5.94600000 2893546342 2893546342 -5.00000000
2.01560593 -9.08430767 -0.48766643 4 12 16749 9.31800000 2893546347 2893546347 -3.00000000
2.49569917 -11.25737190 2.66207075 50 13 16750 11.83400000 2893546349 2893546349 13.00000000
2.13244104 -9.63473415 2.64409542 38 15 16752 10.21600000 2893546354 2893546354 15.00000000
0.43052724 -1.95652187 -0.53679073 4 0 16759 2.07400000 2893546374 2893546374 -15.00000000
0.49924859 -2.27260399 -0.53718311 3 2 16761 2.38800000 2893546379 2893546379 -13.00000000
0.71036476 -3.24171329 -0.52561980 1 6 16764 3.36000000 2893546388 2893546388 -9.00000000
0.90617436 -4.14219522 -0.52062583 2 8 16766 4.27200000 2893546393 2893546393 -7.00000000
1.25637949 -5.74781609 -0.51474184 3 10 16767 5.90600000 2893546398 2893546398 -5.00000000
1.98388350 -9.09128761 -0.48766643 4 12 16769 9.31800000 2893546402 2893546402 -3.00000000
2.45804906 -11.27363110 2.66387033 50 13 16770 11.84200000 2893546404 2893546404 13.00000000
2.09797478 -9.63834381 2.64306021 38 15 16772 10.21200000 2893546409 2893546409 15.00000000
0.42287794 -1.95423651 -0.53575540 4 0 16779 2.07000000 2893546430 2893546430 -15.00000000
0.49090120 -2.27242804 -0.53673321 4 2 16781 2.38600000 2893546434 2893546434 -13.00000000
0.70237350 -3.25962162 -0.52812278 1 6 16784 3.37600000 2893546444 2893546444 -9.00000000
0.89838934 -4.17638445 -0.52452564 2 8 16786 4.30400000 2893546448 2893546448 -7.00000000
1.23798287 -5.75995827 -0.51543903 3 10 16787 5.91400000 2893546453 2893546453 -5.00000000
2.42154121 -11.29548073 2.66701961 51 13 16790 11.85600000 2893546460 2893546460 13.00000000
2.06391358 -9.64371967 2.64254236 35 15 16792 10.21000000 2893546464 2893546464 15.00000000
0.41685775 -1.95947981 -0.53679073 4 0 16799 2.07400000 2893546485 2893546485 -15.00000000
0.48215631 -2.27031541 -0.53583342 4 2 16801 2.38200000 2893546490 2893546490 -13.00000000
0.56644332 -2.66948795 -0.53044903 3 4 16802 2.78000000 2893546494 2893546494 -11.00000000
0.69262844 -3.26978350 -0.52937424 1 6 16804 3.38400000 2893546499 2893546499 -9.00000000
0.87312758 -4.12899923 -0.51818848 2 8 16806 4.25200000 2893546504 2893546504 -7.00000000
1.21622193 -5.75644684 -0.51474184 3 10 16807 5.90600000 2893546508 2893546508 -5.00000000
2.38049054 -11.29623699 2.66522002 48 13 16810 11.84800000 2893546515 2893546515 13.00000000
2.03182888 -9.65842724 2.64461303 35 15 16812 10.21800000 2893546520 2893546520 15.00000000
0.41238767 -1.97226882 -0.53989655 4 0 16819 2.08600000 2893546540 2893546540 -15.00000000
0.47422847 -2.27198458 -0.53583342 4 2 16821 2.38200000 2893546545 2893546545 -13.00000000
0.68201578 -3.27604914 -0.52999997 1 6 16824 3.38800000 2893546554 2893546554 -9.00000000
0.85951722 -4.13590860 -0.51867592 4 8 16826 4.25600000 2893546559 2893546559 -7.00000000
1.19612074 -5.76065731 -0.51474184 3 10 16827 5.90600000 2893546563 2893546563 -5.00000000
2.34104466 -11.30447769 2.66522002 15 13 16830 11.84800000 2893546570 2893546570 13.00000000
2.00096369 -9.67078686 2.64616585 38 15 16831 10.22400000 2893546575 2893546575 15.00000000
0.40433431 -1.96801925 -0.53834361 4 0 16839 2.08000000 2893546596 2893546596 -15.00000000
0.46668640 -2.27553511 -0.53628331 4 2 16841 2.38400000 2893546600 2893546600 -13.00000000
0.84189796 -4.12332392 -0.51672602 6 8 16846 4.24000000 2893546614 2893546614 -7.00000000
1.17600501 -5.76479721 -0.51474184 3 10 16847 5.90600000 2893546619 2893546619 -5.00000000
2.30351305 -11.32212830 2.66746950 43 13 16850 11.85800000 2893546626 2893546626 13.00000000
1.96665835 -9.68373585 2.64771891 35 15 16852 10.23000000 2893546630 2893546630 15.00000000
0.39593348 -1.96184397 -0.53627306 4 0 16859 2.07200000 2893546651 2893546651 -15.00000000
0.46027985 -2.28479171 -0.53808290 3 2 16861 2.39200000 2893546656 2893546656 -13.00000000
0.53690845 -2.66757464 -0.52892256 3 4 16862 2.77200000 2893546660 2893546660 -11.00000000
0.65368086 -3.25361729 -0.52561980 1 6 16864 3.36000000 2893546665 2893546665 -9.00000000
0.83101273 -4.14375496 -0.51891965 4 8 16866 4.25800000 2893546669 2893546669 -7.00000000
1.16057205 -5.79231024 -0.51683354 3 10 16867 5.93000000 2893546674 2893546674 -5.00000000
2.26397753 -11.33010006 2.66746950 47 13 16870 11.85800000 2893546681 2893546681 13.00000000
1.93226588 -9.67883778 2.64461303 35 15 16871 10.21800000 2893546686 2893546686 15.00000000
0.39096075 -1.97268903 -0.53886127 4 0 16879 2.08200000 2893546706 2893546706 -15.00000000
0.45116711 -2.28064942 -0.53673321 4 2 16881 2.38600000 2893546711 2893546711 -13.00000000
0.52835494 -2.67328453 -0.52968580 3 4 16882 2.77600000 2893546715 2893546715 -11.00000000
0.64040798 -3.24618912 -0.52405548 1 6 16884 3.35000000 2893546720 2893546720 -9.00000000
0.81846094 -4.15636873 -0.52013838 2 8 16886 4.26800000 2893546725 2893546725 -7.00000000
1.13573074 -5.77286673 -0.51474184 3 10 16887 5.90600000 2893546729 2893546729 -5.00000000
2.22666526 -11.34940815 2.67016912 50 13 16890 11.87000000 2893546736 2893546736 13.00000000
1.89937711 -9.69912529 2.64823651 38 15 16892 10.23200000 2893546741 2893546741 15.00000000
0.38296556 -1.96835291 -0.53730834 4 0 16899 2.07600000 2893546762 2893546762 -15.00000000
0.44246039 -2.27838445 -0.53583342 4 2 16901 2.38200000 2893546766 2893546766 -13.00000000
0.52126378 -2.68667650 -0.53197551 3 4 16902 2.78800000 2893546771 2893546771 -11.00000000
0.63095057 -3.25810146 -0.52561980 1 6 16904 3.36000000 2893546775 2893546775 -9.00000000
0.79641289 -4.12022018 -0.51526356 4 8 16906 4.22800000 2893546780 2893546780 -7.00000000
1.11330616 -5.76505852 -0.51369596 3 10 16907 5.89400000 2893546785 2893546785 -5.00000000
2.18777180 -11.36093807 2.67106891 50 13 16910 11.87400000 2893546792 2893546792 13.00000000
1.86756814 -9.70726776 2.64875412 33 15 16911 10.23400000 2893546796 2893546796 15.00000000
0.37609240 -1.96967769 -0.53730834 4 0 16919 2.07600000 2893546817 2893546817 -15.00000000
0.43304536 -2.27225780 -0.53403378 4 2 16921 2.37400000 2893546821 2893546821 -13.00000000
0.50967914 -2.67690802 -0.52968580 3 4 16922 2.77600000 2893546826 2893546826 -11.00000000
0.61957383 -3.26028395 -0.52561980 1 6 16924 3.36000000 2893546831 2893546831 -9.00000000
0.78572506 -4.14247847 -0.51770097 2 8 16926 4.24800000 2893546835 2893546835 -7.00000000
1.09169173 -5.76107931 -0.51299870 3 10 16927 5.88600000 2893546840 2893546840 -5.00000000
2.14593053 -11.35701656 2.66836929 50 13 16930 11.86200000 2893546847 2893546847 13.00000000
1.83305073 -9.71974277 2.65030694 38 15 16932 10.24000000 2893546851 2893546851 15.00000000
0.36920261 -1.96901524 -0.53679073 4 0 16938 2.07400000 2893546872 2893546872 -15.00000000
0.42801723 -2.28708982 -0.53718311 4 2 16940 2.38800000 2893546877 2893546877 -13.00000000
0.49935618 -2.67086411 -0.52815932 3 4 16941 2.76800000 2893546881 2893546881 -11.00000000
0.60730952 -3.25455332 -0.52436835 1 6 16943 3.35200000 2893546886 2893546886 -9.00000000
0.76871264 -4.12749720 -0.51550734 2 8 16945 4.23000000 2893546891 2893546891 -7.00000000
1.07258129 -5.76466799 -0.51299870 3 10 16946 5.88600000 2893546895 2893546895 -5.00000000
2.10896850 -11.36790276 2.66926932 48 13 16949 11.86600000 2893546902 2893546902 13.00000000
1.80250621 -9.72545338 2.65030694 33 15 16950 10.24000000 2893546907 2893546907 15.00000000
0.36197785 -1.96839201 -0.53627306 4 0 16958 2.07200000 2893546927 2893546927 -15.00000000
0.41932762 -2.28473639 -0.53628331 3 2 16960 2.38400000 2893546932 2893546932 -13.00000000
0.49003008 -2.67259097 -0.52815932 3 4 16961 2.76800000 2893546937 2893546937 -11.00000000
0.59238952 -3.23722219 -0.52123964 1 6 16963 3.33200000 2893546941 2893546941 -9.00000000
0.75751007 -4.14773035 -0.51770097 2 8 16965 4.24800000 2893546946 2893546946 -7.00000000
1.04673052 -5.73701620 -0.51020974 3 10 16966 5.85400000 2893546950 2893546950 -5.00000000
2.07066941 -11.38286400 2.67106891 50 13 16969 11.87400000 2893546957 2893546957 13.00000000
1.76477802 -9.72058964 2.64720130 38 15 16971 10.22800000 2893546962 2893546962 15.00000000
0.35476190 -1.96774244 -0.53575540 4 0 16978 2.07000000 2893546983 2893546983 -15.00000000
0.41031456 -2.28043246 -0.53493363 4 2 16980 2.37800000 2893546987 2893546987 -13.00000000
0.48347661 -2.68974352 -0.53121227 3 4 16981 2.78400000 2893546992 2893546992 -11.00000000
0.58317864 -3.25093651 -0.52311683 1 6 16983 3.34400000 2893546997 2893546997 -9.00000000
0.74652547 -4.16988945 -0.52013838 2 8 16985 4.26800000 2893547001 2893547001 -7.00000000
1.02950442 -5.75632524 -0.51160419 3 10 16986 5.87000000 2893547006 2893547006 -5.00000000
2.03160739 -11.39385986 2.67196870 48 13 16989 11.87800000 2893547013 2893547013 13.00000000
1.73253369 -9.72638893 2.64720130 40 15 16990 10.22800000 2893547017 2893547017 15.00000000
0.34957168 -1.97848070 -0.53834361 4 0 16998 2.08000000 2893547038 2893547038 -15.00000000
0.40099826 -2.27417421 -0.53313398 4 2 17000 2.37000000 2893547043 2893547043 -13.00000000
0.47170067 -2.67788029 -0.52854091 3 4 17001 2.77000000 2893547047 2893547047 -11.00000000
0.56977522 -3.24127889 -0.52123964 1 6 17003 3.33200000 2893547052 2893547052 -9.00000000
0.72579122 -4.13727570 -0.51575106 2 8 17005 4.23200000 2893547056 2893547056 -7.00000000
1.00871694 -5.75595903 -0.51125556 3 10 17006 5.86600000 2893547061 2893547061 -5.00000000
1.99115217 -11.39704227 2.67106891 50 13 17009 11.87400000 2893547068 2893547068 13.00000000
1.69952750 -9.74789810 2.65134239 40 15 17011 10.24400000 2893547073 2893547073 15.00000000
0.34264696 -1.98165226 -0.53886127 4 0 17019 2.08200000 2893547093 2893547093 -15.00000000
0.39531121 -2.29099154 -0.53673321 4 2 17021 2.38600000 2893547098 2893547098 -13.00000000
0.46221605 -2.68152595 -0.52892256 3 4 17022 2.77200000 2893547103 2893547103 -11.00000000
0.56124020 -3.26281333 -0.52436835 1 6 17024 3.35200000 2893547107 2893547107 -9.00000000
0.70927918 -4.13208246 -0.51477611 2 8 17026 4.22400000 2893547112 2893547112 -7.00000000
0.99434805 -5.79889202 -0.51474184 3 10 17027 5.90600000 2893547116 2893547116 -5.00000000
1.94936657 -11.40426445 2.67106891 48 13 17030 11.87400000 2893547123 2893547123 13.00000000
1.66744161 -9.76519775 2.65444803 40 15 17031 10.25600000 2893547128 2893547128 15.00000000
0.33282509 -1.96569359 -0.53420252 4 0 17039 2.06400000 2893547149 2893547149 -15.00000000
0.38536382 -2.28082848 -0.53403378 4 2 17041 2.37400000 2893547153 2893547153 -13.00000000
0.45317969 -2.68505883 -0.52930415 3 4 17042 2.77400000 2893547158 2893547158 -11.00000000
0.55181587 -3.27644038 -0.52624553 1 6 17044 3.36400000 2893547162 2893547162 -9.00000000
0.69879919 -4.15802479 -0.51770097 2 8 17046 4.24800000 2893547167 2893547167 -7.00000000
0.96882218 -5.77088928 -0.51195282 3 10 17047 5.87400000 2893547172 2893547172 -5.00000000
1.50440907 -8.98036480 -0.47719926 4 12 17049 9.11800000 2893547176 2893547176 -3.00000000
1.90954638 -11.41099930 2.67106891 47 13 17050 11.87400000 2893547179 2893547179 13.00000000
1.63238907 -9.76524162 2.65289521 40 15 17051 10.25000000 2893547183 2893547183 15.00000000
0.32598859 -1.96488059 -0.53368485 4 0 17058 2.06200000 2893547204 2893547204 -15.00000000
0.38034442 -2.29747438 -0.53763300 4 2 17060 2.39000000 2893547209 2893547209 -13.00000000
0.44299197 -2.67879915 -0.52777767 3 4 17061 2.76600000 2893547213 2893547213 -11.00000000
0.53966129 -3.27045608 -0.52499408 1 6 17063 3.35600000 2893547218 2893547218 -9.00000000
0.68113673 -4.13681459 -0.51477611 2 8 17065 4.22400000 2893547222 2893547222 -7.00000000
0.94709313 -5.75834274 -0.51055837 3 10 17066 5.85800000 2893547227 2893547227 -5.00000000
1.87358713 -11.42880726 2.67376828 48 13 17069 11.88600000 2893547234 2893547234 13.00000000
1.59906077 -9.76488209 2.65134239 40 15 17070 10.24400000 2893547238 2893547238 15.00000000
0.32036602 -1.97363412 -0.53575540 4 0 17078 2.07000000 2893547259 2893547259 -15.00000000
0.37107617 -2.29109335 -0.53583342 4 2 17080 2.38200000 2893547264 2893547264 -13.00000000
0.43520626 -2.69001937 -0.52968580 3 4 17081 2.77600000 2893547268 2893547268 -11.00000000
0.52509397 -3.25281858 -0.52186537 1 6 17083 3.33600000 2893547273 2893547273 -9.00000000
0.67111176 -4.16660452 -0.51818848 2 8 17085 4.25200000 2893547278 2893547278 -7.00000000
0.92698699 -5.76161337 -0.51055837 3 10 17086 5.85800000 2893547282 2893547282 -5.00000000
1.83522451 -11.44489861 2.67601776 51 13 17089 11.89600000 2893547289 2893547289 13.00000000
1.56478596 -9.78021526 2.65393043 40 15 17091 10.25400000 2893547294 2893547294 15.00000000
0.31347480 -1.97474039 -0.53575540 4 0 17098 2.07000000 2893547315 2893547315 -15.00000000
0.36185709 -2.28467584 -0.53403378 4 2 17100 2.37400000 2893547319 2893547319 -13.00000000
0.42458656 -2.68376565 -0.52815932 3 4 17101 2.76800000 2893547324 2893547324 -11.00000000
0.51558429 -3.26633906 -0.52374262 3 6 17103 3.34800000 2893547328 2893547328 -9.00000000
0.65223998 -4.14146900 -0.51477611 2 8 17105 4.22400000 2893547333 2893547333 -7.00000000
1.79405582 -11.44353390 2.67421818 50 13 17109 11.88800000 2893547344 2893547344 13.00000000
1.53383946 -9.79489326 2.65651870 38 15 17110 10.26400000 2893547349 2893547349 15.00000000
0.30806082 -1.98536766 -0.53834361 4 0 17118 2.08000000 2893547370 2893547370 -15.00000000
0.35447615 -2.28977656 -0.53493363 4 2 17120 2.37800000 2893547374 2893547374 -13.00000000
0.41401586 -2.67747068 -0.52663285 3 4 17121 2.76000000 2893547379 2893547379 -11.00000000
0.50387830 -3.26616645 -0.52342969 1 6 17123 3.34600000 2893547384 2893547384 -9.00000000
0.64079934 -4.16334009 -0.51721346 2 8 17125 4.24400000 2893547388 2893547388 -7.00000000
1.75439465 -11.45165253 2.67466807 48 13 17129 11.89000000 2893547400 2893547400 13.00000000
1.49817848 -9.79063988 2.65393043 35 15 17130 10.25400000 2893547404 2893547404 15.00000000
0.29968098 -1.97688079 -0.53575540 4 0 17138 2.07000000 2893547425 2893547425 -15.00000000
0.34706399 -2.29485369 -0.53583342 4 2 17140 2.38200000 2893547430 2893547430 -13.00000000
0.40496045 -2.68084073 -0.52701443 3 4 17141 2.76200000 2893547434 2893547434 -11.00000000
0.49394602 -3.27767205 -0.52499408 1 6 17143 3.35600000 2893547439 2893547439 -9.00000000
0.62331140 -4.14592123 -0.51477611 2 8 17145 4.22400000 2893547443 2893547443 -7.00000000
0.86896873 -5.78676701 -0.51195282 3 10 17146 5.87400000 2893547448 2893547448 -5.00000000
1.71614051 -11.46927071 2.67736745 47 13 17149 11.90200000 2893547455 2893547455 13.00000000
1.46570683 -9.80727386 2.65703630 42 15 17150 10.26600000 2893547460 2893547460 15.00000000
0.29249567 -1.97600377 -0.53523779 4 0 17158 2.06800000 2893547480 2893547480 -15.00000000
0.34019005 -2.30376244 -0.53763300 4 2 17160 2.39000000 2893547485 2893547485 -13.00000000
0.39445427 -2.67446899 -0.52548796 3 4 17161 2.75400000 2893547490 2893547490 -11.00000000
0.48163915 -3.27351332 -0.52405548 1 6 17163 3.35000000 2893547494 2893547494 -9.00000000
0.61114186 -4.16378450 -0.51672602 2 8 17165 4.24000000 2893547499 2893547499 -7.00000000
0.83489233 -5.69514179 -0.50358588 3 10 17166 5.77800000 2893547503 2893547503 -5.00000000
1.31758106 -9.00967216 -0.47719926 4 12 17168 9.11800000 2893547508 2893547508 -3.00000000
1.67722142 -11.48290443 2.67916703 47 13 17169 11.91000000 2893547510 2893547510 13.00000000
1.42975152 -9.81258011 2.65703630 38 15 17171 10.26600000 2893547515 2893547515 15.00000000
0.28504395 -1.97318864 -0.53420252 4 0 17178 2.06400000 2893547536 2893547536 -15.00000000
0.33047867 -2.29336309 -0.53493363 4 2 17180 2.37800000 2893547540 2893547540 -13.00000000
0.38679430 -2.68748903 -0.52777767 3 4 17181 2.76600000 2893547545 2893547545 -11.00000000
0.46908662 -3.26735330 -0.52280396 1 6 17183 3.34200000 2893547549 2893547549 -9.00000000
0.59547812 -4.15803194 -0.51575106 2 8 17185 4.23200000 2893547554 2893547554 -7.00000000
0.82121384 -5.74141216 -0.50742072 3 10 17186 5.82200000 2893547559 2893547559 -5.00000000
1.63877785 -11.50026417 2.68186641 48 13 17189 11.92200000 2893547566 2893547566 13.00000000
1.39856505 -9.82682991 2.65962458 42 15 17190 10.27600000 2893547570 2893547570 15.00000000
0.27842402 -1.97608459 -0.53472012 4 0 17198 2.06600000 2893547591 2893547591 -15.00000000
0.32138646 -2.28678346 -0.53313398 4 2 17200 2.37000000 2893547595 2893547595 -13.00000000
0.37959400 -2.70437622 -0.53083062 3 4 17201 2.78200000 2893547600 2893547600 -11.00000000
0.45850027 -3.27483964 -0.52374262 1 6 17203 3.34800000 2893547605 2893547605 -9.00000000
0.58150935 -4.16401720 -0.51623851 2 8 17205 4.23600000 2893547609 2893547609 -7.00000000
0.80336934 -5.76003027 -0.50881523 3 10 17206 5.83800000 2893547614 2893547614 -5.00000000
1.59808815 -11.50205421 2.68096662 48 13 17209 11.91800000 2893547621 2893547621 13.00000000
1.36478555 -9.83547878 2.66065979 40 15 17210 10.28000000 2893547625 2893547625 15.00000000
0.27283877 -1.98661387 -0.53730834 4 0 17218 2.07600000 2893547646 2893547646 -15.00000000
0.31287318 -2.28402996 -0.53223419 4 2 17220 2.36600000 2893547651 2893547651 -13.00000000
0.36695838 -2.68234324 -0.52625120 3 4 17221 2.75800000 2893547655 2893547655 -11.00000000
0.44626495 -3.27054858 -0.52280396 1 6 17223 3.34200000 2893547660 2893547660 -9.00000000
0.56589991 -4.15815401 -0.51526356 2 8 17225 4.22800000 2893547665 2893547665 -7.00000000
0.78808814 -5.79833555 -0.51195282 3 10 17226 5.87400000 2893547669 2893547669 -5.00000000
1.55740583 -11.50370026 2.68006682 48 13 17229 11.91400000 2893547676 2893547676 13.00000000
1.32846904 -9.83850098 2.66014218 40 15 17231 10.27800000 2893547681 2893547681 15.00000000
0.26513401 -1.98180985 -0.53575540 4 0 17238 2.07000000 2893547701 2893547701 -15.00000000
0.30696040 -2.30056119 -0.53583342 4 2 17240 2.38200000 2893547706 2893547706 -13.00000000
0.35603714 -2.67193151 -0.52396148 3 4 17241 2.74600000 2893547711 2893547711 -11.00000000
0.43458566 -3.27012825 -0.52249110 1 6 17243 3.34000000 2893547715 2893547715 -9.00000000
0.54981685 -4.14829683 -0.51380116 2 8 17245 4.21600000 2893547720 2893547720 -7.00000000
0.75372571 -5.69439268 -0.50253999 3 10 17246 5.76600000 2893547725 2893547725 -5.00000000
1.51825976 -11.51679516 2.68186641 48 13 17249 11.92200000 2893547731 2893547731 13.00000000
1.29386628 -9.84116268 2.65962458 40 15 17251 10.27600000 2893547736 2893547736 15.00000000
0.25696719 -1.97314489 -0.53316724 4 0 17258 2.06000000 2893547757 2893547757 -15.00000000
0.29742214 -2.29002357 -0.53313398 4 2 17260 2.37000000 2893547761 2893547761 -13.00000000
0.34771827 -2.68094587 -0.52548796 3 4 17261 2.75400000 2893547766 2893547766 -11.00000000
0.42443511 -3.28142047 -0.52405548 1 6 17263 3.35000000 2893547771 2893547771 -9.00000000
0.53330165 -4.13444042 -0.51185125 2 8 17265 4.20000000 2893547775 2893547775 -7.00000000
0.73893481 -5.73651028 -0.50602627 3 10 17266 5.80600000 2893547780 2893547780 -5.00000000
1.47904122 -11.52975559 2.68366599 48 13 17269 11.93000000 2893547787 2893547787 13.00000000
1.26097715 -9.85711670 2.66273022 42 15 17271 10.28800000 2893547791 2893547791 15.00000000
0.25080642 -1.97977936 -0.53472012 4 0 17278 2.06600000 2893547812 2893547812 -15.00000000
0.28942665 -2.29104781 -0.53313398 4 2 17280 2.37000000 2893547817 2893547817 -13.00000000
0.33737502 -2.67435193 -0.52396148 3 4 17281 2.74600000 2893547821 2893547821 -11.00000000
0.41051269 -3.26328278 -0.52092677 1 6 17283 3.33000000 2893547826 2893547826 -9.00000000
0.52084315 -4.15203428 -0.51380116 2 8 17285 4.21600000 2893547831 2893547831 -7.00000000
0.71890616 -5.73905468 -0.50602627 3 10 17286 5.80600000 2893547835 2893547835 -5.00000000
1.11870551 -8.95601463 -0.47301236 4 12 17288 9.03800000 2893547840 2893547840 -3.00000000
1.44071543 -11.55031872 2.68726540 48 13 17289 11.94600000 2893547842 2893547842 13.00000000
1.22560799 -9.85379028 2.66065979 40 15 17291 10.28000000 2893547847 2893547847 15.00000000
0.24389419 -1.98064280 -0.53472012 4 0 17298 2.06600000 2893547867 2893547867 -15.00000000
0.28047767 -2.28430724 -0.53133440 4 2 17300 2.36200000 2893547872 2893547872 -13.00000000
0.33090478 -2.69889736 -0.52854091 3 4 17301 2.77000000 2893547877 2893547877 -11.00000000
0.39911920 -3.26469588 -0.52092677 1 6 17303 3.33000000 2893547881 2893547881 -9.00000000
0.50490546 -4.14200401 -0.51233870 2 8 17305 4.20400000 2893547886 2893547886 -7.00000000
0.69405395 -5.70197344 -0.50253999 3 10 17306 5.76600000 2893547890 2893547890 -5.00000000
1.39991963 -11.55140781 2.68636560 47 13 17309 11.94200000 2893547897 2893547897 13.00000000
1.19362116 -9.86355400 2.66221261 40 15 17310 10.28600000 2893547902 2893547902 15.00000000
0.23812601 -1.99107301 -0.53730834 4 0 17318 2.07600000 2893547923 2893547923 -15.00000000
0.27342519 -2.29301262 -0.53313398 4 2 17320 2.37000000 2893547927 2893547927 -13.00000000
0.31962493 -2.68444014 -0.52548796 3 4 17321 2.75400000 2893547932 2893547932 -11.00000000
0.38888517 -3.27587724 -0.52249110 3 6 17323 3.34000000 2893547936 2893547936 -9.00000000
0.49091071 -4.14768362 -0.51282620 2 8 17325 4.20800000 2893547941 2893547941 -7.00000000
0.67554915 -5.71623278 -0.50358588 3 10 17326 5.77800000 2893547946 2893547946 -5.00000000
1.35867834 -11.54848289 2.68456578 48 13 17329 11.93400000 2893547953 2893547953 13.00000000
1.15948689 -9.88512993 2.66687155 45 15 17331 10.30400000 2893547957 2893547957 15.00000000
0.23028357 -1.98421621 -0.53523779 4 0 17338 2.06800000 2893547978 2893547978 -15.00000000
0.26631537 -2.30169630 -0.53493363 4 2 17340 2.37800000 2893547983 2893547983 -13.00000000
0.30935130 -2.67773819 -0.52396148 3 4 17341 2.74600000 2893547987 2893547987 -11.00000000
0.37699583 -3.27328992 -0.52186537 3 6 17343 3.33600000 2893547992 2893547992 -9.00000000
0.47733536 -4.15726042 -0.51380116 2 8 17345 4.21600000 2893547996 2893547996 -7.00000000
0.65286851 -5.69480324 -0.50149417 3 10 17346 5.75400000 2893548001 2893548001 -5.00000000
1.31968403 -11.56477261 2.68726540 50 13 17349 11.94600000 2893548008 2893548008 13.00000000
1.12582552 -9.88124371 2.66480088 42 15 17350 10.29600000 2893548013 2893548013 15.00000000
0.22141185 -1.96773028 -0.53057903 4 0 17358 2.05000000 2893548033 2893548033 -15.00000000
0.25784487 -2.29873872 -0.53403378 4 2 17360 2.37400000 2893548038 2893548038 -13.00000000
0.30087635 -2.68660593 -0.52548796 3 4 17361 2.75400000 2893548042 2893548042 -11.00000000
0.36381429 -3.25888038 -0.51936245 3 6 17363 3.32000000 2893548047 2893548047 -9.00000000
0.45667338 -4.10365963 -0.50697649 2 8 17365 4.16000000 2893548052 2893548052 -7.00000000
0.63012576 -5.67130470 -0.49922809 3 10 17366 5.72800000 2893548056 2893548056 -5.00000000
1.28102088 -11.58480358 2.69086456 48 13 17369 11.96200000 2893548063 2893548063 13.00000000
1.08854306 -9.87570190 2.66221261 40 15 17371 10.28600000 2893548068 2893548068 15.00000000
0.21656257 -1.98381734 -0.53472012 4 0 17377 2.06600000 2893548089 2893548089 -15.00000000
0.24895576 -2.28795743 -0.53133440 4 2 17379 2.36200000 2893548093 2893548093 -13.00000000
0.29196560 -2.68758893 -0.52548796 3 4 17380 2.75400000 2893548098 2893548098 -11.00000000
0.35321811 -3.26203299 -0.51967531 1 6 17382 3.32200000 2893548102 2893548102 -9.00000000
0.44774890 -4.14857149 -0.51233870 2 8 17384 4.20400000 2893548107 2893548107 -7.00000000
0.61473072 -5.70505762 -0.50201708 3 10 17385 5.76000000 2893548112 2893548112 -5.00000000
1.24384379 -11.60061359 2.69356394 48 13 17388 11.97400000 2893548119 2893548119 13.00000000
1.05936289 -9.89636135 2.66687155 42 15 17389 10.30400000 2893548123 2893548123 15.00000000
0.20983937 -1.98648226 -0.53523779 4 0 17397 2.06800000 2893548144 2893548144 -15.00000000
0.24096777 -2.28881240 -0.53133440 4 2 17399 2.36200000 2893548148 2893548148 -13.00000000
0.28340325 -2.69640183 -0.52701443 3 4 17400 2.76200000 2893548153 2893548153 -11.00000000
0.34121194 -3.25735211 -0.51873666 3 6 17402 3.31600000 2893548158 2893548158 -9.00000000
0.43202820 -4.13826323 -0.51087630 2 8 17404 4.19200000 2893548162 2893548162 -7.00000000
0.59398651 -5.69924212 -0.50131983 3 10 17405 5.75200000 2893548167 2893548167 -5.00000000
1.20334244 -11.60488510 2.69356394 48 13 17408 11.97400000 2893548174 2893548174 13.00000000
1.02348101 -9.90402031 2.66790676 42 15 17410 10.30800000 2893548178 2893548178 15.00000000
0.20325081 -1.98716724 -0.53523779 4 0 17416 2.06800000 2893548199 2893548199 -15.00000000
0.23377170 -2.29347634 -0.53223419 4 2 17418 2.36600000 2893548204 2893548204 -13.00000000
0.27406260 -2.69342041 -0.52625120 3 4 17419 2.75800000 2893548208 2893548208 -11.00000000
0.33160400 -3.27025747 -0.52061391 3 6 17421 3.32800000 2893548213 2893548213 -9.00000000
0.41710544 -4.12782288 -0.50941384 2 8 17423 4.18000000 2893548218 2893548218 -7.00000000
0.58028281 -5.75272131 -0.50585192 3 10 17424 5.80400000 2893548222 2893548222 -5.00000000
1.16407442 -11.60105610 2.69176435 47 13 17427 11.96600000 2893548229 2893548229 13.00000000
0.99293917 -9.91295338 2.66945958 45 15 17428 10.31400000 2893548234 2893548234 15.00000000
0.19631305 -1.98786461 -0.53523779 4 0 17436 2.06800000 2893548254 2893548254 -15.00000000
0.22614622 -2.29815698 -0.53313398 4 2 17438 2.37000000 2893548259 2893548259 -13.00000000
0.26350763 -2.68263745 -0.52396148 3 4 17439 2.74600000 2893548264 2893548264 -11.00000000
0.32095632 -3.27925897 -0.52186537 3 6 17441 3.33600000 2893548268 2893548268 -9.00000000
0.40269411 -4.12925339 -0.50941384 2 8 17443 4.18000000 2893548273 2893548273 -7.00000000
0.55440736 -5.69522142 -0.50062257 3 10 17444 5.74400000 2893548277 2893548277 -5.00000000
1.12394774 -11.60892773 2.69266415 48 13 17447 11.97000000 2893548284 2893548284 13.00000000
0.95604324 -9.91075802 2.66790676 40 15 17449 10.30800000 2893548289 2893548289 15.00000000
0.18719774 -1.96933889 -0.53006142 4 0 17457 2.04800000 2893548310 2893548310 -15.00000000
0.21808900 -2.30285072 -0.53403378 4 2 17459 2.37400000 2893548314 2893548314 -13.00000000
0.25367349 -2.68358541 -0.52396148 3 4 17460 2.74600000 2893548319 2893548319 -11.00000000
0.30726817 -3.26271319 -0.51904953 3 6 17462 3.31800000 2893548324 2893548324 -9.00000000
0.38829866 -4.13860750 -0.51038879 2 8 17464 4.18800000 2893548328 2893548328 -7.00000000
0.53538728 -5.71705198 -0.50236571 3 10 17465 5.76400000 2893548333 2893548333 -5.00000000
1.08283675 -11.62849236 2.69626331 47 13 17468 11.98600000 2893548340 2893548340 13.00000000
0.92108488 -9.91018772 2.66687155 42 15 17469 10.30400000 2893548344 2893548344 15.00000000
0.18067452 -1.97382796 -0.53109670 4 0 17477 2.05200000 2893548365 2893548365 -15.00000000
0.20934139 -2.29583502 -0.53223419 4 2 17479 2.36600000 2893548370 2893548370 -13.00000000
0.24537210 -2.69618559 -0.52625120 3 4 17480 2.75800000 2893548374 2893548374 -11.00000000
0.29766077 -3.28343916 -0.52217823 1 6 17482 3.33800000 2893548379 2893548379 -9.00000000
0.37634933 -4.16761637 -0.51380116 2 8 17484 4.21600000 2893548383 2893548383 -7.00000000
0.51185095 -5.67919922 -0.49887946 3 10 17485 5.72400000 2893548388 2893548388 -5.00000000
0.80096060 -8.92182541 -0.46945351 4 12 17487 8.97000000 2893548393 2893548393 -3.00000000
1.04328263 -11.64384651 2.69896269 45 13 17488 11.99800000 2893548395 2893548395 13.00000000
0.88527119 -9.91926956 2.66842437 42 15 17490 10.31000000 2893548400 2893548400 15.00000000
0.17565551 -1.99173570 -0.53575540 4 0 17496 2.07000000 2893548420 2893548420 -15.00000000
0.20138593 -2.29263425 -0.53133440 4 2 17498 2.36200000 2893548425 2893548425 -13.00000000
0.23745859 -2.70871878 -0.52854091 3 4 17499 2.77000000 2893548430 2893548430 -11.00000000
0.28608358 -3.27653646 -0.52092677 1 6 17501 3.33000000 2893548434 2893548434 -9.00000000
0.35874346 -4.12533379 -0.50843889 2 8 17503 4.17200000 2893548439 2893548439 -7.00000000
0.49198163 -5.66895580 -0.49783361 3 10 17504 5.71200000 2893548443 2893548443 -5.00000000
0.76689869 -8.87269688 -0.46673205 4 12 17506 8.91800000 2893548448 2893548448 -3.00000000
1.00399458 -11.63947582 2.69716311 46 13 17507 11.99000000 2893548450 2893548450 13.00000000
0.85509872 -9.93354988 2.67153025 42 15 17508 10.32200000 2893548455 2893548455 15.00000000
0.16853900 -1.99041176 -0.53523779 4 0 17516 2.06800000 2893548476 2893548476 -15.00000000
0.19338192 -2.29332328 -0.53133440 4 2 17518 2.36200000 2893548480 2893548480 -13.00000000
0.22602648 -2.68605518 -0.52396148 3 4 17519 2.74600000 2893548485 2893548485 -11.00000000
0.27464458 -3.27751517 -0.52092677 3 6 17521 3.33000000 2893548489 2893548489 -9.00000000
0.34566176 -4.14238644 -0.51038879 2 8 17523 4.18800000 2893548494 2893548494 -7.00000000
0.47285163 -5.67858076 -0.49853083 3 10 17524 5.72000000 2893548499 2893548499 -5.00000000
0.96335912 -11.64291000 2.69716311 46 13 17527 11.99000000 2893548506 2893548506 13.00000000
0.82025999 -9.93454933 2.67101264 42 15 17528 10.32000000 2893548510 2893548510 15.00000000
0.16065247 -1.97943485 -0.53213197 4 0 17536 2.05600000 2893548531 2893548531 -15.00000000
0.18568948 -2.29786897 -0.53223419 4 2 17538 2.36600000 2893548536 2893548536 -13.00000000
0.21538667 -2.67117262 -0.52090853 3 4 17539 2.73000000 2893548540 2893548540 -11.00000000
0.26462495 -3.29617524 -0.52374262 1 6 17541 3.34800000 2893548545 2893548545 -9.00000000
0.33214903 -4.15544033 -0.51185125 2 8 17543 4.20000000 2893548549 2893548549 -7.00000000
0.45302680 -5.68019676 -0.49853083 3 10 17544 5.72000000 2893548554 2893548554 -5.00000000
0.92301977 -11.65008736 2.69806290 46 13 17547 11.99400000 2893548561 2893548561 13.00000000
0.78588140 -9.94120312 2.67204785 42 15 17548 10.32400000 2893548565 2893548565 15.00000000
0.15329331 -1.97420537 -0.53057903 5 0 17556 2.05000000 2893548586 2893548586 -15.00000000
0.17796765 -2.30238914 -0.53313398 4 2 17558 2.37000000 2893548591 2893548591 -13.00000000
0.20696700 -2.68365288 -0.52319825 3 4 17559 2.74200000 2893548595 2893548595 -11.00000000
0.25175670 -3.27935266 -0.52092677 3 6 17561 3.33000000 2893548600 2893548600 -9.00000000
0.31915438 -4.17636776 -0.51428860 2 8 17563 4.22000000 2893548605 2893548605 -7.00000000
0.43380231 -5.68968964 -0.49922809 3 10 17564 5.72800000 2893548609 2893548609 -5.00000000
0.74827832 -9.92860603 2.66790676 40 15 17569 10.30800000 2893548621 2893548621 15.00000000
0.14662644 -1.98246038 -0.53264958 4 0 17577 2.05800000 2893548642 2893548642 -15.00000000
0.16981390 -2.30691290 -0.53403378 4 2 17579 2.37400000 2893548646 2893548646 -13.00000000
0.19712952 -2.68439341 -0.52319825 3 4 17580 2.74200000 2893548651 2893548651 -11.00000000
0.23915964 -3.27237296 -0.51967531 1 6 17582 3.32200000 2893548655 2893548655 -9.00000000
0.30038902 -4.12999296 -0.50843889 2 8 17584 4.17200000 2893548660 2893548660 -7.00000000
0.41294566 -5.69124174 -0.49922809 3 10 17585 5.72800000 2893548665 2893548665 -5.00000000
0.71403182 -9.93693829 2.66945958 45 15 17589 10.31400000 2893548676 2893548676 15.00000000
0.14038432 -1.99259543 -0.53523779 4 0 17597 2.06800000 2893548697 2893548697 -15.00000000
0.16012493 -2.28416395 -0.52863497 4 2 17599 2.35000000 2893548701 2893548701 -13.00000000
0.18830584 -2.69289899 -0.52472472 3 4 17600 2.75000000 2893548706 2893548706 -11.00000000
0.22773547 -3.27318788 -0.51967531 3 6 17602 3.32200000 2893548711 2893548711 -9.00000000
0.28391448 -4.10131073 -0.50478280 2 8 17604 4.14200000 2893548715 2893548715 -7.00000000
0.39143002 -5.66879654 -0.49713635 3 10 17605 5.70400000 2893548720 2893548720 -5.00000000
0.67960459 -9.94322491 2.67049479 40 15 17609 10.31800000 2893548731 2893548731 15.00000000
0.13316992 -1.98921835 -0.53420252 4 0 17617 2.06400000 2893548752 2893548752 -15.00000000
0.15253919 -2.29054236 -0.52998471 4 2 17619 2.35600000 2893548757 2893548757 -13.00000000
0.17916495 -2.69745779 -0.52548796 3 4 17620 2.75400000 2893548761 2893548761 -11.00000000
0.21526670 -3.25819421 -0.51717234 1 6 17622 3.30600000 2893548766 2893548766 -9.00000000
0.26920596 -4.09633446 -0.50405163 2 8 17624 4.13600000 2893548770 2893548770 -7.00000000
0.37085798 -5.65819979 -0.49609050 3 10 17625 5.69200000 2893548775 2893548775 -5.00000000
0.64576709 -9.95903111 2.67411828 45 15 17629 10.33200000 2893548787 2893548787 15.00000000
0.12585850 -1.98388708 -0.53264958 4 0 17637 2.05800000 2893548807 2893548807 -15.00000000
0.14589250 -2.31245446 -0.53493363 4 2 17639 2.37800000 2893548812 2893548812 -13.00000000
0.16925487 -2.69022918 -0.52396148 3 4 17640 2.74600000 2893548817 2893548817 -11.00000000
0.20524898 -3.28061247 -0.52061391 3 6 17642 3.32800000 2893548821 2893548821 -9.00000000
0.25638461 -4.12102413 -0.50697649 2 8 17644 4.16000000 2893548826 2893548826 -7.00000000
0.35184515 -5.67139101 -0.49713635 3 10 17645 5.70400000 2893548830 2893548830 -5.00000000
0.60878938 -9.95361805 2.67204785 40 15 17650 10.32400000 2893548842 2893548842 15.00000000
0.11835478 -1.97467244 -0.53006142 4 0 17657 2.04800000 2893548863 2893548863 -15.00000000
0.13735600 -2.30516839 -0.53313398 4 2 17659 2.37000000 2893548867 2893548867 -13.00000000
0.15939745 -2.68296432 -0.52243501 3 4 17660 2.73800000 2893548872 2893548872 -11.00000000
0.19344686 -3.27539301 -0.51967531 1 6 17662 3.32200000 2893548876 2893548876 -9.00000000
0.24292874 -4.13774776 -0.50892639 2 8 17664 4.17600000 2893548881 2893548881 -7.00000000
0.33204615 -5.67258453 -0.49713635 3 10 17665 5.70400000 2893548886 2893548886 -5.00000000
0.57600170 -9.95943928 2.67308307 40 15 17669 10.32800000 2893548897 2893548897 15.00000000
0.11146116 -1.97507346 -0.53006142 4 0 17677 2.04800000 2893548918 2893548918 -15.00000000
0.12887213 -2.29785109 -0.53133440 4 2 17679 2.36200000 2893548922 2893548922 -13.00000000
0.15025038 -2.68742490 -0.52319825 3 4 17680 2.74200000 2893548927 2893548927 -11.00000000
0.18091664 -3.25632501 -0.51654661 3 6 17682 3.30200000 2893548932 2893548932 -9.00000000
0.22760841 -4.12271404 -0.50697649 2 8 17684 4.16000000 2893548936 2893548936 -7.00000000
0.31224310 -5.67370939 -0.49713635 3 10 17685 5.70400000 2893548941 2893548941 -5.00000000
0.54102367 -9.95753098 2.67204785 42 15 17689 10.32400000 2893548952 2893548952 15.00000000
0.10532077 -1.98314881 -0.53213197 4 0 17696 2.05600000 2893548973 2893548973 -15.00000000
0.12043013 -2.28269768 -0.52773517 4 2 17698 2.34600000 2893548978 2893548978 -13.00000000
0.14154391 -2.69182944 -0.52396148 3 4 17699 2.74600000 2893548982 2893548982 -11.00000000
0.16980816 -3.25098896 -0.51560801 3 6 17701 3.29600000 2893548987 2893548987 -9.00000000
0.21270150 -4.09965706 -0.50405163 2 8 17703 4.13600000 2893548992 2893548992 -7.00000000
0.50665438 -9.96707630 2.67411828 42 15 17709 10.33200000 2893549008 2893549008 15.00000000
0.09887625 -1.99315178 -0.53472012 4 0 17716 2.06600000 2893549028 2893549028 -15.00000000
0.11322829 -2.29867506 -0.53133440 4 2 17718 2.36200000 2893549033 2893549033 -13.00000000
0.13195431 -2.68838525 -0.52319825 3 4 17719 2.74200000 2893549038 2893549038 -11.00000000
0.15865135 -3.25550795 -0.51623374 3 6 17721 3.30000000 2893549042 2893549042 -9.00000000
0.19982873 -4.13011599 -0.50770766 2 8 17723 4.16600000 2893549047 2893549047 -7.00000000
0.47240773 -9.98036289 2.67722416 42 15 17729 10.34400000 2893549063 2893549063 15.00000000
0.09148166 -1.99157095 -0.53420252 4 0 17737 2.06400000 2893549084 2893549084 -15.00000000
0.10480247 -2.29907465 -0.53133440 4 2 17739 2.36200000 2893549088 2893549088 -13.00000000
0.12103130 -2.66531610 -0.51861882 3 4 17740 2.71800000 2893549093 2893549093 -11.00000000
0.14751855 -3.27382803 -0.51904953 1 6 17742 3.31800000 2893549098 2893549098 -9.00000000
0.18265045 -4.08520889 -0.50210172 2 8 17744 4.12000000 2893549102 2893549102 -7.00000000
0.25139382 -5.64482117 -0.49434736 3 10 17745 5.67200000 2893549107 2893549107 -5.00000000
0.43565619 -9.97816658 2.67618895 42 15 17750 10.34000000 2893549118 2893549118 15.00000000
0.08371015 -1.97257698 -0.52902615 4 0 17757 2.04400000 2893549139 2893549139 -15.00000000
0.09694044 -2.30332041 -0.53223419 4 2 17759 2.36600000 2893549144 2893549144 -13.00000000
0.11205572 -2.67356849 -0.52014530 3 4 17760 2.72600000 2893549148 2893549148 -11.00000000
0.13526954 -3.25458622 -0.51592088 1 6 17762 3.29800000 2893549153 2893549153 -9.00000000
0.16969718 -4.11755610 -0.50600153 2 8 17764 4.15200000 2893549158 2893549158 -7.00000000
0.22989090 -5.60186863 -0.49051252 3 10 17765 5.62800000 2893549162 2893549162 -5.00000000
0.40051311 -9.97190571 2.67411828 40 15 17770 10.33200000 2893549174 2893549174 15.00000000
0.07727508 -1.98443949 -0.53213197 4 0 17777 2.05600000 2893549194 2893549194 -15.00000000
0.08874947 -2.29975033 -0.53133440 4 2 17779 2.36200000 2893549199 2893549199 -13.00000000
0.10332546 -2.68963790 -0.52319825 3 4 17780 2.74200000 2893549204 2893549204 -11.00000000
0.12458436 -3.27280426 -0.51873666 3 6 17782 3.31600000 2893549208 2893549208 -9.00000000
0.15509874 -4.11217260 -0.50527030 2 8 17784 4.14600000 2893549213 2893549213 -7.00000000
0.21093330 -5.61856461 -0.49190700 3 10 17785 5.64400000 2893549217 2893549217 -5.00000000
0.36801189 -9.98862362 2.67825937 45 15 17789 10.34800000 2893549229 2893549229 15.00000000
0.07041606 -1.98662782 -0.53264958 4 0 17797 2.05800000 2893549250 2893549250 -15.00000000
0.08017451 -2.28446579 -0.52773517 4 2 17799 2.34600000 2893549254 2893549254 -13.00000000
0.09407328 -2.69390631 -0.52396148 3 4 17800 2.74600000 2893549259 2893549259 -11.00000000
0.11302288 -3.26927066 -0.51811093 3 6 17802 3.31200000 2893549263 2893549263 -9.00000000
0.14284833 -4.17419052 -0.51282620 2 8 17804 4.20800000 2893549268 2893549268 -7.00000000
0.19226870 -5.64714432 -0.49434736 3 10 17805 5.67200000 2893549273 2893549273 -5.00000000
0.33159143 -9.99569798 2.67981243 40 15 17810 10.35400000 2893549284 2893549284 15.00000000
0.06354269 -1.98879230 -0.53316724 4 0 17817 2.06000000 2893549305 2893549305 -15.00000000
0.07219974 -2.28473163 -0.52773517 4 2 17819 2.34600000 2893549310 2893549310 -13.00000000
0.08442254 -2.68636894 -0.52243501 3 4 17820 2.73800000 2893549314 2893549314 -11.00000000
0.10130351 -3.25977325 -0.51654661 1 6 17822 3.30200000 2893549319 2893549319 -9.00000000
0.29878858 -10.00832844 2.68291831 42 15 17829 10.36600000 2893549340 2893549340 15.00000000
0.05643527 -1.98320878 -0.53161430 4 0 17837 2.05400000 2893549360 2893549360 -15.00000000
0.06455261 -2.29665756 -0.53043461 4 2 17839 2.35800000 2893549365 2893549365 -13.00000000
0.07488041 -2.68075991 -0.52129018 3 4 17840 2.73200000 2893549369 2893549369 -11.00000000
0.26200306 -10.00549316 2.68188286 42 15 17850 10.36200000 2893549395 2893549395 15.00000000
0.04981349 -1.96792650 -0.52747321 4 0 17855 2.03800000 2893549416 2893549416 -15.00000000
