# .PCD v0.7 - Point Cloud Data file format
VERSION 0.7
FIELDS x y z intensity laser_id azimuth distance_m adjustedtime timestamp vertical_angle
SIZE 4 4 4 1 1 2 8 8 4 8
TYPE F F F U U U F U U F
COUNT 1 1 1 1 1 1 1 1 1 1
WIDTH 534
HEIGHT 1
VIEWPOINT 0 0 0 1 0 0 0
POINTS 534
DATA ascii
3.25439763 10.72494221 1.37614858 31 7 1688 11.29200000 2886704551 2886704551 7.00000000
1.58603275 5.22352600 -0.67028141 2 8 1689 5.50000000 2886704554 2886704554 -7.00000000
3.26041937 10.73804092 1.77740836 28 9 1689 11.36200000 2886704556 2886704556 9.00000000
3.22783685 10.62406158 -0.97143793 4 10 1690 11.14600000 2886704558 2886704558 -5.00000000
2.92320585 9.61536980 1.95350254 12 11 1691 10.23800000 2886704561 2886704561 11.00000000
3.22374916 10.59730721 -0.58051044 21 12 1692 11.09200000 2886704563 2886704563 -3.00000000
2.97132134 9.76139164 2.35568738 57 13 1693 10.47200000 2886704565 2886704565 13.00000000
3.22614121 10.59189034 -0.19326794 8 14 1694 11.07400000 2886704568 2886704568 -1.00000000
2.56843877 8.43255806 2.36198258 45 15 1694 9.12600000 2886704570 2886704570 15.00000000
0.66385430 2.16866159 -0.60770714 4 0 1702 2.34800000 2886704591 2886704591 -15.00000000
3.24863148 10.60592937 0.19361700 13 1 1703 11.09400000 2886704593 2886704593 1.00000000
0.79034340 2.57865667 -0.62266451 3 2 1704 2.76800000 2886704595 2886704595 -13.00000000
3.26066875 10.63197327 0.58281320 10 3 1705 11.13600000 2886704598 2886704598 3.00000000
0.94519794 3.08198118 -0.62661672 2 4 1705 3.28400000 2886704600 2886704600 -11.00000000
3.25456953 10.60548306 0.97056633 12 5 1706 11.13600000 2886704602 2886704602 5.00000000
3.25064898 10.58611870 -1.75394320 2 6 1707 11.21200000 2886704604 2886704604 -9.00000000
3.27199149 10.64900017 1.36786151 10 7 1708 11.22400000 2886704607 2886704607 7.00000000
3.25984931 10.60289001 -1.36201179 2 8 1709 11.17600000 2886704609 2886704609 -7.00000000
3.27640343 10.65673351 1.76583219 12 9 1709 11.28800000 2886704611 2886704611 9.00000000
2.41835928 7.86099958 -0.71955782 4 10 1710 8.25600000 2886704614 2886704614 -5.00000000
2.96426082 9.62950039 1.95846355 12 11 1711 10.26400000 2886704616 2886704616 11.00000000
3.26660037 10.60507679 -0.58155715 12 12 1712 11.11200000 2886704618 2886704618 -3.00000000
3.00365496 9.74537373 2.35433769 54 13 1713 10.46600000 2886704621 2886704621 13.00000000
3.26662993 10.59202957 -0.19347738 8 14 1714 11.08600000 2886704623 2886704623 -1.00000000
2.59615040 8.41800308 2.36042976 40 15 1714 9.12000000 2886704625 2886704625 15.00000000
0.66913265 2.15895009 -0.60563654 4 0 1722 2.34000000 2886704646 2886704646 -15.00000000
3.28622556 10.59643555 0.19365190 13 1 1723 11.09600000 2886704648 2886704648 1.00000000
0.79587442 2.56471491 -0.61996508 3 2 1724 2.75600000 2886704651 2886704651 -13.00000000
3.30131483 10.63197136 0.58344126 10 3 1725 11.14800000 2886704653 2886704653 3.00000000
0.95827907 3.08616281 -0.62814319 2 4 1725 3.29200000 2886704655 2886704655 -11.00000000
3.29984617 10.62069511 0.97300673 12 5 1726 11.16400000 2886704657 2886704657 5.00000000
1.21099818 3.89524984 -0.64607435 2 6 1727 4.13000000 2886704660 2886704660 -9.00000000
3.30796432 10.63372326 1.36737406 10 7 1728 11.22000000 2886704662 2886704662 7.00000000
1.63308060 5.24644327 -0.67466867 2 8 1729 5.53600000 2886704664 2886704664 -7.00000000
3.31367803 10.63899517 1.76489365 12 9 1730 11.28200000 2886704667 2886704667 9.00000000
2.44933939 7.86392355 -0.72060370 4 10 1730 8.26800000 2886704669 2886704669 -5.00000000
3.01129150 9.66220379 1.96724069 12 11 1731 10.31000000 2886704671 2886704671 11.00000000
3.30716658 10.60505009 -0.58218515 12 12 1732 11.12400000 2886704674 2886704674 -3.00000000
3.03707385 9.73296928 2.35388780 59 13 1733 10.46400000 2886704676 2886704676 13.00000000
3.31848288 10.62828255 -0.19435000 12 14 1734 11.13600000 2886704678 2886704678 -1.00000000
2.62379146 8.40335751 2.35887671 40 15 1734 9.11400000 2886704680 2886704680 15.00000000
0.68129146 2.17134738 -0.60977769 4 0 1742 2.35600000 2886704701 2886704701 -15.00000000
3.33098078 10.60970211 0.19410567 13 1 1743 11.12200000 2886704704 2886704704 1.00000000
0.80248588 2.55448461 -0.61816549 3 2 1744 2.74800000 2886704706 2886704706 -13.00000000
3.33900619 10.62228870 0.58354592 10 3 1745 11.15000000 2886704708 2886704708 3.00000000
0.97493321 3.10152817 -0.63195938 2 4 1745 3.31200000 2886704710 2886704710 -11.00000000
3.33988810 10.61861515 0.97387826 12 5 1746 11.17400000 2886704713 2886704713 5.00000000
1.22458780 3.89099884 -0.64607435 2 6 1747 4.13000000 2886704715 2886704715 -9.00000000
3.34744787 10.62968445 1.36834896 12 7 1748 11.22800000 2886704717 2886704717 7.00000000
1.64780462 5.22935057 -0.67320627 2 8 1749 5.52400000 2886704720 2886704720 -7.00000000
3.35614085 10.64431858 1.76770949 12 9 1750 11.30000000 2886704722 2886704722 9.00000000
3.35149431 10.62958241 -0.97509843 4 10 1750 11.18800000 2886704724 2886704724 -5.00000000
3.08162332 9.76771545 1.99090111 12 11 1751 10.43400000 2886704727 2886704727 11.00000000
3.34657001 10.60105991 -0.58260387 12 12 1752 11.13200000 2886704729 2886704729 -3.00000000
3.06985569 9.71859169 2.35298800 57 13 1753 10.46000000 2886704731 2886704731 13.00000000
3.35616493 10.61854076 -0.19438490 12 14 1754 11.13800000 2886704733 2886704733 -1.00000000
2.65806890 8.40473557 2.36198258 42 15 1755 9.12600000 2886704736 2886704736 15.00000000
0.69120586 2.17632079 -0.61184824 4 0 1762 2.36400000 2886704757 2886704757 -15.00000000
3.37223482 10.61135006 0.19435000 13 1 1763 11.13600000 2886704759 2886704759 1.00000000
0.81375998 2.55909634 -0.61996508 3 2 1764 2.75600000 2886704761 2886704761 -13.00000000
3.37788129 10.61627769 0.58385992 10 3 1765 11.15600000 2886704763 2886704763 3.00000000
0.97622943 3.06817269 -0.62585348 2 4 1765 3.28000000 2886704766 2886704766 -11.00000000
3.38116455 10.62018108 0.97509843 12 5 1766 11.18800000 2886704768 2886704768 5.00000000
1.24176002 3.89799380 -0.64795154 2 6 1767 4.14200000 2886704770 2886704770 -9.00000000
3.38814926 10.62928295 1.36981142 12 7 1768 11.24000000 2886704773 2886704773 7.00000000
1.66303241 5.21411085 -0.67198753 2 8 1769 5.51400000 2886704775 2886704775 -7.00000000
3.39507771 10.63818455 1.76864803 12 9 1770 11.30600000 2886704777 2886704777 9.00000000
2.49569917 7.82005930 -0.71816331 4 10 1770 8.24000000 2886704780 2886704780 -5.00000000
3.18676949 9.97945404 2.03631353 50 11 1771 10.67200000 2886704782 2886704782 11.00000000
3.38780951 10.60263062 -0.58333659 12 12 1772 11.14600000 2886704784 2886704784 -3.00000000
3.10138750 9.70039272 2.35118842 57 13 1773 10.45200000 2886704786 2886704786 13.00000000
3.39686608 10.61818886 -0.19459434 10 14 1774 11.15000000 2886704789 2886704789 -1.00000000
2.68592548 8.39587498 2.36198258 42 15 1774 9.12600000 2886704791 2886704791 15.00000000
0.69288641 2.15550303 -0.60667187 4 0 1782 2.34400000 2886704812 2886704812 -15.00000000
3.41660237 10.62235832 0.19476886 13 1 1783 11.16000000 2886704814 2886704814 1.00000000
0.82746404 2.57108045 -0.62356430 3 2 1784 2.77200000 2886704816 2886704816 -13.00000000
3.42104053 10.62343407 0.58490664 13 3 1785 11.17600000 2886704819 2886704819 3.00000000
0.98572981 3.06100869 -0.62509024 2 4 1785 3.27600000 2886704821 2886704821 -11.00000000
3.42188168 10.61969280 0.97614431 12 5 1786 11.20000000 2886704823 2886704823 5.00000000
1.25838971 3.90303588 -0.64951593 2 6 1787 4.15200000 2886704826 2886704826 -9.00000000
3.43132639 10.63628387 1.37224877 12 7 1788 11.26000000 2886704828 2886704828 7.00000000
1.68427193 5.21771955 -0.67320627 2 8 1789 5.52400000 2886704830 2886704830 -7.00000000
3.43522692 10.63566780 1.77021241 12 9 1790 11.31600000 2886704833 2886704833 9.00000000
2.52543068 7.81888390 -0.71886057 4 10 1790 8.24800000 2886704835 2886704835 -5.00000000
3.22520733 9.97947884 2.03860331 43 11 1791 10.68400000 2886704837 2886704837 11.00000000
3.42848611 10.60214233 -0.58396459 12 12 1792 11.15800000 2886704839 2886704839 -3.00000000
3.12443066 9.65613365 2.34309030 60 13 1793 10.41600000 2886704842 2886704842 13.00000000
3.43267775 10.60246181 -0.19452453 10 14 1794 11.14600000 2886704844 2886704844 -1.00000000
2.71402597 8.38277245 2.36094737 42 15 1794 9.12200000 2886704846 2886704846 15.00000000
0.69965470 2.15331578 -0.60667187 4 0 1800 2.34400000 2886704867 2886704867 -15.00000000
3.44871998 10.60776901 0.19469905 13 1 1801 11.15600000 2886704869 2886704869 1.00000000
0.83192021 2.55734921 -0.62086493 3 2 1802 2.76000000 2886704872 2886704872 -13.00000000
3.45872426 10.63222980 0.58595335 13 3 1802 11.19600000 2886704874 2886704874 3.00000000
1.00141799 3.07656550 -0.62890643 2 4 1803 3.29600000 2886704876 2886704876 -11.00000000
3.45522738 10.60888958 0.97614431 12 5 1804 11.20000000 2886704879 2886704879 5.00000000
1.26880908 3.89342880 -0.64857727 2 6 1805 4.14600000 2886704881 2886704881 -9.00000000
3.46841669 10.63677502 1.37371123 12 7 1806 11.27200000 2886704883 2886704883 7.00000000
3.46534729 10.62107182 -1.37176132 2 8 1807 11.25600000 2886704885 2886704885 -7.00000000
3.46921921 10.63293934 1.77146387 12 9 1807 11.32400000 2886704888 2886704888 9.00000000
2.55121851 7.81469917 -0.71920919 4 10 1808 8.25200000 2886704890 2886704890 -5.00000000
3.25166583 9.95436764 2.03555036 43 11 1809 10.66800000 2886704892 2886704892 11.00000000
3.46984339 10.61599922 -0.58532536 12 12 1810 11.18400000 2886704895 2886704895 -3.00000000
3.11961722 9.53884220 2.31699586 62 13 1811 10.30000000 2886704897 2886704897 13.00000000
3.47343254 10.61443138 -0.19494338 10 14 1812 11.17000000 2886704899 2886704899 -1.00000000
2.73794460 8.36686039 2.35887671 42 15 1812 9.11400000 2886704902 2886704902 15.00000000
0.70958042 2.15820122 -0.60874242 4 0 1820 2.35200000 2886704922 2886704922 -15.00000000
3.48760176 10.60136414 0.19480376 13 1 1821 11.16200000 2886704925 2886704925 1.00000000
0.83962333 2.55072761 -0.61996508 3 2 1822 2.75600000 2886704927 2886704927 -13.00000000
3.49954462 10.62517166 0.58626735 13 3 1823 11.20200000 2886704929 2886704929 3.00000000
1.01092279 3.06932163 -0.62814319 2 4 1823 3.29200000 2886704932 2886704932 -11.00000000
3.49598002 10.60811806 0.97719020 12 5 1824 11.21200000 2886704934 2886704934 5.00000000
1.27682447 3.87209177 -0.64576149 2 6 1825 4.12800000 2886704936 2886704936 -9.00000000
3.50925684 10.63591385 1.37517369 12 7 1826 11.28400000 2886704938 2886704938 7.00000000
3.50986838 10.63153172 -1.37468624 2 8 1827 11.28000000 2886704941 2886704941 -7.00000000
3.51498318 10.64078522 1.77490544 12 9 1828 11.34600000 2886704943 2886704943 9.00000000
2.56598258 7.76790953 -0.71572298 4 10 1828 8.21200000 2886704945 2886704945 -5.00000000
3.28516102 9.93922806 2.03478718 46 11 1829 10.66400000 2886704948 2886704948 11.00000000
3.50876045 10.60951138 -0.58563936 12 12 1830 11.19000000 2886704950 2886704950 -3.00000000
3.12228441 9.43539143 2.29450083 62 13 1831 10.20000000 2886704952 2886704952 13.00000000
3.51423407 10.61363316 -0.19515280 10 14 1832 11.18200000 2886704955 2886704955 -1.00000000
2.76616192 8.34943390 2.35680628 45 15 1833 9.10600000 2886704957 2886704957 15.00000000
0.72076839 2.16670966 -0.61184824 4 0 1840 2.36400000 2886704978 2886704978 -15.00000000
3.53153300 10.60999680 0.19518772 13 1 1841 11.18400000 2886704980 2886704980 1.00000000
0.84975344 2.55147910 -0.62086493 3 2 1842 2.76000000 2886704982 2886704982 -13.00000000
3.53980851 10.62866783 0.58710474 13 3 1842 11.21800000 2886704985 2886704985 3.00000000
1.02163053 3.06577420 -0.62814319 2 4 1843 3.29200000 2886704987 2886704987 -11.00000000
3.54055047 10.61853123 0.97928190 12 5 1844 11.23600000 2886704989 2886704989 5.00000000
1.28658175 3.85636830 -0.64388424 2 6 1845 4.11600000 2886704991 2886704991 -9.00000000
3.54636168 10.62360001 1.37517369 14 7 1846 11.28400000 2886704994 2886704994 7.00000000
3.54570031 10.61544895 -1.37419868 2 8 1847 11.27600000 2886704996 2886704996 -7.00000000
3.55899262 10.64906025 1.77834702 12 9 1848 11.36800000 2886704998 2886704998 9.00000000
2.60002899 7.77969122 -0.71764040 4 10 1848 8.23400000 2886705001 2886705001 -5.00000000
3.31609964 9.91652870 2.03249741 43 11 1849 10.65200000 2886705003 2886705003 11.00000000
3.54577303 10.59719849 -0.58563936 12 12 1850 11.19000000 2886705005 2886705005 -3.00000000
3.11436892 9.30247116 2.26480722 62 13 1851 10.06800000 2886705008 2886705008 13.00000000
3.55634236 10.61647034 -0.19543205 10 14 1852 11.19800000 2886705010 2886705010 -1.00000000
2.79935718 8.35670185 2.36146498 45 15 1852 9.12400000 2886705012 2886705012 15.00000000
0.72586250 2.15685678 -0.60977769 4 0 1860 2.35600000 2886705033 2886705033 -15.00000000
3.57492876 10.61655617 0.19553676 13 1 1861 11.20400000 2886705035 2886705035 1.00000000
0.85803241 2.54665065 -0.62041503 3 2 1862 2.75800000 2886705037 2886705037 -13.00000000
3.57880092 10.62192535 0.58741879 13 3 1862 11.22400000 2886705040 2886705040 3.00000000
1.02856278 3.05102706 -0.62585348 2 4 1863 3.28000000 2886705042 2886705042 -11.00000000
3.58268905 10.62121105 0.98067641 12 5 1864 11.25200000 2886705044 2886705044 5.00000000
1.30445707 3.86495543 -0.64607435 2 6 1865 4.13000000 2886705047 2886705047 -9.00000000
3.58977461 10.62996292 1.37761104 12 7 1866 11.30400000 2886705049 2886705049 7.00000000
3.58527541 10.61052990 -1.37517369 2 8 1867 11.28400000 2886705051 2886705051 -7.00000000
3.59677577 10.63844299 1.77865982 12 9 1868 11.37000000 2886705054 2886705054 9.00000000
2.62525487 7.76490593 -0.71711743 4 10 1868 8.22800000 2886705056 2886705056 -5.00000000
3.35446930 9.91605091 2.03478718 50 11 1869 10.66400000 2886705058 2886705058 11.00000000
3.58658457 10.59610844 -0.58626735 12 12 1870 11.20200000 2886705061 2886705061 -3.00000000
3.11181521 9.18818092 2.23961258 64 13 1871 9.95600000 2886705063 2886705063 13.00000000
3.59337926 10.60399151 -0.19543205 10 14 1872 11.19800000 2886705065 2886705065 -1.00000000
2.83285046 8.35968685 2.36508846 42 15 1872 9.13800000 2886705067 2886705067 15.00000000
0.72877979 2.13955235 -0.60563654 4 0 1881 2.34000000 2886705088 2886705088 -15.00000000
3.61897707 10.61852455 0.19581600 13 1 1882 11.22000000 2886705090 2886705090 1.00000000
0.87050545 2.55271101 -0.62266451 3 2 1883 2.76800000 2886705093 2886705093 -13.00000000
3.62342954 10.61944675 0.58804679 13 3 1884 11.23600000 2886705095 2886705095 3.00000000
1.04227436 3.05466890 -0.62737995 2 4 1884 3.28800000 2886705097 2886705097 -11.00000000
3.62931848 10.63063431 0.98276818 12 5 1885 11.27600000 2886705100 2886705100 5.00000000
1.31989121 3.86388683 -0.64670008 4 6 1886 4.13400000 2886705102 2886705102 -9.00000000
3.63513160 10.63551903 1.38004839 12 7 1887 11.32400000 2886705104 2886705104 7.00000000
3.62221360 10.59168339 -1.37444246 2 8 1888 11.27800000 2886705107 2886705107 -7.00000000
3.63324976 10.62395382 1.77834702 12 9 1888 11.36800000 2886705109 2886705109 9.00000000
2.65434217 7.75711679 -0.71729177 4 10 1889 8.23000000 2886705111 2886705111 -5.00000000
3.39460659 9.91483402 2.03707695 43 11 1890 10.67600000 2886705114 2886705114 11.00000000
3.63057542 10.59800720 -0.58710474 12 12 1891 11.21800000 2886705116 2886705116 -3.00000000
3.10819006 9.06795025 2.21306849 53 13 1892 9.83800000 2886705118 2886705118 13.00000000
3.63741040 10.60588264 -0.19571128 10 14 1893 11.21400000 2886705120 2886705120 -1.00000000
2.86304736 8.34326553 2.36353540 40 15 1894 9.13200000 2886705123 2886705123 15.00000000
0.73939008 2.14612794 -0.60822475 4 0 1901 2.35000000 2886705143 2886705143 -15.00000000
3.65341401 10.59826469 0.19567639 13 1 1902 11.21200000 2886705146 2886705146 1.00000000
0.87941074 2.54965687 -0.62266451 3 2 1903 2.76800000 2886705148 2886705148 -13.00000000
3.66383481 10.62247753 0.58888417 13 3 1903 11.25200000 2886705150 2886705150 3.00000000
1.05421174 3.05472374 -0.62814319 2 4 1904 3.29200000 2886705153 2886705153 -11.00000000
3.66250229 10.60660172 0.98172230 12 5 1905 11.26400000 2886705155 2886705155 5.00000000
1.33208048 3.85552192 -0.64607435 4 6 1906 4.13000000 2886705157 2886705157 -9.00000000
3.68001723 10.64527893 1.38297331 10 7 1907 11.34800000 2886705160 2886705160 7.00000000
3.66759920 10.60336399 -1.37761104 2 8 1908 11.30400000 2886705162 2886705162 -7.00000000
3.67927074 10.63110065 1.78178859 12 9 1909 11.39000000 2886705164 2886705164 9.00000000
2.67228079 7.72144461 -0.71485138 4 10 1909 8.20200000 2886705167 2886705167 -5.00000000
3.42791033 9.89921379 2.03631353 50 11 1910 10.67200000 2886705169 2886705169 11.00000000
3.67016268 10.59281826 -0.58752346 12 12 1911 11.22600000 2886705171 2886705171 -3.00000000
3.11237717 8.97787285 2.19372272 64 13 1912 9.75200000 2886705173 2886705173 13.00000000
3.67637563 10.59878826 -0.19581600 10 14 1913 11.22000000 2886705176 2886705176 -1.00000000
0.74676371 2.14561892 -0.60874242 4 0 1919 2.35200000 2886705199 2886705199 -15.00000000
3.69129467 10.59995461 0.19592072 13 1 1920 11.22600000 2886705201 2886705201 1.00000000
0.88869882 2.55056190 -0.62356430 3 2 1921 2.77200000 2886705203 2886705203 -13.00000000
3.70310259 10.62788963 0.58982623 10 3 1921 11.27000000 2886705206 2886705206 3.00000000
1.06509590 3.05510449 -0.62890643 2 4 1922 3.29600000 2886705208 2886705208 -11.00000000
3.70368028 10.61761761 0.98381400 12 5 1923 11.28800000 2886705210 2886705210 5.00000000
1.34679008 3.85877824 -0.64732581 2 6 1924 4.13800000 2886705213 2886705213 -9.00000000
3.71605992 10.64116192 1.38394821 10 7 1925 11.35600000 2886705215 2886705215 7.00000000
3.70089245 10.59178925 -1.37761104 2 8 1926 11.30400000 2886705217 2886705217 -7.00000000
3.71731353 10.63878536 1.78491724 12 9 1926 11.41000000 2886705220 2886705220 9.00000000
2.70573068 7.73934221 -0.71729177 4 10 1927 8.23000000 2886705222 2886705222 -5.00000000
3.45639968 9.88098335 2.03478718 46 11 1928 10.66400000 2886705224 2886705224 11.00000000
3.70870137 10.59631729 -0.58836085 12 12 1929 11.24200000 2886705226 2886705226 -3.00000000
3.10771823 8.87425041 2.17077756 54 13 1930 9.65000000 2886705229 2886705229 13.00000000
3.71560597 10.60417175 -0.19613014 10 14 1931 11.23800000 2886705231 2886705231 -1.00000000
2.41723204 6.89481449 1.95770729 9 15 1932 7.56400000 2886705233 2886705233 15.00000000
0.75168329 2.13571000 -0.60667187 4 0 1939 2.34400000 2886705254 2886705254 -15.00000000
3.73292255 10.60020828 0.19616506 13 1 1940 11.24000000 2886705256 2886705256 1.00000000
0.89565367 2.54193020 -0.62221462 3 2 1941 2.76600000 2886705259 2886705259 -13.00000000
3.74084210 10.61678219 0.58993089 13 3 1941 11.27200000 2886705261 2886705261 3.00000000
1.07705915 3.05507112 -0.62966967 2 4 1942 3.30000000 2886705263 2886705263 -11.00000000
3.74668527 10.62153530 0.98538285 12 5 1943 11.30600000 2886705266 2886705266 5.00000000
1.35630691 3.84287691 -0.64544863 4 6 1944 4.12600000 2886705268 2886705268 -9.00000000
3.75318193 10.62812519 1.38394821 12 7 1945 11.35600000 2886705270 2886705270 7.00000000
3.74842358 10.60875320 -1.38151085 2 8 1946 11.33600000 2886705273 2886705273 -7.00000000
3.75574327 10.62946987 1.78554296 12 9 1946 11.41400000 2886705275 2886705275 9.00000000
2.73538589 7.73736382 -0.71798903 4 10 1947 8.23800000 2886705277 2886705277 -5.00000000
3.49217916 9.87256050 2.03555036 43 11 1948 10.66800000 2886705279 2886705279 11.00000000
3.74366760 10.57765770 -0.58804679 12 12 1949 11.23600000 2886705282 2886705282 -3.00000000
3.09249043 8.73292351 2.13883471 21 13 1950 9.50800000 2886705284 2886705284 13.00000000
3.75860929 10.60810089 -0.19644429 8 14 1951 11.25600000 2886705286 2886705286 -1.00000000
2.45290375 6.91910934 1.96702468 9 15 1952 7.60000000 2886705289 2886705289 15.00000000
0.76302010 2.14399338 -0.60977769 4 0 1959 2.35600000 2886705309 2886705309 -15.00000000
3.77258468 10.59464836 0.19630466 13 1 1960 11.24800000 2886705312 2886705312 1.00000000
0.90386719 2.53695273 -0.62176472 3 2 1961 2.76400000 2886705314 2886705314 -13.00000000
3.77854919 10.60554123 0.59003556 10 3 1961 11.27400000 2886705316 2886705316 3.00000000
1.08507991 3.04389572 -0.62814319 2 4 1962 3.29200000 2886705319 2886705319 -11.00000000
3.78976250 10.62528133 0.98695165 12 5 1963 11.32400000 2886705321 2886705321 5.00000000
1.37303245 3.84742141 -0.64701295 4 6 1964 4.13600000 2886705323 2886705323 -9.00000000
3.79626608 10.63178539 1.38614190 10 7 1965 11.37400000 2886705325 2886705325 7.00000000
3.78142500 10.58438778 -1.38004839 2 8 1966 11.32400000 2886705328 2886705328 -7.00000000
3.79614711 10.62559605 1.78710735 12 9 1966 11.42400000 2886705330 2886705330 9.00000000
2.77310777 7.75778675 -0.72077799 4 10 1967 8.27000000 2886705332 2886705332 -5.00000000
3.52661943 9.86030960 2.03555036 43 11 1968 10.66800000 2886705335 2886705335 11.00000000
3.78729725 10.58333015 -0.58909351 12 12 1969 11.25600000 2886705337 2886705337 -3.00000000
3.00076962 8.38082504 2.05515289 6 13 1970 9.13600000 2886705339 2886705339 13.00000000
3.79628992 10.59679890 -0.19647919 10 14 1971 11.25800000 2886705342 2886705342 -1.00000000
2.47583485 6.91093731 1.96702468 9 15 1971 7.60000000 2886705344 2886705344 15.00000000
0.76919121 2.13768125 -0.60874242 4 0 1979 2.35200000 2886705365 2886705365 -15.00000000
3.81902695 10.60775566 0.19679333 13 1 1980 11.27600000 2886705367 2886705367 1.00000000
0.91271728 2.53378201 -0.62176472 3 2 1981 2.76400000 2886705369 2886705369 -13.00000000
3.82231522 10.61107731 0.59108227 10 3 1981 11.29400000 2886705372 2886705372 3.00000000
1.09170449 3.02900791 -0.62585348 2 4 1982 3.28000000 2886705374 2886705374 -11.00000000
3.82682848 10.61198807 0.98695165 12 5 1983 11.32400000 2886705376 2886705376 5.00000000
1.39315844 3.86118650 -0.65014166 4 6 1984 4.15600000 2886705378 2886705378 -9.00000000
3.83672500 10.62780476 1.38736057 12 7 1985 11.38400000 2886705381 2886705381 7.00000000
1.86803687 5.17167330 -0.67515618 2 8 1986 5.54000000 2886705383 2886705383 -7.00000000
3.83656979 10.62156963 1.78867173 12 9 1986 11.43400000 2886705385 2886705385 9.00000000
2.78933573 7.71807909 -0.71798903 4 10 1987 8.23800000 2886705388 2886705388 -5.00000000
3.56502247 9.85901737 2.03784013 46 11 1988 10.68000000 2886705390 2886705390 11.00000000
3.82897329 10.58319283 -0.58982623 12 12 1989 11.27000000 2886705392 2886705392 -3.00000000
3.05255866 8.43260002 2.07044959 16 13 1990 9.20400000 2886705395 2886705395 13.00000000
3.83325648 10.58348274 -0.19647919 10 14 1991 11.25800000 2886705397 2886705397 -1.00000000
2.50246429 6.90544891 1.96806002 13 15 1992 7.60400000 2886705399 2886705399 15.00000000
0.77664840 2.13498330 -0.60874242 4 0 1999 2.35200000 2886705420 2886705420 -15.00000000
3.85739970 10.59811878 0.19686314 13 1 2000 11.28000000 2886705422 2886705422 1.00000000
0.92689091 2.54522943 -0.62536395 3 2 2001 2.78000000 2886705425 2886705425 -13.00000000
3.86596727 10.61013317 0.59181499 13 3 2002 11.30800000 2886705427 2886705427 3.00000000
1.11033642 3.04731417 -0.63043290 2 4 2002 3.30400000 2886705429 2886705429 -11.00000000
3.86521268 10.60230923 0.98730028 12 5 2003 11.32800000 2886705431 2886705431 5.00000000
1.40392041 3.84887695 -0.64889014 4 6 2004 4.14800000 2886705434 2886705434 -9.00000000
3.88196635 10.63672447 1.39028549 12 7 2005 11.40800000 2886705436 2886705436 7.00000000
1.89016342 5.17630911 -0.67661858 2 8 2006 5.55200000 2886705438 2886705438 -7.00000000
3.87972069 10.62481308 1.79148746 12 9 2006 11.45200000 2886705441 2886705441 9.00000000
2.81625986 7.70829535 -0.71798903 4 10 2007 8.23800000 2886705443 2886705443 -5.00000000
3.59537101 9.83544922 2.03555036 46 11 2008 10.66800000 2886705445 2886705445 11.00000000
3.86863637 10.57726574 -0.59024489 12 12 2009 11.27800000 2886705448 2886705448 -3.00000000
3.06523275 8.37614155 2.05920196 10 13 2010 9.15400000 2886705450 2886705450 13.00000000
3.87773943 10.59069347 -0.19686314 8 14 2011 11.28000000 2886705452 2886705452 -1.00000000
2.52402139 6.89348459 1.96702468 15 15 2011 7.60000000 2886705455 2886705455 15.00000000
0.78276271 2.12863302 -0.60770714 4 0 2019 2.34800000 2886705475 2886705475 -15.00000000
3.89920402 10.59772587 0.19710748 13 1 2020 11.29400000 2886705478 2886705478 1.00000000
0.93038404 2.52734852 -0.62176472 3 2 2021 2.76400000 2886705480 2886705480 -13.00000000
3.91126370 10.61906338 0.59307104 10 3 2022 11.33200000 2886705482 2886705482 3.00000000
1.11553836 3.02868176 -0.62737995 2 4 2022 3.28800000 2886705484 2886705484 -11.00000000
3.90633178 10.59996891 0.98834610 12 5 2023 11.34000000 2886705487 2886705487 5.00000000
1.41187978 3.82912564 -0.64638722 4 6 2024 4.13200000 2886705489 2886705489 -9.00000000
3.92182016 10.63055897 1.39126039 14 7 2025 11.41600000 2886705491 2886705491 7.00000000
1.90959537 5.17340422 -0.67710608 2 8 2026 5.55600000 2886705494 2886705494 -7.00000000
3.92137384 10.61793327 1.79273891 12 9 2027 11.46000000 2886705496 2886705496 9.00000000
2.84591055 7.70589399 -0.71868628 4 10 2027 8.24600000 2886705498 2886705498 -5.00000000
3.62832022 9.81915665 2.03478718 46 11 2028 10.66400000 2886705501 2886705501 11.00000000
3.90968990 10.57493687 -0.59087294 12 12 2029 11.29000000 2886705503 2886705503 -3.00000000
3.92509556 10.60522366 -0.19738671 10 14 2031 11.31000000 2886705508 2886705508 -1.00000000
2.55396652 6.89686871 1.97064817 18 15 2032 7.61400000 2886705510 2886705510 15.00000000
0.78981715 2.12602568 -0.60770714 4 0 2038 2.34800000 2886705531 2886705531 -15.00000000
3.93711257 10.59223461 0.19724710 13 1 2039 11.30200000 2886705533 2886705533 1.00000000
0.93943918 2.52607584 -0.62221462 3 2 2040 2.76600000 2886705535 2886705535 -13.00000000
3.94645619 10.60603523 0.59307104 13 3 2041 11.33200000 2886705537 2886705537 3.00000000
1.12557566 3.02496576 -0.62737995 2 4 2041 3.28800000 2886705540 2886705540 -11.00000000
3.94841266 10.60562897 0.99008924 12 5 2042 11.36000000 2886705542 2886705542 5.00000000
1.42594898 3.82812476 -0.64701295 4 6 2043 4.13600000 2886705544 2886705544 -9.00000000
3.95843720 10.62121487 1.39174795 12 7 2044 11.42000000 2886705547 2886705547 7.00000000
1.91841769 5.14472342 -0.67418122 2 8 2045 5.53200000 2886705549 2886705549 -7.00000000
3.96437407 10.63147449 1.79711914 12 9 2045 11.48800000 2886705551 2886705551 9.00000000
2.86726999 7.68521357 -0.71764040 4 10 2046 8.23400000 2886705554 2886705554 -5.00000000
3.65948844 9.80339146 2.03402400 43 11 2047 10.66000000 2886705556 2886705556 11.00000000
3.94473624 10.56191349 -0.59087294 12 12 2048 11.29000000 2886705558 2886705558 -3.00000000
3.13581872 8.39159298 2.06820011 55 13 2049 9.19400000 2886705561 2886705561 13.00000000
3.96234322 10.59776783 -0.19749144 12 14 2050 11.31600000 2886705563 2886705563 -1.00000000
2.58170986 6.90509653 1.97530699 18 15 2050 7.63200000 2886705565 2886705565 15.00000000
0.80130804 2.13410711 -0.61081296 4 0 2058 2.36000000 2886705586 2886705586 -15.00000000
3.98179817 10.59901905 0.19763105 13 1 2059 11.32400000 2886705588 2886705588 1.00000000
0.94482285 2.51366043 -0.61996508 3 2 2060 2.75600000 2886705590 2886705590 -13.00000000
3.98837543 10.60528088 0.59380376 10 3 2061 11.34600000 2886705593 2886705593 3.00000000
1.13751006 3.02469349 -0.62814319 4 4 2061 3.29200000 2886705595 2886705595 -11.00000000
3.99242568 10.61042881 0.99183238 12 5 2062 11.38000000 2886705597 2886705597 5.00000000
1.43791091 3.81942654 -0.64638722 4 6 2063 4.13200000 2886705600 2886705600 -9.00000000
4.00108576 10.62219429 1.39369786 14 7 2064 11.43600000 2886705602 2886705602 7.00000000
1.93566430 5.13613796 -0.67393744 2 8 2065 5.53000000 2886705604 2886705604 -7.00000000
4.00749540 10.62796307 1.79899633 12 9 2066 11.50000000 2886705607 2886705607 9.00000000
2.89899969 7.68820810 -0.71886057 4 10 2066 8.24800000 2886705609 2886705609 -5.00000000
3.69576550 9.79606915 2.03516865 50 11 2067 10.66600000 2886705611 2886705611 11.00000000
3.99568677 10.58545113 -0.59296638 8 12 2068 11.33000000 2886705613 2886705613 -3.00000000
3.16440320 8.37877274 2.06774998 59 13 2069 9.19200000 2886705616 2886705616 13.00000000
4.00355339 10.59509563 -0.19770086 8 14 2070 11.32800000 2886705618 2886705618 -1.00000000
2.60973358 6.90281582 1.97737753 18 15 2071 7.64000000 2886705620 2886705620 15.00000000
0.80601102 2.12407231 -0.60874242 4 0 2078 2.35200000 2886705641 2886705641 -15.00000000
0.95774347 2.52127743 -0.62266451 3 2 2080 2.76800000 2886705646 2886705646 -13.00000000
4.02749920 10.59689426 0.59411776 2 3 2081 11.35200000 2886705648 2886705648 3.00000000
1.14945626 3.02437472 -0.62890643 2 4 2081 3.29600000 2886705650 2886705650 -11.00000000
1.45685399 3.82915425 -0.64889014 4 6 2083 4.14800000 2886705655 2886705655 -9.00000000
1.95428753 5.13120508 -0.67418122 2 8 2085 5.53200000 2886705660 2886705660 -7.00000000
4.04482651 10.62015343 1.79993498 12 9 2085 11.50600000 2886705662 2886705662 9.00000000
2.94142699 7.71900129 -0.72269541 4 10 2086 8.29200000 2886705664 2886705664 -5.00000000
3.73203588 9.78861141 2.03631353 43 11 2087 10.67200000 2886705666 2886705666 11.00000000
3.19085169 8.36039257 2.06595039 59 13 2089 9.18400000 2886705671 2886705671 13.00000000
2.63054252 6.88870955 1.97582459 18 15 2090 7.63400000 2886705676 2886705676 15.00000000
0.81342053 2.12124586 -0.60874242 4 0 2098 2.35200000 2886705696 2886705696 -15.00000000
0.96793526 2.52155757 -0.62356430 3 2 2100 2.77200000 2886705701 2886705701 -13.00000000
1.15859854 3.01667857 -0.62814319 4 4 2101 3.29200000 2886705706 2886705706 -11.00000000
1.46524918 3.81113887 -0.64670008 2 6 2103 4.13400000 2886705710 2886705710 -9.00000000
1.97503889 5.13176250 -0.67515618 2 8 2105 5.54000000 2886705715 2886705715 -7.00000000
2.96119380 7.69009399 -0.72095233 4 10 2106 8.27200000 2886705719 2886705719 -5.00000000
3.76194692 9.76453304 2.03402400 43 11 2107 10.66000000 2886705722 2886705722 11.00000000
3.22141790 8.35284042 2.06685019 57 13 2109 9.18800000 2886705726 2886705726 13.00000000
2.65786052 6.88442850 1.97737753 18 15 2111 7.64000000 2886705731 2886705731 15.00000000
0.81802821 2.11118817 -0.60667187 4 0 2118 2.34400000 2886705752 2886705752 -15.00000000
0.97250301 2.50726247 -0.62086493 3 2 2120 2.76000000 2886705756 2886705756 -13.00000000
1.17196274 3.01993704 -0.62966967 2 4 2121 3.30000000 2886705761 2886705761 -11.00000000
1.47997427 3.80968356 -0.64732581 2 6 2123 4.13800000 2886705766 2886705766 -9.00000000
1.99581802 5.13223743 -0.67613113 2 8 2125 5.54800000 2886705770 2886705770 -7.00000000
2.96923566 7.63143396 -0.71642023 4 10 2126 8.22000000 2886705775 2886705775 -5.00000000
3.79458427 9.74768257 2.03326058 43 11 2127 10.65600000 2886705777 2886705777 11.00000000
3.25197029 8.34517574 2.06774998 57 13 2129 9.19200000 2886705782 2886705782 13.00000000
2.68488598 6.88637638 1.98048329 18 15 2130 7.65200000 2886705786 2886705786 15.00000000
0.82820970 2.11551547 -0.60874242 4 0 2138 2.35200000 2886705807 2886705807 -15.00000000
0.98267114 2.50748134 -0.62176472 3 2 2140 2.76400000 2886705812 2886705812 -13.00000000
1.18536389 3.02313876 -0.63119614 2 4 2141 3.30800000 2886705816 2886705816 -11.00000000
1.49181998 3.80081677 -0.64670008 2 6 2143 4.13400000 2886705821 2886705821 -9.00000000
2.01226878 5.12154436 -0.67564362 2 8 2145 5.54400000 2886705825 2886705825 -7.00000000
3.01772380 7.67665052 -0.72164953 4 10 2146 8.28000000 2886705830 2886705830 -5.00000000
3.82571244 9.72706985 2.03173423 43 11 2147 10.64800000 2886705832 2886705832 11.00000000
3.28108072 8.33377361 2.06774998 59 13 2149 9.19200000 2886705837 2886705837 13.00000000
2.71648264 6.89266491 1.98514211 15 15 2151 7.67000000 2886705842 2886705842 15.00000000
0.83843130 2.11979723 -0.61081296 4 0 2158 2.36000000 2886705862 2886705862 -15.00000000
0.99357003 2.50947142 -0.62311441 3 2 2160 2.77000000 2886705867 2886705867 -13.00000000
1.19590938 3.01898265 -0.63119614 2 4 2161 3.30800000 2886705872 2886705872 -11.00000000
1.51090348 3.81027651 -0.64920300 2 6 2163 4.15000000 2886705876 2886705876 -9.00000000
2.02720451 5.10710859 -0.67466867 2 8 2165 5.53600000 2886705881 2886705881 -7.00000000
3.03861904 7.65125656 -0.72025508 4 10 2166 8.26400000 2886705885 2886705885 -5.00000000
3.86254287 9.72095394 2.03326058 46 11 2167 10.65600000 2886705888 2886705888 11.00000000
3.30727005 8.31502628 2.06595039 59 13 2169 9.18400000 2886705892 2886705892 13.00000000
2.74503899 6.89797878 1.98928320 13 15 2170 7.68600000 2886705897 2886705897 15.00000000
0.84295845 2.10968184 -0.60874242 4 0 2178 2.35200000 2886705918 2886705918 -15.00000000
1.00160003 2.50417852 -0.62266451 3 2 2180 2.76800000 2886705922 2886705922 -13.00000000
1.20644033 3.01478982 -0.63119614 2 4 2181 3.30800000 2886705927 2886705927 -11.00000000
1.52492917 3.80681276 -0.64951593 2 6 2183 4.15200000 2886705931 2886705931 -9.00000000
2.05092978 5.11474133 -0.67661858 2 8 2185 5.55200000 2886705936 2886705936 -7.00000000
3.06753373 7.64615059 -0.72077799 4 10 2186 8.27000000 2886705941 2886705941 -5.00000000
3.89645171 9.70741177 2.03326058 43 11 2187 10.65600000 2886705943 2886705943 11.00000000
3.33772779 8.30704784 2.06685019 60 13 2189 9.18800000 2886705948 2886705948 13.00000000
2.77126241 6.89373207 1.99083614 9 15 2190 7.69200000 2886705952 2886705952 15.00000000
0.84922701 2.10508347 -0.60822475 4 0 2197 2.35000000 2886705973 2886705973 -15.00000000
1.01281738 2.50807118 -0.62446415 3 2 2199 2.77600000 2886705978 2886705978 -13.00000000
1.20760572 2.98892879 -0.62661672 2 4 2200 3.28400000 2886705982 2886705982 -11.00000000
1.53976643 3.80722904 -0.65045452 2 6 2202 4.15800000 2886705987 2886705987 -9.00000000
2.07160425 5.11711216 -0.67783731 2 8 2204 5.56200000 2886705991 2886705991 -7.00000000
3.07866096 7.60084963 -0.71746606 4 10 2205 8.23200000 2886705996 2886705996 -5.00000000
3.92714643 9.69079876 2.03249741 46 11 2206 10.65200000 2886705998 2886705998 11.00000000
3.36818671 8.30315685 2.06865001 59 13 2208 9.19600000 2886706003 2886706003 13.00000000
2.98009086 7.34275532 2.12335134 24 15 2209 8.20400000 2886706007 2886706007 15.00000000
0.85729897 2.10389519 -0.60874242 4 0 2217 2.35200000 2886706028 2886706028 -15.00000000
1.02009404 2.50091171 -0.62356430 3 2 2219 2.77200000 2886706033 2886706033 -13.00000000
1.22841680 3.01014352 -0.63195938 4 4 2220 3.31200000 2886706037 2886706037 -11.00000000
1.55155277 3.79817367 -0.64982879 2 6 2222 4.15400000 2886706042 2886706042 -9.00000000
2.08419442 5.09698772 -0.67613113 2 8 2224 5.54800000 2886706047 2886706047 -7.00000000
3.11724472 7.61956120 -0.72025508 4 10 2225 8.26400000 2886706051 2886706051 -5.00000000
3.95797491 9.66976357 2.03097105 43 11 2226 10.64400000 2886706054 2886706054 11.00000000
3.39862728 8.29495621 2.06954980 60 13 2228 9.20000000 2886706058 2886706058 13.00000000
3.06416154 7.47119808 2.16372728 33 15 2230 8.36000000 2886706063 2886706063 15.00000000
0.86757863 2.10803580 -0.61081296 4 0 2237 2.36000000 2886706084 2886706084 -15.00000000
1.02733302 2.49373198 -0.62266451 3 2 2239 2.76800000 2886706088 2886706088 -13.00000000
1.23592412 2.99857664 -0.63043290 2 4 2240 3.30400000 2886706093 2886706093 -11.00000000
1.56404805 3.79090834 -0.64951593 2 6 2242 4.15200000 2886706097 2886706097 -9.00000000
2.10273123 5.09151649 -0.67637485 2 8 2244 5.55000000 2886706102 2886706102 -7.00000000
3.13621449 7.59021950 -0.71851194 4 10 2245 8.24400000 2886706107 2886706107 -5.00000000
3.99170470 9.65588856 2.03097105 43 11 2246 10.64400000 2886706109 2886706109 11.00000000
3.42160058 8.26863670 2.06595039 60 13 2248 9.18400000 2886706113 2886706113 13.00000000
3.04236460 7.34854507 2.13111591 11 15 2249 8.23400000 2886706118 2886706118 15.00000000
0.87493175 2.10499454 -0.61081296 4 0 2257 2.36000000 2886706139 2886706139 -15.00000000
1.03303719 2.48293400 -0.62086493 3 2 2259 2.76000000 2886706143 2886706143 -13.00000000
1.24638355 2.99424410 -0.63043290 4 4 2260 3.30400000 2886706148 2886706148 -11.00000000
1.58258963 3.79818988 -0.65170598 2 6 2262 4.16600000 2886706153 2886706153 -9.00000000
2.12431192 5.09330606 -0.67759353 2 8 2264 5.56000000 2886706157 2886706157 -7.00000000
3.17957020 7.61967802 -0.72234678 4 10 2265 8.28800000 2886706162 2886706162 -5.00000000
4.02689838 9.64551926 2.03173423 21 11 2266 10.64800000 2886706164 2886706164 11.00000000
3.44893980 8.25304699 2.06505060 59 13 2268 9.18000000 2886706169 2886706169 13.00000000
2.97410178 7.11330605 2.06589365 6 15 2269 7.98200000 2886706173 2886706173 15.00000000
0.88227427 2.10192752 -0.61081296 4 0 2277 2.36000000 2886706194 2886706194 -15.00000000
1.04773676 2.49368572 -0.62446415 3 2 2279 2.77600000 2886706199 2886706199 -13.00000000
1.25987101 2.99711466 -0.63195938 4 4 2280 3.31200000 2886706203 2886706203 -11.00000000
1.59200752 3.78353858 -0.65014166 2 6 2282 4.15600000 2886706208 2886706208 -9.00000000
2.14207792 5.08585978 -0.67759353 2 8 2284 5.56000000 2886706212 2886706212 -7.00000000
3.20460105 7.60486078 -0.72199816 4 10 2285 8.28400000 2886706217 2886706217 -5.00000000
4.40375185 10.44547844 2.20346236 46 11 2286 11.54800000 2886706219 2886706219 11.00000000
3.47621202 8.23736668 2.06415081 60 13 2288 9.17600000 2886706224 2886706224 13.00000000
3.04475045 7.21144438 2.09746957 22 15 2289 8.10400000 2886706229 2886706229 15.00000000
0.88508254 2.08816314 -0.60770714 4 0 2297 2.34800000 2886706249 2886706249 -15.00000000
1.05339050 2.48283744 -0.62266451 3 2 2299 2.76800000 2886706254 2886706254 -13.00000000
1.26725674 2.98546982 -0.63043290 4 4 2300 3.30400000 2886706259 2886706259 -11.00000000
1.60674977 3.78159451 -0.65076739 2 6 2302 4.16000000 2886706263 2886706263 -9.00000000
2.15981770 5.07835150 -0.67759353 2 8 2304 5.56000000 2886706268 2886706268 -7.00000000
3.23112750 7.59362841 -0.72199816 4 10 2305 8.28400000 2886706272 2886706272 -5.00000000
4.45172167 10.45713902 2.20918655 59 11 2306 11.57800000 2886706275 2886706275 11.00000000
3.50647235 8.22876740 2.06505060 56 13 2308 9.18000000 2886706279 2886706279 13.00000000
3.01962137 7.07940340 2.06227016 9 15 2310 7.96800000 2886706284 2886706284 15.00000000
0.89540666 2.09216499 -0.60977769 4 0 2317 2.35600000 2886706305 2886706305 -15.00000000
1.06205082 2.47914529 -0.62266451 3 2 2319 2.76800000 2886706309 2886706309 -13.00000000
1.27612352 2.97741914 -0.62966967 4 4 2320 3.30000000 2886706314 2886706314 -11.00000000
1.61682487 3.76870131 -0.64951593 2 6 2322 4.15200000 2886706318 2886706318 -9.00000000
2.18693066 5.09266949 -0.68051839 2 8 2324 5.58400000 2886706323 2886706323 -7.00000000
3.25289559 7.57131958 -0.72095233 4 10 2325 8.27200000 2886706328 2886706328 -5.00000000
4.48974752 10.44514275 2.20994973 56 11 2326 11.58200000 2886706330 2886706330 11.00000000
3.53671527 8.22005749 2.06595039 60 13 2328 9.18400000 2886706335 2886706335 13.00000000
3.07287025 7.13855410 2.08245802 38 15 2329 8.04600000 2886706339 2886706339 15.00000000
0.90423679 2.09257340 -0.61081296 4 0 2337 2.36000000 2886706360 2886706360 -15.00000000
1.06605649 2.46469116 -0.61996508 3 2 2339 2.75600000 2886706364 2886706364 -13.00000000
1.29274642 2.98736072 -0.63272262 4 4 2340 3.31600000 2886706369 2886706369 -11.00000000
1.62368906 3.74853349 -0.64701295 2 6 2342 4.13600000 2886706374 2886706374 -9.00000000
2.19521832 5.06314945 -0.67759353 2 8 2344 5.56000000 2886706378 2886706378 -7.00000000
3.27137589 7.54164028 -0.71920919 4 10 2345 8.25200000 2886706383 2886706383 -5.00000000
4.53243303 10.44381523 2.21300268 56 11 2346 11.59800000 2886706385 2886706385 11.00000000
3.56072831 8.19693756 2.06325102 62 13 2348 9.17200000 2886706390 2886706390 13.00000000
3.09391952 7.11892557 2.07986975 40 15 2349 8.03600000 2886706394 2886706394 15.00000000
0.91271544 2.09310484 -0.61184824 4 0 2356 2.36400000 2886706415 2886706415 -15.00000000
1.07422376 2.46114254 -0.61996508 3 2 2358 2.75600000 2886706420 2886706420 -13.00000000
1.29793179 2.97226238 -0.63043290 4 4 2359 3.30400000 2886706424 2886706424 -11.00000000
1.63769305 3.74674869 -0.64763868 2 6 2361 4.14000000 2886706429 2886706429 -9.00000000
2.20563078 5.04129267 -0.67564362 2 8 2363 5.54400000 2886706434 2886706434 -7.00000000
3.31873679 7.58185625 -0.72408992 4 10 2364 8.30800000 2886706438 2886706438 -5.00000000
4.57334137 10.44311428 2.21605563 53 11 2365 11.61400000 2886706441 2886706441 11.00000000
3.58632612 8.18151569 2.06235123 62 13 2367 9.16800000 2886706445 2886706445 13.00000000
3.12185526 7.11515856 2.08194041 40 15 2369 8.04400000 2886706450 2886706450 15.00000000
0.91690272 2.08283377 -0.60977769 4 0 2376 2.35600000 2886706470 2886706470 -15.00000000
1.08752298 2.46807742 -0.62266451 3 2 2378 2.76800000 2886706475 2886706475 -13.00000000
1.30671513 2.96412063 -0.62966967 4 4 2379 3.30000000 2886706480 2886706480 -11.00000000
1.65873635 3.75908184 -0.65076739 2 6 2381 4.16000000 2886706484 2886706484 -9.00000000
2.22321486 5.03356314 -0.67564362 2 8 2383 5.54400000 2886706489 2886706489 -7.00000000
3.33712935 7.55200148 -0.72234678 4 10 2384 8.28800000 2886706494 2886706494 -5.00000000
4.61929274 10.44863415 2.22063518 56 11 2385 11.63800000 2886706496 2886706496 11.00000000
3.61644030 8.17251110 2.06325102 62 13 2387 9.17200000 2886706500 2886706500 13.00000000
3.14432573 7.09891891 2.08038759 40 15 2389 8.03800000 2886706505 2886706505 15.00000000
0.91909933 2.06918859 -0.60667187 4 0 2395 2.34400000 2886706526 2886706526 -15.00000000
1.10361826 2.48226428 -0.62716353 3 2 2397 2.78800000 2886706530 2886706530 -13.00000000
1.32132471 2.97053409 -0.63195938 4 4 2398 3.31200000 2886706535 2886706535 -11.00000000
2.24312663 5.03341579 -0.67661858 2 8 2402 5.55200000 2886706544 2886706544 -7.00000000
3.36053181 7.53725433 -0.72199816 8 10 2403 8.28400000 2886706549 2886706549 -5.00000000
4.66031456 10.44760227 2.22368813 59 11 2404 11.65400000 2886706551 2886706551 11.00000000
3.64193249 8.15691471 2.06235123 59 13 2406 9.16800000 2886706556 2886706556 13.00000000
3.16469622 7.08139801 2.07831693 42 15 2408 8.03000000 2886706560 2886706560 15.00000000
0.93105876 2.07654452 -0.60977769 4 0 2415 2.35600000 2886706581 2886706581 -15.00000000
1.10429728 2.46061778 -0.62266451 3 2 2417 2.76800000 2886706586 2886706586 -13.00000000
1.32927322 2.96053052 -0.63081455 4 4 2418 3.30600000 2886706590 2886706590 -11.00000000
2.26556921 5.03641748 -0.67808104 2 8 2422 5.56400000 2886706600 2886706600 -7.00000000
3.38845658 7.52911139 -0.72234678 4 10 2423 8.28800000 2886706604 2886706604 -5.00000000
4.69917345 10.43664169 2.22483277 59 11 2424 11.66000000 2886706606 2886706606 11.00000000
3.67198443 8.14770603 2.06325102 60 13 2426 9.17200000 2886706611 2886706611 13.00000000
3.19257331 7.07735157 2.08038759 42 15 2428 8.03800000 2886706616 2886706616 15.00000000
0.93953216 2.07696581 -0.61081296 4 0 2434 2.36000000 2886706636 2886706636 -15.00000000
1.11245096 2.45694232 -0.62266451 3 2 2436 2.76800000 2886706641 2886706641 -13.00000000
1.35204494 2.98471951 -0.63692045 4 4 2437 3.33800000 2886706646 2886706646 -11.00000000
2.27733588 5.01803064 -0.67661858 2 8 2441 5.55200000 2886706655 2886706655 -7.00000000
3.41340542 7.51783371 -0.72234678 4 10 2442 8.28800000 2886706659 2886706659 -5.00000000
4.74025249 10.43530083 2.22788572 59 11 2443 11.67600000 2886706662 2886706662 11.00000000
3.69737005 8.13193607 2.06235123 59 13 2445 9.16800000 2886706666 2886706666 13.00000000
3.21559143 7.06904554 2.08090520 40 15 2446 8.04000000 2886706671 2886706671 15.00000000
0.94838113 2.07718825 -0.61184824 4 0 2454 2.36400000 2886706692 2886706692 -15.00000000
1.12102044 2.45304418 -0.62266451 3 2 2456 2.76800000 2886706696 2886706696 -13.00000000
1.35347569 2.96034145 -0.63272262 4 4 2457 3.31600000 2886706701 2886706701 -11.00000000
1.70317960 3.72178292 -0.64826441 2 6 2459 4.14400000 2886706705 2886706705 -9.00000000
2.29814482 5.01727009 -0.67759353 2 8 2461 5.56000000 2886706710 2886706710 -7.00000000
3.44543672 7.51855183 -0.72356695 4 10 2462 8.30200000 2886706715 2886706715 -5.00000000
4.78974056 10.44724464 2.23399162 59 11 2463 11.70800000 2886706717 2886706717 11.00000000
3.72085667 8.10835361 2.05965185 57 13 2465 9.15600000 2886706722 2886706722 13.00000000
3.24228549 7.05896807 2.08142281 42 15 2467 8.04200000 2886706726 2886706726 15.00000000
0.95239216 2.06684709 -0.60977769 4 0 2474 2.35600000 2886706747 2886706747 -15.00000000
1.13284099 2.45619464 -0.62446415 3 2 2476 2.77600000 2886706752 2886706752 -13.00000000
1.35722053 2.94133782 -0.62966967 4 4 2477 3.30000000 2886706756 2886706756 -11.00000000
1.71947372 3.72298837 -0.64951593 2 6 2479 4.15200000 2886706761 2886706761 -9.00000000
2.30065107 4.97678375 -0.67320627 2 8 2481 5.52400000 2886706765 2886706765 -7.00000000
3.46246076 7.48658705 -0.72164953 4 10 2482 8.28000000 2886706770 2886706770 -5.00000000
4.42715788 9.56808662 2.04928851 12 11 2483 10.74000000 2886706772 2886706772 11.00000000
3.74913740 8.09531593 2.05965185 62 13 2485 9.15600000 2886706777 2886706777 13.00000000
3.26730037 7.05168295 2.08245802 40 15 2486 8.04600000 2886706782 2886706782 15.00000000
0.95634258 2.05650306 -0.60770714 4 0 2494 2.34800000 2886706802 2886706802 -15.00000000
1.14305258 2.45575881 -0.62536395 3 2 2496 2.78000000 2886706807 2886706807 -13.00000000
1.36416423 2.92946339 -0.62814319 4 4 2497 3.29200000 2886706811 2886706811 -11.00000000
1.73078990 3.71338272 -0.64889014 2 6 2499 4.14800000 2886706816 2886706816 -9.00000000
2.33479428 5.00470161 -0.67808104 2 8 2501 5.56400000 2886706821 2886706821 -7.00000000
3.48857260 7.47445536 -0.72164953 4 10 2502 8.28000000 2886706825 2886706825 -5.00000000
3.78232312 8.09277248 2.06235123 60 13 2505 9.16800000 2886706832 2886706832 13.00000000
3.28657556 7.02566147 2.07831693 42 15 2507 8.03000000 2886706837 2886706837 15.00000000
0.96679813 2.06014776 -0.60977769 4 0 2514 2.35600000 2886706858 2886706858 -15.00000000
1.14664674 2.44117069 -0.62266451 3 2 2516 2.76800000 2886706862 2886706862 -13.00000000
1.38774145 2.95311332 -0.63424909 4 4 2517 3.32400000 2886706867 2886706867 -11.00000000
1.74205995 3.70374346 -0.64826441 2 6 2519 4.14400000 2886706871 2886706871 -9.00000000
2.35140419 4.99472523 -0.67783731 2 8 2521 5.56200000 2886706876 2886706876 -7.00000000
3.51634002 7.46583748 -0.72199816 4 10 2522 8.28400000 2886706881 2886706881 -5.00000000
4.91561604 10.43203449 2.24162412 59 11 2523 11.74800000 2886706883 2886706883 11.00000000
3.80888653 8.07599545 2.06145144 64 13 2525 9.16400000 2886706888 2886706888 13.00000000
3.31150413 7.01821852 2.07935214 42 15 2526 8.03400000 2886706892 2886706892 15.00000000
0.97729075 2.06374431 -0.61184824 4 0 2534 2.36400000 2886706913 2886706913 -15.00000000
1.15349174 2.43363142 -0.62176472 3 2 2536 2.76400000 2886706917 2886706917 -13.00000000
1.39972365 2.95179892 -0.63501233 2 4 2537 3.32800000 2886706922 2886706922 -11.00000000
1.76683581 3.72262406 -0.65264457 2 6 2539 4.17200000 2886706927 2886706927 -9.00000000
2.36882472 4.98648691 -0.67783731 2 8 2541 5.56200000 2886706931 2886706931 -7.00000000
3.55093169 7.47151232 -0.72374129 8 10 2542 8.30400000 2886706936 2886706936 -5.00000000
4.96801853 10.44849968 2.24887490 62 11 2543 11.78600000 2886706938 2886706938 11.00000000
3.83537912 8.05913067 2.06055164 60 13 2545 9.16000000 2886706943 2886706943 13.00000000
3.33554339 7.00254583 2.07831693 42 15 2547 8.03000000 2886706947 2886706947 15.00000000
0.98615438 2.06380653 -0.61288351 4 0 2554 2.36800000 2886706968 2886706968 -15.00000000
1.16366124 2.43310618 -0.62266451 3 2 2556 2.76800000 2886706973 2886706973 -13.00000000
1.40323985 2.93272734 -0.63195938 4 4 2557 3.31200000 2886706977 2886706977 -11.00000000
1.77640653 3.70930767 -0.65139312 2 6 2559 4.16400000 2886706982 2886706982 -9.00000000
2.38707423 4.97997761 -0.67808104 2 8 2561 5.56400000 2886706987 2886706987 -7.00000000
3.58905149 7.48422289 -0.72618163 8 10 2562 8.33200000 2886706991 2886706991 -5.00000000
5.01125431 10.44525528 2.25192785 59 11 2563 11.80200000 2886706993 2886706993 11.00000000
3.85505176 8.02812672 2.05605268 64 13 2565 9.14000000 2886706998 2886706998 13.00000000
3.36376572 7.00189447 2.08142281 42 15 2566 8.04200000 2886707003 2886707003 15.00000000
