# .PCD v0.7 - Point Cloud Data file format
VERSION 0.7
FIELDS x y z intensity laser_id azimuth distance_m adjustedtime timestamp vertical_angle
SIZE 4 4 4 1 1 2 8 8 4 8
TYPE F F F U U U F U U F
COUNT 1 1 1 1 1 1 1 1 1 1
WIDTH 523
HEIGHT 1
VIEWPOINT 0 0 0 1 0 0 0
POINTS 523
DATA ascii
-4.29385996 -4.86529064 1.73874629 72 15 22143 6.71800000 2892361524 2892361524 15.00000000
-1.28058863 -1.44642448 -0.51763809 5 0 22152 2.00000000 2892361545 2892361545 -15.00000000
-4.34074211 -4.90114307 0.11427835 11 1 22153 6.54800000 2892361547 2892361547 1.00000000
-1.46287560 -1.65115583 -0.50928921 4 2 22154 2.26400000 2892361550 2892361550 -13.00000000
-4.33451271 -4.89066887 0.34248650 10 3 22155 6.54400000 2892361552 2892361552 3.00000000
-1.70454621 -1.92325449 -0.49953794 3 4 22155 2.61800000 2892361554 2892361554 -11.00000000
-4.33404779 -4.88842535 0.57156736 9 5 22156 6.55800000 2892361556 2892361556 5.00000000
-2.04998279 -2.31138778 -0.48932701 2 6 22157 3.12800000 2892361559 2892361559 -9.00000000
-4.33173132 -4.88237810 0.80141282 55 7 22158 6.57600000 2892361561 2892361561 7.00000000
-2.53261113 -2.85355163 -0.46846575 1 8 22159 3.84400000 2892361563 2892361563 -7.00000000
-4.32317972 -4.87102652 1.03152883 57 9 22159 6.59400000 2892361566 2892361566 9.00000000
-3.36520195 -3.79031825 -0.44344842 3 10 22160 5.08800000 2892361568 2892361568 -5.00000000
-4.31789494 -4.86165285 1.26391876 62 11 22161 6.62400000 2892361570 2892361570 11.00000000
-4.35507631 -4.90179348 -0.34363788 10 12 22162 6.56600000 2892361573 2892361573 -3.00000000
-4.29801369 -4.83586740 1.49367499 70 13 22163 6.64000000 2892361575 2892361575 13.00000000
-4.34482861 -4.88682270 -0.11413874 6 14 22164 6.54000000 2892361577 2892361577 -1.00000000
-4.29754353 -4.83363867 1.73305237 63 15 22164 6.69600000 2892361580 2892361580 15.00000000
-1.28305852 -1.43906164 -0.51660281 4 0 22172 1.99600000 2892361600 2892361600 -15.00000000
-4.34584427 -4.87252998 0.11396421 14 1 22173 6.53000000 2892361603 2892361603 1.00000000
-1.47252238 -1.65040171 -0.51063889 4 2 22174 2.27000000 2892361605 2892361605 -13.00000000
-4.33293867 -4.85464764 0.34102109 10 3 22175 6.51600000 2892361607 2892361607 3.00000000
-1.71124923 -1.91729283 -0.49953794 3 4 22175 2.61800000 2892361609 2892361609 -11.00000000
-4.33118105 -4.85097408 0.56895268 9 5 22176 6.52800000 2892361612 2892361612 5.00000000
-2.05803871 -2.30421782 -0.48932701 2 6 22177 3.12800000 2892361614 2892361614 -9.00000000
-4.33287621 -4.84946442 0.79848796 60 7 22178 6.55200000 2892361616 2892361616 7.00000000
-2.55313945 -2.85653424 -0.47041565 1 8 22179 3.86000000 2892361619 2892361619 -7.00000000
-4.31598759 -4.82716942 1.02558434 55 9 22180 6.55600000 2892361621 2892361621 9.00000000
-3.38372421 -3.78448963 -0.44414568 3 10 22180 5.09600000 2892361623 2892361623 -5.00000000
-4.32960367 -4.84069777 1.26239228 62 11 22181 6.61600000 2892361626 2892361626 11.00000000
-4.35751104 -4.87018871 -0.34248650 10 12 22182 6.54400000 2892361628 2892361628 -3.00000000
-4.30447054 -4.80921841 1.49007583 66 13 22183 6.62400000 2892361630 2892361630 13.00000000
-4.33651638 -4.84332037 -0.11347555 6 14 22184 6.50200000 2892361633 2892361633 -1.00000000
-4.29718637 -4.79770851 1.72580540 54 15 22185 6.66800000 2892361635 2892361635 15.00000000
-1.27338147 -1.41920674 -0.51090878 4 0 22190 1.97400000 2892361656 2892361656 -15.00000000
-4.33708763 -4.83206606 0.11333593 14 1 22191 6.49400000 2892361658 2892361658 1.00000000
-1.47900200 -1.64721751 -0.51108879 4 2 22192 2.27200000 2892361660 2892361660 -13.00000000
-4.34683418 -4.83952522 0.34091642 15 3 22193 6.51400000 2892361662 2892361662 3.00000000
-1.71464038 -1.90898609 -0.49877471 3 4 22193 2.61400000 2892361665 2892361665 -11.00000000
-4.32376194 -4.81214857 0.56598938 9 5 22194 6.49400000 2892361667 2892361667 5.00000000
-2.07054949 -2.30361748 -0.49057847 2 6 22195 3.13600000 2892361669 2892361669 -9.00000000
-4.33879900 -4.82549524 0.79678178 68 7 22196 6.53800000 2892361672 2892361672 7.00000000
-2.55944586 -2.84554744 -0.46992818 1 8 22197 3.85600000 2892361674 2892361674 -7.00000000
-4.31972313 -4.80259275 1.02308142 57 9 22197 6.54000000 2892361676 2892361676 9.00000000
-3.39559674 -3.77384067 -0.44414568 3 10 22198 5.09600000 2892361679 2892361679 -5.00000000
-4.32114840 -4.80080605 1.25552320 65 11 22199 6.58000000 2892361681 2892361681 11.00000000
-4.36477137 -4.84756947 -0.34185848 10 12 22200 6.53200000 2892361683 2892361683 -3.00000000
-4.30390739 -4.77829599 1.48467696 70 13 22201 6.60000000 2892361686 2892361686 13.00000000
-4.34100199 -4.81778812 -0.11319631 6 14 22202 6.48600000 2892361688 2892361688 -1.00000000
-4.29329824 -4.76484489 1.71855843 60 15 22202 6.64000000 2892361690 2892361690 15.00000000
-1.28350830 -1.42048681 -0.51297933 5 0 22210 1.98200000 2892361711 2892361711 -15.00000000
-4.34051895 -4.80206251 0.11298688 11 1 22211 6.47400000 2892361713 2892361713 1.00000000
-1.47559381 -1.63192654 -0.50793946 4 2 22212 2.25800000 2892361715 2892361715 -13.00000000
-4.34896278 -4.80802917 0.33976504 10 3 22213 6.49200000 2892361718 2892361718 3.00000000
-1.72129357 -1.90298927 -0.49877471 3 4 22213 2.61400000 2892361720 2892361720 -11.00000000
-4.33251238 -4.78816223 0.56494355 9 5 22214 6.48200000 2892361722 2892361722 5.00000000
-2.05736780 -2.27294350 -0.48557258 2 6 22215 3.10400000 2892361725 2892361725 -9.00000000
-4.33563089 -4.78824806 0.79312569 60 7 22216 6.50800000 2892361727 2892361727 7.00000000
-2.56269979 -2.82923961 -0.46870950 1 8 22217 3.84600000 2892361729 2892361729 -7.00000000
-4.32270575 -4.77062607 1.01963985 60 9 22218 6.51800000 2892361732 2892361732 9.00000000
-3.40874934 -3.76196480 -0.44414568 3 10 22218 5.09600000 2892361734 2892361734 -5.00000000
-4.31150961 -4.75660086 1.24789083 62 11 22219 6.54000000 2892361736 2892361736 11.00000000
-4.34410095 -4.79087591 -0.33892766 10 12 22220 6.47600000 2892361738 2892361738 -3.00000000
-4.31270504 -4.75458336 1.48197758 72 13 22221 6.58800000 2892361741 2892361741 13.00000000
-4.33763647 -4.78039217 -0.11267274 6 14 22222 6.45600000 2892361743 2892361743 -1.00000000
-4.29515266 -4.73191166 1.71234679 65 15 22223 6.61600000 2892361745 2892361745 15.00000000
-1.29495966 -1.42314208 -0.51556754 5 0 22230 1.99200000 2892361766 2892361766 -15.00000000
-4.32629538 -4.75286961 0.11218407 14 1 22231 6.42800000 2892361768 2892361768 1.00000000
-1.48915350 -1.63541114 -0.51063889 4 2 22232 2.27000000 2892361771 2892361771 -13.00000000
-4.32537079 -4.74852324 0.33662486 10 3 22233 6.43200000 2892361773 2892361773 3.00000000
-1.73585808 -1.90567768 -0.50106442 3 4 22233 2.62600000 2892361775 2892361775 -11.00000000
-4.31967735 -4.74061060 0.56110865 9 5 22234 6.43800000 2892361778 2892361778 5.00000000
-2.07327390 -2.27450752 -0.48744980 2 6 22235 3.11600000 2892361780 2892361780 -9.00000000
-4.32155561 -4.73934746 0.78751969 57 7 22236 6.46200000 2892361782 2892361782 7.00000000
-2.56988454 -2.81734371 -0.46822202 1 8 22237 3.84200000 2892361785 2892361785 -7.00000000
-4.32252741 -4.73875189 1.01588547 67 9 22237 6.49400000 2892361787 2892361787 9.00000000
-3.43260384 -3.76181722 -0.44554016 3 10 22238 5.11200000 2892361789 2892361789 -5.00000000
-4.30823374 -4.71977186 1.24216652 65 11 22239 6.51000000 2892361791 2892361791 11.00000000
-4.35002375 -4.76388359 -0.33809027 10 12 22240 6.46000000 2892361794 2892361794 -3.00000000
-4.30298948 -4.71072340 1.47297955 68 13 22241 6.54800000 2892361796 2892361796 13.00000000
-4.33945894 -4.74898338 -0.11228878 9 14 22242 6.43400000 2892361798 2892361798 -1.00000000
-4.29648590 -4.70195532 1.70665276 45 15 22242 6.59400000 2892361801 2892361801 15.00000000
-1.30122459 -1.42003751 -0.51608515 5 0 22250 1.99400000 2892361821 2892361821 -15.00000000
-4.31043005 -4.70236063 0.11134636 2 1 22251 6.38000000 2892361824 2892361824 1.00000000
-1.48958492 -1.62445784 -0.50883931 4 2 22252 2.26200000 2892361826 2892361826 -13.00000000
-4.30006695 -4.68776941 0.33338004 2 3 22253 6.37000000 2892361828 2892361828 3.00000000
-1.74249959 -1.89960670 -0.50106442 3 4 22253 2.62600000 2892361831 2892361831 -11.00000000
-4.30521631 -4.69173908 0.55709952 9 5 22254 6.39200000 2892361833 2892361833 5.00000000
-2.08120060 -2.26725650 -0.48744980 2 6 22255 3.11600000 2892361835 2892361835 -9.00000000
-4.32330322 -4.70814991 0.78483856 34 7 22256 6.44000000 2892361838 2892361838 7.00000000
-2.58104610 -2.80981803 -0.46846575 1 8 22257 3.84400000 2892361840 2892361840 -7.00000000
-4.32249117 -4.70396852 1.01181817 27 9 22258 6.46800000 2892361842 2892361842 9.00000000
-3.43223333 -3.73514152 -0.44379705 3 10 22258 5.09200000 2892361844 2892361844 -5.00000000
-4.32866812 -4.70904064 1.24331141 21 11 22259 6.51600000 2892361847 2892361847 11.00000000
-4.34905148 -4.72955799 -0.33672956 10 12 22260 6.43400000 2892361849 2892361849 -3.00000000
-4.30885267 -4.68420076 1.46938026 18 13 22261 6.53200000 2892361851 2892361851 13.00000000
-4.32622004 -4.70143414 -0.11152088 4 14 22262 6.39000000 2892361854 2892361854 -1.00000000
-4.31630707 -4.68901873 1.70768809 13 15 22263 6.59800000 2892361856 2892361856 15.00000000
-1.30486345 -1.41406703 -0.51556754 5 0 22270 1.99200000 2892361877 2892361877 -15.00000000
-4.33495617 -4.69610214 0.11155578 8 1 22271 6.39200000 2892361879 2892361879 1.00000000
-1.49789035 -1.62211180 -0.50973910 4 2 22272 2.26600000 2892361881 2892361881 -13.00000000
-4.32182503 -4.67859936 0.33379874 7 3 22273 6.37800000 2892361884 2892361884 3.00000000
-1.74379122 -1.88774419 -0.49953794 3 4 22273 2.61800000 2892361886 2892361886 -11.00000000
-4.33914566 -4.69570541 0.55936557 3 5 22274 6.41800000 2892361888 2892361888 5.00000000
-2.10787463 -2.28028584 -0.49182996 3 6 22275 3.14400000 2892361891 2892361891 -9.00000000
-4.34645033 -4.70031738 0.78605729 13 7 22276 6.45000000 2892361893 2892361893 7.00000000
-2.58275056 -2.79204798 -0.46700332 1 8 22277 3.83200000 2892361895 2892361895 -7.00000000
-4.33270073 -4.68380833 1.01056659 12 9 22277 6.46000000 2892361897 2892361897 9.00000000
-3.43171835 -3.70851469 -0.44205391 3 10 22278 5.07200000 2892361900 2892361900 -5.00000000
-4.34641314 -4.69534302 1.24369299 12 11 22279 6.51800000 2892361902 2892361902 11.00000000
-4.35603523 -4.70409012 -0.33599684 10 12 22280 6.42000000 2892361904 2892361904 -3.00000000
-4.32782555 -4.67199087 1.47028005 13 13 22281 6.53600000 2892361907 2892361907 13.00000000
-4.34668255 -4.69070435 -0.11162559 2 14 22282 6.39600000 2892361909 2892361909 -1.00000000
-4.33051968 -4.67326260 1.70717037 9 15 22282 6.59600000 2892361911 2892361911 15.00000000
-1.30058622 -1.39959741 -0.51194406 5 0 22290 1.97800000 2892361932 2892361932 -15.00000000
-4.34996080 -4.67947721 0.11152088 11 1 22291 6.39000000 2892361934 2892361934 1.00000000
-1.50354350 -1.61687326 -0.50973910 4 2 22292 2.26600000 2892361937 2892361937 -13.00000000
-4.36805773 -4.69565678 0.33610150 25 3 22293 6.42200000 2892361939 2892361939 3.00000000
-1.75037003 -1.88164568 -0.49953794 3 4 22293 2.61800000 2892361941 2892361941 -11.00000000
-4.35822487 -4.68344736 0.55971420 29 5 22294 6.42200000 2892361944 2892361944 5.00000000
-2.10505390 -2.26134729 -0.48932701 2 6 22295 3.12800000 2892361946 2892361946 -9.00000000
-4.37500620 -4.69819164 0.78825092 10 7 22296 6.46800000 2892361948 2892361948 7.00000000
-2.59518695 -2.78592038 -0.46749079 1 8 22297 3.83600000 2892361950 2892361950 -7.00000000
-4.35926580 -4.67801285 1.01275671 10 9 22298 6.47400000 2892361953 2892361953 9.00000000
-3.45007586 -3.70234370 -0.44275117 3 10 22298 5.08000000 2892361955 2892361955 -5.00000000
-4.37214708 -4.69019508 1.24636436 12 11 22299 6.53200000 2892361957 2892361957 11.00000000
-4.38877439 -4.70638466 -0.33725291 10 12 22300 6.44400000 2892361960 2892361960 -3.00000000
-4.37202263 -4.68677998 1.47972798 14 13 22301 6.57800000 2892361962 2892361962 13.00000000
-4.37394381 -4.68719912 -0.11190483 24 14 22302 6.41200000 2892361964 2892361964 -1.00000000
-4.35816526 -4.66865635 1.71131158 9 15 22303 6.61200000 2892361967 2892361967 15.00000000
-1.30859160 -1.39741337 -0.51297933 4 0 22312 1.98200000 2892361987 2892361987 -15.00000000
-4.37746620 -4.67295551 0.11176521 17 1 22313 6.40400000 2892361990 2892361990 1.00000000
-1.50974071 -1.61108816 -0.50973910 4 2 22314 2.26600000 2892361992 2892361992 -13.00000000
-4.37922573 -4.67156458 0.33557814 7 3 22315 6.41200000 2892361994 2892361994 3.00000000
-1.75489676 -1.87204635 -0.49877471 3 4 22315 2.61400000 2892361997 2892361997 -11.00000000
-4.39661884 -4.68847847 0.56232888 9 5 22316 6.45200000 2892361999 2892361999 5.00000000
-2.11101842 -2.25036621 -0.48870125 2 6 22317 3.12400000 2892362001 2892362001 -9.00000000
-4.40795612 -4.69728136 0.79093206 10 7 22318 6.49000000 2892362003 2892362003 7.00000000
-2.62352729 -2.79475021 -0.47065940 1 8 22319 3.86200000 2892362006 2892362006 -7.00000000
-4.40747786 -4.69512892 1.01995265 10 9 22319 6.52000000 2892362008 2892362008 9.00000000
-3.47244978 -3.69778323 -0.44379705 3 10 22320 5.09200000 2892362010 2892362010 -5.00000000
-4.39415646 -4.67766523 1.24750924 12 11 22321 6.53800000 2892362013 2892362013 11.00000000
-4.41365194 -4.69677544 -0.33777627 10 12 22322 6.45400000 2892362015 2892362015 -3.00000000
-4.40733814 -4.68841648 1.48557675 14 13 22323 6.60400000 2892362017 2892362017 13.00000000
-4.41245747 -4.69222116 -0.11242840 9 14 22324 6.44200000 2892362020 2892362020 -1.00000000
-4.39245176 -4.67094707 1.71804082 9 15 22324 6.63800000 2892362022 2892362022 15.00000000
-1.31346154 -1.39283705 -0.51297933 5 0 22332 1.98200000 2892362043 2892362043 -15.00000000
-4.43354464 -4.69983053 0.11277745 11 1 22333 6.46200000 2892362045 2892362045 1.00000000
-1.51000535 -1.60013914 -0.50793946 4 2 22334 2.25800000 2892362047 2892362047 -13.00000000
-4.43526554 -4.69836807 0.33861363 7 3 22335 6.47000000 2892362050 2892362050 3.00000000
-1.76411605 -1.86876440 -0.49953794 3 4 22335 2.61800000 2892362052 2892362052 -11.00000000
-4.43210888 -4.69338322 0.56476921 13 5 22336 6.48000000 2892362054 2892362054 5.00000000
-2.11072183 -2.23436785 -0.48682407 2 6 22337 3.11200000 2892362056 2892362056 -9.00000000
-4.42977953 -4.68763685 0.79190701 10 7 22338 6.49800000 2892362059 2892362059 7.00000000
-4.46468973 -4.72292757 -0.79800045 2 8 22339 6.54800000 2892362061 2892362061 -7.00000000
-4.43876696 -4.69550610 1.02339423 10 9 22339 6.54200000 2892362063 2892362063 9.00000000
-3.48533630 -3.68563962 -0.44379705 3 10 22340 5.09200000 2892362066 2892362066 -5.00000000
-4.42799711 -4.68083906 1.25247025 12 11 22341 6.56400000 2892362068 2892362068 11.00000000
-4.44374800 -4.69584703 -0.33882299 10 12 22342 6.47400000 2892362070 2892362070 -3.00000000
-4.42903566 -4.67866421 1.48737633 14 13 22343 6.61200000 2892362073 2892362073 13.00000000
-4.45630932 -4.70582962 -0.11312650 15 14 22344 6.48200000 2892362075 2892362075 -1.00000000
-4.42599821 -4.67382145 1.72477007 9 15 22344 6.66400000 2892362077 2892362077 15.00000000
-1.32314992 -1.39430904 -0.51504987 4 0 22350 1.99000000 2892362098 2892362098 -15.00000000
-4.46205521 -4.70038176 0.11312650 11 1 22351 6.48200000 2892362100 2892362100 1.00000000
-1.51770878 -1.59821367 -0.50883931 4 2 22352 2.26200000 2892362103 2892362103 -13.00000000
-4.46100855 -4.69599533 0.33945101 7 3 22353 6.48600000 2892362105 2892362105 3.00000000
-1.77268255 -1.86605990 -0.50030118 3 4 22353 2.62200000 2892362107 2892362107 -11.00000000
-4.46192932 -4.69532299 0.56668663 13 5 22354 6.50200000 2892362109 2892362109 5.00000000
-2.13406277 -2.24490643 -0.49057847 2 6 22355 3.13600000 2892362112 2892362112 -9.00000000
-4.46363544 -4.69383621 0.79531932 10 7 22356 6.52600000 2892362114 2892362114 7.00000000
-4.48497772 -4.71463108 -0.79897541 2 8 22357 6.55600000 2892362116 2892362116 -7.00000000
-4.46112251 -4.68791533 1.02495861 10 9 22358 6.55200000 2892362119 2892362119 9.00000000
-3.51063251 -3.68910503 -0.44554016 3 10 22358 5.11200000 2892362121 2892362121 -5.00000000
-4.46298552 -4.68823481 1.25819457 12 11 22359 6.59400000 2892362123 2892362123 11.00000000
-4.46536493 -4.68909550 -0.33934635 10 12 22360 6.48400000 2892362126 2892362126 -3.00000000
-4.45984173 -4.68165874 1.49277520 13 13 22361 6.63600000 2892362128 2892362128 13.00000000
-4.47796869 -4.69904470 -0.11330102 13 14 22362 6.49200000 2892362130 2892362130 -1.00000000
-4.45531940 -4.67527723 1.73046410 9 15 22362 6.68600000 2892362132 2892362132 15.00000000
-1.32667422 -1.38828528 -0.51453227 5 0 22370 1.98800000 2892362153 2892362153 -15.00000000
-4.49087191 -4.69778681 0.11344064 17 1 22371 6.50000000 2892362156 2892362156 1.00000000
-1.52866566 -1.59853971 -0.51063889 4 2 22372 2.27000000 2892362158 2892362158 -13.00000000
-4.48841858 -4.69194078 0.34028840 7 3 22373 6.50200000 2892362160 2892362160 3.00000000
-1.77647126 -1.85702336 -0.49953794 3 4 22373 2.61800000 2892362162 2892362162 -11.00000000
-4.49206686 -4.69411421 0.56842977 9 5 22374 6.52200000 2892362165 2892362165 5.00000000
-2.13095808 -2.22602773 -0.48807552 2 6 22375 3.12000000 2892362167 2892362167 -9.00000000
-4.49646854 -4.69543171 0.79824418 10 7 22376 6.55000000 2892362169 2892362169 7.00000000
-2.62971187 -2.74511409 -0.46675959 1 8 22377 3.83000000 2892362172 2892362172 -7.00000000
-4.48839283 -4.68372440 1.02746153 10 9 22378 6.56800000 2892362174 2892362174 9.00000000
-3.50418949 -3.65668917 -0.44309980 3 10 22378 5.08400000 2892362176 2892362176 -5.00000000
-4.50106096 -4.69530296 1.26430035 12 11 22379 6.62600000 2892362179 2892362179 11.00000000
-4.51350069 -4.70663500 -0.34175378 10 12 22380 6.53000000 2892362181 2892362181 -3.00000000
-4.48694897 -4.67731285 1.49637437 13 13 22381 6.65200000 2892362183 2892362183 13.00000000
-4.50403643 -4.69348478 -0.11354536 6 14 22382 6.50600000 2892362185 2892362185 -1.00000000
-4.48312807 -4.67006540 1.73460519 9 15 22383 6.70200000 2892362188 2892362188 15.00000000
-1.32749355 -1.37946987 -0.51297933 5 0 22390 1.98200000 2892362209 2892362209 -15.00000000
-4.51140308 -4.68640423 0.11354536 17 1 22391 6.50600000 2892362211 2892362211 1.00000000
-1.53288448 -1.59179020 -0.51018900 4 2 22392 2.26800000 2892362213 2892362213 -13.00000000
-4.52416801 -4.69638205 0.34175378 7 3 22393 6.53000000 2892362215 2892362215 3.00000000
-1.78566682 -1.85363877 -0.50030118 3 4 22393 2.62200000 2892362218 2892362218 -11.00000000
-4.50980759 -4.67984009 0.56860405 9 5 22394 6.52400000 2892362220 2892362220 5.00000000
-2.14145732 -2.22142029 -0.48870125 2 6 22395 3.12400000 2892362222 2892362222 -9.00000000
-4.53487873 -4.70256996 0.80214399 10 7 22396 6.58200000 2892362225 2892362225 7.00000000
-2.66408587 -2.76163411 -0.47114688 1 8 22397 3.86600000 2892362227 2892362227 -7.00000000
-4.52391911 -4.68792868 1.03184175 10 9 22398 6.59600000 2892362229 2892362229 9.00000000
-3.51969934 -3.64730239 -0.44344842 3 10 22398 5.08800000 2892362232 2892362232 -5.00000000
-4.52560425 -4.68803787 1.26659012 12 11 22399 6.63800000 2892362234 2892362234 11.00000000
-4.54932642 -4.71096516 -0.34321919 10 12 22400 6.55800000 2892362236 2892362236 -3.00000000
-4.51678801 -4.67563772 1.50087345 12 13 22401 6.67200000 2892362238 2892362238 13.00000000
-4.53428841 -4.69211388 -0.11389440 6 14 22402 6.52600000 2892362241 2892362241 -1.00000000
-4.50798702 -4.66489744 1.73822868 9 15 22402 6.71600000 2892362243 2892362243 15.00000000
-1.32692313 -1.36927843 -0.51090878 5 0 22410 1.97400000 2892362264 2892362264 -15.00000000
-4.53608561 -4.67924261 0.11375479 14 1 22411 6.51800000 2892362266 2892362266 1.00000000
-1.52757847 -1.57523799 -0.50658977 4 2 22412 2.25200000 2892362268 2892362268 -13.00000000
-4.55583143 -4.69633055 0.34290519 12 3 22413 6.55200000 2892362271 2892362271 3.00000000
-1.79212630 -1.84739435 -0.50030118 3 4 22413 2.62200000 2892362273 2892362273 -11.00000000
-4.54415369 -4.68265676 0.57087010 9 5 22414 6.55000000 2892362275 2892362275 5.00000000
-2.14094281 -2.20542741 -0.48682407 2 6 22415 3.11200000 2892362278 2892362278 -9.00000000
-4.55403185 -4.68955994 0.80263150 10 7 22416 6.58600000 2892362280 2892362280 7.00000000
-2.67232633 -2.75089407 -0.47090313 1 8 22417 3.86400000 2892362282 2892362282 -7.00000000
-4.55677509 -4.68910885 1.03559613 10 9 22418 6.62000000 2892362285 2892362285 9.00000000
-3.52130103 -3.62356329 -0.44205391 3 10 22418 5.07200000 2892362287 2892362287 -5.00000000
-4.55152035 -4.68206596 1.26926148 12 11 22419 6.65200000 2892362289 2892362289 11.00000000
-4.57688236 -4.70651150 -0.34405658 10 12 22420 6.57400000 2892362291 2892362291 -3.00000000
-4.54666996 -4.67381096 1.50537241 11 13 22421 6.69200000 2892362294 2892362294 13.00000000
-4.57016373 -4.69632149 -0.11438307 6 14 22422 6.55400000 2892362296 2892362296 -1.00000000
-4.54041100 -4.66574717 1.74444032 9 15 22422 6.74000000 2892362298 2892362298 15.00000000
-1.34431839 -1.37661254 -0.51556754 5 0 22432 1.99200000 2892362320 2892362320 -15.00000000
-4.57497931 -4.68324757 0.11427835 14 1 22433 6.54800000 2892362322 2892362322 1.00000000
-1.53770161 -1.57354224 -0.50793946 4 2 22434 2.25800000 2892362325 2892362325 -13.00000000
-4.59116077 -4.69817066 0.34426591 15 3 22434 6.57800000 2892362327 2892362327 3.00000000
-1.79920661 -1.84049952 -0.50030118 3 4 22435 2.62200000 2892362329 2892362329 -11.00000000
-4.57324409 -4.67656994 0.57226461 9 5 22436 6.56600000 2892362332 2892362332 5.00000000
-2.14939523 -2.19719052 -0.48682407 2 6 22437 3.11200000 2892362334 2892362334 -9.00000000
-4.59421921 -4.69473934 0.80653131 10 7 22438 6.61800000 2892362336 2892362336 7.00000000
-2.68009210 -2.73777556 -0.47041565 1 8 22439 3.86000000 2892362338 2892362338 -7.00000000
-4.58913136 -4.68790340 1.03903770 10 9 22439 6.64200000 2892362341 2892362341 9.00000000
-3.55191660 -3.62709785 -0.44414568 3 10 22440 5.09600000 2892362343 2892362343 -5.00000000
-4.58457708 -4.67998171 1.27345920 12 11 22441 6.67400000 2892362345 2892362345 11.00000000
-4.60610342 -4.70031452 -0.34489396 10 12 22442 6.59000000 2892362348 2892362348 -3.00000000
-4.57276773 -4.66466808 1.50807190 12 13 22443 6.70400000 2892362350 2892362350 13.00000000
-4.61336470 -4.70443821 -0.11501136 6 14 22444 6.59000000 2892362352 2892362352 -1.00000000
-4.57452393 -4.66483068 1.75065207 9 15 22444 6.76400000 2892362355 2892362355 15.00000000
-1.35047007 -1.37328911 -0.51608515 5 0 22452 1.99400000 2892362375 2892362375 -15.00000000
-4.61513901 -4.69148350 0.11487174 11 1 22453 6.58200000 2892362378 2892362378 1.00000000
-1.54045129 -1.56538701 -0.50703967 4 2 22454 2.25400000 2892362380 2892362380 -13.00000000
-4.61395407 -4.68700504 0.34468460 17 3 22455 6.58600000 2892362382 2892362382 3.00000000
-1.80562019 -1.83420789 -0.50030118 3 4 22455 2.62200000 2892362385 2892362385 -11.00000000
-4.61051035 -4.68187189 0.57487929 9 5 22456 6.59600000 2892362387 2892362387 5.00000000
-2.16259694 -2.19530320 -0.48807552 2 6 22457 3.12000000 2892362389 2892362389 -9.00000000
-4.61197233 -4.68008804 0.80677503 10 7 22458 6.62000000 2892362391 2892362391 7.00000000
-2.66176057 -2.70012999 -0.46554089 1 8 22459 3.82000000 2892362394 2892362394 -7.00000000
-4.61599159 -4.68089724 1.04122782 10 9 22460 6.65600000 2892362396 2892362396 9.00000000
-4.63895893 -4.70418739 -0.57801688 8 10 22460 6.63200000 2892362398 2892362398 -5.00000000
-4.62294531 -4.68631268 1.27956510 21 11 22461 6.70600000 2892362401 2892362401 11.00000000
-4.63931704 -4.70126724 -0.34615001 10 12 22462 6.61400000 2892362403 2892362403 -3.00000000
-4.59997511 -4.65977240 1.51167107 11 13 22463 6.72000000 2892362405 2892362405 13.00000000
-4.63818836 -4.69684315 -0.11522079 6 14 22464 6.60200000 2892362408 2892362408 -1.00000000
-4.61331320 -4.67002249 1.75893426 9 15 22465 6.79600000 2892362410 2892362410 15.00000000
-1.34798336 -1.36217391 -0.51349699 4 0 22470 1.98400000 2892362431 2892362431 -15.00000000
-4.64251661 -4.68975163 0.11518588 8 1 22471 6.60000000 2892362433 2892362433 1.00000000
-1.55084634 -1.56607866 -0.50883931 4 2 22472 2.26200000 2892362435 2892362435 -13.00000000
-4.64329910 -4.68890524 0.34583601 12 3 22472 6.60800000 2892362438 2892362438 3.00000000
-1.79755688 -1.81457877 -0.49648499 3 4 22473 2.60200000 2892362440 2892362440 -11.00000000
-4.65184212 -4.69425344 0.57819122 9 5 22474 6.63400000 2892362442 2892362442 5.00000000
-2.16948295 -2.18849850 -0.48807552 2 6 22475 3.12000000 2892362444 2892362444 -9.00000000
-4.65600586 -4.69517612 0.81189358 10 7 22476 6.66200000 2892362447 2892362447 7.00000000
-2.68141437 -2.70302892 -0.46749079 1 8 22477 3.83600000 2892362449 2892362449 -7.00000000
-4.64737177 -4.68319845 1.04498219 10 9 22478 6.68000000 2892362451 2892362451 9.00000000
-3.56747365 -3.59497571 -0.44309980 3 10 22478 5.08400000 2892362454 2892362454 -5.00000000
-4.64179468 -4.67594576 1.28070998 12 11 22479 6.71200000 2892362456 2892362456 11.00000000
-4.67095184 -4.70367527 -0.34740609 10 12 22480 6.63800000 2892362458 2892362458 -3.00000000
-4.63656569 -4.66741896 1.51886952 10 13 22481 6.75200000 2892362461 2892362461 13.00000000
-4.66701651 -4.69643307 -0.11556984 9 14 22482 6.62200000 2892362463 2892362463 -1.00000000
-4.63804293 -4.66727638 1.76307535 9 15 22482 6.81200000 2892362465 2892362465 15.00000000
-1.34591186 -1.35061824 -0.51090878 5 0 22490 1.97400000 2892362486 2892362486 -15.00000000
-4.65885878 -4.67351770 0.11518588 8 1 22491 6.60000000 2892362488 2892362488 1.00000000
-1.55630350 -1.56065559 -0.50883931 4 2 22492 2.26200000 2892362490 2892362490 -13.00000000
-4.67515182 -4.68822527 0.34698740 10 3 22492 6.63000000 2892362493 2892362493 3.00000000
-1.81219912 -1.81663263 -0.49877471 3 4 22493 2.61400000 2892362495 2892362495 -11.00000000
-4.67382908 -4.68362808 0.57888842 13 5 22494 6.64200000 2892362497 2892362497 5.00000000
-2.17431808 -2.17811608 -0.48744980 2 6 22495 3.11600000 2892362500 2892362500 -9.00000000
-4.68218565 -4.68872786 0.81359977 10 7 22496 6.67600000 2892362502 2892362502 7.00000000
-2.71047449 -2.71331429 -0.47090313 1 8 22497 3.86400000 2892362504 2892362504 -7.00000000
-4.67625761 -4.67952347 1.04779804 10 9 22498 6.69800000 2892362507 2892362507 9.00000000
-4.69118118 -4.69445753 -0.58063155 8 10 22498 6.66200000 2892362509 2892362509 -5.00000000
-4.67196798 -4.67359924 1.28452611 12 11 22499 6.73200000 2892362511 2892362511 11.00000000
-4.69299126 -4.69299126 -0.34782475 10 12 22500 6.64600000 2892362514 2892362514 -3.00000000
-4.67350292 -4.67187166 1.52561808 11 13 22501 6.78200000 2892362516 2892362516 13.00000000
-4.69752693 -4.69424868 -0.11591888 11 14 22502 6.64200000 2892362518 2892362518 -1.00000000
-4.67343760 -4.67017603 1.77032232 9 15 22502 6.84000000 2892362520 2892362520 15.00000000
-1.35882866 -1.35409367 -0.51401460 4 0 22510 1.98600000 2892362541 2892362541 -15.00000000
-4.69781113 -4.67980719 0.11574436 8 1 22511 6.63200000 2892362543 2892362543 1.00000000
-1.55897999 -1.55246341 -0.50793946 4 2 22512 2.25800000 2892362546 2892362546 -13.00000000
-4.71353579 -4.69219446 0.34855747 10 3 22513 6.66000000 2892362548 2892362548 3.00000000
-1.82687759 -1.81860626 -0.50106442 3 4 22513 2.62600000 2892362550 2892362550 -11.00000000
-4.71415806 -4.69117641 0.58185172 13 5 22514 6.67600000 2892362553 2892362553 5.00000000
-2.16790318 -2.15658164 -0.48432112 2 6 22515 3.09600000 2892362555 2892362555 -9.00000000
-4.71400738 -4.68775272 0.81628084 10 7 22516 6.69800000 2892362557 2892362557 7.00000000
-2.69740391 -2.68144441 -0.46700332 1 8 22517 3.83200000 2892362560 2892362560 -7.00000000
-4.70435810 -4.67652464 1.05061388 10 9 22517 6.71600000 2892362562 2892362562 9.00000000
-4.73863077 -4.70895052 -0.58446640 8 10 22518 6.70600000 2892362564 2892362564 -5.00000000
-4.70218182 -4.67109871 1.28834236 12 11 22519 6.75200000 2892362567 2892362567 11.00000000
-4.72635078 -4.69346905 -0.34908083 10 12 22520 6.67000000 2892362569 2892362569 -3.00000000
-4.71052742 -4.67612314 1.53236663 10 13 22521 6.81200000 2892362571 2892362571 13.00000000
-4.73091698 -4.69472504 -0.11633774 13 14 22522 6.66600000 2892362573 2892362573 -1.00000000
-4.70423794 -4.66662073 1.77549863 9 15 22523 6.86000000 2892362576 2892362576 15.00000000
-1.36629331 -1.35205996 -0.51504987 5 0 22530 1.99000000 2892362596 2892362596 -15.00000000
-4.73117781 -4.68025637 0.11616322 8 1 22531 6.65600000 2892362599 2892362599 1.00000000
-1.56716096 -1.54975259 -0.50883931 4 2 22532 2.26200000 2892362601 2892362601 -13.00000000
-4.73759031 -4.68496418 0.34918550 10 3 22532 6.67200000 2892362603 2892362603 3.00000000
-1.83600700 -1.81497860 -0.50182766 3 4 22533 2.63000000 2892362606 2892362606 -11.00000000
-4.74609375 -4.69009733 0.58376914 13 5 22534 6.69800000 2892362608 2892362608 5.00000000
-2.17822862 -2.15177774 -0.48494685 2 6 22535 3.10000000 2892362610 2892362610 -9.00000000
-4.74305391 -4.68382263 0.81847453 10 7 22536 6.71600000 2892362613 2892362613 7.00000000
-4.77918911 -4.71785927 -0.82456797 4 8 22537 6.76600000 2892362615 2892362615 -7.00000000
-4.74818134 -4.68561316 1.05655837 10 9 22538 6.75400000 2892362617 2892362617 9.00000000
-4.75503922 -4.69238091 -0.58446640 4 10 22538 6.70600000 2892362620 2892362620 -5.00000000
-4.73243475 -4.66844416 1.29215848 12 11 22539 6.77200000 2892362622 2892362622 11.00000000
-4.75123787 -4.68535662 -0.34970886 10 12 22540 6.68200000 2892362624 2892362624 -3.00000000
-4.73792362 -4.67059660 1.53596580 10 13 22541 6.82800000 2892362626 2892362626 13.00000000
-4.76864100 -4.69923639 -0.11686131 14 14 22542 6.69600000 2892362629 2892362629 -1.00000000
-4.73563766 -4.66508436 1.78119266 9 15 22543 6.88200000 2892362631 2892362631 15.00000000
-1.37100458 -1.34728241 -0.51504987 6 0 22550 1.99000000 2892362652 2892362652 -15.00000000
-4.76460409 -4.68052912 0.11658207 8 1 22551 6.68000000 2892362654 2892362654 1.00000000
-1.57256103 -1.54427278 -0.50883931 4 2 22552 2.26200000 2892362656 2892362656 -13.00000000
-4.76389027 -4.67819452 0.34991822 7 3 22552 6.68600000 2892362659 2892362659 3.00000000
-1.83392525 -1.80030668 -0.49953794 3 4 22553 2.61800000 2892362661 2892362661 -11.00000000
-4.77381229 -4.68466568 0.58516365 13 5 22554 6.71400000 2892362663 2892362663 5.00000000
-2.19418716 -2.15246105 -0.48682407 2 6 22555 3.11200000 2892362666 2892362666 -9.00000000
-4.78488684 -4.69225550 0.82286179 10 7 22556 6.75200000 2892362668 2892362668 7.00000000
-4.80838680 -4.71365452 -0.82676160 2 8 22557 6.78400000 2892362670 2892362670 -7.00000000
-4.77356768 -4.67952204 1.05874848 10 9 22557 6.76800000 2892362673 2892362673 9.00000000
-4.79558134 -4.69946051 -0.58742970 4 10 22558 6.74000000 2892362675 2892362675 -5.00000000
-4.77534866 -4.67799997 1.29940927 12 11 22559 6.81000000 2892362677 2892362677 11.00000000
-4.78754139 -4.68830681 -0.35117427 10 12 22560 6.71000000 2892362679 2892362679 -3.00000000
-4.76116085 -4.66084576 1.53821528 9 13 22561 6.83800000 2892362682 2892362682 13.00000000
-4.80073643 -4.69794703 -0.11724526 14 14 22562 6.71800000 2892362684 2892362684 -1.00000000
-4.77398825 -4.67014027 1.78947484 9 15 22563 6.91400000 2892362686 2892362686 15.00000000
-1.37431657 -1.34113932 -0.51453227 5 0 22570 1.98800000 2892362707 2892362707 -15.00000000
-4.80667877 -4.68900394 0.11721036 11 1 22571 6.71600000 2892362709 2892362709 1.00000000
-1.58352268 -1.54421628 -0.51063889 4 2 22572 2.27000000 2892362712 2892362712 -13.00000000
-4.80592966 -4.68663645 0.35180229 7 3 22572 6.72200000 2892362714 2892362714 3.00000000
-1.83738661 -1.79115331 -0.49877471 3 4 22573 2.61400000 2892362716 2892362716 -11.00000000
-4.80440521 -4.68187857 0.58690679 13 5 22574 6.73400000 2892362719 2892362719 5.00000000
-2.20734715 -2.15030241 -0.48807552 2 6 22575 3.12000000 2892362721 2892362721 -9.00000000
-4.81830263 -4.69214392 0.82578665 10 7 22576 6.77600000 2892362723 2892362723 7.00000000
-4.84187984 -4.71345758 -0.82968646 2 8 22577 6.80800000 2892362726 2892362726 -7.00000000
-4.80402803 -4.67660952 1.06187713 10 9 22577 6.78800000 2892362728 2892362728 9.00000000
-3.60396957 -3.50715566 -0.43996218 3 10 22578 5.04800000 2892362730 2892362730 -5.00000000
-4.81557178 -4.68457460 1.30589676 12 11 22579 6.84400000 2892362732 2892362732 11.00000000
-4.83251476 -4.69941521 -0.35326770 10 12 22580 6.75000000 2892362735 2892362735 -3.00000000
-4.79696369 -4.66321468 1.54451394 11 13 22581 6.86600000 2892362737 2892362737 13.00000000
-4.82714510 -4.69091606 -0.11748960 14 14 22582 6.73200000 2892362739 2892362739 -1.00000000
-4.80411768 -4.66690874 1.79465127 9 15 22583 6.93400000 2892362742 2892362742 15.00000000
-1.37621498 -1.33364511 -0.51349699 5 0 22590 1.98400000 2892362762 2892362762 -15.00000000
-4.83594370 -4.68471909 0.11752450 11 1 22591 6.73400000 2892362765 2892362765 1.00000000
-1.58610356 -1.53596807 -0.50973910 4 2 22592 2.26600000 2892362767 2892362767 -13.00000000
-4.84234667 -4.68928385 0.35326770 7 3 22592 6.75000000 2892362769 2892362769 3.00000000
-1.84080660 -1.78199768 -0.49801147 3 4 22593 2.61000000 2892362772 2892362772 -11.00000000
-4.83360434 -4.67754936 0.58847558 13 5 22594 6.75200000 2892362774 2892362774 5.00000000
-2.21483970 -2.14258432 -0.48807552 2 6 22595 3.12000000 2892362776 2892362776 -9.00000000
-4.85462952 -4.69461536 0.82919902 10 7 22596 6.80400000 2892362778 2892362778 7.00000000
-2.75456095 -2.66283727 -0.47041565 1 8 22597 3.86000000 2892362781 2892362781 -7.00000000
-4.84020662 -4.67903328 1.06625736 10 9 22597 6.81600000 2892362783 2892362783 9.00000000
-3.63481522 -3.51255298 -0.44222823 3 10 22598 5.07400000 2892362785 2892362785 -5.00000000
-4.84460258 -4.68001270 1.30933130 12 11 22599 6.86200000 2892362788 2892362788 11.00000000
-4.86325645 -4.69639206 -0.35431442 10 12 22600 6.77000000 2892362790 2892362790 -3.00000000
-4.83284092 -4.66539049 1.55081260 11 13 22601 6.89400000 2892362792 2892362792 13.00000000
-4.86651278 -4.69625521 -0.11804808 10 14 22602 6.76400000 2892362795 2892362795 -1.00000000
-4.82651806 -4.65765953 1.79723942 9 15 22602 6.94400000 2892362797 2892362797 15.00000000
-1.38225389 -1.33017266 -0.51401460 6 0 22610 1.98600000 2892362818 2892362818 -15.00000000
-4.86667824 -4.68167353 0.11787355 11 1 22611 6.75400000 2892362820 2892362820 1.00000000
-1.58864605 -1.52772057 -0.50883931 4 2 22612 2.26200000 2892362822 2892362822 -13.00000000
-4.87596083 -4.68896484 0.35452378 7 3 22612 6.77400000 2892362825 2892362825 3.00000000
-1.85267711 -1.78100348 -0.49953794 3 4 22613 2.61800000 2892362827 2892362827 -11.00000000
-4.86283207 -4.67307329 0.59004438 10 5 22614 6.77000000 2892362829 2892362829 5.00000000
-2.21090889 -2.12389207 -0.48557258 2 6 22615 3.10400000 2892362831 2892362831 -9.00000000
-4.87671471 -4.68314123 0.83017397 10 7 22616 6.81200000 2892362834 2892362834 7.00000000
-4.92192507 -4.72490597 -0.83772987 2 8 22617 6.87400000 2892362836 2892362836 -7.00000000
-4.87218523 -4.67715740 1.06969893 10 9 22617 6.83800000 2892362838 2892362838 9.00000000
-3.65567946 -3.50812078 -0.44327411 3 10 22618 5.08600000 2892362841 2892362841 -5.00000000
-4.86515999 -4.66715097 1.31047618 12 11 22619 6.86800000 2892362843 2892362843 11.00000000
-4.89547729 -4.69459391 -0.35546583 10 12 22620 6.79200000 2892362845 2892362845 -3.00000000
-4.87441826 -4.67276621 1.55891085 11 13 22621 6.93000000 2892362848 2892362848 13.00000000
-4.90742064 -4.70275974 -0.11864146 6 14 22622 6.79800000 2892362850 2892362850 -1.00000000
-4.86169195 -4.65731096 1.80396879 9 15 22623 6.97000000 2892362852 2892362852 15.00000000
-1.39247525 -1.33067822 -0.51608515 6 0 22630 1.99400000 2892362873 2892362873 -15.00000000
-4.90323400 -4.68399525 0.11836222 11 1 22631 6.78200000 2892362875 2892362875 1.00000000
-1.58833182 -1.51678240 -0.50703967 4 2 22632 2.25400000 2892362878 2892362878 -13.00000000
-4.90178204 -4.67933702 0.35515180 7 3 22633 6.78600000 2892362880 2892362880 3.00000000
-1.85888267 -1.77452564 -0.49953794 3 4 22633 2.61800000 2892362882 2892362882 -11.00000000
-4.90217638 -4.67807817 0.59283334 10 5 22634 6.80200000 2892362884 2892362884 5.00000000
-2.22545576 -2.12297916 -0.48713693 1 6 22635 3.11400000 2892362887 2892362887 -9.00000000
-4.90739822 -4.67978907 0.83261138 10 7 22636 6.83200000 2892362889 2892362889 7.00000000
-2.76733661 -2.63806319 -0.46944070 1 8 22637 3.85200000 2892362891 2892362891 -7.00000000
-4.91135883 -4.68192959 1.07470477 10 9 22637 6.87000000 2892362894 2892362894 9.00000000
-3.65059447 -3.47884488 -0.44118237 3 10 22638 5.06200000 2892362896 2892362896 -5.00000000
-4.89563656 -4.66368103 1.31429231 9 11 22639 6.88800000 2892362898 2892362898 11.00000000
-4.93063736 -4.69538260 -0.35682654 10 12 22640 6.81800000 2892362901 2892362901 -3.00000000
-4.90057993 -4.66512823 1.56206012 11 13 22641 6.94400000 2892362903 2892362903 13.00000000
-4.93684387 -4.69800806 -0.11895560 6 14 22642 6.81600000 2892362905 2892362905 -1.00000000
-4.89810133 -4.66113997 1.81173337 9 15 22642 7.00000000 2892362908 2892362908 15.00000000
-1.39571047 -1.32447970 -0.51556754 5 0 22650 1.99200000 2892362928 2892362928 -15.00000000
-4.94131565 -4.68749475 0.11888579 11 1 22651 6.81200000 2892362931 2892362931 1.00000000
-1.59361660 -1.51122892 -0.50703967 4 2 22652 2.25400000 2892362933 2892362933 -13.00000000
-4.93982840 -4.68280888 0.35672188 12 3 22653 6.81600000 2892362935 2892362935 3.00000000
-1.85936630 -1.76262343 -0.49801147 3 4 22653 2.61000000 2892362937 2892362937 -11.00000000
-4.94884634 -4.68971777 0.59649390 10 5 22654 6.84400000 2892362940 2892362940 5.00000000
-2.23428679 -2.11655641 -0.48744980 2 6 22655 3.11600000 2892362942 2892362942 -9.00000000
-4.94676542 -4.68446970 0.83651119 10 7 22656 6.86400000 2892362944 2892362944 7.00000000
-2.77076173 -2.62292862 -0.46846575 1 8 22657 3.84400000 2892362947 2892362947 -7.00000000
-4.93565989 -4.67068624 1.07626915 10 9 22658 6.88000000 2892362949 2892362949 9.00000000
-3.66126847 -3.46471119 -0.44100806 3 10 22658 5.06000000 2892362951 2892362951 -5.00000000
-4.93327904 -4.66680145 1.32001662 12 11 22659 6.91800000 2892362954 2892362954 11.00000000
-4.95280170 -4.68363190 -0.35724524 10 12 22660 6.82600000 2892362956 2892362956 -3.00000000
-4.92391491 -4.65468740 1.56430960 11 13 22661 6.95400000 2892362958 2892362958 13.00000000
-4.96193314 -4.68898726 -0.11916503 6 14 22662 6.82800000 2892362961 2892362961 -1.00000000
-4.93902588 -4.66570854 1.82053316 9 15 22663 7.03400000 2892362963 2892362963 15.00000000
-1.39329541 -1.31297517 -0.51297933 5 0 22670 1.98200000 2892362984 2892362984 -15.00000000
-4.98239279 -4.69352770 0.11947917 11 1 22671 6.84600000 2892362986 2892362986 1.00000000
-1.60171950 -1.50832891 -0.50793946 4 2 22672 2.25800000 2892362988 2892362988 -13.00000000
-4.97941256 -4.68744135 0.35839662 10 3 22673 6.84800000 2892362990 2892362990 3.00000000
-1.86836672 -1.75881362 -0.49877471 3 4 22673 2.61400000 2892362993 2892362993 -11.00000000
-4.97244120 -4.67924166 0.59736544 10 5 22674 6.85400000 2892362995 2892362995 5.00000000
-2.25604939 -2.12227941 -0.49057847 2 6 22675 3.13600000 2892362997 2892362997 -9.00000000
-4.98044062 -4.68349266 0.83943605 10 7 22676 6.88800000 2892363000 2892363000 7.00000000
-2.77845430 -2.61188126 -0.46822202 1 8 22677 3.84200000 2892363002 2892363002 -7.00000000
-4.95831776 -4.66105795 1.07783341 10 9 22677 6.89000000 2892363004 2892363004 9.00000000
-3.67479229 -3.45327425 -0.44118237 3 10 22678 5.06200000 2892363007 2892363007 -5.00000000
-4.96527958 -4.66433859 1.32421446 12 11 22679 6.94000000 2892363009 2892363009 11.00000000
-4.99532747 -4.69092464 -0.35912934 10 12 22680 6.86200000 2892363011 2892363011 -3.00000000
-4.96712828 -4.66281271 1.57285774 11 13 22681 6.99200000 2892363014 2892363014 13.00000000
-4.98264551 -4.67574358 -0.11926974 6 14 22682 6.83400000 2892363016 2892363016 -1.00000000
-4.96855831 -4.66252422 1.82570958 9 15 22682 7.05400000 2892363018 2892363018 15.00000000
-1.39222789 -1.30282378 -0.51090878 5 0 22690 1.97400000 2892363039 2892363039 -15.00000000
-5.00020599 -4.67747355 0.11951408 8 1 22691 6.84800000 2892363041 2892363041 1.00000000
-1.62120843 -1.51603889 -0.51243848 4 2 22692 2.27800000 2892363043 2892363043 -13.00000000
-5.01033497 -4.68367052 0.35944334 10 3 22693 6.86800000 2892363046 2892363046 3.00000000
-1.87449479 -1.75228107 -0.49877471 3 4 22693 2.61400000 2892363048 2892363048 -11.00000000
-5.00039005 -4.67273855 0.59875995 10 5 22694 6.87000000 2892363050 2892363050 5.00000000
-2.24900866 -2.10090661 -0.48744980 2 6 22695 3.11600000 2892363053 2892363053 -9.00000000
-5.01126719 -4.67962742 0.84187341 10 7 22696 6.90800000 2892363055 2892363055 7.00000000
-2.79771209 -2.61164880 -0.46992818 1 8 22697 3.85600000 2892363057 2892363057 -7.00000000
-5.00136375 -4.66711235 1.08346510 10 9 22698 6.92600000 2892363060 2892363060 9.00000000
-3.68245411 -3.43634796 -0.44065943 3 10 22698 5.05600000 2892363062 2892363062 -5.00000000
-5.01024294 -4.67376184 1.33184683 12 11 22699 6.98000000 2892363064 2892363064 11.00000000
-5.03358173 -4.69389105 -0.36069942 10 12 22700 6.89200000 2892363066 2892363066 -3.00000000
-5.00190496 -4.66271973 1.57870650 10 13 22701 7.01800000 2892363069 2892363069 13.00000000
-5.02819538 -4.68558788 -0.11996784 6 14 22702 6.87400000 2892363071 2892363071 -1.00000000
-4.99833584 -4.65613317 1.83036828 9 15 22703 7.07200000 2892363073 2892363073 15.00000000
-1.40123975 -1.30165672 -0.51246172 5 0 22711 1.98000000 2892363094 2892363094 -15.00000000
-5.03490067 -4.67544413 0.11993293 8 1 22712 6.87200000 2892363096 2892363096 1.00000000
-1.61961293 -1.50345767 -0.51018900 4 2 22713 2.26800000 2892363099 2892363099 -13.00000000
-5.04796410 -4.68429470 0.36090875 10 3 22714 6.89600000 2892363101 2892363101 3.00000000
-1.88378286 -1.74806988 -0.49953794 3 4 22714 2.61800000 2892363103 2892363103 -11.00000000
-5.03355074 -4.66928482 0.60067737 10 5 22715 6.89200000 2892363106 2892363106 5.00000000
-2.24510598 -2.08190417 -0.48494685 2 6 22716 3.10000000 2892363108 2892363108 -9.00000000
-5.04003191 -4.67202473 0.84382331 10 7 22717 6.92400000 2892363110 2892363110 7.00000000
-2.79124904 -2.58653545 -0.46724707 1 8 22718 3.83400000 2892363113 2892363113 -7.00000000
-5.04660320 -4.67647886 1.08972251 10 9 22718 6.96600000 2892363115 2892363115 9.00000000
-3.68625426 -3.41470432 -0.43961358 3 10 22719 5.04400000 2892363117 2892363117 -5.00000000
-5.03310108 -4.66070271 1.33337331 12 11 22720 6.98800000 2892363119 2892363119 11.00000000
-5.06394339 -4.68762159 -0.36164147 10 12 22721 6.91000000 2892363122 2892363122 -3.00000000
-5.04184580 -4.66553259 1.58590496 9 13 22722 7.05000000 2892363124 2892363124 13.00000000
-5.07322645 -4.69292736 -0.12063103 12 14 22723 6.91200000 2892363126 2892363126 -1.00000000
-5.02306700 -4.64652824 1.83347416 9 15 22723 7.08400000 2892363129 2892363129 15.00000000
-1.40719485 -1.29806733 -0.51297933 5 0 22731 1.98200000 2892363149 2892363149 -15.00000000
-5.07765150 -4.68224144 0.12056123 8 1 22732 6.90800000 2892363152 2892363152 1.00000000
-1.61768687 -1.49119103 -0.50793946 4 2 22733 2.25800000 2892363154 2892363154 -13.00000000
-5.07603502 -4.67747307 0.36174613 10 3 22734 6.91200000 2892363156 2892363156 3.00000000
-1.89276075 -1.74414432 -0.50030118 3 4 22734 2.62200000 2892363159 2892363159 -11.00000000
-5.07619619 -4.67598391 0.60381496 13 5 22735 6.92800000 2892363161 2892363161 5.00000000
-2.26979709 -2.09011197 -0.48870125 2 6 22736 3.12400000 2892363163 2892363163 -9.00000000
-5.07967806 -4.67591429 0.84772313 10 7 22737 6.95600000 2892363166 2892363166 7.00000000
-2.81048608 -2.58618546 -0.46895322 1 8 22738 3.84800000 2892363168 2892363168 -7.00000000
-5.08406305 -4.67667389 1.09410262 10 9 22739 6.99400000 2892363170 2892363170 9.00000000
-3.70988226 -3.41260672 -0.44100806 6 10 22739 5.06000000 2892363172 2892363172 -5.00000000
-5.06668139 -4.65905237 1.33795273 12 11 22740 7.01200000 2892363175 2892363175 11.00000000
-5.10086107 -4.68883944 -0.36310688 10 12 22741 6.93800000 2892363177 2892363177 -3.00000000
-5.06671047 -4.65581608 1.58860433 9 13 22742 7.06200000 2892363179 2892363179 13.00000000
-5.10724878 -4.69142294 -0.12104989 12 14 22743 6.93600000 2892363182 2892363182 -1.00000000
-5.06567669 -4.65160608 1.84279156 9 15 22744 7.12000000 2892363184 2892363184 15.00000000
-1.41718888 -1.29861438 -0.51504987 5 0 22750 1.99000000 2892363205 2892363205 -15.00000000
-5.11379433 -4.68428755 0.12104989 8 1 22751 6.93600000 2892363207 2892363207 1.00000000
-1.62693465 -1.48976648 -0.50928921 4 2 22752 2.26400000 2892363209 2892363209 -13.00000000
-5.10477734 -4.67275143 0.36268818 10 3 22753 6.93000000 2892363212 2892363212 3.00000000
-1.88405252 -1.72460210 -0.49648499 3 4 22753 2.60200000 2892363214 2892363214 -11.00000000
-5.10931301 -4.67526484 0.60590672 13 5 22754 6.95200000 2892363216 2892363216 5.00000000
-2.26505518 -2.07190728 -0.48619831 2 6 22755 3.10800000 2892363219 2892363219 -9.00000000
-5.11273527 -4.67511845 0.85064805 10 7 22756 6.98000000 2892363221 2892363221 7.00000000
-2.83076835 -2.58756590 -0.47090313 1 8 22757 3.86400000 2892363223 2892363223 -7.00000000
-5.10602045 -4.66734219 1.09566700 10 9 22757 7.00400000 2892363225 2892363225 9.00000000
-3.72706175 -3.40566158 -0.44170532 9 10 22758 5.06800000 2892363228 2892363228 -5.00000000
-5.11109447 -4.66870642 1.34558499 12 11 22759 7.05200000 2892363230 2892363230 11.00000000
-5.13997984 -4.69344664 -0.36478162 10 12 22760 6.97000000 2892363232 2892363232 -3.00000000
-5.09795427 -4.65344048 1.59355330 9 13 22761 7.08400000 2892363235 2892363235 13.00000000
-5.14641285 -4.69602728 -0.12160837 12 14 22762 6.96800000 2892363237 2892363237 -1.00000000
-5.09881687 -4.65259647 1.84952092 9 15 22762 7.14600000 2892363239 2892363239 15.00000000
-1.41885555 -1.29105926 -0.51401460 5 0 22770 1.98600000 2892363260 2892363260 -15.00000000
-5.15378284 -4.68793774 0.12160837 8 1 22771 6.96800000 2892363262 2892363262 1.00000000
-1.63645041 -1.48801148 -0.51063889 4 2 22772 2.27000000 2892363265 2892363265 -13.00000000
-5.14322615 -4.67505503 0.36425826 7 3 22773 6.96000000 2892363267 2892363267 3.00000000
-1.89587212 -1.72329724 -0.49801147 3 4 22773 2.61000000 2892363269 2892363269 -11.00000000
-5.13444901 -4.66544104 0.60695261 13 5 22774 6.96400000 2892363272 2892363272 5.00000000
-2.28982019 -2.07992625 -0.48995274 2 6 22775 3.13200000 2892363274 2892363274 -9.00000000
-5.14665890 -4.67325687 0.85357291 10 7 22776 7.00400000 2892363276 2892363276 7.00000000
-2.82802439 -2.56699538 -0.46895322 1 8 22777 3.84800000 2892363278 2892363278 -7.00000000
-5.13772202 -4.66187048 1.09879565 10 9 22778 7.02400000 2892363281 2892363281 9.00000000
-3.72417212 -3.37924242 -0.43996218 6 10 22778 5.04800000 2892363283 2892363283 -5.00000000
-5.14480972 -4.66666508 1.35016441 12 11 22779 7.07600000 2892363285 2892363285 11.00000000
-5.17112732 -4.68889236 -0.36582834 10 12 22780 6.99000000 2892363288 2892363288 -3.00000000
-5.13582468 -4.65524817 1.60030174 10 13 22781 7.11400000 2892363290 2892363290 13.00000000
-5.16870070 -4.68340540 -0.12174799 14 14 22782 6.97600000 2892363292 2892363292 -1.00000000
-5.12585783 -4.64295578 1.85314441 9 15 22783 7.16000000 2892363295 2892363295 15.00000000
-1.41618657 -1.27962279 -0.51142645 5 0 22790 1.97600000 2892363315 2892363315 -15.00000000
-5.18347120 -4.68198252 0.12192251 11 1 22791 6.98600000 2892363318 2892363318 1.00000000
-1.64742005 -1.48751402 -0.51243848 4 2 22792 2.27800000 2892363320 2892363320 -13.00000000
-5.17582273 -4.67179441 0.36540964 7 3 22793 6.98200000 2892363322 2892363322 3.00000000
-1.90187609 -1.71666884 -0.49801147 3 4 22793 2.61000000 2892363325 2892363325 -11.00000000
-5.17880869 -4.67284966 0.61026454 13 5 22794 7.00200000 2892363327 2892363327 5.00000000
-2.28826571 -2.06398225 -0.48807552 2 6 22795 3.12000000 2892363329 2892363329 -9.00000000
-5.18947744 -4.67919064 0.85796016 10 7 22796 7.04000000 2892363331 2892363331 7.00000000
-5.24190235 -4.72480202 -0.86649102 2 8 22797 7.11000000 2892363334 2892363334 -7.00000000
-5.17662954 -4.66596842 1.10380161 10 9 22797 7.05600000 2892363336 2892363336 9.00000000
