# .PCD v0.7 - Point Cloud Data file format
VERSION 0.7
FIELDS x y z intensity laser_id azimuth distance_m adjustedtime timestamp vertical_angle
SIZE 4 4 4 1 1 2 8 8 4 8
TYPE F F F U U U F U U F
COUNT 1 1 1 1 1 1 1 1 1 1
WIDTH 529
HEIGHT 1
VIEWPOINT 0 0 0 1 0 0 0
POINTS 529
DATA ascii
3.31129909 -4.97448206 -0.31317836 12 12 14635 5.98400000 2894140670 2894140670 -3.00000000
3.28614783 -4.93856668 1.36950207 9 13 14636 6.08800000 2894140672 2894140672 13.00000000
3.31027699 -4.97671223 -0.10433049 6 14 14637 5.97800000 2894140674 2894140674 -1.00000000
3.27821255 -4.92850637 1.58604312 9 15 14637 6.12800000 2894140677 2894140677 15.00000000
1.17443240 -1.77101386 -0.56940192 6 0 14645 2.20000000 2894140697 2894140697 -15.00000000
3.29914093 -4.97690582 0.10422577 11 1 14646 5.97200000 2894140700 2894140700 1.00000000
1.31755328 -1.98834312 -0.55068016 3 2 14647 2.44800000 2894140702 2894140702 -13.00000000
3.28897429 -4.96533155 0.31213164 9 3 14648 5.96400000 2894140704 2894140704 3.00000000
1.33243763 -2.01156783 -0.46900851 12 4 14648 2.45800000 2894140707 2894140707 -11.00000000
3.28229070 -4.95712042 0.52014548 9 5 14649 5.96800000 2894140709 2894140709 5.00000000
1.91017663 -2.88596201 -0.54814637 1 6 14650 3.50400000 2894140711 2894140711 -9.00000000
3.28607082 -4.96659470 0.73121607 11 7 14651 6.00000000 2894140713 2894140713 7.00000000
2.46609306 -3.72868752 -0.54889953 6 8 14652 4.50400000 2894140716 2894140716 -7.00000000
3.27697778 -4.95661020 0.94110972 52 9 14653 6.01600000 2894140718 2894140718 9.00000000
3.29860759 -4.98932648 -0.52328306 15 10 14653 6.00400000 2894140720 2894140720 -5.00000000
3.27332735 -4.95296764 1.15401280 12 11 14654 6.04800000 2894140723 2894140723 11.00000000
3.28841019 -4.97767830 -0.31265500 12 12 14655 5.97400000 2894140725 2894140725 -3.00000000
3.25707626 -4.93211985 1.36455309 9 13 14656 6.06600000 2894140727 2894140727 13.00000000
3.28407168 -4.97488594 -0.10405125 9 14 14657 5.96200000 2894140730 2894140730 -1.00000000
3.25799870 -4.93726349 1.58500779 9 15 14658 6.12400000 2894140732 2894140732 15.00000000
1.15125060 -1.74928296 -0.56111968 4 0 14665 2.16800000 2894140753 2894140753 -15.00000000
3.27735209 -4.98170900 0.10408615 11 1 14666 5.96400000 2894140755 2894140755 1.00000000
1.31274617 -1.99618661 -0.55158001 3 2 14667 2.45200000 2894140757 2894140757 -13.00000000
3.26151657 -4.95952320 0.31108493 9 3 14667 5.94400000 2894140760 2894140760 3.00000000
1.31246650 -1.99652028 -0.46442908 16 4 14668 2.43400000 2894140762 2894140762 -11.00000000
3.25621390 -4.95522690 0.51875097 9 5 14669 5.95200000 2894140764 2894140764 5.00000000
1.90442920 -2.89921641 -0.54939783 1 6 14670 3.51200000 2894140766 2894140766 -9.00000000
3.25999761 -4.96476030 0.72926617 10 7 14671 5.98400000 2894140769 2894140769 7.00000000
2.44870543 -3.73063493 -0.54792458 6 8 14672 4.49600000 2894140771 2894140771 -7.00000000
3.24773574 -4.94985104 0.93766820 19 9 14673 5.99400000 2894140773 2894140773 9.00000000
3.27024150 -4.98415232 -0.52153999 15 10 14673 5.98400000 2894140776 2894140776 -5.00000000
3.25709510 -4.96600485 1.15439439 12 11 14674 6.05000000 2894140778 2894140778 11.00000000
3.27320504 -4.99246740 -0.31286433 12 12 14675 5.97800000 2894140780 2894140780 -3.00000000
3.23129463 -4.93041992 1.36095393 9 13 14676 6.05000000 2894140783 2894140783 13.00000000
3.25353599 -4.96624708 -0.10363239 9 14 14677 5.93800000 2894140785 2894140785 -1.00000000
3.22890449 -4.92864895 1.57879615 9 15 14677 6.10000000 2894140787 2894140787 15.00000000
1.12717867 -1.72579467 -0.55231982 4 0 14685 2.13400000 2894140808 2894140808 -15.00000000
3.24682426 -4.97302580 0.10366730 11 1 14686 5.94000000 2894140810 2894140810 1.00000000
1.30577028 -2.00075674 -0.55158001 3 2 14687 2.45200000 2894140812 2894140812 -13.00000000
3.24200153 -4.96753263 0.31087559 9 3 14687 5.94000000 2894140815 2894140815 3.00000000
1.29476225 -1.98464668 -0.46061292 11 4 14688 2.41400000 2894140817 2894140817 -11.00000000
3.22801352 -4.94987440 0.51700789 12 5 14689 5.93200000 2894140819 2894140819 5.00000000
1.90076995 -2.91577530 -0.55127507 1 6 14690 3.52400000 2894140822 2894140822 -9.00000000
3.23831224 -4.96945667 0.72829121 10 7 14691 5.97600000 2894140824 2894140824 7.00000000
2.44216895 -3.74913979 -0.54938698 6 8 14692 4.50800000 2894140826 2894140826 -7.00000000
3.23259354 -4.96446848 0.93829393 9 9 14693 5.99800000 2894140829 2894140829 9.00000000
3.24195194 -4.97884083 -0.51979685 15 10 14693 5.96400000 2894140831 2894140831 -5.00000000
3.22474670 -4.95430851 1.14905179 12 11 14694 6.02200000 2894140833 2894140833 11.00000000
3.24486566 -4.98712158 -0.31181762 12 12 14695 5.95800000 2894140836 2894140836 -3.00000000
3.21512699 -4.94330263 1.36140382 9 13 14696 6.05200000 2894140838 2894140838 13.00000000
3.22855067 -4.96583796 -0.10338806 9 14 14697 5.92400000 2894140840 2894140840 -1.00000000
3.19904447 -4.92045403 1.57258451 9 15 14697 6.07600000 2894140842 2894140842 15.00000000
1.12114763 -1.72971869 -0.55231982 4 0 14705 2.13400000 2894140863 2894140863 -15.00000000
3.21748447 -4.96586847 0.10328334 11 1 14706 5.91800000 2894140865 2894140865 1.00000000
1.29665959 -2.00203133 -0.55068016 3 2 14707 2.44800000 2894140868 2894140868 -13.00000000
3.21726012 -4.96932268 0.31024754 9 3 14708 5.92800000 2894140870 2894140870 3.00000000
1.36144722 -2.10286713 -0.48694456 3 4 14708 2.55200000 2894140872 2894140872 -11.00000000
3.20530319 -4.95274878 0.51613629 12 5 14709 5.92200000 2894140875 2894140875 5.00000000
1.87663174 -2.90083098 -0.54720777 1 6 14710 3.49800000 2894140877 2894140877 -9.00000000
3.21340036 -4.96906185 0.72658503 10 7 14711 5.96200000 2894140879 2894140879 7.00000000
2.43445563 -3.76597714 -0.55060571 4 8 14712 4.51800000 2894140882 2894140882 -7.00000000
3.20217180 -4.95359468 0.93422663 9 9 14712 5.97200000 2894140884 2894140884 9.00000000
3.21590209 -4.97673941 -0.51840234 15 10 14713 5.94800000 2894140886 2894140886 -5.00000000
3.19465041 -4.94574499 1.14447236 12 11 14714 5.99800000 2894140889 2894140889 11.00000000
3.21877027 -4.98499489 -0.31098026 12 12 14715 5.94200000 2894140891 2894140891 -3.00000000
3.19362497 -4.94794607 1.35960412 9 13 14716 6.04400000 2894140893 2894140893 13.00000000
3.21336532 -4.98043823 -0.10345787 9 14 14717 5.92800000 2894140895 2894140895 -1.00000000
3.17575312 -4.92402887 1.56999636 9 15 14718 6.06600000 2894140898 2894140898 15.00000000
1.13391447 -1.76286745 -0.56163734 4 0 14725 2.17000000 2894140918 2894140918 -15.00000000
3.19147873 -4.96361351 0.10300411 11 1 14726 5.90200000 2894140921 2894140921 1.00000000
1.29177058 -2.00982404 -0.55158001 3 2 14727 2.45200000 2894140923 2894140923 -13.00000000
3.19320440 -4.96820307 0.30951485 9 3 14727 5.91400000 2894140925 2894140925 3.00000000
1.51964664 -2.36527658 -0.54647696 3 4 14728 2.86400000 2894140928 2894140928 -11.00000000
3.18368864 -4.95720148 0.51543903 12 5 14729 5.91400000 2894140930 2894140930 5.00000000
1.85582280 -2.89074111 -0.54407907 1 6 14730 3.47800000 2894140932 2894140932 -9.00000000
3.18638611 -4.96521282 0.72439140 10 7 14731 5.94400000 2894140935 2894140935 7.00000000
2.41272020 -3.76108527 -0.54865581 4 8 14732 4.50200000 2894140937 2894140937 -7.00000000
3.18079567 -4.96030951 0.93328804 9 9 14733 5.96600000 2894140939 2894140939 9.00000000
3.19205737 -4.97787189 -0.51735651 15 10 14733 5.93600000 2894140942 2894140942 -5.00000000
3.16359401 -4.93537951 1.13951135 15 11 14734 5.97200000 2894140944 2894140944 11.00000000
3.18410945 -4.96929359 -0.30930549 12 12 14735 5.91000000 2894140946 2894140946 -3.00000000
3.16477227 -4.94101286 1.35465527 9 13 14736 6.02200000 2894140948 2894140948 13.00000000
3.18086529 -4.96804714 -0.10296920 9 14 14737 5.90000000 2894140951 2894140951 -1.00000000
3.16062856 -4.93833828 1.57103157 9 15 14738 6.07000000 2894140953 2894140953 15.00000000
1.15477848 -1.80915320 -0.57509589 8 0 14745 2.22200000 2894140974 2894140974 -15.00000000
3.16767931 -4.96460867 0.10279468 11 1 14746 5.89000000 2894140976 2894140976 1.00000000
1.27950752 -2.00610590 -0.54933047 4 2 14747 2.44200000 2894140978 2894140978 -13.00000000
3.16617656 -4.96416378 0.30857280 9 3 14747 5.89600000 2894140981 2894140981 3.00000000
1.50821483 -2.36560035 -0.54533213 3 4 14748 2.85800000 2894140983 2894140983 -11.00000000
3.16636539 -4.96828413 0.51543903 12 5 14749 5.91400000 2894140985 2894140985 5.00000000
1.85845733 -2.91719365 -0.54783350 3 6 14750 3.50200000 2894140988 2894140988 -9.00000000
3.16157079 -4.96458435 0.72268522 10 7 14751 5.93000000 2894140990 2894140990 7.00000000
2.39104891 -3.75608754 -0.54670590 4 8 14752 4.48600000 2894140992 2894140992 -7.00000000
3.15053892 -4.94916677 0.92922074 9 9 14752 5.94000000 2894140995 2894140995 9.00000000
3.17038345 -4.98226023 -0.51665926 15 10 14753 5.92800000 2894140997 2894140997 -5.00000000
3.15056181 -4.95301867 1.14103782 60 11 14754 5.98000000 2894140999 2894140999 11.00000000
3.16031384 -4.97026539 -0.30867746 12 12 14755 5.89800000 2894141001 2894141001 -3.00000000
3.13287091 -4.92900515 1.34835660 8 13 14756 5.99400000 2894141004 2894141004 13.00000000
3.15599751 -4.96730566 -0.10272487 9 14 14757 5.88600000 2894141006 2894141006 -1.00000000
3.14026427 -4.94444895 1.56947863 9 15 14758 6.06400000 2894141008 2894141008 15.00000000
1.11331010 -1.75768447 -0.55749625 4 0 14765 2.15400000 2894141029 2894141029 -15.00000000
3.14819098 -4.97225666 0.10272487 11 1 14766 5.88600000 2894141031 2894141031 1.00000000
1.29334068 -2.04349279 -0.55832851 4 2 14767 2.48200000 2894141034 2894141034 -13.00000000
3.14028430 -4.96168470 0.30773541 9 3 14767 5.88000000 2894141036 2894141036 3.00000000
1.46635938 -2.31775951 -0.53312033 8 4 14768 2.79400000 2894141038 2894141038 -11.00000000
3.13089967 -4.95068026 0.51247579 12 5 14769 5.88000000 2894141041 2894141041 5.00000000
1.85037422 -2.92700243 -0.54845923 1 6 14770 3.50600000 2894141043 2894141043 -9.00000000
3.13573837 -4.96216488 0.72073531 10 7 14771 5.91400000 2894141045 2894141045 7.00000000
2.38004351 -3.76776767 -0.54719335 4 8 14772 4.49000000 2894141048 2894141048 -7.00000000
3.12691402 -4.95011377 0.92734349 21 9 14772 5.92800000 2894141050 2894141050 9.00000000
3.14446282 -4.97981930 -0.51526475 15 10 14773 5.91200000 2894141052 2894141052 -5.00000000
3.11858249 -4.94074297 1.13569510 54 11 14774 5.95200000 2894141054 2894141054 11.00000000
3.13441896 -4.96775341 -0.30784011 12 12 14775 5.88200000 2894141057 2894141057 -3.00000000
3.11148787 -4.93331766 1.34655702 8 13 14776 5.98600000 2894141059 2894141059 13.00000000
3.12690783 -4.95968437 -0.10234091 9 14 14777 5.86400000 2894141061 2894141061 -1.00000000
3.11062551 -4.93576765 1.56326699 9 15 14778 6.04000000 2894141064 2894141064 15.00000000
1.08660758 -1.72884762 -0.54714346 4 0 14785 2.11400000 2894141084 2894141084 -15.00000000
3.11698580 -4.96120358 0.10227110 11 1 14786 5.86000000 2894141087 2894141087 1.00000000
1.28723609 -2.04964542 -0.55877841 4 2 14787 2.48400000 2894141089 2894141089 -13.00000000
3.12082100 -4.96923351 0.30752608 9 3 14787 5.87600000 2894141091 2894141091 3.00000000
1.45408452 -2.31621289 -0.53159386 15 4 14788 2.78600000 2894141094 2894141094 -11.00000000
3.10830426 -4.95314121 0.51160419 12 5 14789 5.87000000 2894141096 2894141096 5.00000000
1.83594692 -2.92675018 -0.54720777 1 6 14790 3.49800000 2894141098 2894141098 -9.00000000
3.11628890 -4.96971703 0.72024781 10 7 14791 5.91000000 2894141100 2894141100 7.00000000
2.37320256 -3.78614450 -0.54865581 4 8 14792 4.50200000 2894141103 2894141103 -7.00000000
3.10332108 -4.95095587 0.92546630 9 9 14792 5.91600000 2894141105 2894141105 9.00000000
3.10801911 -4.96037483 -0.51212716 15 10 14793 5.87600000 2894141107 2894141107 -5.00000000
3.09819078 -4.94660759 1.13455033 60 11 14794 5.94600000 2894141110 2894141110 11.00000000
3.11599946 -4.97697163 -0.30773541 9 12 14795 5.88000000 2894141112 2894141112 -3.00000000
3.08701181 -4.93258524 1.34340775 9 13 14796 5.97200000 2894141114 2894141114 13.00000000
3.10957623 -4.97056913 -0.10234091 9 14 14797 5.86400000 2894141117 2894141117 -1.00000000
3.08297038 -4.92804050 1.55757296 9 15 14797 6.01800000 2894141119 2894141119 15.00000000
1.08669996 -1.74246526 -0.55024928 4 0 14805 2.12600000 2894141140 2894141140 -15.00000000
3.08801198 -4.95338726 0.10188715 11 1 14806 5.83800000 2894141142 2894141142 1.00000000
1.27182841 -2.04089499 -0.55517918 5 2 14807 2.46800000 2894141144 2894141144 -13.00000000
3.09078050 -4.95975590 0.30627000 9 3 14807 5.85200000 2894141147 2894141147 3.00000000
1.50100672 -2.40959287 -0.55181962 3 4 14808 2.89200000 2894141149 2894141149 -11.00000000
3.08678317 -4.95719576 0.51090693 12 5 14809 5.86200000 2894141151 2894141151 5.00000000
1.82676339 -2.93481803 -0.54752064 1 6 14810 3.50000000 2894141153 2894141153 -9.00000000
3.08633804 -4.96033907 0.71732295 10 7 14811 5.88600000 2894141156 2894141156 7.00000000
2.35158491 -3.78092027 -0.54670590 2 8 14812 4.48600000 2894141158 2894141158 -7.00000000
3.07871723 -4.95001650 0.92327619 9 9 14812 5.90200000 2894141160 2894141160 9.00000000
3.08647752 -4.96442556 -0.51142991 15 10 14813 5.86800000 2894141163 2894141163 -5.00000000
3.06950569 -4.93904972 1.13035250 15 11 14814 5.92400000 2894141165 2894141165 11.00000000
3.08596015 -4.96745968 -0.30647936 9 12 14815 5.85600000 2894141167 2894141167 -3.00000000
3.06977487 -4.94333124 1.34340775 9 13 14816 5.97200000 2894141170 2894141170 13.00000000
3.08587909 -4.97119951 -0.10213149 9 14 14817 5.85200000 2894141172 2894141172 -1.00000000
3.06081343 -4.93274117 1.55550241 9 15 14818 6.01000000 2894141174 2894141174 15.00000000
1.07654476 -1.73967683 -0.54817873 4 0 14825 2.11800000 2894141195 2894141195 -15.00000000
3.06859875 -4.96073484 0.10181734 11 1 14826 5.83400000 2894141197 2894141197 1.00000000
1.27084589 -2.05526686 -0.55787861 7 2 14827 2.48000000 2894141200 2894141200 -13.00000000
3.06628060 -4.96085739 0.30564198 9 3 14828 5.84000000 2894141202 2894141202 3.00000000
1.50910199 -2.44153762 -0.55792552 7 4 14828 2.92400000 2894141204 2894141204 -11.00000000
3.06108260 -4.95438051 0.50951248 12 5 14829 5.84600000 2894141206 2894141206 5.00000000
1.81754577 -2.94285750 -0.54783350 1 6 14830 3.50200000 2894141209 2894141209 -9.00000000
3.05231929 -4.94405603 0.71342313 10 7 14831 5.85400000 2894141211 2894141211 7.00000000
2.33941507 -3.79079509 -0.54694963 4 8 14832 4.48800000 2894141213 2894141213 -7.00000000
3.06245708 -4.96241426 0.92358911 9 9 14832 5.90400000 2894141216 2894141216 9.00000000
3.06494522 -4.96838617 -0.51073265 15 10 14833 5.86000000 2894141218 2894141218 -5.00000000
3.04709435 -4.94137907 1.12844443 9 11 14834 5.91400000 2894141220 2894141220 11.00000000
3.06440973 -4.97140074 -0.30606067 9 12 14835 5.84800000 2894141223 2894141223 -3.00000000
3.04125595 -4.93576670 1.33845878 8 13 14836 5.95000000 2894141225 2894141225 13.00000000
3.06011772 -4.96831989 -0.10185225 9 14 14837 5.83600000 2894141227 2894141227 -1.00000000
3.03734708 -4.93134975 1.55187905 8 15 14837 5.99600000 2894141230 2894141230 15.00000000
1.07450891 -1.75000930 -0.55024928 4 0 14845 2.12600000 2894141250 2894141250 -15.00000000
3.04917169 -4.96800756 0.10174753 11 1 14846 5.83000000 2894141253 2894141253 1.00000000
1.25041580 -2.03809690 -0.55202991 4 2 14847 2.45400000 2894141255 2894141255 -13.00000000
3.03537130 -4.94939709 0.30428123 9 3 14848 5.81400000 2894141257 2894141257 3.00000000
1.49030650 -2.43005466 -0.55410933 12 4 14848 2.90400000 2894141259 2894141259 -11.00000000
3.03543925 -4.95144653 0.50811797 12 5 14849 5.83000000 2894141262 2894141262 5.00000000
1.75668776 -2.86665392 -0.53250289 4 6 14850 3.40400000 2894141264 2894141264 -9.00000000
3.03711653 -4.95806599 0.71391064 10 7 14851 5.85800000 2894141266 2894141266 7.00000000
2.33031511 -3.80570984 -0.54792458 2 8 14852 4.49600000 2894141269 2894141269 -7.00000000
3.02981091 -4.95001793 0.91920894 9 9 14853 5.87600000 2894141271 2894141271 9.00000000
3.04238319 -4.97055817 -0.50986111 15 10 14853 5.85000000 2894141273 2894141273 -5.00000000
3.02572846 -4.94528675 1.12691796 12 11 14854 5.90600000 2894141276 2894141276 11.00000000
3.03870082 -4.96843624 -0.30522329 9 12 14855 5.83200000 2894141278 2894141278 -3.00000000
3.01181054 -4.92640066 1.33305991 8 13 14856 5.92600000 2894141280 2894141280 13.00000000
3.03858542 -4.97214603 -0.10171262 9 14 14857 5.82800000 2894141283 2894141283 -1.00000000
3.01623106 -4.93750334 1.55032611 8 15 14858 5.99000000 2894141285 2894141285 15.00000000
1.06035304 -1.74055088 -0.54610819 4 0 14865 2.11000000 2894141306 2894141306 -15.00000000
3.02765131 -4.97178936 0.10160791 11 1 14866 5.82200000 2894141308 2894141308 1.00000000
1.24025404 -2.03745556 -0.55068016 3 2 14867 2.44800000 2894141310 2894141310 -13.00000000
3.01911449 -4.96166849 0.30438593 9 3 14868 5.81600000 2894141312 2894141312 3.00000000
1.47773278 -2.42853332 -0.55258286 5 4 14868 2.89600000 2894141315 2894141315 -11.00000000
3.01088929 -4.95009661 0.50689781 12 5 14869 5.81600000 2894141317 2894141317 5.00000000
1.72717190 -2.84069872 -0.52655840 11 6 14870 3.36600000 2894141319 2894141319 -9.00000000
3.01566720 -4.96185207 0.71293569 10 7 14871 5.85000000 2894141322 2894141322 7.00000000
2.31392431 -3.80873132 -0.54719335 4 8 14872 4.49000000 2894141324 2894141324 -7.00000000
3.00414848 -4.94484377 0.91639310 9 9 14872 5.85800000 2894141326 2894141326 9.00000000
3.01570630 -4.96582079 -0.50829232 14 10 14873 5.83200000 2894141329 2894141329 -5.00000000
3.00539160 -4.95078325 1.12577307 12 11 14874 5.90000000 2894141331 2894141331 11.00000000
3.01926708 -4.97559834 -0.30501395 9 12 14875 5.82800000 2894141333 2894141333 -3.00000000
2.98853183 -4.92688704 1.33036053 8 13 14876 5.91400000 2894141336 2894141336 13.00000000
3.00876951 -4.96220350 -0.10129377 9 14 14877 5.80400000 2894141338 2894141338 -1.00000000
2.99182820 -4.93426323 1.54618502 8 15 14877 5.97400000 2894141340 2894141340 15.00000000
1.05127299 -1.73928165 -0.54455525 4 0 14885 2.10400000 2894141361 2894141361 -15.00000000
2.99993706 -4.96521187 0.10125886 11 1 14886 5.80200000 2894141363 2894141363 1.00000000
1.23917925 -2.05178118 -0.55337960 3 2 14887 2.46000000 2894141365 2894141365 -13.00000000
2.99455070 -4.96020794 0.30365321 9 3 14888 5.80200000 2894141368 2894141368 3.00000000
1.45707047 -2.41350818 -0.54800344 3 4 14888 2.87200000 2894141370 2894141370 -11.00000000
2.98123884 -4.94010639 0.50480604 12 5 14889 5.79200000 2894141372 2894141372 5.00000000
1.73459136 -2.87546515 -0.53187716 6 6 14890 3.40000000 2894141375 2894141375 -9.00000000
2.99627852 -4.96894836 0.71244818 10 7 14891 5.84600000 2894141377 2894141377 7.00000000
2.30368948 -3.82188559 -0.54792458 2 8 14892 4.49600000 2894141379 2894141379 -7.00000000
2.97682929 -4.94059324 0.91357726 9 9 14893 5.84000000 2894141382 2894141382 9.00000000
2.99218464 -4.96607828 -0.50724643 14 10 14893 5.82000000 2894141384 2894141384 -5.00000000
2.97796273 -4.94442606 1.12195694 12 11 14894 5.88000000 2894141386 2894141386 11.00000000
2.99569964 -4.97584057 -0.30438593 9 12 14895 5.81600000 2894141388 2894141388 -3.00000000
2.96629143 -4.92894030 1.32811105 8 13 14896 5.90400000 2894141391 2894141391 13.00000000
2.99142981 -4.97267580 -0.10129377 9 14 14897 5.80400000 2894141393 2894141393 -1.00000000
2.95580316 -4.91539526 1.53686750 8 15 14898 5.93800000 2894141395 2894141395 15.00000000
1.04817593 -1.74791110 -0.54610819 4 0 14905 2.11000000 2894141416 2894141416 -15.00000000
2.96922135 -4.95335627 0.10080510 10 1 14906 5.77600000 2894141418 2894141418 1.00000000
1.22599983 -2.04606438 -0.55068016 3 2 14907 2.44800000 2894141421 2894141421 -13.00000000
2.97413945 -4.96549034 0.30333921 9 3 14908 5.79600000 2894141423 2894141423 3.00000000
1.44661927 -2.41521120 -0.54724020 3 4 14908 2.86800000 2894141425 2894141425 -11.00000000
2.96295285 -4.94877338 0.50463176 12 5 14909 5.79000000 2894141428 2894141428 5.00000000
1.77323663 -2.96286249 -0.54689491 3 6 14910 3.49600000 2894141430 2894141430 -9.00000000
2.96260929 -4.95212078 0.70854837 10 7 14911 5.81400000 2894141432 2894141432 7.00000000
2.29033470 -3.82990360 -0.54792458 2 8 14912 4.49600000 2894141435 2894141435 -7.00000000
2.96144319 -4.95213318 0.91389012 9 9 14912 5.84200000 2894141437 2894141437 9.00000000
2.96767545 -4.96452188 -0.50602627 14 10 14913 5.80600000 2894141439 2894141439 -5.00000000
2.95565009 -4.94636488 1.12004876 12 11 14914 5.87000000 2894141441 2894141441 11.00000000
2.97626400 -4.98283768 -0.30417657 9 12 14915 5.81200000 2894141444 2894141444 -3.00000000
2.94707012 -4.93591833 1.32721126 8 13 14916 5.90000000 2894141446 2894141446 13.00000000
2.96790481 -4.97278452 -0.10108434 9 14 14917 5.79200000 2894141448 2894141448 -1.00000000
2.93750668 -4.92185211 1.53583217 8 15 14917 5.93400000 2894141451 2894141451 15.00000000
1.04206824 -1.75155926 -0.54610819 4 0 14925 2.11000000 2894141471 2894141471 -15.00000000
2.95395708 -4.96712828 0.10087491 11 1 14926 5.78000000 2894141474 2894141474 1.00000000
1.21685863 -2.04698133 -0.54978037 3 2 14927 2.44400000 2894141476 2894141476 -13.00000000
2.94658566 -4.95867205 0.30229250 9 3 14928 5.77600000 2894141478 2894141478 3.00000000
1.43216240 -2.41011953 -0.54495049 2 4 14928 2.85600000 2894141481 2894141481 -11.00000000
2.94159031 -4.95223379 0.50393450 12 5 14929 5.78200000 2894141483 2894141483 5.00000000
1.76288342 -2.96903419 -0.54689491 3 6 14930 3.49600000 2894141485 2894141485 -9.00000000
2.93821311 -4.95048285 0.70684218 10 7 14931 5.80000000 2894141488 2894141488 7.00000000
2.28201628 -3.84641123 -0.54914325 2 8 14932 4.50600000 2894141490 2894141490 -7.00000000
2.93823481 -4.95445871 0.91232580 9 9 14933 5.83200000 2894141492 2894141492 9.00000000
2.94727921 -4.96970940 -0.50550330 14 10 14933 5.80000000 2894141494 2894141494 -5.00000000
2.93035674 -4.94314146 1.11699581 12 11 14934 5.85400000 2894141497 2894141497 11.00000000
2.94663429 -4.97257757 -0.30292052 9 12 14935 5.78800000 2894141499 2894141499 -3.00000000
2.92287040 -4.93443871 1.32406187 8 13 14936 5.88600000 2894141501 2894141501 13.00000000
2.94950962 -4.98139381 -0.10104943 9 14 14937 5.79000000 2894141504 2894141504 -1.00000000
2.91354370 -4.92261076 1.53272641 8 15 14938 5.92200000 2894141506 2894141506 15.00000000
1.03987551 -1.76184082 -0.54817873 4 0 14945 2.11800000 2894141527 2894141527 -15.00000000
2.92847157 -4.96363068 0.10059567 10 1 14946 5.76400000 2894141529 2894141529 1.00000000
1.20574617 -2.04450226 -0.54798079 3 2 14947 2.43600000 2894141531 2894141531 -13.00000000
2.91911578 -4.95172215 0.30124578 9 3 14948 5.75600000 2894141534 2894141534 3.00000000
1.41975272 -2.40833902 -0.54342401 2 4 14948 2.84800000 2894141536 2894141536 -11.00000000
2.92023993 -4.95560551 0.50323725 12 5 14949 5.77400000 2894141538 2894141538 5.00000000
1.75852430 -2.98538184 -0.54877210 5 6 14950 3.50800000 2894141541 2894141541 -9.00000000
2.91990757 -4.95899820 0.70659846 10 7 14951 5.79800000 2894141543 2894141543 7.00000000
2.25246525 -3.82698131 -0.54524344 2 8 14952 4.47400000 2894141545 2894141545 -7.00000000
2.91377306 -4.95055580 0.90982282 9 9 14952 5.81600000 2894141547 2894141547 9.00000000
2.93092394 -4.98168421 -0.50567764 14 10 14953 5.80200000 2894141550 2894141550 -5.00000000
2.90910316 -4.94657087 1.11546934 12 11 14954 5.84600000 2894141552 2894141552 11.00000000
2.92622232 -4.97766781 -0.30260649 12 12 14955 5.78200000 2894141554 2894141554 -3.00000000
2.89180613 -4.92108965 1.31776333 8 13 14956 5.85800000 2894141557 2894141557 13.00000000
2.91893673 -4.96924400 -0.10059567 9 14 14957 5.76400000 2894141559 2894141559 -1.00000000
2.89622521 -4.93057966 1.53220880 8 15 14957 5.92000000 2894141561 2894141561 15.00000000
1.02591026 -1.75212312 -0.54403764 4 0 14965 2.10200000 2894141582 2894141582 -15.00000000
2.91112733 -4.97382307 0.10059567 10 1 14966 5.76400000 2894141584 2894141584 1.00000000
1.20253849 -2.05542660 -0.54978037 3 2 14967 2.44400000 2894141587 2894141587 -13.00000000
2.89878845 -4.95670891 0.30093175 9 3 14968 5.75000000 2894141589 2894141589 3.00000000
1.41530180 -2.42005897 -0.54495049 2 4 14968 2.85600000 2894141591 2894141591 -11.00000000
2.89487982 -4.95200872 0.50184274 12 5 14969 5.75800000 2894141594 2894141594 5.00000000
1.74809265 -2.99150205 -0.54877210 5 6 14970 3.50800000 2894141596 2894141596 -9.00000000
2.89557099 -4.95716190 0.70489228 10 7 14971 5.78400000 2894141598 2894141598 7.00000000
2.24209571 -3.83996344 -0.54597467 2 8 14972 4.48000000 2894141600 2894141600 -7.00000000
2.88266420 -4.93902349 0.90575558 9 9 14973 5.79000000 2894141603 2894141603 9.00000000
2.90347362 -4.97467756 -0.50393450 14 10 14973 5.78200000 2894141605 2894141605 -5.00000000
2.88984013 -4.95330381 1.11470616 12 11 14974 5.84200000 2894141607 2894141607 11.00000000
2.90480447 -4.98095083 -0.30218780 12 12 14975 5.77400000 2894141610 2894141610 -3.00000000
2.87559199 -4.93283749 1.31821322 8 13 14976 5.86000000 2894141612 2894141612 13.00000000
2.89049816 -4.96039724 -0.10021172 9 14 14977 5.74200000 2894141614 2894141614 -1.00000000
2.87132788 -4.92947674 1.52858531 8 15 14978 5.90600000 2894141617 2894141617 15.00000000
1.01396608 -1.74567056 -0.54093182 4 0 14985 2.09000000 2894141637 2894141637 -15.00000000
2.88571525 -4.97011948 0.10031644 10 1 14986 5.74800000 2894141640 2894141640 1.00000000
1.20122564 -2.06972432 -0.55247980 3 2 14987 2.45600000 2894141642 2894141642 -13.00000000
2.88447547 -4.97198057 0.30124578 7 3 14988 5.75600000 2894141644 2894141644 3.00000000
1.39896405 -2.41139936 -0.54189754 3 4 14988 2.84000000 2894141647 2894141647 -11.00000000
2.84959030 -4.91382408 0.49696204 3 5 14989 5.70200000 2894141649 2894141649 5.00000000
1.72674239 -2.97878695 -0.54533052 1 6 14990 3.48600000 2894141651 2894141651 -9.00000000
2.87824965 -4.96723890 0.70489228 10 7 14991 5.78400000 2894141653 2894141653 7.00000000
2.23166299 -3.85291958 -0.54670590 2 8 14992 4.48600000 2894141656 2894141656 -7.00000000
2.86428976 -4.94513702 0.90512979 9 9 14992 5.78600000 2894141658 2894141658 9.00000000
2.87610817 -4.96753979 -0.50219136 14 10 14993 5.76200000 2894141660 2894141660 -5.00000000
2.86663175 -4.95316601 1.11241639 12 11 14994 5.83000000 2894141663 2894141663 11.00000000
2.87939906 -4.97722960 -0.30135044 12 12 14995 5.75800000 2894141665 2894141665 -3.00000000
2.85347795 -4.93441010 1.31596363 8 13 14996 5.85000000 2894141667 2894141667 13.00000000
2.86716104 -4.96006918 -0.10000229 6 14 14997 5.73000000 2894141670 2894141670 -1.00000000
2.84143019 -4.91555595 1.52133834 8 15 14997 5.87800000 2894141672 2894141672 15.00000000
1.01558208 -1.76259029 -0.54507291 4 0 15005 2.10600000 2894141693 2894141693 -15.00000000
2.84339786 -4.93684149 0.09944381 10 1 15006 5.69800000 2894141695 2894141695 1.00000000
1.18427050 -2.05701637 -0.54798079 3 2 15007 2.43600000 2894141697 2894141697 -13.00000000
2.85514784 -4.96124601 0.29998970 23 3 15008 5.73200000 2894141700 2894141700 3.00000000
1.40228927 -2.43668699 -0.54647696 3 4 15008 2.86400000 2894141702 2894141702 -11.00000000
2.84235525 -4.94101143 0.49870515 39 5 15009 5.72200000 2894141704 2894141704 5.00000000
1.70845628 -2.97109652 -0.54282761 1 6 15010 3.47000000 2894141706 2894141706 -9.00000000
2.85001135 -4.95832396 0.70221114 10 7 15011 5.76200000 2894141709 2894141709 7.00000000
2.21721125 -3.85896492 -0.54646212 2 8 15012 4.48400000 2894141711 2894141711 -7.00000000
2.84799480 -4.95681763 0.90544266 9 9 15012 5.78800000 2894141713 2894141713 9.00000000
2.85279703 -4.96718264 -0.50114554 14 10 15013 5.75000000 2894141716 2894141716 -5.00000000
2.83759499 -4.94271040 1.10783708 12 11 15014 5.80600000 2894141718 2894141718 11.00000000
2.82920241 -4.93008471 -0.29789627 6 12 15015 5.69200000 2894141720 2894141720 -3.00000000
2.83526659 -4.94265032 1.31551373 35 13 15016 5.84800000 2894141723 2894141723 13.00000000
2.83689857 -4.94749546 -0.09954853 20 14 15017 5.70400000 2894141725 2894141725 -1.00000000
2.82905912 -4.93382359 1.52392650 34 15 15017 5.88800000 2894141727 2894141727 15.00000000
1.00589597 -1.75924015 -0.54300237 4 0 15024 2.09800000 2894141748 2894141748 -15.00000000
2.82601881 -4.94450712 0.09940891 21 1 15025 5.69600000 2894141750 2894141750 1.00000000
1.17357588 -2.05416393 -0.54618114 3 2 15026 2.42800000 2894141753 2894141753 -13.00000000
2.82778502 -4.95160866 0.29883832 7 3 15027 5.71000000 2894141755 2894141755 3.00000000
2.83805609 -4.96959400 -1.11241639 3 4 15027 5.83000000 2894141757 2894141757 -11.00000000
2.83425403 -4.96696186 -0.90575558 2 6 15029 5.79000000 2894141762 2894141762 -9.00000000
2.82371807 -4.95050478 0.69977379 10 7 15030 5.74200000 2894141764 2894141764 7.00000000
2.18965364 -3.84042883 -0.54280603 4 8 15031 4.45400000 2894141766 2894141766 -7.00000000
2.82187176 -4.95128298 0.90262687 14 9 15032 5.77000000 2894141769 2894141769 9.00000000
2.83532286 -4.97488451 -0.50097120 14 10 15032 5.74800000 2894141771 2894141771 -5.00000000
2.82118869 -4.95209312 1.10783708 42 11 15033 5.80600000 2894141773 2894141773 11.00000000
2.81283808 -4.93943977 -0.29789627 27 12 15034 5.69200000 2894141776 2894141776 -3.00000000
2.82368088 -4.96049309 1.31776333 40 13 15035 5.85800000 2894141778 2894141778 13.00000000
2.81157613 -4.94123363 -0.09923438 6 14 15036 5.68600000 2894141780 2894141780 -1.00000000
2.83370113 -4.98011780 1.53531456 38 15 15036 5.93200000 2894141782 2894141782 15.00000000
1.00546718 -1.77282298 -0.54610819 4 0 15044 2.11000000 2894141803 2894141803 -15.00000000
1.17024148 -2.06502986 -0.54798079 3 2 15046 2.43600000 2894141808 2894141808 -13.00000000
2.78882647 -4.92321730 0.29653552 2 3 15047 5.66600000 2894141810 2894141810 3.00000000
1.38180029 -2.43934274 -0.54495049 3 4 15047 2.85600000 2894141812 2894141812 -11.00000000
2.80276704 -4.94984150 0.49765930 9 5 15048 5.71000000 2894141815 2894141815 5.00000000
1.69889653 -3.00156713 -0.54626918 1 6 15049 3.49200000 2894141817 2894141817 -9.00000000
2.81326294 -4.97242546 0.70147991 7 7 15050 5.75600000 2894141819 2894141819 7.00000000
2.19480157 -3.88087916 -0.54743707 2 8 15051 4.49200000 2894141822 2894141822 -7.00000000
2.81818104 -4.98517799 0.90700704 52 9 15052 5.79800000 2894141824 2894141824 9.00000000
2.81107664 -4.97261047 -0.49975103 14 10 15052 5.73400000 2894141826 2894141826 -5.00000000
2.81837320 -4.98754930 1.11356127 42 11 15053 5.83600000 2894141829 2894141829 11.00000000
2.81976199 -4.99407625 1.32406187 42 13 15055 5.88600000 2894141833 2894141833 13.00000000
2.78644776 -4.93708563 -0.09895515 4 14 15056 5.67000000 2894141835 2894141835 -1.00000000
2.82871842 -5.01402617 1.54256153 38 15 15057 5.96000000 2894141838 2894141838 15.00000000
0.99264252 -1.76453590 -0.54248470 4 0 15064 2.09600000 2894141859 2894141859 -15.00000000
2.78555012 -4.95365763 0.09919948 10 1 15065 5.68400000 2894141861 2894141861 1.00000000
1.16684556 -2.07589722 -0.54978037 3 2 15066 2.44400000 2894141863 2894141863 -13.00000000
2.77749419 -4.94336987 0.29716355 2 3 15067 5.67800000 2894141865 2894141865 3.00000000
1.37135363 -2.44072795 -0.54418725 3 4 15067 2.85200000 2894141868 2894141868 -11.00000000
1.67777157 -2.98853159 -0.54282761 1 6 15069 3.47000000 2894141872 2894141872 -9.00000000
2.81726098 -5.02030039 0.70684218 7 7 15070 5.80000000 2894141875 2894141875 7.00000000
2.17347217 -3.87466621 -0.54548717 2 8 15071 4.47600000 2894141877 2894141877 -7.00000000
2.81235576 -5.01566076 0.91076148 42 9 15072 5.82200000 2894141879 2894141879 9.00000000
2.78785515 -4.97196531 -0.49870515 14 10 15072 5.72200000 2894141882 2894141882 -5.00000000
2.81822419 -5.02818394 1.12043047 45 11 15073 5.87200000 2894141884 2894141884 11.00000000
2.78219080 -4.96592617 -0.29831496 6 12 15074 5.70000000 2894141886 2894141886 -3.00000000
2.81945181 -5.03449345 1.33216012 42 13 15075 5.92200000 2894141888 2894141888 13.00000000
2.78970981 -4.98342514 -0.09968814 2 14 15076 5.71200000 2894141891 2894141891 -1.00000000
2.82906127 -5.05372143 1.55187905 38 15 15076 5.99600000 2894141893 2894141893 15.00000000
0.99118358 -1.77642524 -0.54507291 4 0 15084 2.10600000 2894141914 2894141914 -15.00000000
2.78187823 -4.98780107 0.09968814 5 1 15085 5.71200000 2894141916 2894141916 1.00000000
1.15959215 -2.07995749 -0.54978037 3 2 15086 2.44400000 2894141918 2894141918 -13.00000000
2.78647232 -5.00014019 0.29998970 9 3 15087 5.73200000 2894141921 2894141921 3.00000000
1.36091411 -2.44207025 -0.54342401 3 4 15087 2.84800000 2894141923 2894141923 -11.00000000
2.78365588 -4.99713659 0.50044829 12 5 15088 5.74200000 2894141925 2894141925 5.00000000
1.66732943 -2.99436975 -0.54282761 1 6 15089 3.47000000 2894141928 2894141928 -9.00000000
2.81130481 -5.05091810 0.70976704 7 7 15090 5.82400000 2894141930 2894141930 7.00000000
2.16186404 -3.88569880 -0.54597467 2 8 15091 4.48000000 2894141932 2894141932 -7.00000000
2.80443168 -5.04271078 0.91389012 40 9 15092 5.84200000 2894141935 2894141935 9.00000000
2.78113484 -5.00082016 -0.50062257 10 10 15092 5.74400000 2894141937 2894141937 -5.00000000
2.81782579 -5.06887722 1.12729955 42 11 15093 5.90800000 2894141939 2894141939 11.00000000
2.77551103 -4.99481153 -0.29946634 3 12 15094 5.72200000 2894141941 2894141941 -3.00000000
2.82646370 -5.08859777 1.34385765 43 13 15095 5.97400000 2894141944 2894141944 13.00000000
2.77229738 -4.99313259 -0.09968814 9 14 15096 5.71200000 2894141946 2894141946 -1.00000000
2.82453203 -5.08721161 1.55912590 40 15 15096 6.02400000 2894141948 2894141948 15.00000000
0.98684746 -1.78325486 -0.54610819 4 0 15104 2.11000000 2894141969 2894141969 -15.00000000
2.77897000 -5.02372837 0.10021172 10 1 15105 5.74200000 2894141971 2894141971 1.00000000
1.15043879 -2.08058190 -0.54888058 3 2 15106 2.44000000 2894141974 2894141974 -13.00000000
2.79693699 -5.05829287 0.30292052 7 3 15106 5.78800000 2894141976 2894141976 3.00000000
1.35618031 -2.45367885 -0.54495049 2 4 15107 2.85600000 2894141978 2894141978 -11.00000000
2.79991794 -5.06786060 0.50654918 9 5 15108 5.81200000 2894141981 2894141981 5.00000000
1.64827228 -2.98460889 -0.54001176 1 6 15109 3.45200000 2894141983 2894141983 -9.00000000
2.80325031 -5.07807922 0.71220446 7 7 15110 5.84400000 2894141985 2894141985 7.00000000
2.15691876 -3.90886378 -0.54816830 2 8 15111 4.49800000 2894141987 2894141987 -7.00000000
2.81346178 -5.09868050 0.92233759 42 9 15111 5.89600000 2894141990 2894141990 9.00000000
2.77809596 -5.03666687 -0.50323725 10 10 15112 5.77400000 2894141992 2894141992 -5.00000000
2.81148982 -5.09931374 1.13187897 42 11 15113 5.93200000 2894141994 2894141994 11.00000000
2.77155519 -5.02895832 -0.30093175 12 12 15114 5.75000000 2894141997 2894141997 -3.00000000
2.82278848 -5.12403584 1.35060608 24 13 15115 6.00400000 2894141999 2894141999 13.00000000
2.79150534 -5.06934309 -0.10101453 6 14 15116 5.78800000 2894142001 2894142001 -1.00000000
2.82259870 -5.12580824 1.56792581 38 15 15116 6.05800000 2894142004 2894142004 15.00000000
0.97596925 -1.77822101 -0.54351997 4 0 15124 2.10000000 2894142024 2894142024 -15.00000000
2.78930998 -5.08424091 0.10122396 8 1 15125 5.80000000 2894142027 2894142027 1.00000000
1.13942111 -2.07775021 -0.54708099 3 2 15126 2.43200000 2894142029 2894142029 -13.00000000
2.79373932 -5.09653234 0.30459526 7 3 15127 5.82000000 2894142031 2894142031 3.00000000
1.34760702 -2.45839787 -0.54495049 3 4 15127 2.85600000 2894142034 2894142034 -11.00000000
2.80423093 -5.11779070 0.51055837 9 5 15128 5.85800000 2894142036 2894142036 5.00000000
1.64258862 -2.99900675 -0.54157615 1 6 15129 3.46200000 2894142038 2894142038 -9.00000000
2.80457330 -5.12265778 0.71707922 7 7 15130 5.88400000 2894142040 2894142040 7.00000000
2.08322310 -3.80666208 -0.53281277 6 8 15131 4.37200000 2894142043 2894142043 -7.00000000
2.81940389 -5.15401649 0.93047220 40 9 15132 5.94800000 2894142045 2894142045 9.00000000
2.77962136 -5.08129215 -0.50672346 10 10 15132 5.81400000 2894142047 2894142047 -5.00000000
2.81816196 -5.15388298 1.14180100 42 11 15133 5.98400000 2894142050 2894142050 11.00000000
2.77601576 -5.07891083 -0.30333921 9 12 15134 5.79600000 2894142052 2894142052 -3.00000000
2.82170320 -5.16464090 1.35870433 9 13 15135 6.04000000 2894142054 2894142054 13.00000000
2.79296231 -5.11415672 -0.10171262 6 14 15136 5.82800000 2894142057 2894142057 -1.00000000
2.82230568 -5.17003202 1.57827854 38 15 15137 6.09800000 2894142059 2894142059 15.00000000
0.97899193 -1.79858470 -0.54869640 4 0 15144 2.12000000 2894142080 2894142080 -15.00000000
2.78683686 -5.12205076 0.10178243 8 1 15145 5.83200000 2894142082 2894142082 1.00000000
1.12843716 -2.07486725 -0.54528135 3 2 15146 2.42400000 2894142084 2894142084 -13.00000000
2.79209113 -5.13384151 0.30627000 7 3 15146 5.85200000 2894142087 2894142087 3.00000000
1.33339131 -2.45273781 -0.54266077 2 4 15147 2.84400000 2894142089 2894142089 -11.00000000
2.80537534 -5.16256046 0.51404458 9 5 15148 5.89800000 2894142091 2894142091 5.00000000
1.63493872 -3.00992966 -0.54251474 1 6 15149 3.46800000 2894142093 2894142093 -9.00000000
2.80561876 -5.16730690 0.72195399 7 7 15150 5.92400000 2894142096 2894142096 7.00000000
2.06613517 -3.80693197 -0.53183782 12 8 15151 4.36400000 2894142098 2894142098 -7.00000000
2.80704761 -5.17424488 0.93234938 7 9 15152 5.96000000 2894142100 2894142100 9.00000000
2.78181911 -5.12774086 -0.51038402 11 10 15152 5.85600000 2894142103 2894142103 -5.00000000
2.81887197 -5.19820547 1.14943337 43 11 15153 6.02400000 2894142105 2894142105 11.00000000
2.77825761 -5.12544394 -0.30553731 9 12 15154 5.83800000 2894142107 2894142107 -3.00000000
2.78842616 -5.14849186 -0.10220129 9 14 15156 5.85600000 2894142112 2894142112 -1.00000000
2.82262611 -5.21163797 1.58811367 38 15 15156 6.13600000 2894142114 2894142114 15.00000000
0.96720183 -1.79179120 -0.54559052 4 0 15164 2.10800000 2894142135 2894142135 -15.00000000
2.79173040 -5.17398405 0.10262015 8 1 15165 5.88000000 2894142137 2894142137 1.00000000
1.12858832 -2.09251499 -0.54888058 3 2 15166 2.44000000 2894142139 2894142139 -13.00000000
2.79121947 -5.17519855 0.30815411 7 3 15166 5.88800000 2894142142 2894142142 3.00000000
1.32854819 -2.46428967 -0.54418725 2 4 15167 2.85200000 2894142144 2894142144 -11.00000000
2.79962492 -5.19512272 0.51631063 9 5 15168 5.92400000 2894142146 2894142146 5.00000000
1.63285351 -3.03127050 -0.54533052 1 6 15169 3.48600000 2894142149 2894142149 -9.00000000
2.81767988 -5.23299932 0.72975361 7 7 15170 5.98800000 2894142151 2894142151 7.00000000
2.08482122 -3.87355256 -0.54012495 10 8 15171 4.43200000 2894142153 2894142153 -7.00000000
2.80862284 -5.22054338 0.93891966 10 9 15172 6.00200000 2894142156 2894142156 9.00000000
2.77428651 -5.15672064 -0.51230145 11 10 15172 5.87800000 2894142158 2894142158 -5.00000000
2.81930685 -5.24259520 1.15706575 40 11 15173 6.06400000 2894142160 2894142160 11.00000000
2.79155588 -5.19316435 -0.30899149 21 12 15174 5.90400000 2894142163 2894142163 -3.00000000
2.81601715 -5.24086285 1.37355113 45 13 15175 6.10600000 2894142165 2894142165 13.00000000
2.78463030 -5.18461943 -0.10272487 11 14 15176 5.88600000 2894142167 2894142167 -1.00000000
2.82361269 -5.25719929 1.59898400 38 15 15176 6.17800000 2894142169 2894142169 15.00000000
0.95911801 -1.79175007 -0.54455525 4 0 15184 2.10400000 2894142190 2894142190 -15.00000000
2.78874755 -5.21190786 0.10317863 8 1 15185 5.91200000 2894142192 2894142192 1.00000000
1.12127721 -2.09644175 -0.54888058 3 2 15186 2.44000000 2894142195 2894142195 -13.00000000
2.79294896 -5.22414351 0.31045690 7 3 15187 5.93200000 2894142197 2894142197 3.00000000
1.31993806 -2.46891212 -0.54418725 2 4 15187 2.85200000 2894142199 2894142199 -11.00000000
2.79368114 -5.22770739 0.51857668 9 5 15188 5.95000000 2894142202 2894142202 5.00000000
1.60643995 -3.00733137 -0.54001176 1 6 15189 3.45200000 2894142204 2894142204 -9.00000000
2.81622624 -5.27432299 0.73414093 7 7 15190 6.02400000 2894142206 2894142206 7.00000000
2.12363029 -3.97887731 -0.55377430 6 8 15191 4.54400000 2894142209 2894142209 -7.00000000
2.81268811 -5.26991034 0.94611567 25 9 15191 6.04800000 2894142211 2894142211 9.00000000
2.77127433 -5.19449902 -0.51509047 11 10 15192 5.91000000 2894142213 2894142213 -5.00000000
2.81392288 -5.27665710 1.16240835 34 11 15193 6.09200000 2894142216 2894142216 11.00000000
2.77153254 -5.19935179 -0.30878213 21 12 15194 5.90000000 2894142218 2894142218 -3.00000000
2.82336450 -5.29881573 1.38614845 44 13 15195 6.16200000 2894142220 2894142220 13.00000000
2.77121592 -5.20313263 -0.10289939 24 14 15196 5.89600000 2894142222 2894142222 -1.00000000
2.81975842 -5.29650211 1.60778391 36 15 15197 6.21200000 2894142225 2894142225 15.00000000
0.95285779 -1.79508710 -0.54455525 4 0 15204 2.10400000 2894142245 2894142245 -15.00000000
2.78553367 -5.24987411 0.10373710 8 1 15205 5.94400000 2894142248 2894142248 1.00000000
1.11577857 -2.10378599 -0.54978037 3 2 15206 2.44400000 2894142250 2894142250 -13.00000000
2.79245448 -5.26513672 0.31234097 7 3 15206 5.96800000 2894142252 2894142252 3.00000000
1.31131196 -2.47350454 -0.54418725 2 4 15207 2.85200000 2894142255 2894142255 -11.00000000
2.79594016 -5.27615786 0.52241153 9 5 15208 5.99400000 2894142257 2894142257 5.00000000
2.75728345 -5.20540524 -0.93297517 2 6 15209 5.96400000 2894142259 2894142259 -9.00000000
2.80151367 -5.29113865 0.73511589 7 7 15210 6.03200000 2894142262 2894142262 7.00000000
2.10694265 -3.98100233 -0.55304307 4 8 15211 4.53800000 2894142264 2894142264 -7.00000000
2.80998111 -5.31161356 0.95174730 7 9 15212 6.08400000 2894142266 2894142266 9.00000000
2.77734923 -5.24993038 -0.51962256 11 10 15212 5.96200000 2894142269 2894142269 -5.00000000
2.80925322 -5.31248045 1.16813266 43 11 15213 6.12200000 2894142271 2894142271 11.00000000
2.75149965 -5.20546341 -0.30857280 28 12 15214 5.89600000 2894142273 2894142273 -3.00000000
2.81941700 -5.33620739 1.39334679 10 13 15215 6.19400000 2894142275 2894142275 13.00000000
2.74649954 -5.20039654 -0.10265505 24 14 15216 5.88200000 2894142278 2894142278 -1.00000000
2.81929088 -5.34048080 1.61813664 38 15 15217 6.25200000 2894142280 2894142280 15.00000000
0.95198476 -1.80865932 -0.54766113 4 0 15224 2.11600000 2894142301 2894142301 -15.00000000
2.78767514 -5.29849863 0.10450501 8 1 15225 5.98800000 2894142303 2894142303 1.00000000
1.09391522 -2.08007169 -0.54258192 3 2 15226 2.41200000 2894142305 2894142305 -13.00000000
2.78986263 -5.30490351 0.31412041 7 3 15226 6.00200000 2894142308 2894142308 3.00000000
1.30266976 -2.47806692 -0.54418725 3 4 15227 2.85200000 2894142310 2894142310 -11.00000000
2.79789472 -5.32468700 0.52624637 9 5 15228 6.03800000 2894142312 2894142312 5.00000000
2.74736333 -5.23073769 -0.93579096 2 6 15229 5.98200000 2894142315 2894142315 -9.00000000
2.80148220 -5.33603716 0.73999065 7 7 15230 6.07200000 2894142317 2894142317 7.00000000
2.05982542 -3.92505383 -0.54426849 2 8 15231 4.46600000 2894142319 2894142319 -7.00000000
2.81071043 -5.35588551 0.95800465 10 9 15231 6.12400000 2894142322 2894142322 9.00000000
2.77474046 -5.28958750 -0.52258581 11 10 15232 5.99600000 2894142324 2894142324 -5.00000000
2.81348419 -5.36572218 1.17767310 43 11 15233 6.17200000 2894142326 2894142326 11.00000000
2.72311354 -5.19557714 -0.30742142 31 12 15234 5.87400000 2894142328 2894142328 -3.00000000
2.81885982 -5.38054037 1.40234482 16 13 15235 6.23400000 2894142331 2894142331 13.00000000
2.72276402 -5.19932318 -0.10244562 24 14 15236 5.87000000 2894142333 2894142333 -1.00000000
2.81944609 -5.38623190 1.62900710 40 15 15237 6.29400000 2894142335 2894142335 15.00000000
0.94745320 -1.81539655 -0.54869640 4 0 15244 2.12000000 2894142356 2894142356 -15.00000000
2.78211164 -5.33301878 0.10499368 8 1 15245 6.01600000 2894142358 2894142358 1.00000000
1.09205389 -2.09424520 -0.54528135 3 2 15246 2.42400000 2894142361 2894142361 -13.00000000
2.79164433 -5.35357046 0.31642318 7 3 15246 6.04600000 2894142363 2894142363 3.00000000
1.29582667 -2.48608088 -0.54495049 3 4 15247 2.85600000 2894142365 2894142365 -11.00000000
2.79954433 -5.37329435 0.53008121 9 5 15248 6.08200000 2894142368 2894142368 5.00000000
2.71905112 -5.22102356 -0.93234938 2 6 15249 5.96000000 2894142370 2894142370 -9.00000000
2.80483770 -5.38804293 0.74584037 7 7 15250 6.12000000 2894142372 2894142372 7.00000000
2.03603268 -3.91284943 -0.54158735 2 8 15251 4.44400000 2894142375 2894142375 -7.00000000
2.80749869 -5.39545393 0.96332341 10 9 15251 6.15800000 2894142377 2894142377 9.00000000
2.77280807 -5.33105755 -0.52572346 11 10 15252 6.03200000 2894142379 2894142379 -5.00000000
2.82009459 -5.42428398 1.18835843 43 11 15253 6.22800000 2894142381 2894142381 11.00000000
2.70219803 -5.19973421 -0.30710739 31 12 15254 5.86800000 2894142384 2894142384 -3.00000000
2.81263757 -5.41455793 1.40864348 42 13 15255 6.26200000 2894142386 2894142386 13.00000000
2.69722629 -5.19459772 -0.10216638 24 14 15256 5.85400000 2894142388 2894142388 -1.00000000
2.81842613 -5.43033409 1.63935983 36 15 15257 6.33400000 2894142391 2894142391 15.00000000
0.93755919 -1.81182981 -0.54662585 4 0 15264 2.11200000 2894142411 2894142411 -15.00000000
2.78185320 -5.37822056 0.10569178 8 1 15265 6.05600000 2894142414 2894142414 1.00000000
1.08831704 -2.10496855 -0.54708099 3 2 15266 2.43200000 2894142416 2894142416 -13.00000000
2.78669906 -5.38989449 0.31799328 7 3 15266 6.07600000 2894142418 2894142418 3.00000000
1.27992988 -2.47663617 -0.54189754 3 4 15267 2.84000000 2894142421 2894142421 -11.00000000
2.79997373 -5.42020702 0.53374177 9 5 15268 6.12400000 2894142423 2894142423 5.00000000
2.70624757 -5.24101400 -0.93422663 2 6 15269 5.97200000 2894142425 2894142425 -9.00000000
2.81150579 -5.44719267 0.75266504 7 7 15270 6.17600000 2894142427 2894142427 7.00000000
2.02964306 -3.93404579 -0.54353726 2 8 15271 4.46000000 2894142430 2894142430 -7.00000000
2.80676198 -5.44033146 0.96958083 45 9 15271 6.19800000 2894142432 2894142432 9.00000000
2.76788020 -5.36726570 -0.52833813 11 10 15272 6.06200000 2894142434 2894142434 -5.00000000
2.81823421 -5.46725082 1.19560921 37 11 15273 6.26600000 2894142437 2894142437 11.00000000
2.68037200 -5.20203304 -0.30668870 31 12 15274 5.86000000 2894142439 2894142439 -3.00000000
2.81335020 -5.46245718 1.41854131 45 13 15275 6.30600000 2894142441 2894142441 13.00000000
2.67175508 -5.18975782 -0.10188715 24 14 15276 5.83800000 2894142444 2894142444 -1.00000000
2.81720376 -5.47228527 1.64919496 38 15 15276 6.37200000 2894142446 2894142446 15.00000000
0.92770159 -1.80821609 -0.54455525 4 0 15284 2.10400000 2894142467 2894142467 -15.00000000
2.78131270 -5.42348576 0.10638987 8 1 15285 6.09600000 2894142469 2894142469 1.00000000
1.08274055 -2.11222291 -0.54798079 3 2 15286 2.43600000 2894142471 2894142471 -13.00000000
2.79064488 -5.44402313 0.32061008 7 3 15286 6.12600000 2894142474 2894142474 3.00000000
1.27306759 -2.48458338 -0.54266077 3 4 15287 2.84400000 2894142476 2894142476 -11.00000000
2.78557801 -5.43881416 0.53461331 9 5 15288 6.13400000 2894142478 2894142478 5.00000000
2.67443395 -5.22405338 -0.92953360 4 6 15289 5.94200000 2894142480 2894142480 -9.00000000
2.80694318 -5.48524761 0.75656486 7 7 15290 6.20800000 2894142483 2894142483 7.00000000
2.02493811 -3.95877981 -0.54597467 2 8 15291 4.48000000 2894142485 2894142485 -7.00000000
2.80844450 -5.49054480 0.97677678 40 9 15291 6.24400000 2894142487 2894142487 9.00000000
2.50151610 -4.89260149 -0.48075107 6 10 15292 5.51600000 2894142490 2894142490 -5.00000000
2.81164098 -5.50152922 1.20095181 43 11 15293 6.29400000 2894142492 2894142492 11.00000000
2.65674543 -5.20068598 -0.30606067 31 12 15294 5.84800000 2894142494 2894142494 -3.00000000
2.81376243 -5.51042652 1.42843914 47 13 15295 6.35000000 2894142497 2894142497 13.00000000
2.64998674 -5.19192791 -0.10174753 24 14 15296 5.83000000 2894142499 2894142499 -1.00000000
2.81117487 -5.51010704 1.65747714 38 15 15297 6.40400000 2894142501 2894142501 15.00000000
0.92520481 -1.81816947 -0.54662585 4 0 15303 2.11200000 2894142522 2894142522 -15.00000000
2.78144455 -5.46832657 0.10708796 8 1 15304 6.13600000 2894142524 2894142524 1.00000000
