# .PCD v0.7 - Point Cloud Data file format
VERSION 0.7
FIELDS x y z intensity laser_id azimuth distance_m adjustedtime timestamp vertical_angle
SIZE 4 4 4 1 1 2 8 8 4 8
TYPE F F F U U U F U U F
COUNT 1 1 1 1 1 1 1 1 1 1
WIDTH 519
HEIGHT 1
VIEWPOINT 0 0 0 1 0 0 0
POINTS 519
DATA ascii
-2.20227909 -0.39347547 -0.51648760 4 2 25987 2.29600000 2889672004 2889672004 -13.00000000
-2.55697513 -0.45638758 -0.50488061 3 4 25988 2.64600000 2889672009 2889672009 -11.00000000
-3.06689382 -0.54629701 -0.49339432 3 6 25990 3.15400000 2889672013 2889672013 -9.00000000
-3.80140734 -0.67576480 -0.47407174 7 8 25992 3.89000000 2889672018 2889672018 -7.00000000
-5.00821066 -0.88939297 -0.44501722 9 10 25993 5.10600000 2889672023 2889672023 -5.00000000
-7.35709858 -1.30387592 -0.39157763 7 12 25995 7.48200000 2889672027 2889672027 -3.00000000
-10.12037754 -1.78995991 2.75383472 40 15 25997 10.64000000 2889672034 2889672034 15.00000000
-1.90463901 -0.33446836 -0.51815575 5 0 26004 2.00200000 2889672055 2889672055 -15.00000000
-2.19589400 -0.38482475 -0.51468801 4 2 26006 2.28800000 2889672060 2889672060 -13.00000000
-2.55073905 -0.44655162 -0.50335413 3 4 26007 2.63800000 2889672064 2889672064 -11.00000000
-3.05701303 -0.53408402 -0.49151710 2 6 26009 3.14200000 2889672069 2889672069 -9.00000000
-3.80949426 -0.66417807 -0.47480297 7 8 26011 3.89600000 2889672073 2889672073 -7.00000000
-5.01702118 -0.87380588 -0.44554016 6 10 26012 5.11200000 2889672078 2889672078 -5.00000000
-7.35941410 -1.27912962 -0.39147297 7 12 26014 7.48000000 2889672083 2889672083 -3.00000000
-10.11674023 -1.75473893 2.75124645 40 15 26016 10.63000000 2889672089 2889672089 15.00000000
-1.90769875 -0.32814538 -0.51867336 5 0 26024 2.00400000 2889672110 2889672110 -15.00000000
-2.19722390 -0.37715730 -0.51468801 4 2 26026 2.28800000 2889672115 2889672115 -13.00000000
-2.55228233 -0.43764517 -0.50335413 3 4 26027 2.63800000 2889672119 2889672119 -11.00000000
-3.05107045 -0.52207714 -0.49026561 2 6 26029 3.13400000 2889672124 2889672124 -9.00000000
-3.82548666 -0.65321529 -0.47650912 7 8 26031 3.91000000 2889672129 2889672129 -7.00000000
-5.03378868 -0.85863292 -0.44676033 6 10 26032 5.12600000 2889672133 2889672133 -5.00000000
-7.35005188 -1.25108671 -0.39074025 7 12 26034 7.46600000 2889672138 2889672138 -3.00000000
-10.12691307 -1.71829379 2.75228167 38 15 26037 10.63400000 2889672145 2889672145 15.00000000
-1.90883255 -0.32148430 -0.51867336 4 0 26044 2.00400000 2889672166 2889672166 -15.00000000
-2.18315268 -0.36690146 -0.51108879 4 2 26046 2.27200000 2889672170 2889672170 -13.00000000
-2.56541157 -0.43068364 -0.50564384 3 4 26047 2.65000000 2889672175 2889672175 -11.00000000
-3.05287433 -0.51142371 -0.49026561 2 6 26049 3.13400000 2889672179 2889672179 -9.00000000
-3.82774353 -0.63985783 -0.47650912 7 8 26051 3.91000000 2889672184 2889672184 -7.00000000
-5.04658127 -0.84269726 -0.44763190 3 10 26052 5.13600000 2889672189 2889672189 -5.00000000
-7.35831404 -1.22607923 -0.39094961 7 12 26054 7.47000000 2889672193 2889672193 -3.00000000
-10.13064957 -1.68438542 2.75176406 40 15 26056 10.63200000 2889672200 2889672200 15.00000000
-1.91947377 -0.31639022 -0.52126157 5 0 26064 2.01400000 2889672221 2889672221 -15.00000000
-2.19595742 -0.36117619 -0.51378822 4 2 26066 2.28400000 2889672225 2889672225 -13.00000000
-2.53977728 -0.41727006 -0.50030118 3 4 26067 2.62200000 2889672230 2889672230 -11.00000000
-3.05464101 -0.50076407 -0.49026561 2 6 26069 3.13400000 2889672235 2889672235 -9.00000000
-3.81428146 -0.62392896 -0.47455922 7 8 26071 3.89400000 2889672239 2889672239 -7.00000000
-5.04949236 -0.82507628 -0.44763190 6 10 26072 5.13600000 2889672244 2889672244 -5.00000000
-7.36649179 -1.20102918 -0.39115894 3 12 26074 7.47400000 2889672248 2889672248 -3.00000000
-10.14028072 -1.64963293 2.75279927 42 15 26076 10.63600000 2889672255 2889672255 15.00000000
-1.90726960 -0.30720246 -0.51763809 5 0 26085 2.00000000 2889672276 2889672276 -15.00000000
-2.19726658 -0.35312518 -0.51378822 4 2 26087 2.28400000 2889672281 2889672281 -13.00000000
-2.55679703 -0.41044798 -0.50335413 3 4 26088 2.63800000 2889672285 2889672285 -11.00000000
-3.07205987 -0.49206427 -0.49276856 3 6 26090 3.15000000 2889672290 2889672290 -9.00000000
-3.82046294 -0.61057127 -0.47504669 7 8 26092 3.89800000 2889672294 2889672294 -7.00000000
-5.04657984 -0.80562121 -0.44710895 6 10 26093 5.13000000 2889672299 2889672299 -5.00000000
-7.36887169 -1.17370737 -0.39105427 3 12 26095 7.47200000 2889672304 2889672304 -3.00000000
-10.15579891 -1.61397195 2.75538754 40 15 26097 10.64600000 2889672311 2889672311 15.00000000
-1.90069699 -0.29934078 -0.51556754 5 0 26105 1.99200000 2889672331 2889672331 -15.00000000
-2.21388674 -0.34787312 -0.51738745 4 2 26107 2.30000000 2889672336 2889672336 -13.00000000
-2.55821419 -0.40152058 -0.50335413 3 4 26108 2.63800000 2889672341 2889672341 -11.00000000
-3.06204915 -0.47950411 -0.49089134 2 6 26110 3.13800000 2889672345 2889672345 -9.00000000
-3.83041620 -0.59845740 -0.47602165 9 8 26112 3.90600000 2889672350 2889672350 -7.00000000
-5.04739285 -0.78769320 -0.44693464 6 10 26113 5.12800000 2889672354 2889672354 -5.00000000
-7.38476467 -1.14982176 -0.39168230 3 12 26115 7.48400000 2889672359 2889672359 -3.00000000
-10.15019226 -1.57496095 2.75228167 40 15 26118 10.63400000 2889672366 2889672366 15.00000000
-1.90745842 -0.29358593 -0.51712048 5 0 26125 1.99800000 2889672387 2889672387 -15.00000000
-2.20353055 -0.33836845 -0.51468801 4 2 26127 2.28800000 2889672391 2889672391 -13.00000000
-2.57124352 -0.39437416 -0.50564384 3 4 26128 2.65000000 2889672396 2889672396 -11.00000000
-3.06370425 -0.46881264 -0.49089134 2 6 26130 3.13800000 2889672400 2889672400 -9.00000000
-3.83444428 -0.58538270 -0.47626540 7 8 26132 3.90800000 2889672405 2889672405 -7.00000000
-5.03632402 -0.76796734 -0.44571447 6 10 26133 5.11400000 2889672410 2889672410 -5.00000000
-7.38675880 -1.12373674 -0.39157763 7 12 26135 7.48200000 2889672414 2889672414 -3.00000000
-10.15917873 -1.54187274 2.75331712 38 15 26137 10.63800000 2889672421 2889672421 15.00000000
-1.92184436 -0.28893638 -0.52074391 4 0 26145 2.01200000 2889672442 2889672442 -15.00000000
-2.19313526 -0.32894030 -0.51198858 4 2 26147 2.27600000 2889672446 2889672446 -13.00000000
-2.56289649 -0.38394210 -0.50373572 4 4 26148 2.64000000 2889672451 2889672451 -11.00000000
-3.06141472 -0.45753151 -0.49026561 2 6 26150 3.13400000 2889672456 2889672456 -9.00000000
-3.83646417 -0.57199442 -0.47626540 7 8 26152 3.90800000 2889672460 2889672460 -7.00000000
-5.04291534 -0.75096953 -0.44606310 9 10 26153 5.11800000 2889672465 2889672465 -5.00000000
-7.37878275 -1.09618437 -0.39094961 3 12 26155 7.47000000 2889672470 2889672470 -3.00000000
-10.17023182 -1.50725091 2.75486994 40 15 26157 10.64400000 2889672476 2889672476 15.00000000
-1.91896927 -0.28199995 -0.51970863 5 0 26164 2.00800000 2889672497 2889672497 -15.00000000
-2.20192647 -0.32279643 -0.51378822 4 2 26166 2.28400000 2889672502 2889672502 -13.00000000
-2.56221318 -0.37515670 -0.50335413 3 4 26167 2.63800000 2889672506 2889672506 -11.00000000
-3.07464290 -0.44908997 -0.49214283 3 6 26169 3.14600000 2889672511 2889672511 -9.00000000
-3.83048248 -0.55812418 -0.47529045 7 8 26171 3.90000000 2889672516 2889672516 -7.00000000
-5.07298088 -0.73825943 -0.44850346 9 10 26172 5.14600000 2889672520 2889672520 -5.00000000
-7.39028358 -1.07285714 -0.39136827 3 12 26174 7.47800000 2889672525 2889672525 -3.00000000
-10.18499088 -1.47312367 2.75745821 40 15 26177 10.65400000 2889672532 2889672532 15.00000000
-1.92185426 -0.27557400 -0.52022630 5 0 26184 2.01000000 2889672552 2889672552 -15.00000000
-2.20689797 -0.31566018 -0.51468801 4 2 26186 2.28800000 2889672557 2889672557 -13.00000000
-2.56739402 -0.36676592 -0.50411737 3 4 26187 2.64200000 2889672562 2889672562 -11.00000000
-3.08792567 -0.44002676 -0.49402004 3 6 26189 3.15800000 2889672566 2889672566 -9.00000000
-3.83437276 -0.54502928 -0.47553417 7 8 26191 3.90200000 2889672571 2889672571 -7.00000000
-5.06369114 -0.71886671 -0.44745758 6 10 26192 5.13400000 2889672576 2889672576 -5.00000000
-7.41969156 -1.05069411 -0.39272901 4 12 26194 7.50400000 2889672580 2889672580 -3.00000000
-10.18624592 -1.43702269 2.75642276 45 15 26197 10.65000000 2889672587 2889672587 15.00000000
-1.91897798 -0.26832873 -0.51919103 5 0 26204 2.00600000 2889672608 2889672608 -15.00000000
-2.22342682 -0.31010827 -0.51828724 4 2 26206 2.30400000 2889672612 2889672612 -13.00000000
-2.57254767 -0.35834351 -0.50488061 4 4 26207 2.64600000 2889672617 2889672617 -11.00000000
-3.08161640 -0.42815784 -0.49276856 3 6 26209 3.15000000 2889672622 2889672622 -9.00000000
-3.83035302 -0.53082401 -0.47480297 7 8 26211 3.89600000 2889672626 2889672626 -7.00000000
-5.06024885 -0.70036727 -0.44693464 3 10 26212 5.12800000 2889672631 2889672631 -5.00000000
-7.42727089 -1.02533448 -0.39293835 4 12 26214 7.50800000 2889672635 2889672635 -3.00000000
-10.18737221 -1.40093100 2.75538754 40 15 26217 10.64600000 2889672642 2889672642 15.00000000
-1.91607463 -0.26110694 -0.51815575 4 0 26224 2.00200000 2889672663 2889672663 -15.00000000
-2.20904803 -0.30024555 -0.51468801 4 2 26226 2.28800000 2889672668 2889672668 -13.00000000
-2.56989193 -0.34883332 -0.50411737 3 4 26227 2.64200000 2889672672 2889672672 -11.00000000
-3.07526207 -0.41633832 -0.49151710 4 6 26229 3.14200000 2889672677 2889672677 -9.00000000
-3.86759281 -0.52223176 -0.47919026 7 8 26231 3.93200000 2889672682 2889672682 -7.00000000
-5.07253551 -0.68403077 -0.44780621 6 10 26232 5.13800000 2889672686 2889672686 -5.00000000
-7.40111303 -0.99540883 -0.39136827 3 12 26234 7.47800000 2889672691 2889672691 -3.00000000
-10.20177364 -1.36664438 2.75797582 40 15 26237 10.65600000 2889672698 2889672698 15.00000000
-1.92280853 -0.25450832 -0.51970863 5 0 26246 2.00800000 2889672718 2889672718 -15.00000000
-2.20632052 -0.29125115 -0.51378822 4 2 26248 2.28400000 2889672723 2889672723 -13.00000000
-2.58094454 -0.34024608 -0.50602543 4 4 26249 2.65200000 2889672728 2889672728 -11.00000000
-3.08858919 -0.40607211 -0.49339432 3 6 26251 3.15400000 2889672732 2889672732 -9.00000000
-3.83807778 -0.50324821 -0.47529045 7 8 26253 3.90000000 2889672737 2889672737 -7.00000000
-5.07709980 -0.66480732 -0.44798052 3 10 26254 5.14000000 2889672741 2889672741 -5.00000000
-7.43260670 -0.97060406 -0.39283368 4 12 26256 7.50600000 2889672746 2889672746 -3.00000000
-10.21246147 -1.32999229 2.75952864 42 15 26258 10.66200000 2889672753 2889672753 15.00000000
-1.93901336 -0.24976936 -0.52384973 5 0 26266 2.02400000 2889672774 2889672774 -15.00000000
-2.20345807 -0.28305131 -0.51288843 4 2 26268 2.28000000 2889672778 2889672778 -13.00000000
-2.57238007 -0.32998583 -0.50411737 3 4 26269 2.64200000 2889672783 2889672783 -11.00000000
-3.10174441 -0.39679238 -0.49527150 3 6 26271 3.16600000 2889672787 2889672787 -9.00000000
-3.83981085 -0.48984775 -0.47529045 7 8 26273 3.90000000 2889672792 2889672792 -7.00000000
-5.10705948 -0.65060586 -0.45042089 3 10 26274 5.16800000 2889672797 2889672797 -5.00000000
-7.42406178 -0.94314325 -0.39220566 3 12 26276 7.49400000 2889672801 2889672801 -3.00000000
-10.22493362 -1.29352260 2.76159930 40 15 26279 10.67000000 2889672808 2889672808 15.00000000
-1.92062056 -0.24126868 -0.51867336 5 0 26284 2.00400000 2889672829 2889672829 -15.00000000
-2.21980548 -0.27806529 -0.51648760 4 2 26286 2.29600000 2889672834 2889672834 -13.00000000
-2.57340407 -0.32190284 -0.50411737 3 4 26287 2.64200000 2889672838 2889672838 -11.00000000
-3.09905529 -0.38655701 -0.49464577 4 6 26289 3.16200000 2889672843 2889672843 -9.00000000
-3.84724069 -0.47851729 -0.47602165 7 8 26291 3.90600000 2889672847 2889672847 -7.00000000
-5.09523773 -0.63283932 -0.44920069 3 10 26292 5.15400000 2889672852 2889672852 -5.00000000
-7.44284487 -0.92177910 -0.39304304 4 12 26294 7.51000000 2889672857 2889672857 -3.00000000
-10.22680950 -1.26294219 2.76108146 42 15 26296 10.66800000 2889672864 2889672864 15.00000000
-1.92720389 -0.23526527 -0.52022630 5 0 26304 2.01000000 2889672884 2889672884 -15.00000000
-2.22463155 -0.27078596 -0.51738745 4 2 26306 2.30000000 2889672889 2889672889 -13.00000000
-2.58230758 -0.31386554 -0.50564384 3 4 26307 2.65000000 2889672893 2889672893 -11.00000000
-3.08469748 -0.37383568 -0.49214283 4 6 26309 3.14600000 2889672898 2889672898 -9.00000000
-3.85677052 -0.46603754 -0.47699660 7 8 26311 3.91400000 2889672903 2889672903 -7.00000000
-5.09543800 -0.61481112 -0.44902638 3 10 26312 5.15200000 2889672907 2889672907 -5.00000000
-7.45593214 -0.89698589 -0.39356640 4 12 26314 7.52000000 2889672912 2889672912 -3.00000000
-10.21794224 -1.22384238 2.75745821 40 15 26317 10.65400000 2889672919 2889672919 15.00000000
-1.92225814 -0.22785445 -0.51867336 5 0 26324 2.00400000 2889672940 2889672940 -15.00000000
-2.21782207 -0.26210403 -0.51558781 4 2 26326 2.29200000 2889672944 2889672944 -13.00000000
-2.58338761 -0.30484968 -0.50564384 3 4 26327 2.65000000 2889672949 2889672949 -11.00000000
-3.07421255 -0.36168092 -0.49026561 4 6 26329 3.13400000 2889672953 2889672953 -9.00000000
-3.87414646 -0.45442212 -0.47894651 7 8 26331 3.93000000 2889672958 2889672958 -7.00000000
-5.08765841 -0.59586215 -0.44815484 3 10 26332 5.14200000 2889672963 2889672963 -5.00000000
-7.45901775 -0.87095439 -0.39356640 4 12 26334 7.52000000 2889672967 2889672967 -3.00000000
-10.22961998 -1.19084525 2.75952864 45 15 26336 10.66200000 2889672974 2889672974 15.00000000
-1.93647623 -0.22268803 -0.52229685 5 0 26344 2.01800000 2889672995 2889672995 -15.00000000
-2.20517111 -0.25280711 -0.51243848 4 2 26346 2.27800000 2889672999 2889672999 -13.00000000
-2.58443594 -0.29583013 -0.50564384 3 4 26347 2.65000000 2889673004 2889673004 -11.00000000
-3.09508276 -0.35318735 -0.49339432 3 6 26349 3.15400000 2889673009 2889673009 -9.00000000
-3.86190248 -0.43932545 -0.47724035 7 8 26351 3.91600000 2889673013 2889673013 -7.00000000
-5.09564638 -0.57877386 -0.44867778 3 10 26352 5.14800000 2889673018 2889673018 -5.00000000
-7.45605850 -0.84423810 -0.39325237 4 12 26354 7.51400000 2889673022 2889673022 -3.00000000
-10.23775578 -1.15377653 2.76056385 42 15 26357 10.66600000 2889673029 2889673029 15.00000000
-1.93916166 -0.21614112 -0.52281445 5 0 26364 2.02000000 2889673050 2889673050 -15.00000000
-2.21959782 -0.24661446 -0.51558781 4 2 26366 2.29200000 2889673055 2889673055 -13.00000000
-2.57764769 -0.28594112 -0.50411737 3 4 26367 2.64200000 2889673059 2889673059 -11.00000000
-3.12771130 -0.34585509 -0.49840021 3 6 26369 3.18600000 2889673064 2889673064 -9.00000000
-3.85946631 -0.42540723 -0.47675288 5 8 26371 3.91200000 2889673069 2889673069 -7.00000000
-5.10357714 -0.56163704 -0.44920069 3 10 26372 5.15400000 2889673073 2889673073 -5.00000000
-7.45896006 -0.81820649 -0.39325237 4 12 26374 7.51400000 2889673078 2889673078 -3.00000000
-1.92069733 -0.20729789 -0.51763809 5 0 26384 2.00000000 2889673105 2889673105 -15.00000000
-2.22044516 -0.23886512 -0.51558781 4 2 26386 2.29200000 2889673110 2889673110 -13.00000000
-2.57472610 -0.27652243 -0.50335413 3 4 26387 2.63800000 2889673115 2889673115 -11.00000000
-3.11711454 -0.33367372 -0.49652299 3 6 26389 3.17400000 2889673119 2889673119 -9.00000000
-3.86882329 -0.41277498 -0.47772783 5 8 26391 3.92000000 2889673124 2889673124 -7.00000000
-5.12531805 -0.54592907 -0.45094383 3 10 26392 5.17400000 2889673128 2889673128 -5.00000000
-7.46574306 -0.79258657 -0.39346170 8 12 26394 7.51800000 2889673133 2889673133 -3.00000000
-8.56646442 -0.90490693 2.30814815 6 15 26397 8.91800000 2889673140 2889673140 15.00000000
-1.92717350 -0.20119391 -0.51919103 5 0 26404 2.00600000 2889673161 2889673161 -15.00000000
-2.22514200 -0.23151620 -0.51648760 4 2 26406 2.29600000 2889673165 2889673165 -13.00000000
-2.59129763 -0.26915592 -0.50640708 3 4 26407 2.65400000 2889673170 2889673170 -11.00000000
-3.11433053 -0.32238412 -0.49589726 3 6 26409 3.17000000 2889673175 2889673175 -9.00000000
-3.88603735 -0.40089741 -0.47967774 5 8 26411 3.93600000 2889673179 2889673179 -7.00000000
-5.07566309 -0.52272815 -0.44641173 6 10 26412 5.12200000 2889673184 2889673184 -5.00000000
-7.50025320 -0.76978409 -0.39513648 8 12 26414 7.55000000 2889673188 2889673188 -3.00000000
-8.63860416 -0.88357097 2.32678318 15 15 26416 8.99000000 2889673195 2889673195 15.00000000
-1.92401981 -0.19407783 -0.51815575 5 0 26424 2.00200000 2889673216 2889673216 -15.00000000
-2.22981453 -0.22413740 -0.51738745 4 2 26426 2.30000000 2889673221 2889673221 -13.00000000
-2.58050060 -0.25893289 -0.50411737 3 4 26427 2.64200000 2889673225 2889673225 -11.00000000
-3.09578109 -0.30954576 -0.49276856 3 6 26429 3.15000000 2889673230 2889673230 -9.00000000
-3.88346243 -0.38693655 -0.47919026 5 8 26431 3.93200000 2889673234 2889673234 -7.00000000
-5.09926558 -0.50717670 -0.44832915 6 10 26432 5.14400000 2889673239 2889673239 -5.00000000
-7.49096966 -0.74241674 -0.39450845 4 12 26434 7.53800000 2889673244 2889673244 -3.00000000
-10.23940945 -1.00939608 2.75694036 38 15 26437 10.65200000 2889673251 2889673251 15.00000000
-1.93622220 -0.18848361 -0.52126157 5 0 26444 2.01400000 2889673271 2889673271 -15.00000000
-2.21118689 -0.21447121 -0.51288843 4 2 26446 2.28000000 2889673276 2889673276 -13.00000000
-2.59702158 -0.25143722 -0.50717032 3 4 26447 2.65800000 2889673281 2889673281 -11.00000000
-3.10470772 -0.29949626 -0.49402004 3 6 26449 3.15800000 2889673285 2889673285 -9.00000000
-3.88083744 -0.37299854 -0.47870278 5 8 26451 3.92800000 2889673290 2889673290 -7.00000000
-5.11687088 -0.49089602 -0.44972363 6 10 26452 5.16000000 2889673294 2889673294 -5.00000000
-7.47562170 -0.71455348 -0.39356640 4 12 26454 7.52000000 2889673299 2889673299 -3.00000000
-10.24462318 -0.97561854 2.75745821 42 15 26456 10.65400000 2889673306 2889673306 15.00000000
-1.93686831 -0.18172377 -0.52126157 4 0 26464 2.01400000 2889673327 2889673327 -15.00000000
-2.21386242 -0.20693277 -0.51333833 4 2 26466 2.28200000 2889673331 2889673331 -13.00000000
-2.59397411 -0.24200565 -0.50640708 3 4 26467 2.65400000 2889673336 2889673336 -11.00000000
-3.12933707 -0.29085070 -0.49777448 3 6 26469 3.18200000 2889673340 2889673340 -9.00000000
-3.87025595 -0.35835150 -0.47724035 5 8 26471 3.91600000 2889673345 2889673345 -7.00000000
-5.11061764 -0.47229844 -0.44902638 6 10 26472 5.15200000 2889673350 2889673350 -5.00000000
-7.48602581 -0.68918675 -0.39398509 8 12 26474 7.52800000 2889673354 2889673354 -3.00000000
-9.49769306 -0.87104374 2.55557919 15 15 26476 9.87400000 2889673361 2889673361 15.00000000
-1.92790103 -0.17375654 -0.51867336 5 0 26485 2.00400000 2889673382 2889673382 -15.00000000
-2.23207426 -0.20038541 -0.51738745 4 2 26487 2.30000000 2889673387 2889673387 -13.00000000
-2.58702183 -0.23179582 -0.50488061 3 4 26488 2.64600000 2889673391 2889673391 -11.00000000
-3.13038206 -0.27937916 -0.49777448 3 6 26490 3.18200000 2889673396 2889673396 -9.00000000
-3.87945271 -0.34486699 -0.47821531 5 8 26492 3.92400000 2889673400 2889673400 -7.00000000
-5.13216019 -0.45532465 -0.45076951 6 10 26493 5.17200000 2889673405 2889673405 -5.00000000
-11.12933826 -0.98543584 2.17178798 25 11 26494 11.38200000 2889673407 2889673407 11.00000000
-7.49447012 -0.66227186 -0.39429909 8 12 26495 7.53400000 2889673410 2889673410 -3.00000000
-9.99720860 -0.88167566 2.31699586 30 13 26496 10.30000000 2889673412 2889673412 13.00000000
-10.24172020 -0.90143830 2.75486994 35 15 26497 10.64400000 2889673416 2889673416 15.00000000
-1.93042052 -0.16719253 -0.51919103 5 0 26505 2.00600000 2889673437 2889673437 -15.00000000
-2.23664331 -0.19292773 -0.51828724 4 2 26507 2.30400000 2889673442 2889673442 -13.00000000
-2.60933137 -0.22461617 -0.50907838 5 4 26508 2.66800000 2889673446 2889673446 -11.00000000
-3.10772038 -0.26642561 -0.49402004 3 6 26510 3.15800000 2889673451 2889673451 -9.00000000
-3.88854432 -0.33199856 -0.47919026 5 8 26512 3.93200000 2889673456 2889673456 -7.00000000
-5.10989618 -0.43537757 -0.44867778 3 10 26513 5.14800000 2889673460 2889673460 -5.00000000
-7.52061749 -0.63813365 -0.39555517 8 12 26515 7.55800000 2889673465 2889673465 -3.00000000
-10.03517723 -0.84973311 2.32509398 15 13 26516 10.33600000 2889673467 2889673467 13.00000000
-10.23725510 -0.86324513 2.75279927 45 15 26518 10.63600000 2889673472 2889673472 15.00000000
-1.93481469 -0.16111073 -0.52022630 5 0 26524 2.01000000 2889673493 2889673493 -15.00000000
-2.22561836 -0.18454351 -0.51558781 4 2 26526 2.29200000 2889673497 2889673497 -13.00000000
-2.59245276 -0.21450506 -0.50564384 3 4 26527 2.65000000 2889673502 2889673502 -11.00000000
-3.11252403 -0.25644299 -0.49464577 3 6 26529 3.16200000 2889673506 2889673506 -9.00000000
-3.90940833 -0.32072496 -0.48162764 5 8 26531 3.95200000 2889673511 2889673511 -7.00000000
-5.12124062 -0.41924295 -0.44954932 3 10 26532 5.15800000 2889673516 2889673516 -5.00000000
-7.53264523 -0.61400217 -0.39607853 8 12 26534 7.56800000 2889673520 2889673520 -3.00000000
-10.24569321 -0.83154845 2.75435233 45 15 26536 10.64200000 2889673527 2889673527 15.00000000
-1.93921673 -0.15466316 -0.52126157 5 0 26544 2.01400000 2889673548 2889673548 -15.00000000
-2.22624898 -0.17677352 -0.51558781 4 2 26546 2.29200000 2889673552 2889673552 -13.00000000
-2.60101438 -0.20607464 -0.50717032 3 4 26547 2.65800000 2889673557 2889673557 -11.00000000
-3.12324667 -0.24635333 -0.49621013 3 6 26549 3.17200000 2889673562 2889673562 -9.00000000
-3.89863014 -0.30614421 -0.48016521 5 8 26551 3.94000000 2889673566 2889673566 -7.00000000
-5.12465906 -0.40151954 -0.44972363 3 10 26552 5.16000000 2889673571 2889673571 -5.00000000
-7.54071665 -0.58817053 -0.39639252 12 12 26554 7.57400000 2889673575 2889673575 -3.00000000
-10.24853325 -0.79577929 2.75435233 42 15 26556 10.64200000 2889673582 2889673582 15.00000000
-1.94359732 -0.14818682 -0.52229685 5 0 26564 2.01800000 2889673603 2889673603 -15.00000000
-2.22296619 -0.16870645 -0.51468801 4 2 26566 2.28800000 2889673608 2889673608 -13.00000000
-2.59780240 -0.19669770 -0.50640708 3 4 26567 2.65400000 2889673612 2889673612 -11.00000000
-3.10832930 -0.23426203 -0.49370718 3 6 26569 3.15600000 2889673617 2889673617 -9.00000000
-3.90363407 -0.29283056 -0.48065269 5 8 26571 3.94400000 2889673621 2889673621 -7.00000000
-5.13198996 -0.38407478 -0.45024657 6 10 26572 5.16600000 2889673626 2889673626 -5.00000000
-7.58056688 -0.56466377 -0.39838129 12 12 26574 7.61200000 2889673631 2889673631 -3.00000000
-10.25510216 -0.76028603 2.75538754 45 15 26576 10.64600000 2889673638 2889673638 15.00000000
-1.93832254 -0.14098108 -0.52074391 5 0 26584 2.01200000 2889673658 2889673658 -15.00000000
-2.23520350 -0.16178994 -0.51738745 4 2 26586 2.30000000 2889673663 2889673663 -13.00000000
-2.59064054 -0.18706290 -0.50488061 3 4 26587 2.64600000 2889673668 2889673668 -11.00000000
-3.12883091 -0.22482629 -0.49683586 3 6 26589 3.17600000 2889673672 2889673672 -9.00000000
-3.91255260 -0.27976888 -0.48162764 5 8 26591 3.95200000 2889673677 2889673677 -7.00000000
-5.12932444 -0.36587495 -0.44989794 3 10 26592 5.16200000 2889673681 2889673681 -5.00000000
-7.59046030 -0.53876489 -0.39879999 12 12 26594 7.62000000 2889673686 2889673686 -3.00000000
-10.24240303 -0.72160792 2.75124645 45 15 26597 10.63000000 2889673693 2889673693 15.00000000
-1.93304443 -0.13347659 -0.51919103 4 0 26605 2.00600000 2889673714 2889673714 -15.00000000
-2.24355793 -0.15413067 -0.51918703 4 2 26607 2.30800000 2889673718 2889673718 -13.00000000
-2.59914351 -0.17810334 -0.50640708 3 4 26608 2.65400000 2889673723 2889673723 -11.00000000
-3.13357568 -0.21362576 -0.49746159 3 6 26610 3.18000000 2889673727 2889673727 -9.00000000
-3.90562963 -0.26488948 -0.48065269 5 8 26612 3.94400000 2889673732 2889673732 -7.00000000
-5.11870432 -0.34626573 -0.44885206 3 10 26613 5.15000000 2889673737 2889673737 -5.00000000
-11.10052395 -0.74897254 2.16262913 25 11 26614 11.33400000 2889673739 2889673739 11.00000000
-7.59039164 -0.51080674 -0.39869532 12 12 26615 7.61800000 2889673741 2889673741 -3.00000000
-11.11399078 -0.74598408 2.57164049 38 13 26616 11.43200000 2889673744 2889673744 13.00000000
-10.24100494 -0.68559283 2.75021124 45 15 26617 10.62600000 2889673748 2889673748 15.00000000
-1.92964315 -0.12647550 -0.51815575 4 0 26625 2.00200000 2889673769 2889673769 -15.00000000
-2.24019313 -0.14604470 -0.51828724 4 2 26627 2.30400000 2889673773 2889673773 -13.00000000
-2.60758591 -0.16953906 -0.50793356 3 4 26628 2.66200000 2889673778 2889673778 -11.00000000
-3.13824463 -0.20294118 -0.49808735 3 6 26630 3.18400000 2889673783 2889673783 -9.00000000
-3.92634034 -0.25252879 -0.48309007 5 8 26632 3.96400000 2889673787 2889673787 -7.00000000
-5.13181162 -0.32916120 -0.44989794 3 10 26633 5.16200000 2889673792 2889673792 -5.00000000
-7.58016920 -0.48354530 -0.39806730 12 12 26635 7.60600000 2889673797 2889673797 -3.00000000
-10.24719143 -0.65008545 2.75124645 42 15 26637 10.63000000 2889673803 2889673803 15.00000000
-1.94935429 -0.12093520 -0.52333212 4 0 26645 2.02200000 2889673824 2889673824 -15.00000000
-2.22901893 -0.13750416 -0.51558781 4 2 26647 2.29200000 2889673829 2889673829 -13.00000000
-2.60816169 -0.16043586 -0.50793356 3 4 26648 2.66200000 2889673833 2889673833 -11.00000000
-3.14287734 -0.19222662 -0.49871308 3 6 26650 3.18800000 2889673838 2889673838 -9.00000000
-3.91927218 -0.23833978 -0.48211512 5 8 26652 3.95600000 2889673843 2889673843 -7.00000000
-5.14088392 -0.31172821 -0.45059520 3 10 26653 5.17000000 2889673847 2889673847 -5.00000000
-7.58579779 -0.45732301 -0.39827663 12 12 26655 7.61000000 2889673852 2889673852 -3.00000000
-10.24179173 -0.61206228 2.74917579 42 15 26658 10.62200000 2889673859 2889673859 15.00000000
-1.94205034 -0.11367840 -0.52126157 4 0 26665 2.01400000 2889673879 2889673879 -15.00000000
-2.22754002 -0.12960939 -0.51513791 4 2 26667 2.29000000 2889673884 2889673884 -13.00000000
-2.61262584 -0.15155809 -0.50869679 3 4 26668 2.66600000 2889673889 2889673889 -11.00000000
-3.13564086 -0.18079992 -0.49746159 3 6 26670 3.18000000 2889673893 2889673893 -9.00000000
-3.89233470 -0.22306743 -0.47870278 5 8 26672 3.92800000 2889673898 2889673898 -7.00000000
-5.15188646 -0.29434952 -0.45146674 6 10 26673 5.18000000 2889673903 2889673903 -5.00000000
-7.60928249 -0.43208638 -0.39942801 12 12 26675 7.63200000 2889673907 2889673907 -3.00000000
-10.25158119 -0.57674211 2.75124645 45 15 26678 10.63000000 2889673914 2889673914 15.00000000
-1.93470097 -0.10681173 -0.51919103 4 0 26684 2.00600000 2889673935 2889673935 -15.00000000
-2.23963237 -0.12286236 -0.51783735 4 2 26686 2.30200000 2889673939 2889673939 -13.00000000
-2.59743142 -0.14203590 -0.50564384 3 4 26687 2.65000000 2889673944 2889673944 -11.00000000
-3.14805794 -0.17104378 -0.49933881 3 6 26689 3.19200000 2889673949 2889673949 -9.00000000
-3.92873263 -0.21208486 -0.48309007 5 8 26691 3.96400000 2889673953 2889673953 -7.00000000
-5.14885521 -0.27704951 -0.45111811 6 10 26692 5.17600000 2889673958 2889673958 -5.00000000
-7.62463474 -0.40759704 -0.40016073 16 12 26694 7.64600000 2889673962 2889673962 -3.00000000
-10.24572086 -0.54233497 2.74917579 45 15 26697 10.62200000 2889673969 2889673969 15.00000000
-1.93120348 -0.09985820 -0.51815575 4 0 26704 2.00200000 2889673990 2889673990 -15.00000000
-2.23615527 -0.11484393 -0.51693749 4 2 26706 2.29800000 2889673995 2889673995 -13.00000000
-2.60575414 -0.13336971 -0.50717032 3 4 26707 2.65800000 2889673999 2889673999 -11.00000000
-3.14469004 -0.15985340 -0.49871308 3 6 26709 3.18800000 2889674004 2889674004 -9.00000000
-3.91953611 -0.19786930 -0.48187140 3 8 26711 3.95400000 2889674009 2889674009 -7.00000000
-5.12193298 -0.25767347 -0.44867778 3 10 26712 5.14800000 2889674013 2889674013 -5.00000000
-7.63000059 -0.38117892 -0.40037006 16 12 26714 7.65000000 2889674018 2889674018 -3.00000000
-10.23597431 -0.50599515 2.74607015 42 15 26717 10.61000000 2889674025 2889674025 15.00000000
-1.94697714 -0.09386062 -0.52229685 4 0 26724 2.01800000 2889674045 2889674045 -15.00000000
-2.23654246 -0.10703760 -0.51693749 4 2 26726 2.29800000 2889674050 2889674050 -13.00000000
-2.60620379 -0.12427313 -0.50717032 3 4 26727 2.65800000 2889674055 2889674055 -11.00000000
-3.13733625 -0.14850181 -0.49746159 3 6 26729 3.18000000 2889674059 2889674059 -9.00000000
-3.91425419 -0.18390687 -0.48114017 3 8 26731 3.94800000 2889674064 2889674064 -7.00000000
-5.14469337 -0.24081779 -0.45059520 3 10 26732 5.17000000 2889674068 2889674068 -5.00000000
-7.63128471 -0.35454294 -0.40037006 16 12 26734 7.65000000 2889674073 2889674073 -3.00000000
-10.23373604 -0.47187069 2.74503469 45 15 26736 10.60600000 2889674080 2889674080 15.00000000
-1.94729292 -0.08706383 -0.52229685 4 0 26744 2.01800000 2889674101 2889674101 -15.00000000
-2.22716832 -0.09879814 -0.51468801 4 2 26746 2.28800000 2889674105 2889674105 -13.00000000
-2.61054444 -0.11534835 -0.50793356 3 4 26747 2.66200000 2889674110 2889674110 -11.00000000
-3.13388872 -0.13737655 -0.49683586 3 6 26749 3.17600000 2889674114 2889674114 -9.00000000
-3.93272138 -0.17101863 -0.48333383 3 8 26751 3.96600000 2889674119 2889674119 -7.00000000
-5.15943623 -0.22346146 -0.45181537 3 10 26752 5.18400000 2889674124 2889674124 -5.00000000
-7.61451674 -0.32713106 -0.39942801 16 12 26754 7.63200000 2889674128 2889674128 -3.00000000
-10.24311733 -0.43468663 2.74710536 45 15 26757 10.61400000 2889674135 2889674135 15.00000000
-1.94951522 -0.08034553 -0.52281445 4 0 26764 2.02000000 2889674156 2889674156 -15.00000000
-2.22944689 -0.09110284 -0.51513791 4 2 26766 2.29000000 2889674161 2889674161 -13.00000000
-2.61093116 -0.10623515 -0.50793356 3 4 26767 2.66200000 2889674165 2889674165 -11.00000000
-3.14224410 -0.12675488 -0.49808735 3 6 26769 3.18400000 2889674170 2889674170 -9.00000000
-3.91742635 -0.15665528 -0.48138392 3 8 26771 3.95000000 2889674174 2889674174 -7.00000000
-5.16018486 -0.20545031 -0.45181537 3 10 26772 5.18400000 2889674179 2889674179 -5.00000000
-7.62559080 -0.30094326 -0.39995137 16 12 26774 7.64200000 2889674184 2889674184 -3.00000000
-10.25222397 -0.40101889 2.74917579 45 15 26776 10.62200000 2889674191 2889674191 15.00000000
-1.94592285 -0.07339434 -0.52177918 4 0 26784 2.01600000 2889674211 2889674211 -15.00000000
-2.23754072 -0.08361114 -0.51693749 4 2 26786 2.29800000 2889674216 2889674216 -13.00000000
-2.59166718 -0.09639096 -0.50411737 3 4 26787 2.64200000 2889674220 2889674220 -11.00000000
-3.14661551 -0.11593109 -0.49871308 3 6 26789 3.18800000 2889674225 2889674225 -9.00000000
-3.93381953 -0.14355911 -0.48333383 3 8 26791 3.96600000 2889674230 2889674230 -7.00000000
-5.15887976 -0.18736434 -0.45164105 3 10 26792 5.18200000 2889674234 2889674234 -5.00000000
-7.64256287 -0.27489749 -0.40078875 16 12 26794 7.65800000 2889674239 2889674239 -3.00000000
-10.24590206 -0.36316618 2.74710536 45 15 26797 10.61400000 2889674246 2889674246 15.00000000
-1.94037497 -0.06640314 -0.52022630 5 0 26804 2.01000000 2889674267 2889674267 -15.00000000
-2.24171424 -0.07593209 -0.51783735 4 2 26806 2.30200000 2889674271 2889674271 -13.00000000
-2.60768485 -0.08787273 -0.50717032 3 4 26807 2.65800000 2889674276 2889674276 -11.00000000
-3.14305258 -0.10481496 -0.49808735 3 6 26809 3.18400000 2889674280 2889674280 -9.00000000
-3.93628049 -0.12989211 -0.48357755 3 8 26811 3.96800000 2889674285 2889674285 -7.00000000
-5.16149330 -0.16942072 -0.45181537 3 10 26812 5.18400000 2889674290 2889674290 -5.00000000
-7.65146065 -0.24847761 -0.40120745 16 12 26814 7.66600000 2889674294 2889674294 -3.00000000
-10.23160362 -0.32869130 2.74296427 47 15 26816 10.59800000 2889674301 2889674301 15.00000000
-1.94638777 -0.05980755 -0.52177918 5 0 26824 2.01600000 2889674322 2889674322 -15.00000000
-2.24196577 -0.06810658 -0.51783735 4 2 26826 2.30200000 2889674326 2889674326 -13.00000000
-2.60405111 -0.07865113 -0.50640708 3 4 26827 2.65400000 2889674331 2889674331 -11.00000000
-3.13155222 -0.09348934 -0.49621013 3 6 26829 3.17200000 2889674336 2889674336 -9.00000000
-3.93671012 -0.11615114 -0.48357755 3 8 26831 3.96800000 2889674340 2889674340 -7.00000000
-5.14811277 -0.15099382 -0.45059520 3 10 26832 5.17000000 2889674345 2889674345 -5.00000000
-7.65827036 -0.22194108 -0.40152144 24 12 26834 7.67200000 2889674349 2889674349 -3.00000000
-10.23273945 -0.29118842 2.74296427 47 15 26837 10.59800000 2889674356 2889674356 15.00000000
-1.95044696 -0.05311821 -0.52281445 5 0 26844 2.02000000 2889674377 2889674377 -15.00000000
-2.23244953 -0.06001839 -0.51558781 4 2 26846 2.29200000 2889674382 2889674382 -13.00000000
-2.62001014 -0.06998017 -0.50946003 3 4 26847 2.67000000 2889674386 2889674386 -11.00000000
-3.13580894 -0.08266173 -0.49683586 3 6 26849 3.17600000 2889674391 2889674391 -9.00000000
-3.92915368 -0.10220228 -0.48260260 3 8 26851 3.96000000 2889674396 2889674396 -7.00000000
-5.16055870 -0.13333139 -0.45164105 3 10 26852 5.18200000 2889674400 2889674400 -5.00000000
-7.65101194 -0.19500382 -0.40110278 20 12 26854 7.66400000 2889674405 2889674405 -3.00000000
-10.22978687 -0.25715673 2.74192905 42 15 26856 10.59400000 2889674412 2889674412 15.00000000
-1.95448315 -0.04640126 -0.52384973 4 0 26864 2.02400000 2889674432 2889674432 -15.00000000
-2.23459363 -0.05227089 -0.51603770 4 2 26866 2.29400000 2889674437 2889674437 -13.00000000
-2.60453677 -0.06046966 -0.50640708 3 4 26867 2.65400000 2889674442 2889674442 -11.00000000
-3.14002800 -0.07180553 -0.49746159 3 6 26869 3.18000000 2889674446 2889674446 -9.00000000
-3.91757917 -0.08821821 -0.48114017 3 8 26871 3.94800000 2889674451 2889674451 -7.00000000
-5.17294407 -0.11558391 -0.45268694 6 10 26872 5.19400000 2889674455 2889674455 -5.00000000
-7.65563965 -0.16838345 -0.40131211 24 12 26874 7.66800000 2889674460 2889674460 -3.00000000
-10.22679710 -0.21957801 2.74089360 45 15 26877 10.59000000 2889674467 2889674467 15.00000000
-1.94883192 -0.03980137 -0.52229685 5 0 26883 2.01800000 2889674488 2889674488 -15.00000000
-2.24644470 -0.04509509 -0.51873714 4 2 26885 2.30600000 2889674492 2889674492 -13.00000000
-2.61650014 -0.05206673 -0.50869679 3 4 26886 2.66600000 2889674497 2889674497 -11.00000000
-3.15604877 -0.06170132 -0.49996457 3 6 26888 3.19600000 2889674502 2889674502 -9.00000000
-3.93372798 -0.07553143 -0.48309007 3 8 26890 3.96400000 2889674506 2889674506 -7.00000000
-5.15537071 -0.09808806 -0.45111811 6 10 26891 5.17600000 2889674511 2889674511 -5.00000000
-7.65415907 -0.14295822 -0.40120745 20 12 26893 7.66600000 2889674515 2889674515 -3.00000000
-10.20425892 -0.18702374 2.73468208 45 15 26895 10.56600000 2889674522 2889674522 15.00000000
-1.93543792 -0.03276950 -0.51867336 5 0 26903 2.00400000 2889674543 2889674543 -15.00000000
-2.25048542 -0.03731788 -0.51963693 4 2 26905 2.31000000 2889674548 2889674548 -13.00000000
-2.62059188 -0.04299754 -0.50946003 3 4 26906 2.67000000 2889674552 2889674552 -11.00000000
-3.14439416 -0.05049397 -0.49808735 3 6 26908 3.18400000 2889674557 2889674557 -9.00000000
-3.93992209 -0.06189324 -0.48382130 3 8 26910 3.97000000 2889674561 2889674561 -7.00000000
-5.15568161 -0.08009186 -0.45111811 6 10 26911 5.17600000 2889674566 2889674566 -5.00000000
-7.64662313 -0.11611804 -0.40078875 16 12 26913 7.65800000 2889674571 2889674571 -3.00000000
-10.18942261 -0.14939544 2.73054099 45 15 26916 10.55000000 2889674578 2889674578 15.00000000
-1.94327176 -0.02577805 -0.52074391 5 0 26924 2.01200000 2889674598 2889674598 -15.00000000
-2.23112130 -0.02881751 -0.51513791 4 2 26926 2.29000000 2889674603 2889674603 -13.00000000
-2.60895324 -0.03324222 -0.50717032 3 4 26927 2.65800000 2889674608 2889674608 -11.00000000
-3.13665724 -0.03887094 -0.49683586 3 6 26929 3.17600000 2889674612 2889674612 -9.00000000
-3.94409227 -0.04750010 -0.48430878 3 8 26931 3.97400000 2889674617 2889674617 -7.00000000
-5.15992498 -0.06124210 -0.45146674 6 10 26932 5.18000000 2889674621 2889674621 -5.00000000
-7.63102055 -0.08790693 -0.39995137 16 12 26934 7.64200000 2889674626 2889674626 -3.00000000
-10.19760895 -0.11391312 2.73261142 42 15 26936 10.55800000 2889674633 2889674633 15.00000000
-1.96073580 -0.01916454 -0.52540267 5 0 26944 2.03000000 2889674654 2889674654 -15.00000000
-2.22341371 -0.02095580 -0.51333833 4 2 26946 2.28200000 2889674658 2889674658 -13.00000000
-2.62083244 -0.02424403 -0.50946003 3 4 26947 2.67000000 2889674663 2889674663 -11.00000000
-3.13282323 -0.02788656 -0.49621013 3 6 26949 3.17200000 2889674667 2889674667 -9.00000000
-3.92835402 -0.03359655 -0.48235887 3 8 26951 3.95800000 2889674672 2889674672 -7.00000000
-5.18202305 -0.04341383 -0.45338416 9 10 26952 5.20200000 2889674677 2889674677 -5.00000000
-7.62728643 -0.06123710 -0.39974204 16 12 26954 7.63800000 2889674681 2889674681 -3.00000000
-10.19408035 -0.07828646 2.73157620 45 15 26956 10.55400000 2889674688 2889674688 15.00000000
-1.95885897 -0.01230804 -0.52488500 5 0 26964 2.02800000 2889674709 2889674709 -15.00000000
-2.23516560 -0.01326390 -0.51603770 4 2 26966 2.29400000 2889674714 2889674714 -13.00000000
-2.60912180 -0.01502763 -0.50717032 3 4 26967 2.65800000 2889674718 2889674718 -11.00000000
-3.15660572 -0.01707905 -0.49996457 3 6 26969 3.19600000 2889674723 2889674723 -9.00000000
-3.93638754 -0.01992402 -0.48333383 3 8 26971 3.96600000 2889674727 2889674727 -7.00000000
-5.17815828 -0.02530546 -0.45303556 9 10 26972 5.19800000 2889674732 2889674732 -5.00000000
-7.64542913 -0.03469409 -0.40068409 24 12 26974 7.65600000 2889674737 2889674737 -3.00000000
-10.20201874 -0.04273437 2.73364687 45 15 26976 10.56200000 2889674743 2889674743 15.00000000
-1.95116258 -0.00544869 -0.52281445 5 0 26984 2.02000000 2889674764 2889674764 -15.00000000
-2.24104452 -0.00547592 -0.51738745 4 2 26986 2.30000000 2889674769 2889674769 -13.00000000
-2.60719514 -0.00591555 -0.50678867 3 4 26987 2.65600000 2889674773 2889674773 -11.00000000
-3.14084315 -0.00602999 -0.49746159 3 6 26989 3.18000000 2889674778 2889674778 -9.00000000
-3.94040346 -0.00618958 -0.48382130 3 8 26991 3.97000000 2889674783 2889674783 -7.00000000
-5.18219995 -0.00723572 -0.45338416 6 10 26992 5.20200000 2889674787 2889674787 -5.00000000
-7.64550352 -0.00800636 -0.40068409 20 12 26994 7.65600000 2889674792 2889674792 -3.00000000
-10.18278885 -0.00533170 2.72847033 45 15 26997 10.54200000 2889674799 2889674799 15.00000000
-1.94151068 0.00101657 -0.52022630 4 0 27003 2.01000000 2889674820 2889674820 -15.00000000
-2.24494767 0.00195909 -0.51828724 4 2 27005 2.30400000 2889674824 2889674824 -13.00000000
-2.60916352 0.00273231 -0.50717032 3 4 27006 2.65800000 2889674829 2889674829 -11.00000000
-3.14084578 0.00438545 -0.49746159 3 6 27008 3.18000000 2889674833 2889674833 -9.00000000
-3.93841720 0.00687384 -0.48357755 3 8 27010 3.96800000 2889674838 2889674838 -7.00000000
-5.17422581 0.00993381 -0.45268694 6 10 27011 5.19400000 2889674843 2889674843 -5.00000000
-7.66346312 0.01738788 -0.40162614 20 12 27013 7.67400000 2889674847 2889674847 -3.00000000
-10.17116451 0.02662811 2.72536445 45 15 27015 10.53000000 2889674854 2889674854 15.00000000
-1.94535899 0.00780921 -0.52126157 5 0 27023 2.01400000 2889674875 2889674875 -15.00000000
-2.23323488 0.00974439 -0.51558781 4 2 27025 2.29200000 2889674879 2889674879 -13.00000000
-2.61502790 0.01186670 -0.50831515 3 4 27026 2.66400000 2889674884 2889674884 -11.00000000
-3.14476204 0.01536833 -0.49808735 3 6 27028 3.18400000 2889674889 2889674889 -9.00000000
-3.94432425 0.02065262 -0.48430878 3 8 27030 3.97400000 2889674893 2889674893 -7.00000000
-5.17814445 0.02801673 -0.45303556 6 10 27031 5.19800000 2889674898 2889674898 -5.00000000
-7.64338350 0.04402322 -0.40057942 16 12 27033 7.65400000 2889674902 2889674902 -3.00000000
-10.16328144 0.06208473 2.72329402 42 15 27035 10.52200000 2889674909 2889674909 15.00000000
-1.95497882 0.01467223 -0.52384973 5 0 27043 2.02400000 2889674930 2889674930 -15.00000000
-2.23513603 0.01755508 -0.51603770 4 2 27045 2.29400000 2889674935 2889674935 -13.00000000
-2.62282324 0.02105783 -0.50984162 3 4 27046 2.67200000 2889674939 2889674939 -11.00000000
-3.14863992 0.02637860 -0.49871308 3 6 27048 3.18800000 2889674944 2889674944 -9.00000000
-3.94621325 0.03443808 -0.48455250 5 8 27050 3.97600000 2889674948 2889674948 -7.00000000
-5.18199968 0.04612713 -0.45338416 6 10 27051 5.20200000 2889674953 2889674953 -5.00000000
-7.62720585 0.07055554 -0.39974204 16 12 27053 7.63800000 2889674958 2889674958 -3.00000000
-10.15720844 0.09750519 2.72174096 45 15 27055 10.51600000 2889674965 2889674965 15.00000000
-1.95684743 0.02151753 -0.52436739 5 0 27063 2.02600000 2889674985 2889674985 -15.00000000
-2.24870133 0.02551180 -0.51918703 4 2 27065 2.30800000 2889674990 2889674990 -13.00000000
-2.62077069 0.03019045 -0.50946003 3 4 27066 2.67000000 2889674995 2889674995 -11.00000000
-3.13667727 0.03722858 -0.49683586 3 6 27068 3.17600000 2889674999 2889674999 -9.00000000
-3.94606900 0.04821273 -0.48455250 5 8 27070 3.97600000 2889675004 2889675004 -7.00000000
-5.18977594 0.06431415 -0.45408142 6 10 27071 5.21000000 2889675008 2889675008 -5.00000000
-7.64888144 0.09745894 -0.40089342 16 12 27073 7.66000000 2889675013 2889675013 -3.00000000
-10.15678215 0.13473256 2.72174096 45 15 27076 10.51600000 2889675020 2889675020 15.00000000
-1.95289707 0.02829210 -0.52333212 5 0 27083 2.02200000 2889675041 2889675041 -15.00000000
-2.24665022 0.03333217 -0.51873714 4 2 27085 2.30600000 2889675045 2889675045 -13.00000000
-2.60298204 0.03907325 -0.50602543 3 4 27086 2.65200000 2889675050 2889675050 -11.00000000
-3.16813040 0.04866282 -0.50184178 3 6 27088 3.20800000 2889675054 2889675054 -9.00000000
-3.94984627 0.06204914 -0.48503998 7 8 27090 3.98000000 2889675059 2889675059 -7.00000000
-5.19350386 0.08249275 -0.45443004 9 10 27091 5.21400000 2889675064 2889675064 -5.00000000
-7.64050674 0.12402825 -0.40047473 12 12 27093 7.65200000 2889675068 2889675068 -3.00000000
-10.14855385 0.16828480 2.71967053 45 15 27095 10.50800000 2889675075 2889675075 15.00000000
-1.94312871 0.03493518 -0.52074391 5 0 27103 2.01200000 2889675096 2889675096 -15.00000000
-2.23872638 0.04103140 -0.51693749 4 2 27105 2.29800000 2889675100 2889675100 -13.00000000
-2.61657023 0.04841335 -0.50869679 3 4 27106 2.66600000 2889675105 2889675105 -11.00000000
-3.15609121 0.05949796 -0.49996457 3 6 27108 3.19600000 2889675110 2889675110 -9.00000000
-3.94960570 0.07583630 -0.48503998 7 8 27110 3.98000000 2889675114 2889675114 -7.00000000
-5.16529608 0.10008060 -0.45198968 9 10 27111 5.18600000 2889675119 2889675119 -5.00000000
-7.65001154 0.15089478 -0.40099809 12 12 27113 7.66200000 2889675124 2889675124 -3.00000000
-10.14404106 0.20363130 2.71863532 45 15 27115 10.50400000 2889675130 2889675130 15.00000000
-1.94299495 0.04171775 -0.52074391 4 0 27123 2.01200000 2889675151 2889675151 -15.00000000
-2.23856950 0.04884576 -0.51693749 4 2 27125 2.29800000 2889675156 2889675156 -13.00000000
-2.61638522 0.05754659 -0.50869679 3 4 27126 2.66600000 2889675160 2889675160 -11.00000000
-3.13611531 0.07007315 -0.49683586 3 6 27128 3.17600000 2889675165 2889675165 -9.00000000
-3.94931698 0.08962253 -0.48503998 7 8 27130 3.98000000 2889675170 2889675170 -7.00000000
-5.17686653 0.11838354 -0.45303556 9 10 27131 5.19800000 2889675174 2889675174 -5.00000000
-7.64145136 0.17741194 -0.40057942 12 12 27133 7.65400000 2889675179 2889675179 -3.00000000
-10.13743305 0.24067216 2.71708226 42 15 27136 10.49800000 2889675186 2889675186 15.00000000
-1.94863129 0.04864445 -0.52229685 5 0 27143 2.01800000 2889675206 2889675206 -15.00000000
-2.23643732 0.05661022 -0.51648760 4 2 27145 2.29600000 2889675211 2889675211 -13.00000000
-2.63186932 0.06707931 -0.51174974 3 4 27146 2.68200000 2889675216 2889675216 -11.00000000
-3.15164948 0.08142797 -0.49933881 3 6 27148 3.19200000 2889675220 2889675220 -9.00000000
-3.94501114 0.10330375 -0.48455250 7 8 27150 3.97600000 2889675225 2889675225 -7.00000000
-5.19235563 0.13687347 -0.45443004 9 10 27151 5.21400000 2889675230 2889675230 -5.00000000
-7.63679218 0.20397785 -0.40037006 12 12 27153 7.65000000 2889675234 2889675234 -3.00000000
-10.15004921 0.27642506 2.72070575 42 15 27156 10.51200000 2889675241 2889675241 15.00000000
-1.94844961 0.05544614 -0.52229685 4 0 27163 2.01800000 2889675262 2889675262 -15.00000000
-2.22843432 0.06419205 -0.51468801 4 2 27165 2.28800000 2889675266 2889675266 -13.00000000
-2.62376952 0.07603835 -0.51022327 3 4 27166 2.67400000 2889675271 2889675271 -11.00000000
-3.15529513 0.09254461 -0.49996457 3 6 27168 3.19600000 2889675276 2889675276 -9.00000000
-3.94065809 0.11695600 -0.48406503 7 8 27170 3.97200000 2889675280 2889675280 -7.00000000
-5.19582891 0.15511625 -0.45477867 9 10 27171 5.21800000 2889675285 2889675285 -5.00000000
-7.63603354 0.23063399 -0.40037006 12 12 27173 7.65000000 2889675289 2889675289 -3.00000000
-10.14902210 0.31185368 2.72070575 45 15 27176 10.51200000 2889675296 2889675296 15.00000000
-1.95017505 0.06230886 -0.52281445 5 0 27183 2.02000000 2889675317 2889675317 -15.00000000
-2.23209214 0.07209617 -0.51558781 4 2 27185 2.29200000 2889675322 2889675322 -13.00000000
-2.61956358 0.08506911 -0.50946003 3 4 27186 2.67000000 2889675326 2889675326 -11.00000000
-3.15495276 0.10355808 -0.49996457 3 6 27188 3.19600000 2889675331 2889675331 -9.00000000
-3.94419384 0.13084239 -0.48455250 7 8 27190 3.97600000 2889675336 2889675336 -7.00000000
-5.19127321 0.17311932 -0.45443004 9 10 27191 5.21400000 2889675340 2889675340 -5.00000000
-7.64516258 0.25762364 -0.40089342 16 12 27193 7.66000000 2889675345 2889675345 -3.00000000
-10.14594078 0.34721240 2.72018814 47 15 27196 10.51000000 2889675352 2889675352 15.00000000
-1.94416571 0.06857124 -0.52126157 5 0 27202 2.01400000 2889675372 2889675372 -15.00000000
-2.23184085 0.07949766 -0.51558781 4 2 27204 2.29200000 2889675377 2889675377 -13.00000000
-2.61141920 0.09347451 -0.50793356 3 4 27205 2.66200000 2889675382 2889675382 -11.00000000
-3.16248846 0.11430512 -0.50121605 3 6 27207 3.20400000 2889675386 2889675386 -9.00000000
-3.94373822 0.14392108 -0.48455250 7 8 27209 3.97600000 2889675391 2889675391 -7.00000000
-5.17872429 0.18989520 -0.45338416 6 10 27210 5.20200000 2889675395 2889675395 -5.00000000
-7.65224981 0.28327003 -0.40131211 12 12 27212 7.66800000 2889675400 2889675400 -3.00000000
-10.14286995 0.37901291 2.71967053 45 15 27214 10.50800000 2889675407 2889675407 15.00000000
-1.94391453 0.07535723 -0.52126157 4 0 27222 2.01400000 2889675428 2889675428 -15.00000000
-2.23154974 0.08728775 -0.51558781 4 2 27224 2.29200000 2889675432 2889675432 -13.00000000
-2.62284732 0.10305195 -0.51022327 3 4 27225 2.67400000 2889675437 2889675437 -11.00000000
-3.13838410 0.12440466 -0.49746159 3 6 27227 3.18000000 2889675441 2889675441 -9.00000000
-3.95907998 0.15832098 -0.48650241 7 8 27229 3.99200000 2889675446 2889675446 -7.00000000
-5.18997478 0.20845091 -0.45443004 6 10 27230 5.21400000 2889675451 2889675451 -5.00000000
-7.65520573 0.31014135 -0.40152144 16 12 27232 7.67200000 2889675455 2889675455 -3.00000000
-10.13755226 0.41602743 2.71863532 47 15 27235 10.50400000 2889675462 2889675462 15.00000000
-1.94751418 0.08196554 -0.52229685 4 0 27241 2.01800000 2889675483 2889675483 -15.00000000
-2.22930098 0.09460473 -0.51513791 4 2 27243 2.29000000 2889675488 2889675488 -13.00000000
-2.63033724 0.11208339 -0.51174974 3 4 27244 2.68200000 2889675492 2889675492 -11.00000000
-3.16953135 0.13616782 -0.50246751 3 6 27246 3.21200000 2889675497 2889675497 -9.00000000
-3.95060015 0.17110531 -0.48552746 7 8 27248 3.98400000 2889675501 2889675501 -7.00000000
-5.19323587 0.22583346 -0.45477867 6 10 27249 5.21800000 2889675506 2889675506 -5.00000000
-7.64615393 0.33517537 -0.40110278 20 12 27251 7.66400000 2889675511 2889675511 -3.00000000
-10.14005470 0.44804391 2.71967053 42 15 27253 10.50800000 2889675518 2889675518 15.00000000
-1.95493567 0.08911502 -0.52436739 4 0 27261 2.02600000 2889675538 2889675538 -15.00000000
-2.23479724 0.10265413 -0.51648760 4 2 27263 2.29600000 2889675543 2889675543 -13.00000000
-2.62208509 0.12090258 -0.51022327 3 4 27264 2.67400000 2889675547 2889675547 -11.00000000
-3.14930415 0.14631397 -0.49933881 3 6 27266 3.19200000 2889675552 2889675552 -9.00000000
