# .PCD v0.7 - Point Cloud Data file format
VERSION 0.7
FIELDS x y z intensity laser_id azimuth distance_m adjustedtime timestamp vertical_angle
SIZE 4 4 4 1 1 2 8 8 4 8
TYPE F F F U U U F U U F
COUNT 1 1 1 1 1 1 1 1 1 1
WIDTH 522
HEIGHT 1
VIEWPOINT 0 0 0 1 0 0 0
POINTS 522
DATA ascii
0.37323487 -1.95842266 -0.53420252 4 0 16921 2.06400000 2889046988 2889046988 -15.00000000
0.43443710 -2.28389525 -0.53673321 4 2 16923 2.38600000 2889046993 2889046993 -13.00000000
0.50874472 -2.67708564 -0.52968580 3 4 16924 2.77600000 2889046997 2889046997 -11.00000000
0.61733139 -3.25467777 -0.52468121 1 6 16926 3.35400000 2889047002 2889047002 -9.00000000
0.78981769 -4.17200899 -0.52135706 4 8 16928 4.27800000 2889047006 2889047006 -7.00000000
1.08560789 -5.73992586 -0.51108128 3 10 16929 5.86400000 2889047011 2889047011 -5.00000000
1.72607470 -9.14373970 -0.48766643 4 12 16931 9.31800000 2889047016 2889047016 -3.00000000
2.14341068 -11.36542511 2.67016912 48 13 16932 11.87000000 2889047018 2889047018 13.00000000
1.82992351 -9.71246910 2.64823651 38 15 16933 10.23200000 2889047022 2889047022 15.00000000
0.36923671 -1.97490513 -0.53834361 4 0 16941 2.08000000 2889047043 2889047043 -15.00000000
0.42431736 -2.27390385 -0.53403378 4 2 16943 2.37400000 2889047048 2889047048 -13.00000000
0.50155562 -2.69042516 -0.53197551 3 4 16944 2.78800000 2889047052 2889047052 -11.00000000
0.60668933 -3.26069689 -0.52530694 1 6 16946 3.35800000 2889047057 2889047057 -9.00000000
0.76655138 -4.12789917 -0.51550734 2 8 16948 4.23000000 2889047062 2889047062 -7.00000000
1.06338453 -5.73192644 -0.51003540 3 10 16949 5.85200000 2889047066 2889047066 -5.00000000
2.10372496 -11.37283802 2.67016912 50 13 16952 11.87000000 2889047073 2889047073 13.00000000
1.79571617 -9.72670937 2.65030694 38 15 16954 10.24000000 2889047078 2889047078 15.00000000
0.36129555 -1.97048151 -0.53679073 4 0 16961 2.07400000 2889047099 2889047099 -15.00000000
0.41672814 -2.27728796 -0.53448373 3 2 16963 2.37600000 2889047103 2889047103 -13.00000000
0.48792452 -2.66898465 -0.52739608 3 4 16964 2.76400000 2889047108 2889047108 -11.00000000
0.59743106 -3.27445459 -0.52718413 1 6 16966 3.37000000 2889047112 2889047112 -9.00000000
0.75249326 -4.13250256 -0.51575106 2 8 16968 4.23200000 2889047117 2889047117 -7.00000000
1.04622269 -5.75128508 -0.51142991 3 10 16969 5.86800000 2889047122 2889047122 -5.00000000
1.63936448 -9.02979851 -0.48096743 4 12 16971 9.19000000 2889047126 2889047126 -3.00000000
2.06366563 -11.37819481 2.66971922 53 13 16972 11.86800000 2889047128 2889047128 13.00000000
1.76345134 -9.73261070 2.65030694 40 15 16973 10.24000000 2889047133 2889047133 15.00000000
0.35441509 -1.97173059 -0.53679073 4 0 16981 2.07400000 2889047154 2889047154 -15.00000000
0.41049683 -2.28831935 -0.53673321 4 2 16983 2.38600000 2889047158 2889047158 -13.00000000
0.47929770 -2.67453647 -0.52815932 3 4 16984 2.76800000 2889047163 2889047163 -11.00000000
0.58704078 -3.28235364 -0.52812278 1 6 16986 3.37600000 2889047168 2889047168 -9.00000000
0.73980755 -4.14487505 -0.51696974 2 8 16988 4.24200000 2889047172 2889047172 -7.00000000
1.02753949 -5.76274776 -0.51212716 3 10 16989 5.87600000 2889047177 2889047177 -5.00000000
2.02393579 -11.38532829 2.66971922 47 13 16992 11.86800000 2889047184 2889047184 13.00000000
1.72879183 -9.73490334 2.64927173 38 15 16993 10.23600000 2889047188 2889047188 15.00000000
0.34584674 -1.96540594 -0.53472012 4 0 17002 2.06600000 2889047209 2889047209 -15.00000000
0.40345517 -2.29748607 -0.53853285 4 2 17004 2.39400000 2889047214 2889047214 -13.00000000
0.47084871 -2.68401003 -0.52968580 3 4 17005 2.77600000 2889047218 2889047218 -11.00000000
0.57296252 -3.27280855 -0.52624553 1 6 17007 3.36400000 2889047223 2889047223 -9.00000000
0.72973543 -4.17689085 -0.52062583 2 8 17009 4.27200000 2889047227 2889047227 -7.00000000
1.01120675 -5.79395342 -0.51456749 3 10 17010 5.90400000 2889047232 2889047232 -5.00000000
1.57950497 -9.06884480 -0.48243284 4 12 17012 9.21800000 2889047237 2889047237 -3.00000000
1.98319507 -11.39842987 2.67106891 50 13 17013 11.87400000 2889047239 2889047239 13.00000000
1.69376171 -9.74498081 2.65030694 38 15 17014 10.24000000 2889047244 2889047244 15.00000000
0.34062487 -1.97612000 -0.53730834 4 0 17022 2.07600000 2889047264 2889047264 -15.00000000
0.39345086 -2.28735709 -0.53583342 4 2 17024 2.38200000 2889047269 2889047269 -13.00000000
0.46180937 -2.68757224 -0.53006738 3 4 17025 2.77800000 2889047274 2889047274 -11.00000000
0.55585933 -3.24169016 -0.52092677 1 6 17027 3.33000000 2889047278 2889047278 -9.00000000
0.71448129 -4.17549944 -0.52013838 2 8 17029 4.26800000 2889047283 2889047283 -7.00000000
0.99097592 -5.79744816 -0.51456749 3 10 17030 5.90400000 2889047287 2889047287 -5.00000000
1.94535899 -11.41680908 2.67376828 47 13 17033 11.88600000 2889047294 2889047294 13.00000000
1.65868080 -9.75493240 2.65134239 38 15 17035 10.24400000 2889047299 2889047299 15.00000000
0.33471364 -1.98104846 -0.53834361 4 0 17041 2.08000000 2889047320 2889047320 -15.00000000
0.38521558 -2.28480601 -0.53493363 4 2 17043 2.37800000 2889047324 2889047324 -13.00000000
0.45256847 -2.68715286 -0.52968580 3 4 17044 2.77600000 2889047329 2889047329 -11.00000000
0.54805297 -3.26104832 -0.52374262 1 6 17046 3.34800000 2889047333 2889047333 -9.00000000
0.70128757 -4.18176126 -0.52062583 2 8 17048 4.27200000 2889047338 2889047338 -7.00000000
0.97174543 -5.80070210 -0.51456749 3 10 17049 5.90400000 2889047343 2889047343 -5.00000000
1.49863982 -8.96513081 -0.47636187 4 12 17051 9.10200000 2889047347 2889047347 -3.00000000
1.90716791 -11.42127514 2.67331839 53 13 17052 11.88400000 2889047350 2889047350 13.00000000
1.62929809 -9.76771641 2.65341282 40 15 17053 10.25200000 2889047354 2889047354 15.00000000
0.32748124 -1.98029876 -0.53782600 4 0 17061 2.07800000 2889047375 2889047375 -15.00000000
0.37723780 -2.28613687 -0.53493363 4 2 17063 2.37800000 2889047379 2889047379 -13.00000000
0.44126999 -2.67709351 -0.52739608 3 4 17064 2.76400000 2889047384 2889047384 -11.00000000
0.53794885 -3.27073812 -0.52499408 1 6 17066 3.35600000 2889047389 2889047389 -9.00000000
0.67897063 -4.13717079 -0.51477611 2 8 17068 4.22400000 2889047393 2889047393 -7.00000000
0.94407791 -5.75883770 -0.51055837 3 10 17069 5.85800000 2889047398 2889047398 -5.00000000
1.86666000 -11.42401695 2.67241859 47 13 17072 11.88000000 2889047405 2889047405 13.00000000
1.59705961 -9.78478432 2.65651870 42 15 17073 10.26400000 2889047409 2889047409 15.00000000
0.31964111 -1.97570872 -0.53627306 4 0 17081 2.07200000 2889047430 2889047430 -15.00000000
0.36956593 -2.28936362 -0.53538352 3 2 17083 2.38000000 2889047435 2889047435 -13.00000000
0.43129745 -2.67474127 -0.52663285 3 4 17084 2.76000000 2889047439 2889047439 -11.00000000
0.52841127 -3.28429794 -0.52687126 1 6 17086 3.36800000 2889047444 2889047444 -9.00000000
0.66641295 -4.15127563 -0.51623851 2 8 17088 4.23600000 2889047449 2889047449 -7.00000000
1.82769406 -11.43623638 2.67376828 50 13 17092 11.88600000 2889047460 2889047460 13.00000000
1.56057751 -9.78675652 2.65548348 42 15 17094 10.26000000 2889047465 2889047465 15.00000000
0.31244078 -1.97490430 -0.53575540 4 0 17101 2.07000000 2889047485 2889047485 -15.00000000
0.36187616 -2.29256463 -0.53583342 4 2 17103 2.38200000 2889047490 2889047490 -13.00000000
0.42134669 -2.67235184 -0.52586961 3 4 17104 2.75600000 2889047495 2889047495 -11.00000000
0.51295304 -3.26075435 -0.52280396 1 6 17106 3.34200000 2889047499 2889047499 -9.00000000
0.65561181 -4.17710924 -0.51916343 2 8 17108 4.26000000 2889047504 2889047504 -7.00000000
1.78896630 -11.45024776 2.67556787 48 13 17112 11.89400000 2889047515 2889047515 13.00000000
1.52313280 -9.77114773 2.64978933 35 15 17114 10.23800000 2889047520 2889047520 15.00000000
0.30554518 -1.97598290 -0.53575540 4 0 17121 2.07000000 2889047541 2889047541 -15.00000000
0.35327718 -2.28996181 -0.53493363 4 2 17123 2.37800000 2889047545 2889047545 -13.00000000
0.41410884 -2.68738866 -0.52854091 3 4 17124 2.77000000 2889047550 2889047550 -11.00000000
0.50006694 -3.25276279 -0.52123964 1 6 17126 3.33200000 2889047555 2889047555 -9.00000000
0.63560987 -4.14405394 -0.51477611 2 8 17128 4.22400000 2889047559 2889047559 -7.00000000
1.75133932 -11.47183418 2.67916703 48 13 17132 11.91000000 2889047571 2889047571 13.00000000
1.49047029 -9.78595352 2.65237761 38 15 17134 10.24800000 2889047575 2889047575 15.00000000
0.29864585 -1.97703743 -0.53575540 4 0 17141 2.07000000 2889047596 2889047596 -15.00000000
0.34237760 -2.27191114 -0.53043461 4 2 17143 2.35800000 2889047601 2889047601 -13.00000000
0.40443337 -2.68687654 -0.52815932 3 4 17144 2.76800000 2889047605 2889047605 -11.00000000
0.49046969 -3.26620936 -0.52311683 1 6 17146 3.34400000 2889047610 2889047610 -9.00000000
0.62114054 -4.14624739 -0.51477611 2 8 17148 4.22400000 2889047615 2889047615 -7.00000000
0.85827291 -5.73598957 -0.50742072 3 10 17149 5.82200000 2889047619 2889047619 -5.00000000
1.34430742 -9.00572300 -0.47719926 4 12 17151 9.11800000 2889047624 2889047624 -3.00000000
1.71128452 -11.47787762 2.67916703 48 13 17152 11.91000000 2889047626 2889047626 13.00000000
1.45999658 -9.81593800 2.65910697 40 15 17154 10.27400000 2889047631 2889047631 15.00000000
0.29196072 -1.98194110 -0.53679073 4 0 17162 2.07400000 2889047651 2889047651 -15.00000000
0.33631498 -2.28857517 -0.53403378 4 2 17164 2.37400000 2889047656 2889047656 -13.00000000
0.39543808 -2.69416809 -0.52930415 3 4 17165 2.77400000 2889047661 2889047661 -11.00000000
0.47706422 -3.25821257 -0.52155250 1 6 17167 3.33400000 2889047665 2889047665 -9.00000000
0.60593957 -4.14849615 -0.51477611 2 8 17169 4.22400000 2889047670 2889047670 -7.00000000
0.84127027 -5.76669788 -0.50986111 3 10 17170 5.85000000 2889047674 2889047674 -5.00000000
1.31129074 -9.01058960 -0.47719926 4 12 17172 9.11800000 2889047679 2889047679 -3.00000000
1.66808319 -11.47635841 2.67736745 50 13 17173 11.90200000 2889047681 2889047681 13.00000000
1.42683387 -9.82862186 2.66117740 40 15 17174 10.28200000 2889047686 2889047686 15.00000000
0.28504068 -1.98294818 -0.53679073 4 0 17182 2.07400000 2889047707 2889047707 -15.00000000
0.32777110 -2.28587723 -0.53313398 4 2 17184 2.37000000 2889047711 2889047711 -13.00000000
0.38352638 -2.67804122 -0.52586961 3 4 17185 2.75600000 2889047716 2889047716 -11.00000000
0.47071648 -3.29505730 -0.52718413 1 6 17187 3.37000000 2889047720 2889047720 -9.00000000
0.58977467 -4.13879442 -0.51331365 2 8 17189 4.21200000 2889047725 2889047725 -7.00000000
0.81495953 -5.72620440 -0.50602627 3 10 17190 5.80600000 2889047730 2889047730 -5.00000000
1.27982998 -9.01511192 -0.47719926 4 12 17192 9.11800000 2889047734 2889047734 -3.00000000
1.62910736 -11.48982906 2.67916703 48 13 17193 11.91000000 2889047737 2889047737 13.00000000
1.38998902 -9.82804680 2.65962458 42 15 17195 10.27600000 2889047741 2889047741 15.00000000
0.27746537 -1.97426867 -0.53420252 4 0 17200 2.06400000 2889047762 2889047762 -15.00000000
0.32221144 -2.29847479 -0.53583342 4 2 17202 2.38200000 2889047767 2889047767 -13.00000000
0.37511119 -2.67923284 -0.52586961 3 4 17203 2.75600000 2889047771 2889047771 -11.00000000
0.45571783 -3.26326132 -0.52186537 1 6 17205 3.33600000 2889047776 2889047776 -9.00000000
0.58224678 -4.17994881 -0.51818848 2 8 17207 4.25200000 2889047780 2889047780 -7.00000000
0.79916239 -5.74452305 -0.50742072 3 10 17208 5.82200000 2889047785 2889047785 -5.00000000
1.59407306 -11.50261116 2.68096662 48 13 17211 11.91800000 2889047792 2889047792 13.00000000
1.36029279 -9.82830048 2.65858912 38 15 17212 10.27200000 2889047797 2889047797 15.00000000
0.27083436 -1.97713912 -0.53472012 4 0 17220 2.06600000 2889047817 2889047817 -15.00000000
0.31313109 -2.29186225 -0.53403378 4 2 17222 2.37400000 2889047822 2889047822 -13.00000000
0.36655289 -2.68636155 -0.52701443 3 4 17223 2.76200000 2889047826 2889047826 -11.00000000
0.44166034 -3.24525881 -0.51873666 3 6 17225 3.31600000 2889047831 2889047831 -9.00000000
0.56765246 -4.18195581 -0.51818848 2 8 17227 4.25200000 2889047836 2889047836 -7.00000000
0.77482313 -5.71568871 -0.50463176 3 10 17228 5.79000000 2889047840 2889047840 -5.00000000
1.55599785 -11.52355576 2.68456578 48 13 17231 11.93400000 2889047847 2889047847 13.00000000
1.32477677 -9.83704948 2.65962458 42 15 17233 10.27600000 2889047852 2889047852 15.00000000
0.26375037 -1.98199439 -0.53575540 4 0 17242 2.07000000 2889047873 2889047873 -15.00000000
0.30330315 -2.28532052 -0.53223419 4 2 17244 2.36600000 2889047877 2889047877 -13.00000000
0.35726714 -2.69553423 -0.52854091 3 4 17245 2.77000000 2889047882 2889047882 -11.00000000
0.43333802 -3.27826405 -0.52374262 1 6 17247 3.34800000 2889047886 2889047886 -9.00000000
0.54484510 -4.13293505 -0.51185125 2 8 17249 4.20000000 2889047891 2889047891 -7.00000000
0.76015246 -5.77393103 -0.50951248 3 10 17250 5.84600000 2889047896 2889047896 -5.00000000
1.51021910 -11.51785183 2.68186641 47 13 17253 11.92200000 2889047903 2889047903 13.00000000
1.28946579 -9.84758568 2.66117740 42 15 17254 10.28200000 2889047907 2889047907 15.00000000
0.25732663 -1.98673475 -0.53679073 4 0 17262 2.07400000 2889047928 2889047928 -15.00000000
0.29582334 -2.29023075 -0.53313398 4 2 17264 2.37000000 2889047932 2889047932 -13.00000000
0.34634885 -2.68508220 -0.52625120 3 4 17265 2.75800000 2889047937 2889047937 -11.00000000
0.41987589 -3.26408291 -0.52123964 1 6 17267 3.33200000 2889047942 2889047942 -9.00000000
0.53092027 -4.13874960 -0.51233870 2 8 17269 4.20400000 2889047946 2889047946 -7.00000000
0.74100572 -5.78445435 -0.51020974 3 10 17270 5.85400000 2889047951 2889047951 -5.00000000
1.14877284 -8.99247932 -0.47510582 4 12 17272 9.07800000 2889047955 2889047955 -3.00000000
1.47049832 -11.52691936 2.68276620 50 13 17273 11.92600000 2889047958 2889047958 13.00000000
1.25482666 -9.86374378 2.66428328 42 15 17275 10.29400000 2889047962 2889047962 15.00000000
0.24976979 -1.97991049 -0.53472012 4 0 17281 2.06600000 2889047983 2889047983 -15.00000000
0.28871349 -2.29506612 -0.53403378 4 2 17283 2.37400000 2889047988 2889047988 -13.00000000
0.33695349 -2.68232012 -0.52548796 3 4 17284 2.75400000 2889047992 2889047992 -11.00000000
0.41076821 -3.27917767 -0.52342969 1 6 17286 3.34600000 2889047997 2889047997 -9.00000000
0.51670069 -4.13654804 -0.51185125 2 8 17288 4.20000000 2889048002 2889048002 -7.00000000
0.71343505 -5.71965933 -0.50428313 3 10 17289 5.78600000 2889048006 2889048006 -5.00000000
1.10908556 -8.91695976 -0.47091892 4 12 17291 8.99800000 2889048011 2889048011 -3.00000000
1.43370676 -11.54333591 2.68546557 50 13 17292 11.93800000 2889048013 2889048013 13.00000000
1.22335708 -9.86380291 2.66324806 40 15 17293 10.29000000 2889048018 2889048018 15.00000000
0.24191670 -1.97310030 -0.53264958 4 0 17301 2.05800000 2889048038 2889048038 -15.00000000
0.28117341 -2.29992867 -0.53493363 4 2 17303 2.37800000 2889048043 2889048043 -13.00000000
0.32854000 -2.69127512 -0.52701443 3 4 17304 2.76200000 2889048048 2889048048 -11.00000000
0.39908054 -3.27863073 -0.52311683 1 6 17306 3.34400000 2889048052 2889048052 -9.00000000
0.50177991 -4.13438511 -0.51136374 2 8 17308 4.19600000 2889048057 2889048057 -7.00000000
0.69106829 -5.70233583 -0.50253999 3 10 17309 5.76600000 2889048061 2889048061 -5.00000000
1.39433801 -11.55600929 2.68726540 48 13 17312 11.94600000 2889048068 2889048068 13.00000000
1.18627334 -9.86054802 2.66117740 42 15 17314 10.28200000 2889048073 2889048073 15.00000000
0.23559557 -1.98164701 -0.53472012 4 0 17322 2.06600000 2889048094 2889048094 -15.00000000
0.27228308 -2.29707336 -0.53403378 4 2 17324 2.37400000 2889048098 2889048098 -13.00000000
0.31913528 -2.69636035 -0.52777767 3 4 17325 2.76600000 2889048103 2889048103 -11.00000000
0.38544062 -3.26633906 -0.52092677 3 6 17327 3.33000000 2889048108 2889048108 -9.00000000
0.48894274 -4.15591145 -0.51380116 2 8 17329 4.21600000 2889048112 2889048112 -7.00000000
0.66876882 -5.69295788 -0.50149417 3 10 17330 5.75400000 2889048117 2889048117 -5.00000000
1.35287917 -11.56878376 2.68906498 48 13 17333 11.95400000 2889048124 2889048124 13.00000000
1.15274251 -9.87230396 2.66324806 42 15 17334 10.29000000 2889048128 2889048128 15.00000000
0.22934102 -1.98821473 -0.53627306 4 0 17342 2.07200000 2889048149 2889048149 -15.00000000
0.26292735 -2.28639388 -0.53133440 4 2 17344 2.36200000 2889048154 2889048154 -13.00000000
0.30837759 -2.68575525 -0.52548796 3 4 17345 2.75400000 2889048158 2889048158 -11.00000000
0.37493521 -3.27551484 -0.52217823 3 6 17347 3.33800000 2889048163 2889048163 -9.00000000
0.47038180 -4.12209129 -0.50941384 2 8 17349 4.18000000 2889048167 2889048167 -7.00000000
0.65159917 -5.71901226 -0.50358588 3 10 17350 5.77800000 2889048172 2889048172 -5.00000000
1.31204915 -11.56956291 2.68816519 48 13 17353 11.95000000 2889048179 2889048179 13.00000000
1.11785305 -9.88798046 2.66635370 42 15 17355 10.30200000 2889048184 2889048184 15.00000000
0.22175545 -1.98324358 -0.53472012 4 0 17362 2.06600000 2889048204 2889048204 -15.00000000
0.25494474 -2.28729773 -0.53133440 4 2 17364 2.36200000 2889048209 2889048209 -13.00000000
0.29856640 -2.68291306 -0.52472472 3 4 17365 2.75000000 2889048214 2889048214 -11.00000000
0.36241025 -3.26698709 -0.52061391 3 6 17367 3.32800000 2889048218 2889048218 -9.00000000
0.45424473 -4.10792398 -0.50746393 2 8 17369 4.16400000 2889048223 2889048223 -7.00000000
0.63206941 -5.72521305 -0.50393450 3 10 17370 5.78200000 2889048227 2889048227 -5.00000000
1.27208149 -11.57794666 2.68906498 48 13 17373 11.95400000 2889048234 2889048234 13.00000000
1.08547854 -9.89547443 2.66738915 42 15 17374 10.30600000 2889048239 2889048239 15.00000000
0.21420737 -1.97824359 -0.53316724 4 0 17382 2.06000000 2889048260 2889048260 -15.00000000
0.24821369 -2.29979873 -0.53403378 4 2 17384 2.37400000 2889048264 2889048264 -13.00000000
0.28835815 -2.67613101 -0.52319825 3 4 17385 2.74200000 2889048269 2889048269 -11.00000000
0.35121509 -3.27019620 -0.52092677 3 6 17387 3.33000000 2889048273 2889048273 -9.00000000
0.44370583 -4.14501286 -0.51185125 2 8 17389 4.20000000 2889048278 2889048278 -7.00000000
0.60975188 -5.70559216 -0.50201708 3 10 17390 5.76000000 2889048283 2889048283 -5.00000000
1.23248339 -11.59006786 2.69086456 48 13 17393 11.96200000 2889048290 2889048290 13.00000000
1.05052233 -9.89536095 2.66635370 42 15 17394 10.30200000 2889048294 2889048294 15.00000000
0.20683971 -1.97125793 -0.53109670 4 0 17401 2.05200000 2889048315 2889048315 -15.00000000
0.24099129 -2.30448556 -0.53493363 4 2 17403 2.37800000 2889048320 2889048320 -13.00000000
0.27988991 -2.68097782 -0.52396148 3 4 17404 2.74600000 2889048324 2889048324 -11.00000000
0.34036878 -3.27134299 -0.52092677 3 6 17406 3.33000000 2889048329 2889048329 -9.00000000
0.42791060 -4.12671661 -0.50941384 2 8 17408 4.18000000 2889048333 2889048333 -7.00000000
0.59123844 -5.71154642 -0.50236571 3 10 17409 5.76400000 2889048338 2889048338 -5.00000000
1.19563973 -11.60959911 2.69446373 47 13 17412 11.97800000 2889048345 2889048345 13.00000000
1.01730728 -9.89494610 2.66531849 42 15 17413 10.29800000 2889048349 2889048349 15.00000000
0.20034726 -1.97581184 -0.53213197 4 0 17421 2.05600000 2889048370 2889048370 -15.00000000
0.23177017 -2.29367948 -0.53223419 4 2 17423 2.36600000 2889048375 2889048375 -13.00000000
0.27131799 -2.68975186 -0.52548796 3 4 17424 2.75400000 2889048379 2889048379 -11.00000000
0.32855245 -3.26858020 -0.52030104 3 6 17426 3.32600000 2889048384 2889048384 -9.00000000
0.41587725 -4.15188789 -0.51233870 2 8 17428 4.20400000 2889048389 2889048389 -7.00000000
0.57328010 -5.73340034 -0.50410879 3 10 17429 5.78400000 2889048393 2889048393 -5.00000000
1.15587890 -11.62145901 2.69626331 47 13 17432 11.98600000 2889048400 2889048400 13.00000000
0.98179573 -9.90629864 2.66738915 40 15 17434 10.30600000 2889048405 2889048405 15.00000000
0.19473670 -1.98607850 -0.53472012 4 0 17440 2.06600000 2889048426 2889048426 -15.00000000
0.22378381 -2.29055643 -0.53133440 4 2 17442 2.36200000 2889048430 2889048430 -13.00000000
0.26277807 -2.69454479 -0.52625120 3 4 17443 2.75800000 2889048435 2889048435 -11.00000000
0.31656536 -3.25785494 -0.51842380 3 6 17445 3.31400000 2889048439 2889048439 -9.00000000
0.40134162 -4.14534044 -0.51136374 2 8 17447 4.19600000 2889048444 2889048444 -7.00000000
0.54659814 -5.65594387 -0.49713635 3 10 17448 5.70400000 2889048449 2889048449 -5.00000000
1.11658859 -11.61746883 2.69446373 48 13 17451 11.97800000 2889048455 2889048455 13.00000000
0.95177633 -9.92087173 2.67049479 42 15 17452 10.31800000 2889048460 2889048460 15.00000000
0.18798462 -1.98866951 -0.53523779 4 0 17460 2.06800000 2889048481 2889048481 -15.00000000
0.21542147 -2.28744316 -0.53043461 4 2 17462 2.35800000 2889048485 2889048485 -13.00000000
0.25153339 -2.67589927 -0.52243501 3 4 17463 2.73800000 2889048490 2889048490 -11.00000000
0.30574396 -3.26484036 -0.51936245 3 6 17465 3.32000000 2889048495 2889048495 -9.00000000
0.38723803 -4.15066910 -0.51185125 2 8 17467 4.20000000 2889048499 2889048499 -7.00000000
0.53608841 -5.75700760 -0.50585192 3 10 17468 5.80400000 2889048504 2889048504 -5.00000000
0.82263196 -8.86770344 -0.46673205 4 12 17470 8.91800000 2889048508 2889048508 -3.00000000
1.07602930 -11.62129593 2.69446373 46 13 17471 11.97800000 2889048511 2889048511 13.00000000
0.91714019 -9.92413425 2.67049479 40 15 17472 10.31800000 2889048515 2889048515 15.00000000
0.18104172 -1.98931360 -0.53523779 4 0 17480 2.06800000 2889048536 2889048536 -15.00000000
0.20778738 -2.29206276 -0.53133440 4 2 17482 2.36200000 2889048541 2889048541 -13.00000000
0.24219124 -2.67676091 -0.52243501 3 4 17483 2.73800000 2889048545 2889048545 -11.00000000
0.29452300 -3.26785517 -0.51967531 1 6 17485 3.32200000 2889048550 2889048550 -9.00000000
0.37026215 -4.12431574 -0.50843889 2 8 17487 4.17200000 2889048554 2889048554 -7.00000000
0.50958848 -5.68740416 -0.49957672 3 10 17488 5.73200000 2889048559 2889048559 -5.00000000
1.03580260 -11.62886333 2.69536352 46 13 17491 11.98200000 2889048566 2889048566 13.00000000
0.88300610 -9.93304729 2.67204785 45 15 17492 10.32400000 2889048571 2889048571 15.00000000
0.17308637 -1.97838640 -0.53213197 4 0 17500 2.05600000 2889048591 2889048591 -15.00000000
0.20181532 -2.31607080 -0.53673321 4 2 17502 2.38600000 2889048596 2889048596 -13.00000000
0.23386663 -2.68932533 -0.52472472 3 4 17503 2.75000000 2889048601 2889048601 -11.00000000
0.28226200 -3.25902343 -0.51811093 1 6 17505 3.31200000 2889048605 2889048605 -9.00000000
0.35756931 -4.14536047 -0.51087630 2 8 17507 4.19200000 2889048610 2889048610 -7.00000000
0.48836559 -5.67326784 -0.49818224 3 10 17508 5.71600000 2889048614 2889048614 -5.00000000
0.84577370 -9.92659283 2.66945958 40 15 17513 10.31400000 2889048626 2889048626 15.00000000
0.16631801 -1.98478281 -0.53368485 4 0 17521 2.06200000 2889048647 2889048647 -15.00000000
0.19105645 -2.28960705 -0.53043461 4 2 17523 2.35800000 2889048651 2889048651 -13.00000000
0.22400819 -2.69016433 -0.52472472 3 4 17524 2.75000000 2889048656 2889048656 -11.00000000
0.27162108 -3.27578497 -0.52061391 3 6 17526 3.32800000 2889048660 2889048660 -9.00000000
0.34302679 -4.15455675 -0.51185125 2 8 17528 4.20000000 2889048665 2889048665 -7.00000000
0.46822315 -5.68296242 -0.49887946 3 10 17529 5.72400000 2889048670 2889048670 -5.00000000
0.81111825 -9.92948437 2.66945958 42 15 17533 10.31400000 2889048681 2889048681 15.00000000
0.15985261 -1.99112821 -0.53523779 4 0 17541 2.06800000 2889048702 2889048702 -15.00000000
0.18306306 -2.29026008 -0.53043461 4 2 17543 2.35800000 2889048706 2889048706 -13.00000000
0.21430424 -2.68701577 -0.52396148 3 4 17544 2.74600000 2889048711 2889048711 -11.00000000
0.25955933 -3.26883650 -0.51936245 3 6 17546 3.32000000 2889048716 2889048716 -9.00000000
0.32695821 -4.13593960 -0.50941384 2 8 17548 4.18000000 2889048720 2889048720 -7.00000000
0.44838306 -5.68456221 -0.49887946 3 10 17549 5.72400000 2889048725 2889048725 -5.00000000
0.77735633 -9.94381142 2.67256546 42 15 17553 10.32600000 2889048736 2889048736 15.00000000
0.15334493 -1.99745262 -0.53679073 4 0 17561 2.07400000 2889048757 2889048757 -15.00000000
0.17566140 -2.29865742 -0.53223419 4 2 17563 2.36600000 2889048762 2889048762 -13.00000000
0.20552050 -2.69557786 -0.52548796 3 4 17564 2.75400000 2889048766 2889048766 -11.00000000
0.24859585 -3.27563167 -0.52030104 3 6 17566 3.32600000 2889048771 2889048771 -9.00000000
0.31341627 -4.14893246 -0.51087630 2 8 17568 4.19200000 2889048776 2889048776 -7.00000000
0.42704016 -5.66622543 -0.49713635 3 10 17569 5.70400000 2889048780 2889048780 -5.00000000
0.87246889 -11.65789032 2.69896269 46 13 17572 11.99800000 2889048787 2889048787 13.00000000
0.74090523 -9.94659424 2.67256546 42 15 17574 10.32600000 2889048792 2889048792 15.00000000
0.14481895 -1.97678220 -0.53109670 4 0 17581 2.05200000 2889048812 2889048812 -15.00000000
0.16791992 -2.30314374 -0.53313398 4 2 17583 2.37000000 2889048817 2889048817 -13.00000000
0.19440091 -2.67278171 -0.52090853 3 4 17584 2.73000000 2889048822 2889048822 -11.00000000
0.23815852 -3.29027104 -0.52249110 1 6 17586 3.34000000 2889048826 2889048826 -9.00000000
0.29607949 -4.11040163 -0.50600153 2 8 17588 4.15200000 2889048831 2889048831 -7.00000000
0.40954351 -5.69947767 -0.49992535 3 10 17589 5.73600000 2889048836 2889048836 -5.00000000
0.70577031 -9.94333839 2.67101264 42 15 17594 10.32000000 2889048847 2889048847 15.00000000
0.13826290 -1.97725153 -0.53109670 4 0 17600 2.05200000 2889048868 2889048868 -15.00000000
0.16055201 -2.30757594 -0.53403378 4 2 17602 2.37400000 2889048872 2889048872 -13.00000000
0.18553658 -2.67341185 -0.52090853 3 4 17603 2.73000000 2889048877 2889048877 -11.00000000
0.22615768 -3.27527714 -0.51998818 3 6 17605 3.32400000 2889048882 2889048882 -9.00000000
0.28326359 -4.12324381 -0.50746393 2 8 17607 4.16400000 2889048886 2889048886 -7.00000000
0.38846180 -5.66900063 -0.49713635 3 10 17608 5.70400000 2889048891 2889048891 -5.00000000
0.67292351 -9.94755173 2.67153025 40 15 17613 10.32200000 2889048902 2889048902 15.00000000
0.13148819 -1.97964978 -0.53161430 4 0 17620 2.05400000 2889048923 2889048923 -15.00000000
0.15198220 -2.30034447 -0.53223419 4 2 17622 2.36600000 2889048928 2889048928 -13.00000000
0.17697802 -2.68579721 -0.52319825 3 4 17623 2.74200000 2889048932 2889048932 -11.00000000
0.21459424 -3.27407551 -0.51967531 1 6 17625 3.32200000 2889048937 2889048937 -9.00000000
0.26912734 -4.12816906 -0.50795144 2 8 17627 4.16800000 2889048942 2889048942 -7.00000000
0.36686116 -5.64248753 -0.49469599 3 10 17628 5.67600000 2889048946 2889048946 -5.00000000
0.63819593 -9.94983959 2.67153025 42 15 17633 10.32200000 2889048958 2889048958 15.00000000
0.12530494 -1.99166489 -0.53472012 4 0 17640 2.06600000 2889048978 2889048978 -15.00000000
0.14370821 -2.29697108 -0.53133440 4 2 17642 2.36200000 2889048983 2889048983 -13.00000000
0.16833524 -2.69815516 -0.52548796 3 4 17643 2.75400000 2889048988 2889048988 -11.00000000
0.20291966 -3.27086163 -0.51904953 3 6 17645 3.31800000 2889048992 2889048992 -9.00000000
0.25398234 -4.11719561 -0.50648898 2 8 17647 4.15600000 2889048997 2889048997 -7.00000000
0.34887555 -5.67157459 -0.49713635 3 10 17648 5.70400000 2889049001 2889049001 -5.00000000
0.60543209 -9.95575809 2.67256546 42 15 17652 10.32600000 2889049013 2889049013 15.00000000
0.11835197 -1.99209011 -0.53472012 4 0 17660 2.06600000 2889049034 2889049034 -15.00000000
0.13568941 -2.29745865 -0.53133440 4 2 17662 2.36200000 2889049038 2889049038 -13.00000000
0.15730019 -2.67128825 -0.52014530 3 4 17663 2.72600000 2889049043 2889049043 -11.00000000
0.19069296 -3.25774598 -0.51685947 1 6 17665 3.30400000 2889049047 2889049047 -9.00000000
0.23914787 -4.11012983 -0.50551403 2 8 17667 4.14800000 2889049052 2889049052 -7.00000000
0.32907593 -5.67275763 -0.49713635 3 10 17668 5.70400000 2889049057 2889049057 -5.00000000
0.56993014 -9.97526836 2.67722416 42 15 17673 10.34400000 2889049068 2889049068 15.00000000
0.11072729 -1.98672402 -0.53316724 4 0 17681 2.06000000 2889049089 2889049089 -15.00000000
0.12726790 -2.29794049 -0.53133440 4 2 17683 2.36200000 2889049094 2889049094 -13.00000000
0.14772482 -2.67576742 -0.52090853 3 4 17684 2.73000000 2889049098 2889049098 -11.00000000
0.17940067 -3.27025747 -0.51873666 1 6 17686 3.31600000 2889049103 2889049103 -9.00000000
0.22537841 -4.13476467 -0.50843889 2 8 17688 4.17200000 2889049107 2889049107 -7.00000000
0.53458917 -9.96755219 2.67463613 40 15 17693 10.33400000 2889049124 2889049124 15.00000000
0.10318704 -1.97552311 -0.53006142 4 0 17701 2.04800000 2889049144 2889049144 -15.00000000
0.11944775 -2.30226302 -0.53223419 4 2 17703 2.36600000 2889049149 2889049149 -13.00000000
0.13899203 -2.68803072 -0.52319825 3 4 17704 2.74200000 2889049153 2889049153 -11.00000000
0.16737634 -3.25902700 -0.51685947 3 6 17706 3.30400000 2889049158 2889049158 -9.00000000
0.20912379 -4.09984064 -0.50405163 2 8 17708 4.13600000 2889049163 2889049163 -7.00000000
0.49795628 -9.96751499 2.67411828 42 15 17714 10.33200000 2889049179 2889049179 15.00000000
0.09638458 -1.97780073 -0.53057903 4 0 17721 2.05000000 2889049200 2889049200 -15.00000000
0.11103392 -2.29488015 -0.53043461 4 2 17723 2.35800000 2889049204 2889049204 -13.00000000
0.12998635 -2.69634342 -0.52472472 3 4 17724 2.75000000 2889049209 2889049209 -11.00000000
0.15599920 -3.25959158 -0.51685947 1 6 17726 3.30400000 2889049213 2889049213 -9.00000000
0.19528241 -4.11046028 -0.50527030 2 8 17728 4.14600000 2889049218 2889049218 -7.00000000
0.26866338 -5.67593956 -0.49713635 3 10 17729 5.70400000 2889049223 2889049223 -5.00000000
0.46499005 -9.97104073 2.67463613 42 15 17733 10.33400000 2889049234 2889049234 15.00000000
0.09000397 -1.98970449 -0.53368485 4 0 17741 2.06200000 2889049255 2889049255 -15.00000000
0.10232357 -2.27967954 -0.52683538 4 2 17743 2.34200000 2889049259 2889049259 -13.00000000
0.12022281 -2.68893552 -0.52319825 3 4 17744 2.74200000 2889049264 2889049264 -11.00000000
0.14462015 -3.26011610 -0.51685947 1 6 17746 3.30400000 2889049269 2889049269 -9.00000000
0.18145673 -4.12301588 -0.50673270 2 8 17748 4.15800000 2889049273 2889049273 -7.00000000
0.24884900 -5.67684269 -0.49713635 3 10 17749 5.70400000 2889049278 2889049278 -5.00000000
0.42860708 -9.97653866 2.67567134 42 15 17754 10.33800000 2889049289 2889049289 15.00000000
0.08332448 -1.98806179 -0.53316724 4 0 17760 2.06000000 2889049310 2889049310 -15.00000000
0.09524886 -2.29168868 -0.52953476 4 2 17762 2.35400000 2889049315 2889049315 -13.00000000
0.11130531 -2.68931937 -0.52319825 3 4 17763 2.74200000 2889049319 2889049319 -11.00000000
0.13348442 -3.25268292 -0.51560801 1 6 17765 3.29600000 2889049324 2889049324 -9.00000000
0.16689557 -4.10177708 -0.50405163 2 8 17767 4.13600000 2889049329 2889049329 -7.00000000
0.22760296 -5.61791420 -0.49190700 3 10 17768 5.64400000 2889049333 2889049333 -5.00000000
0.39810821 -9.99906921 2.68136525 42 15 17772 10.36000000 2889049345 2889049345 15.00000000
0.07608770 -1.98061883 -0.53109670 4 0 17780 2.05200000 2889049365 2889049365 -15.00000000
0.08695228 -2.28421783 -0.52773517 4 2 17782 2.34600000 2889049370 2889049370 -13.00000000
0.10087643 -2.66222572 -0.51785558 3 4 17783 2.71400000 2889049375 2889049375 -11.00000000
0.12264838 -3.26694703 -0.51779807 3 6 17785 3.31000000 2889049379 2889049379 -9.00000000
0.15250291 -4.10035086 -0.50380784 2 8 17787 4.13400000 2889049384 2889049384 -7.00000000
0.20740177 -5.60274649 -0.49051252 3 10 17788 5.62800000 2889049388 2889049388 -5.00000000
0.36117798 -9.99273872 2.67929482 45 15 17793 10.35200000 2889049400 2889049400 15.00000000
0.06903875 -1.97701097 -0.53006142 4 0 17800 2.04800000 2889049421 2889049421 -15.00000000
0.07924767 -2.29229760 -0.52953476 4 2 17802 2.35400000 2889049425 2889049425 -13.00000000
0.09212282 -2.67825842 -0.52090853 3 4 17803 2.73000000 2889049430 2889049430 -11.00000000
0.11131108 -3.26932931 -0.51811093 1 6 17805 3.31200000 2889049435 2889049435 -9.00000000
0.13838965 -4.10681009 -0.50453907 2 8 17807 4.14000000 2889049439 2889049439 -7.00000000
0.18824378 -5.61538363 -0.49155840 3 10 17808 5.64000000 2889049444 2889049444 -5.00000000
0.32765862 -9.98229694 2.67618895 42 15 17812 10.34000000 2889049455 2889049455 15.00000000
0.06219795 -1.97917092 -0.53057903 4 0 17820 2.05000000 2889049476 2889049476 -15.00000000
0.07051919 -2.26918674 -0.52413595 4 2 17822 2.33000000 2889049481 2889049481 -13.00000000
0.08307660 -2.68837523 -0.52281666 3 4 17823 2.74000000 2889049485 2889049485 -11.00000000
0.09959669 -3.25982571 -0.51654661 3 6 17825 3.30200000 2889049490 2889049490 -9.00000000
0.12375371 -4.09734726 -0.50332040 2 8 17827 4.13000000 2889049494 2889049494 -7.00000000
0.16828248 -5.60405779 -0.49051252 3 10 17828 5.62800000 2889049499 2889049499 -5.00000000
0.29163247 -10.00274086 2.68136525 42 15 17833 10.36000000 2889049511 2889049511 15.00000000
0.05574300 -1.98322845 -0.53161430 4 0 17839 2.05400000 2889049531 2889049531 -15.00000000
0.05580233 -2.01032543 -0.46429896 3 2 17841 2.06400000 2889049536 2889049536 -13.00000000
0.04958513 -1.79765725 -0.34956208 2 4 17842 1.83200000 2889049541 2889049541 -11.00000000
0.08835595 -3.24434090 -0.51404363 3 6 17844 3.28600000 2889049545 2889049545 -9.00000000
0.11064588 -4.11559439 -0.50551403 2 8 17846 4.14800000 2889049550 2889049550 -7.00000000
0.15044259 -5.63246822 -0.49295288 3 10 17847 5.65600000 2889049554 2889049554 -5.00000000
0.26040748 -10.01133251 2.68343592 42 15 17851 10.36800000 2889049566 2889049566 15.00000000
0.04920019 -1.99886107 -0.53575540 4 0 17859 2.07000000 2889049587 2889049587 -15.00000000
0.04349019 -1.79231334 -0.41390994 12 2 17861 1.84000000 2889049591 2889049591 -13.00000000
0.04222236 -1.75267768 -0.34078488 10 4 17862 1.78600000 2889049596 2889049596 -11.00000000
0.07693678 -3.24067998 -0.51341790 1 6 17864 3.28200000 2889049600 2889049600 -9.00000000
0.09674332 -4.13580084 -0.50795144 2 8 17866 4.16800000 2889049605 2889049605 -7.00000000
0.13096566 -5.64092684 -0.49365014 3 10 17867 5.66400000 2889049610 2889049610 -5.00000000
0.22554681 -10.01604366 2.68447113 42 15 17871 10.37200000 2889049621 2889049621 15.00000000
0.04150955 -1.98164511 -0.53109670 4 0 17880 2.05200000 2889049642 2889049642 -15.00000000
0.03599773 -1.74764919 -0.40356219 43 2 17882 1.79400000 2889049647 2889049647 -13.00000000
0.03599863 -1.76263487 -0.34269294 28 4 17883 1.79600000 2889049651 2889049651 -11.00000000
0.08111443 -4.11231136 -0.50502658 2 8 17887 4.14400000 2889049660 2889049660 -7.00000000
0.11106864 -5.68120909 -0.49713635 3 10 17888 5.70400000 2889049665 2889049665 -5.00000000
0.18930802 -10.04191208 2.69120049 45 15 17892 10.39800000 2889049676 2889049676 15.00000000
0.03449092 -1.97598326 -0.52954376 5 0 17900 2.04600000 2889049697 2889049697 -15.00000000
0.02966376 -1.73412502 -0.40041289 94 2 17902 1.78000000 2889049702 2889049702 -13.00000000
0.02948007 -1.74115705 -0.33849517 45 4 17903 1.77400000 2889049706 2889049706 -11.00000000
0.02973835 -1.79339552 -0.28408498 3 6 17905 1.81600000 2889049711 2889049711 -9.00000000
0.06637266 -4.08875132 -0.50210172 2 8 17907 4.12000000 2889049716 2889049716 -7.00000000
0.09059704 -5.64171934 -0.49365014 3 10 17908 5.66400000 2889049720 2889049720 -5.00000000
0.15220797 -10.02322292 2.68602395 47 15 17913 10.37800000 2889049732 2889049732 15.00000000
0.02753929 -1.97222829 -0.52850848 4 0 17920 2.04200000 2889049753 2889049753 -15.00000000
0.02345118 -1.72252667 -0.39771345 71 2 17922 1.76800000 2889049757 2889049757 -13.00000000
0.02313829 -1.72161865 -0.33467898 45 4 17923 1.75400000 2889049762 2889049762 -11.00000000
0.02340048 -1.78756273 -0.28314638 20 6 17925 1.81000000 2889049766 2889049766 -9.00000000
0.05240333 -4.11277723 -0.50502658 2 8 17927 4.14400000 2889049771 2889049771 -7.00000000
0.07140394 -5.68184614 -0.49713635 3 10 17928 5.70400000 2889049776 2889049776 -5.00000000
0.11922112 -10.04492092 2.69171810 47 15 17932 10.40000000 2889049787 2889049787 15.00000000
0.02077614 -1.98390281 -0.53161430 4 0 17940 2.05400000 2889049808 2889049808 -15.00000000
0.01663784 -1.61566818 0.02820309 1 1 17941 1.61600000 2889049810 2889049810 1.00000000
0.01728049 -1.70700884 -0.39411426 53 2 17942 1.75200000 2889049812 2889049812 -13.00000000
0.01699186 -1.70794678 -0.33200765 60 4 17943 1.74000000 2889049817 2889049817 -11.00000000
0.01687615 -1.75800419 -0.27845335 34 6 17945 1.78000000 2889049822 2889049822 -9.00000000
0.03786312 -4.09308529 -0.50258917 2 8 17947 4.12400000 2889049826 2889049826 -7.00000000
0.08423800 -10.05493546 2.69430637 45 15 17952 10.41000000 2889049842 2889049842 15.00000000
0.01381044 -1.97816789 -0.53006142 4 0 17960 2.04800000 2889049863 2889049863 -15.00000000
0.01129596 -1.70316136 -0.39321443 19 2 17962 1.74800000 2889049868 2889049868 -13.00000000
0.01079567 -1.62773037 0.08530761 1 3 17962 1.63000000 2889049870 2889049870 3.00000000
0.01096652 -1.69817960 -0.33009955 68 4 17963 1.73000000 2889049872 2889049872 -11.00000000
0.01030506 -1.68694019 -0.26719007 25 6 17965 1.70800000 2889049877 2889049877 -9.00000000
0.02378115 -4.12892342 -0.50697649 2 8 17967 4.16000000 2889049881 2889049881 -7.00000000
0.00791558 -1.61973393 -0.02827290 2 14 17972 1.62000000 2889049895 2889049895 -1.00000000
0.04915809 -10.05903149 2.69534159 45 15 17972 10.41400000 2889049898 2889049898 15.00000000
0.00690526 -1.97820401 -0.53006142 4 0 17980 2.04800000 2889049918 2889049918 -15.00000000
0.00475856 -1.60379195 0.08405155 1 3 17983 1.60600000 2889049925 2889049925 3.00000000
0.00499210 -1.68250155 -0.32704663 71 4 17983 1.71400000 2889049928 2889049928 -11.00000000
0.00407516 -1.55659151 -0.24654071 47 6 17985 1.57600000 2889049932 2889049932 -9.00000000
0.00223089 -1.59775507 -0.02788895 19 14 17992 1.59800000 2889049951 2889049951 -1.00000000
0.01229429 -10.06300735 2.69637680 47 15 17993 10.41800000 2889049953 2889049953 15.00000000
0.00034189 -1.95889759 -0.52488500 4 0 17999 2.02800000 2889049974 2889049974 -15.00000000
-0.00029352 -1.68176270 -0.38826552 1 2 18001 1.72600000 2889049978 2889049978 -13.00000000
-0.00027713 -1.58782089 0.08321417 1 3 18001 1.59000000 2889049981 2889049981 3.00000000
-0.00058388 -1.67269266 -0.32513854 78 4 18002 1.70400000 2889049983 2889049983 -11.00000000
-0.00107292 -1.53684270 -0.24341203 56 6 18004 1.55600000 2889049987 2889049987 -9.00000000
-0.00187506 -1.79055226 -0.21985230 1 8 18006 1.80400000 2889049992 2889049992 -7.00000000
-0.00259454 -1.65173125 -0.08656367 1 12 18009 1.65400000 2889050001 2889050001 -3.00000000
-0.00306363 -1.59575403 -0.02785404 77 14 18011 1.59600000 2889050006 2889050006 -1.00000000
-0.01930475 -10.05526924 2.69430637 45 15 18011 10.41000000 2889050008 2889050008 15.00000000
-0.00564391 -1.70195198 -0.45603916 4 0 18019 1.76200000 2889050029 2889050029 -15.00000000
-0.00609254 -1.66226411 -0.38376650 13 2 18021 1.70600000 2889050033 2889050033 -13.00000000
-0.00584894 -1.59579933 0.08363286 1 3 18021 1.59800000 2889050036 2889050036 3.00000000
-0.00649051 -1.69034958 -0.32857308 100 4 18022 1.72200000 2889050038 2889050038 -11.00000000
-0.00639612 -1.52695274 -0.24184768 45 6 18024 1.54600000 2889050043 2889050043 -9.00000000
-0.00804417 -1.77266920 -0.21765865 1 8 18026 1.78600000 2889050047 2889050047 -7.00000000
-0.00829948 -1.63972867 -0.08593564 1 12 18029 1.64200000 2889050057 2889050057 -3.00000000
-0.00856892 -1.58373559 -0.02764461 72 14 18031 1.58400000 2889050061 2889050061 -1.00000000
-0.05442498 -10.05900478 2.69534159 47 15 18031 10.41400000 2889050063 2889050063 15.00000000
-0.01118052 -1.60146594 -0.42912197 12 0 18040 1.65800000 2889050084 2889050084 -15.00000000
-0.01214215 -1.65638459 -0.38241678 15 2 18042 1.70000000 2889050089 2889050089 -13.00000000
-0.01199130 -1.59776223 0.08373753 7 3 18043 1.60000000 2889050091 2889050091 3.00000000
-0.01275957 -1.70013034 -0.33048117 94 4 18043 1.73200000 2889050093 2889050093 -11.00000000
-0.01180647 -1.50321531 -0.23809326 71 6 18045 1.52200000 2889050098 2889050098 -9.00000000
-0.01318973 -1.60787070 -0.19742833 1 8 18047 1.62000000 2889050103 2889050103 -7.00000000
-0.01403047 -1.60773230 -0.08426089 1 12 18050 1.61000000 2889050112 2889050112 -3.00000000
-0.01439169 -1.58569312 -0.02767952 74 14 18052 1.58600000 2889050116 2889050116 -1.00000000
-0.09319125 -10.07417488 2.69948268 42 15 18053 10.43000000 2889050119 2889050119 15.00000000
-0.01650763 -1.57630455 -0.42239270 19 0 18060 1.63200000 2889050139 2889050139 -15.00000000
-0.01771307 -1.63684583 -0.37791777 18 2 18062 1.68000000 2889050144 2889050144 -13.00000000
-0.01869406 -1.70007551 -0.33048117 74 4 18063 1.73200000 2889050149 2889050149 -11.00000000
-0.01838242 -1.64561093 0.14398129 1 5 18064 1.65200000 2889050151 2889050151 5.00000000
-0.01727769 -1.52291739 -0.24122195 73 6 18065 1.54200000 2889050153 2889050153 -9.00000000
-0.01838434 -1.57208562 -0.19304104 3 8 18067 1.58400000 2889050158 2889050158 -7.00000000
-0.01901106 -1.60176826 -0.14014643 2 10 18068 1.60800000 2889050163 2889050163 -5.00000000
-0.02042323 -1.67158103 -0.08761039 1 12 18070 1.67400000 2889050167 2889050167 -3.00000000
-0.01982619 -1.57763505 -0.02753990 68 14 18072 1.57800000 2889050172 2889050172 -1.00000000
-0.12845457 -10.08151531 2.70155311 45 15 18073 10.43800000 2889050174 2889050174 15.00000000
-0.02165484 -1.57044613 -0.42083976 24 0 18079 1.62600000 2889050195 2889050195 -15.00000000
-0.02303075 -1.62898397 -0.37611815 22 2 18081 1.67200000 2889050199 2889050199 -13.00000000
-0.02236184 -1.58167112 0.08290015 98 3 18081 1.58400000 2889050202 2889050202 3.00000000
-0.02393826 -1.67252147 -0.32513854 63 4 18082 1.70400000 2889050204 2889050204 -11.00000000
-0.02372391 -1.63757229 0.14328404 11 5 18083 1.64400000 2889050206 2889050206 5.00000000
-0.02232777 -1.52285171 -0.24122195 73 6 18084 1.54200000 2889050209 2889050209 -9.00000000
-0.02321014 -1.54621267 -0.18987244 11 8 18086 1.55800000 2889050213 2889050213 -7.00000000
-0.02462513 -1.62161803 -0.14188954 2 10 18087 1.62800000 2889050218 2889050218 -5.00000000
-0.02584219 -1.66351604 -0.08719170 1 12 18089 1.66600000 2889050222 2889050222 -3.00000000
-0.02505771 -1.57756066 -0.02753990 60 14 18091 1.57800000 2889050227 2889050227 -1.00000000
-0.16188537 -10.08103371 2.70155311 45 15 18092 10.43800000 2889050229 2889050229 15.00000000
-0.02673605 -1.54718220 -0.41462812 26 0 18099 1.60200000 2889050250 2889050250 -15.00000000
-0.02847638 -1.61525452 -0.37296885 24 2 18101 1.65800000 2889050255 2889050255 -13.00000000
-0.02830523 -1.60554683 0.08415622 100 3 18101 1.60800000 2889050257 2889050257 3.00000000
-0.02967146 -1.66653883 -0.32399368 71 4 18102 1.69800000 2889050259 2889050259 -11.00000000
-0.02933252 -1.63150322 0.14276111 71 5 18103 1.63800000 2889050262 2889050262 5.00000000
-0.02735655 -1.50696409 -0.23871899 77 6 18104 1.52600000 2889050264 2889050264 -9.00000000
-0.02860728 -1.54612231 -0.18987244 38 8 18106 1.55800000 2889050269 2889050269 -7.00000000
-0.02961578 -1.58566546 -0.13875194 2 10 18107 1.59200000 2889050273 2889050273 -5.00000000
-0.03035700 -1.59552121 -0.08363286 1 12 18109 1.59800000 2889050278 2889050278 -3.00000000
-0.03040932 -1.56946635 -0.02740028 19 14 18111 1.57000000 2889050282 2889050282 -1.00000000
-0.19684720 -10.06881905 2.69844747 45 15 18112 10.42600000 2889050285 2889050285 15.00000000
-0.03244703 -1.54900527 -0.41514575 26 0 18120 1.60400000 2889050305 2889050305 -15.00000000
-0.03414744 -1.60344958 -0.37026945 24 2 18122 1.64600000 2889050310 2889050310 -13.00000000
-0.03414714 -1.60343552 0.08405155 100 3 18122 1.60600000 2889050312 2889050312 3.00000000
-0.03577943 -1.66641891 -0.32399368 57 4 18123 1.69800000 2889050315 2889050315 -11.00000000
-0.03496715 -1.61544943 0.14136662 91 5 18124 1.62200000 2889050317 2889050317 5.00000000
-0.03262111 -1.49500430 -0.23684178 78 6 18125 1.51400000 2889050319 2889050319 -9.00000000
-0.03405393 -1.53608406 -0.18865374 55 8 18127 1.54800000 2889050324 2889050324 -7.00000000
-0.03560536 -1.59351373 -0.13944919 4 10 18128 1.60000000 2889050328 2889050328 -5.00000000
-0.03615936 -1.59340250 -0.08352818 3 12 18130 1.59600000 2889050333 2889050333 -3.00000000
-0.23225975 -10.07965851 2.70155311 45 15 18132 10.43800000 2889050340 2889050340 15.00000000
-0.03790107 -1.55081379 -0.41566339 30 0 18140 1.60600000 2889050361 2889050361 -15.00000000
-0.03945456 -1.59163177 -0.36757001 27 2 18142 1.63400000 2889050365 2889050365 -13.00000000
-0.03934801 -1.58733332 0.08321417 100 3 18142 1.59000000 2889050368 2889050368 3.00000000
-0.04140012 -1.65843332 -0.32246721 28 4 18143 1.69000000 2889050370 2889050370 -11.00000000
-0.04060591 -1.61531746 0.14136662 100 5 18144 1.62200000 2889050372 2889050372 5.00000000
-0.03783945 -1.49488127 -0.23684178 80 6 18145 1.51400000 2889050374 2889050374 -9.00000000
-0.03890641 -1.51611137 -0.18621635 46 8 18147 1.52800000 2889050379 2889050379 -7.00000000
-0.03790518 -1.47709548 0.23402596 2 9 18147 1.49600000 2889050381 2889050381 9.00000000
-0.04147631 -1.60533011 -0.14049506 4 10 18148 1.61200000 2889050384 2889050384 -5.00000000
-0.04140746 -1.58128715 -0.08290015 3 12 18150 1.58400000 2889050388 2889050388 -3.00000000
-0.04169235 -1.57120752 -0.02743518 2 14 18152 1.57200000 2889050393 2889050393 -1.00000000
-0.26940832 -10.08646393 2.70362377 42 15 18153 10.44600000 2889050395 2889050395 15.00000000
-0.04293634 -1.54681742 -0.41462812 32 0 18159 1.60200000 2889050416 2889050416 -15.00000000
-0.04467763 -1.58954418 -0.36712012 29 2 18161 1.63200000 2889050421 2889050421 -13.00000000
-0.04500153 -1.59117925 0.08342352 100 3 18162 1.59400000 2889050423 2889050423 3.00000000
-0.04662194 -1.64847457 -0.32055911 30 4 18162 1.68000000 2889050425 2889050425 -11.00000000
-0.04618897 -1.62314034 0.14206386 99 5 18163 1.63000000 2889050427 2889050427 5.00000000
-0.04302258 -1.50264585 -0.23809326 80 6 18164 1.52200000 2889050430 2889050430 -9.00000000
-0.04258320 -1.47828054 0.18158533 1 7 18165 1.49000000 2889050432 2889050432 7.00000000
-0.04370378 -1.50803697 -0.18524140 56 8 18166 1.52000000 2889050434 2889050434 -7.00000000
-0.04091482 -1.41180158 0.22370128 2 9 18166 1.43000000 2889050437 2889050437 9.00000000
-0.04685761 -1.60717535 -0.14066938 2 10 18167 1.61400000 2889050439 2889050439 -5.00000000
-0.04529766 -1.54441702 0.30033335 1 11 18168 1.57400000 2889050441 2889050441 11.00000000
-0.04641536 -1.57315552 -0.08248147 1 12 18169 1.57600000 2889050444 2889050444 -3.00000000
-0.04702178 -1.57505822 -0.02750499 2 14 18171 1.57600000 2889050448 2889050448 -1.00000000
-0.30126742 -10.09136105 2.70517659 42 15 18171 10.45200000 2889050451 2889050451 15.00000000
-0.04785273 -1.53121078 -0.41048700 32 0 18179 1.58600000 2889050471 2889050471 -15.00000000
-0.05034901 -1.59327412 -0.36801994 29 2 18181 1.63600000 2889050476 2889050476 -13.00000000
-0.05030178 -1.58302748 0.08300482 100 3 18182 1.58600000 2889050478 2889050478 3.00000000
-0.05212650 -1.64045262 -0.31903264 31 4 18182 1.67200000 2889050480 2889050480 -11.00000000
-0.05153637 -1.61301231 0.14119230 82 5 18183 1.62000000 2889050483 2889050483 5.00000000
-0.04852124 -1.51038396 -0.23934473 73 6 18184 1.53000000 2889050485 2889050485 -9.00000000
-0.04684591 -1.45034611 0.17817298 1 7 18185 1.46200000 2889050487 2889050487 7.00000000
-0.04890312 -1.50589120 -0.18499766 65 8 18186 1.51800000 2889050490 2889050490 -7.00000000
-0.04563783 -1.39782190 0.22151120 5 9 18187 1.41600000 2889050492 2889050492 9.00000000
-0.05136215 -1.57314932 -0.13770607 2 10 18187 1.58000000 2889050494 2889050494 -5.00000000
-0.04811212 -1.46576166 0.28506863 1 11 18188 1.49400000 2889050497 2889050497 11.00000000
-0.05263099 -1.59494185 -0.08363286 1 12 18189 1.59800000 2889050499 2889050499 -3.00000000
-0.05198628 -1.55889583 -0.02722575 2 14 18191 1.56000000 2889050504 2889050504 -1.00000000
-0.33812264 -10.08632755 2.70414138 42 15 18192 10.44800000 2889050506 2889050506 15.00000000
-0.05299611 -1.52524233 -0.40893409 34 0 18199 1.58000000 2889050527 2889050527 -15.00000000
