# .PCD v0.7 - Point Cloud Data file format
VERSION 0.7
FIELDS x y z intensity laser_id azimuth distance_m adjustedtime timestamp vertical_angle
SIZE 4 4 4 1 1 2 8 8 4 8
TYPE F F F U U U F U U F
COUNT 1 1 1 1 1 1 1 1 1 1
WIDTH 527
HEIGHT 1
VIEWPOINT 0 0 0 1 0 0 0
POINTS 527
DATA ascii
2.14717197 -0.44426715 -0.58751923 4 0 10169 2.27000000 2891428203 2891428203 -15.00000000
8.08519077 -1.67436242 0.14412197 15 1 10170 8.25800000 2891428205 2891428205 1.00000000
2.51880002 -0.52207690 -0.59387076 5 2 10171 2.64000000 2891428207 2891428207 -13.00000000
8.08287048 -1.67535329 0.43260902 10 3 10171 8.26600000 2891428210 2891428210 3.00000000
3.01997161 -0.62650549 -0.59952188 4 4 10172 3.14200000 2891428212 2891428212 -11.00000000
8.08403778 -1.67853856 0.72234678 68 5 10173 8.28800000 2891428214 2891428214 5.00000000
3.76366854 -0.78215891 -0.60884291 4 6 10174 3.89200000 2891428217 2891428217 -9.00000000
8.09660244 -1.68409586 1.01541531 90 7 10175 8.33200000 2891428219 2891428219 7.00000000
5.00043249 -1.04100204 -0.62713963 8 8 10176 5.14600000 2891428221 2891428221 -7.00000000
8.16081810 -1.70042467 1.32030690 5 9 10177 8.44000000 2891428224 2891428224 9.00000000
7.70641804 -1.60574389 -0.68870467 12 10 10177 7.90200000 2891428226 2891428226 -5.00000000
8.07074738 -1.68459702 -0.43208566 12 12 10179 8.25600000 2891428231 2891428231 -3.00000000
8.06630230 -1.68660760 -0.14384273 14 14 10181 8.24200000 2891428235 2891428235 -1.00000000
8.13679028 -1.70134628 2.22739673 47 15 10181 8.60600000 2891428237 2891428237 15.00000000
2.14363909 -0.45173559 -0.58700162 4 0 10190 2.26800000 2891428258 2891428258 -15.00000000
8.07312965 -1.70274687 0.14401726 12 1 10191 8.25200000 2891428260 2891428260 1.00000000
2.52830982 -0.53372025 -0.59657019 5 2 10192 2.65200000 2891428263 2891428263 -13.00000000
8.09005737 -1.70926690 0.43334171 13 3 10193 8.28000000 2891428265 2891428265 3.00000000
3.01765513 -0.63757002 -0.59952188 4 4 10193 3.14200000 2891428267 2891428267 -11.00000000
8.08952713 -1.71062994 0.72339267 83 5 10194 8.30000000 2891428270 2891428270 5.00000000
3.75304627 -0.79431212 -0.60759145 4 6 10195 3.88400000 2891428272 2891428272 -9.00000000
8.10591221 -1.71705103 1.01736534 85 7 10196 8.34800000 2891428274 2891428274 7.00000000
5.00046730 -1.06014597 -0.62762713 8 8 10197 5.15000000 2891428277 2891428277 -7.00000000
8.17995358 -1.73422682 1.32437420 7 9 10197 8.46600000 2891428279 2891428279 9.00000000
7.67904186 -1.62942934 -0.68678725 12 10 10198 7.88000000 2891428281 2891428281 -5.00000000
8.06451893 -1.71416652 -0.43208566 12 12 10200 8.25600000 2891428286 2891428286 -3.00000000
8.06788921 -1.71782649 -0.14398235 14 14 10202 8.25000000 2891428290 2891428290 -1.00000000
8.13208771 -1.73297930 2.22791433 47 15 10203 8.60800000 2891428293 2891428293 15.00000000
2.13827109 -0.45840561 -0.58596629 4 0 10210 2.26400000 2891428313 2891428313 -15.00000000
8.06322575 -1.73007786 0.14394745 12 1 10211 8.24800000 2891428316 2891428316 1.00000000
2.51881027 -0.54090583 -0.59477061 5 2 10212 2.64400000 2891428318 2891428318 -13.00000000
8.09801388 -1.73902059 0.43407443 13 3 10212 8.29400000 2891428320 2891428320 3.00000000
3.01733065 -0.64851230 -0.59990346 5 4 10213 3.14400000 2891428323 2891428323 -11.00000000
8.09129810 -1.74053323 0.72408992 83 5 10214 8.30800000 2891428325 2891428325 5.00000000
3.73866415 -0.80491328 -0.60571426 4 6 10215 3.87200000 2891428327 2891428327 -9.00000000
8.09598732 -1.74449909 1.01687777 87 7 10216 8.34400000 2891428330 2891428330 7.00000000
5.00061750 -1.07843137 -0.62811458 8 8 10217 5.15400000 2891428332 2891428332 -7.00000000
8.17933559 -1.76544654 1.32531273 5 9 10218 8.47200000 2891428334 2891428334 9.00000000
7.66551733 -1.65454280 -0.68608999 12 10 10218 7.87200000 2891428337 2891428337 -5.00000000
8.06629562 -1.74399471 -0.43250436 12 12 10220 8.26400000 2891428341 2891428341 -3.00000000
8.07161617 -1.74809456 -0.14415687 14 14 10222 8.26000000 2891428346 2891428346 -1.00000000
8.13165283 -1.76258278 2.22946715 45 15 10223 8.61400000 2891428348 2891428348 15.00000000
2.14437103 -0.46676448 -0.58803689 4 0 10228 2.27200000 2891428369 2891428369 -15.00000000
8.06752014 -1.75752902 0.14412197 12 1 10229 8.25800000 2891428371 2891428371 1.00000000
2.50757837 -0.54674053 -0.59252107 4 2 10230 2.63400000 2891428373 2891428373 -13.00000000
8.08470440 -1.76275063 0.43365574 13 3 10230 8.28600000 2891428376 2891428376 3.00000000
3.00568771 -0.65589547 -0.59799540 4 4 10231 3.13400000 2891428378 2891428378 -11.00000000
8.08968258 -1.76679444 0.72443855 72 5 10232 8.31200000 2891428380 2891428380 5.00000000
3.73804665 -0.81707650 -0.60602713 6 6 10233 3.87400000 2891428383 2891428383 -9.00000000
8.09046745 -1.76992476 1.01687777 85 7 10234 8.34400000 2891428385 2891428385 7.00000000
4.98750877 -1.09201300 -0.62689590 8 8 10235 5.14400000 2891428387 2891428387 -7.00000000
8.17792034 -1.79055238 1.32593858 7 9 10235 8.47600000 2891428390 2891428390 9.00000000
7.64471149 -1.67520475 -0.68469554 12 10 10236 7.85600000 2891428392 2891428392 -5.00000000
8.05297279 -1.76761436 -0.43208566 17 12 10238 8.25600000 2891428396 2891428396 -3.00000000
8.06999016 -1.77430248 -0.14422669 12 14 10240 8.26400000 2891428401 2891428401 -1.00000000
8.14116859 -1.79144168 2.23360825 45 15 10241 8.63000000 2891428403 2891428403 15.00000000
2.14272881 -0.47424689 -0.58803689 4 0 10248 2.27200000 2891428424 2891428424 -15.00000000
8.07890797 -1.78957140 0.14443612 12 1 10249 8.27600000 2891428426 2891428426 1.00000000
2.50945973 -0.55633384 -0.59342086 4 2 10250 2.63800000 2891428429 2891428429 -13.00000000
8.07655239 -1.79052854 0.43355107 13 3 10250 8.28400000 2891428431 2891428431 3.00000000
3.00912976 -0.66765904 -0.59914023 5 4 10251 3.14000000 2891428433 2891428433 -11.00000000
8.09319115 -1.79718149 0.72531009 76 5 10252 8.32200000 2891428436 2891428436 5.00000000
3.74095678 -0.83140540 -0.60696572 6 6 10253 3.88000000 2891428438 2891428438 -9.00000000
8.09199047 -1.79987907 1.01785278 85 7 10254 8.35200000 2891428440 2891428440 7.00000000
4.97591591 -1.10769069 -0.62592095 6 8 10255 5.13600000 2891428443 2891428443 -7.00000000
8.15619469 -1.81565380 1.32343554 5 9 10255 8.46000000 2891428445 2891428445 9.00000000
7.63881779 -1.70187950 -0.68469554 12 10 10256 7.85600000 2891428447 2891428447 -5.00000000
8.07209492 -1.80136883 -0.43344638 17 12 10258 8.28200000 2891428452 2891428452 -3.00000000
8.07350540 -1.80464232 -0.14440121 14 14 10260 8.27400000 2891428456 2891428456 -1.00000000
8.14240742 -1.82153583 2.23567891 45 15 10261 8.63800000 2891428459 2891428459 15.00000000
2.12975192 -0.47917920 -0.58493102 4 0 10268 2.26000000 2891428479 2891428479 -15.00000000
8.08041477 -1.81951833 0.14457573 12 1 10269 8.28400000 2891428482 2891428482 1.00000000
2.51510668 -0.56680381 -0.59522051 4 2 10270 2.64600000 2891428484 2891428484 -13.00000000
8.07999516 -1.82090545 0.43407443 10 3 10270 8.29400000 2891428486 2891428486 3.00000000
2.99529004 -0.67556709 -0.59685051 5 4 10271 3.12800000 2891428489 2891428489 -11.00000000
8.09075546 -1.82629848 0.72565871 76 5 10272 8.32600000 2891428491 2891428491 5.00000000
3.73225141 -0.84315288 -0.60602713 6 6 10273 3.87400000 2891428493 2891428493 -9.00000000
8.09727573 -1.83074093 1.01931524 83 7 10274 8.36400000 2891428495 2891428495 7.00000000
4.97976351 -1.12680554 -0.62689590 4 8 10275 5.14400000 2891428498 2891428498 -7.00000000
8.16522121 -1.84760094 1.32593858 5 9 10275 8.47600000 2891428500 2891428500 9.00000000
7.62117147 -1.72589326 -0.68364966 12 10 10276 7.84400000 2891428502 2891428502 -5.00000000
8.07549667 -1.83174372 -0.43396974 12 12 10278 8.29200000 2891428507 2891428507 -3.00000000
8.06910706 -1.83325613 -0.14443612 14 14 10280 8.27600000 2891428512 2891428512 -1.00000000
8.13255405 -1.84767091 2.23464370 45 15 10280 8.63400000 2891428514 2891428514 15.00000000
2.12806630 -0.48661050 -0.58493102 4 0 10288 2.26000000 2891428535 2891428535 -15.00000000
8.07596397 -1.84815919 0.14461064 12 1 10289 8.28600000 2891428537 2891428537 1.00000000
2.50931382 -0.57470959 -0.59432071 4 2 10290 2.64200000 2891428539 2891428539 -13.00000000
8.09305763 -1.85355771 0.43512115 10 3 10290 8.31400000 2891428542 2891428542 3.00000000
2.99865460 -0.68733442 -0.59799540 4 4 10291 3.13400000 2891428544 2891428544 -11.00000000
8.07073784 -1.85141098 0.72443855 76 5 10292 8.31200000 2891428546 2891428546 5.00000000
3.73121071 -0.85661775 -0.60633999 6 6 10293 3.87600000 2891428548 2891428548 -9.00000000
8.09470558 -1.85988367 1.01980269 85 7 10294 8.36800000 2891428551 2891428551 7.00000000
4.99708080 -1.14907467 -0.62957704 2 8 10295 5.16600000 2891428553 2891428553 -7.00000000
8.16834736 -1.87830496 1.32750285 7 9 10295 8.48600000 2891428555 2891428555 9.00000000
7.59956741 -1.74891090 -0.68225515 12 10 10296 7.82800000 2891428558 2891428558 -5.00000000
8.07683849 -1.86171567 -0.43438843 12 12 10298 8.30000000 2891428562 2891428562 -3.00000000
8.06655502 -1.86231101 -0.14450592 14 14 10300 8.28000000 2891428567 2891428567 -1.00000000
8.12949181 -1.87833560 2.23567891 45 15 10301 8.63800000 2891428569 2891428569 15.00000000
2.13388157 -0.49578467 -0.58700162 4 0 10308 2.26800000 2891428590 2891428590 -15.00000000
8.06167221 -1.87452674 0.14447102 12 1 10309 8.27800000 2891428592 2891428592 1.00000000
2.50729251 -0.58346522 -0.59432071 4 2 10310 2.64200000 2891428595 2891428595 -13.00000000
8.09399128 -1.88501990 0.43553984 10 3 10311 8.32200000 2891428597 2891428597 3.00000000
2.98476458 -0.69512564 -0.59570569 4 4 10311 3.12200000 2891428599 2891428599 -11.00000000
8.07392788 -1.88183308 0.72531009 72 5 10312 8.32200000 2891428601 2891428601 5.00000000
3.70896053 -0.86514956 -0.60321128 6 6 10313 3.85600000 2891428604 2891428604 -9.00000000
8.08816433 -1.88812804 1.01980269 83 7 10314 8.36800000 2891428606 2891428606 7.00000000
4.97564173 -1.16244626 -0.62738335 2 8 10315 5.14800000 2891428608 2891428608 -7.00000000
8.16751194 -1.90815461 1.32844150 5 9 10315 8.49200000 2891428611 2891428611 9.00000000
7.57983541 -1.77225244 -0.68103498 12 10 10316 7.81400000 2891428613 2891428613 -5.00000000
8.07417965 -1.89080858 -0.43459779 12 12 10318 8.30400000 2891428618 2891428618 -3.00000000
8.06584644 -1.89182711 -0.14461064 14 14 10320 8.28600000 2891428622 2891428622 -1.00000000
8.13450336 -1.90793049 2.23878479 45 15 10320 8.65000000 2891428625 2891428625 15.00000000
2.12461734 -0.50145525 -0.58493102 4 0 10328 2.26000000 2891428645 2891428645 -15.00000000
8.07064915 -1.90633333 0.14475025 12 1 10329 8.29400000 2891428648 2891428648 1.00000000
2.49386168 -0.58952391 -0.59162128 4 2 10330 2.63000000 2891428650 2891428650 -13.00000000
8.08541775 -1.91280198 0.43543515 10 3 10331 8.32000000 2891428652 2891428652 3.00000000
2.99760413 -0.70915598 -0.59875864 4 4 10331 3.13800000 2891428654 2891428654 -11.00000000
8.08281994 -1.91367710 0.72670460 76 5 10332 8.33800000 2891428657 2891428657 5.00000000
3.72129536 -0.88173455 -0.60571426 4 6 10333 3.87200000 2891428659 2891428659 -9.00000000
8.08538723 -1.91726565 1.02029014 85 7 10334 8.37200000 2891428661 2891428661 7.00000000
4.95610237 -1.17614055 -0.62543344 2 8 10335 5.13200000 2891428664 2891428664 -7.00000000
8.17583847 -1.94172883 1.33094442 5 9 10336 8.50800000 2891428666 2891428666 9.00000000
7.58329535 -1.80100214 -0.68190652 12 10 10336 7.82400000 2891428668 2891428668 -5.00000000
8.06364441 -1.91805685 -0.43438843 12 12 10338 8.30000000 2891428673 2891428673 -3.00000000
8.07864571 -1.92460489 -0.14495969 14 14 10340 8.30600000 2891428678 2891428678 -1.00000000
8.12745571 -1.93773210 2.23878479 45 15 10341 8.65000000 2891428680 2891428680 15.00000000
2.14164019 -0.51337171 -0.59010744 4 0 10348 2.28000000 2891428701 2891428701 -15.00000000
8.06783485 -1.93542647 0.14482006 12 1 10349 8.29800000 2891428703 2891428703 1.00000000
2.48989367 -0.59777057 -0.59117138 4 2 10350 2.62800000 2891428705 2891428705 -13.00000000
8.07092381 -1.93914723 0.43501648 10 3 10351 8.31200000 2891428707 2891428707 3.00000000
2.98365688 -0.71686339 -0.59646893 4 4 10351 3.12600000 2891428710 2891428710 -11.00000000
8.08577728 -1.94420874 0.72757614 76 5 10352 8.34800000 2891428712 2891428712 5.00000000
3.71819472 -0.89471889 -0.60571426 4 6 10353 3.87200000 2891428714 2891428714 -9.00000000
8.08057499 -1.94594193 1.02053392 80 7 10354 8.37400000 2891428717 2891428717 7.00000000
4.97126484 -1.19808435 -0.62787086 2 8 10355 5.15200000 2891428719 2891428719 -7.00000000
8.16167355 -1.96697891 1.32969296 5 9 10355 8.50000000 2891428721 2891428721 9.00000000
7.58083630 -1.82839608 -0.68225515 12 10 10356 7.82800000 2891428724 2891428724 -5.00000000
8.05495834 -1.94572365 -0.43428376 12 12 10358 8.29800000 2891428728 2891428728 -3.00000000
8.06604767 -1.95138228 -0.14485498 16 14 10360 8.30000000 2891428733 2891428733 -1.00000000
8.13225174 -1.96739864 2.24189067 47 15 10360 8.66200000 2891428735 2891428735 15.00000000
2.13232684 -0.51901680 -0.58803689 4 0 10368 2.27200000 2891428756 2891428756 -15.00000000
8.07074356 -1.96594310 0.14499459 15 1 10369 8.30800000 2891428758 2891428758 1.00000000
2.49157858 -0.60738140 -0.59207118 4 2 10370 2.63200000 2891428760 2891428760 -13.00000000
8.08156872 -1.97156858 0.43595850 10 3 10371 8.33000000 2891428763 2891428763 3.00000000
2.97732162 -0.72634333 -0.59570569 4 4 10371 3.12200000 2891428765 2891428765 -11.00000000
8.07507038 -1.97147644 0.72722751 76 5 10372 8.34400000 2891428767 2891428767 5.00000000
3.72656250 -0.91050547 -0.60759145 4 6 10373 3.88400000 2891428770 2891428770 -9.00000000
8.08723164 -1.97743702 1.02224004 85 7 10374 8.38800000 2891428772 2891428772 7.00000000
4.96705246 -1.21543002 -0.62787086 2 8 10375 5.15200000 2891428774 2891428774 -7.00000000
8.18127060 -2.00345778 1.33407307 5 9 10376 8.52800000 2891428777 2891428777 9.00000000
7.55312061 -1.84963405 -0.68033773 12 10 10376 7.80600000 2891428779 2891428779 -5.00000000
8.08109379 -1.98191631 -0.43606320 12 12 10378 8.33200000 2891428783 2891428783 -3.00000000
8.05918694 -1.97952616 -0.14485498 12 14 10380 8.30000000 2891428788 2891428788 -1.00000000
8.13249016 -1.99903619 2.24396110 47 15 10381 8.67000000 2891428790 2891428790 15.00000000
2.11549878 -0.52274942 -0.58389574 4 0 10388 2.25600000 2891428811 2891428811 -15.00000000
8.07547951 -1.99698353 0.14520402 12 1 10389 8.32000000 2891428813 2891428813 1.00000000
2.48944330 -0.61607492 -0.59207118 4 2 10390 2.63200000 2891428816 2891428816 -13.00000000
8.08045387 -2.00120687 0.43627253 10 3 10391 8.33600000 2891428818 2891428818 3.00000000
2.97476816 -0.73673171 -0.59570569 4 4 10391 3.12200000 2891428820 2891428820 -11.00000000
8.07007313 -2.00013089 0.72740185 72 5 10392 8.34600000 2891428823 2891428823 5.00000000
3.71185780 -0.92065477 -0.60571426 4 6 10393 3.87200000 2891428825 2891428825 -9.00000000
8.09183979 -2.00852394 1.02370250 83 7 10394 8.40000000 2891428827 2891428827 7.00000000
4.94929409 -1.22941101 -0.62616467 2 8 10395 5.13800000 2891428830 2891428830 -7.00000000
8.15541077 -2.02581453 1.33094442 5 9 10395 8.50800000 2891428832 2891428832 9.00000000
7.53695059 -1.87358487 -0.67946619 12 10 10396 7.79600000 2891428834 2891428834 -5.00000000
8.08963108 -2.01397252 -0.43690056 12 12 10398 8.34800000 2891428839 2891428839 -3.00000000
8.05804920 -2.00909734 -0.14495969 12 14 10400 8.30600000 2891428843 2891428843 -1.00000000
8.12206745 -2.02505875 2.24292588 45 15 10400 8.66600000 2891428846 2891428846 15.00000000
2.12490392 -0.53295052 -0.58700162 4 0 10408 2.26800000 2891428866 2891428866 -15.00000000
8.05876255 -2.02272582 0.14502950 12 1 10409 8.31000000 2891428869 2891428869 1.00000000
2.48538756 -0.62428617 -0.59162128 4 2 10410 2.63000000 2891428871 2891428871 -13.00000000
8.08891487 -2.03329587 0.43710992 13 3 10411 8.35200000 2891428873 2891428873 3.00000000
2.96837020 -0.74615383 -0.59494245 4 4 10411 3.11800000 2891428876 2891428876 -11.00000000
8.08043194 -2.03266311 0.72897065 76 5 10412 8.36400000 2891428878 2891428878 5.00000000
3.68946552 -0.92878366 -0.60258555 4 6 10413 3.85200000 2891428880 2891428880 -9.00000000
8.08092880 -2.03578758 1.02321506 83 7 10414 8.39600000 2891428883 2891428883 7.00000000
4.96229601 -1.25104725 -0.62835836 6 8 10415 5.15600000 2891428885 2891428885 -7.00000000
8.18623829 -2.06535673 1.33720183 5 9 10416 8.54800000 2891428887 2891428887 9.00000000
6.63012075 -1.67275429 -0.59823704 16 10 10416 6.86400000 2891428889 2891428889 -5.00000000
8.06899738 -2.03877354 -0.43616787 17 12 10418 8.33400000 2891428894 2891428894 -3.00000000
8.06843376 -2.04162765 -0.14527383 12 14 10420 8.32400000 2891428899 2891428899 -1.00000000
8.12208176 -2.05671096 2.24499631 45 15 10421 8.67400000 2891428901 2891428901 15.00000000
2.12303066 -0.54036456 -0.58700162 4 0 10428 2.26800000 2891428922 2891428922 -15.00000000
8.06715488 -2.05479264 0.14530873 12 1 10429 8.32600000 2891428924 2891428924 1.00000000
2.48508143 -0.63343936 -0.59207118 4 2 10430 2.63200000 2891428926 2891428926 -13.00000000
8.07402706 -2.05954456 0.43669122 10 3 10431 8.34400000 2891428929 2891428929 3.00000000
2.98477101 -0.76136339 -0.59875864 4 4 10431 3.13800000 2891428931 2891428931 -11.00000000
8.09645271 -2.06677008 0.73106235 83 5 10432 8.38800000 2891428933 2891428933 5.00000000
3.69768453 -0.94459009 -0.60446280 4 6 10433 3.86400000 2891428936 2891428936 -9.00000000
8.07569695 -2.06447458 1.02345872 80 7 10434 8.39800000 2891428938 2891428938 7.00000000
4.91558933 -1.25753736 -0.62299609 8 8 10435 5.11200000 2891428940 2891428940 -7.00000000
8.18699932 -2.09445024 1.33845329 5 9 10435 8.55600000 2891428942 2891428942 9.00000000
6.57405758 -1.68303990 -0.59370494 12 10 10436 6.81200000 2891428945 2891428945 -5.00000000
8.16265678 -2.09125876 1.63790441 6 11 10437 8.58400000 2891428947 2891428947 11.00000000
8.06957054 -2.06891131 -0.43658656 17 12 10438 8.34200000 2891428949 2891428949 -3.00000000
8.07094288 -2.07226586 -0.14544836 12 14 10440 8.33400000 2891428954 2891428954 -1.00000000
8.12082958 -2.08507466 2.24654937 47 15 10440 8.68000000 2891428956 2891428956 15.00000000
2.11739063 -0.54680598 -0.58596629 4 0 10448 2.26400000 2891428977 2891428977 -15.00000000
8.06380558 -2.08394051 0.14537854 12 1 10449 8.33000000 2891428979 2891428979 1.00000000
2.47908187 -0.64113420 -0.59117138 4 2 10450 2.62800000 2891428982 2891428982 -13.00000000
8.07452297 -2.08971715 0.43710992 10 3 10451 8.35200000 2891428984 2891428984 3.00000000
2.95928764 -0.76587486 -0.59417921 4 4 10451 3.11400000 2891428986 2891428986 -11.00000000
8.09690475 -2.09701753 0.73175961 83 5 10452 8.39600000 2891428989 2891428989 5.00000000
3.69818902 -0.95848286 -0.60508853 4 6 10453 3.86800000 2891428991 2891428991 -9.00000000
8.08189201 -2.09614015 1.02516496 83 7 10454 8.41200000 2891428993 2891428993 7.00000000
4.90540552 -1.27319229 -0.62226486 8 8 10455 5.10600000 2891428995 2891428995 -7.00000000
8.17926788 -2.12444305 1.33845329 5 9 10456 8.55600000 2891428998 2891428998 9.00000000
6.56814289 -1.70597744 -0.59370494 12 10 10456 6.81200000 2891429000 2891429000 -5.00000000
8.16670799 -2.12270236 1.64019418 6 11 10457 8.59600000 2891429002 2891429002 11.00000000
8.05650043 -2.09555840 -0.43627253 12 12 10458 8.33600000 2891429005 2891429005 -3.00000000
8.06752968 -2.10143423 -0.14551817 10 14 10460 8.33800000 2891429009 2891429009 -1.00000000
8.12248039 -2.11726141 2.24913740 45 15 10461 8.69000000 2891429012 2891429012 15.00000000
2.10818648 -0.55149955 -0.58389574 4 0 10466 2.25600000 2891429032 2891429032 -15.00000000
8.07076073 -2.11280823 0.14562288 12 1 10467 8.34400000 2891429035 2891429035 1.00000000
2.48082590 -0.64990699 -0.59207118 4 2 10468 2.63200000 2891429037 2891429037 -13.00000000
8.07371426 -2.11659312 0.43742391 13 3 10469 8.35800000 2891429039 2891429039 3.00000000
2.95306873 -0.77417225 -0.59341598 4 4 10469 3.11000000 2891429042 2891429042 -11.00000000
8.08064079 -2.11991644 0.73088807 76 5 10470 8.38600000 2891429044 2891429044 5.00000000
3.68369579 -0.96708673 -0.60321128 6 6 10471 3.85600000 2891429046 2891429046 -9.00000000
8.07910633 -2.12252855 1.02565241 85 7 10472 8.41600000 2891429048 2891429048 7.00000000
4.89562178 -1.28708255 -0.62153363 8 8 10473 5.10000000 2891429051 2891429051 -7.00000000
8.16528702 -2.14669299 1.33720183 5 9 10473 8.54800000 2891429053 2891429053 9.00000000
6.55504370 -1.72457564 -0.59300768 12 10 10474 6.80400000 2891429055 2891429055 -5.00000000
8.18657875 -2.15534616 1.64553678 6 11 10475 8.62400000 2891429058 2891429058 11.00000000
8.06919098 -2.12594676 -0.43731925 12 12 10476 8.35600000 2891429060 2891429060 -3.00000000
8.05702114 -2.12574840 -0.14544836 12 14 10478 8.33400000 2891429065 2891429065 -1.00000000
8.11989784 -2.14233780 2.25017285 45 15 10478 8.69400000 2891429067 2891429067 15.00000000
2.09131050 -0.55489165 -0.57975465 4 0 10486 2.24000000 2891429088 2891429088 -15.00000000
8.06913376 -2.14250708 0.14572759 12 1 10487 8.35000000 2891429090 2891429090 1.00000000
2.48984241 -0.66156530 -0.59477061 4 2 10488 2.64400000 2891429092 2891429092 -13.00000000
8.08171844 -2.14886856 0.43826130 13 3 10489 8.37400000 2891429095 2891429095 3.00000000
2.95793772 -0.78649360 -0.59494245 4 4 10489 3.11800000 2891429097 2891429097 -11.00000000
8.06741524 -2.14657331 0.73036510 76 5 10490 8.38000000 2891429099 2891429099 5.00000000
3.68220663 -0.98044759 -0.60352415 8 6 10491 3.85800000 2891429101 2891429101 -9.00000000
8.08699417 -2.15480566 1.02760231 85 7 10492 8.43200000 2891429104 2891429104 7.00000000
4.88726330 -1.30314076 -0.62104619 8 8 10493 5.09600000 2891429106 2891429106 -7.00000000
8.17301273 -2.17925358 1.33970475 5 9 10493 8.56400000 2891429108 2891429108 9.00000000
6.54898357 -1.74744654 -0.59300768 12 10 10494 6.80400000 2891429111 2891429111 -5.00000000
8.16383076 -2.17985773 1.64248383 3 11 10495 8.60800000 2891429113 2891429113 11.00000000
8.06365013 -2.15461612 -0.43742391 12 12 10496 8.35800000 2891429115 2891429115 -3.00000000
8.06500626 -2.15799475 -0.14572759 12 14 10498 8.35000000 2891429120 2891429120 -1.00000000
8.11610317 -2.17166710 2.25120807 47 15 10498 8.69800000 2891429122 2891429122 15.00000000
2.10791683 -0.56757575 -0.58493102 4 0 10507 2.26000000 2891429143 2891429143 -15.00000000
8.06315804 -2.17258787 0.14576250 12 1 10508 8.35200000 2891429145 2891429145 1.00000000
2.47611165 -0.66764259 -0.59207118 4 2 10509 2.63200000 2891429148 2891429148 -13.00000000
8.09307098 -2.18367815 0.43930802 13 3 10510 8.39400000 2891429150 2891429150 3.00000000
2.96261716 -0.79937541 -0.59646893 4 4 10510 3.12600000 2891429152 2891429152 -11.00000000
8.08065224 -2.18184042 0.73228258 76 5 10511 8.40200000 2891429154 2891429154 5.00000000
3.65951848 -0.98878437 -0.60039550 6 6 10512 3.83800000 2891429157 2891429157 -9.00000000
8.08670712 -2.18650413 1.02857721 90 7 10513 8.44000000 2891429159 2891429159 7.00000000
4.89586735 -1.32467389 -0.62275237 8 8 10514 5.11000000 2891429161 2891429161 -7.00000000
8.18365192 -2.21578217 1.34283340 5 9 10515 8.58400000 2891429164 2891429164 9.00000000
6.58484411 -1.78289354 -0.59684253 48 10 10515 6.84800000 2891429166 2891429166 -5.00000000
8.15957642 -2.21079206 1.64324713 3 11 10516 8.61200000 2891429168 2891429168 11.00000000
8.06340981 -2.18624687 -0.43784261 12 12 10517 8.36600000 2891429171 2891429171 -3.00000000
8.07634068 -2.19277954 -0.14607663 10 14 10519 8.37000000 2891429175 2891429175 -1.00000000
8.11927509 -2.20443654 2.25431395 47 15 10519 8.71000000 2891429177 2891429177 15.00000000
2.10219550 -0.57391268 -0.58389574 4 0 10527 2.25600000 2891429198 2891429198 -15.00000000
8.05938339 -2.20177436 0.14583232 12 1 10528 8.35600000 2891429201 2891429201 1.00000000
2.46624708 -0.67422622 -0.59027159 4 2 10529 2.62400000 2891429203 2891429203 -13.00000000
8.08154583 -2.21086073 0.43909869 13 3 10530 8.39000000 2891429205 2891429205 3.00000000
2.95223403 -0.80763984 -0.59494245 4 4 10530 3.11800000 2891429207 2891429207 -11.00000000
8.06914330 -2.20898175 0.73193395 72 5 10531 8.39800000 2891429210 2891429210 5.00000000
3.65794969 -1.00207436 -0.60070837 4 6 10532 3.84000000 2891429212 2891429212 -9.00000000
8.07519627 -2.21366906 1.02808976 85 7 10533 8.43600000 2891429214 2891429214 7.00000000
4.87398434 -1.33702934 -0.62055868 8 8 10534 5.09200000 2891429217 2891429217 -7.00000000
10.21792984 -2.80489564 1.67822897 6 9 10535 10.72800000 2891429219 2891429219 9.00000000
8.14234352 -2.23666048 1.64133894 3 11 10536 8.60200000 2891429224 2891429224 11.00000000
8.05380344 -2.21385074 -0.43773794 12 12 10537 8.36400000 2891429226 2891429226 -3.00000000
8.06863689 -2.22095799 -0.14607663 10 14 10539 8.37000000 2891429230 2891429230 -1.00000000
8.12790298 -2.23879766 2.25897264 47 15 10540 8.72800000 2891429233 2891429233 15.00000000
2.11517644 -0.58500040 -0.58803689 4 0 10546 2.27200000 2891429254 2891429254 -15.00000000
8.06745529 -2.23275518 0.14611155 12 1 10547 8.37200000 2891429256 2891429256 1.00000000
2.46399760 -0.68240088 -0.59027159 4 2 10548 2.62400000 2891429258 2891429258 -13.00000000
8.06454659 -2.23498106 0.43857533 13 3 10549 8.38000000 2891429260 2891429260 3.00000000
2.95332336 -0.81847399 -0.59570569 4 4 10549 3.12200000 2891429263 2891429263 -11.00000000
8.08865261 -2.24318194 0.73437428 79 5 10550 8.42600000 2891429265 2891429265 5.00000000
3.64318609 -1.01102972 -0.59883112 4 6 10551 3.82800000 2891429267 2891429267 -9.00000000
8.07928753 -2.24362206 1.02955222 87 7 10552 8.44800000 2891429270 2891429270 7.00000000
4.86761141 -1.35265315 -0.62031496 8 8 10553 5.09000000 2891429272 2891429272 -7.00000000
10.11722088 -2.81336141 1.66321123 11 9 10554 10.63200000 2891429274 2891429274 9.00000000
8.17270947 -2.27417541 1.64897132 3 11 10555 8.64200000 2891429279 2891429279 11.00000000
8.04834175 -2.24108171 -0.43784261 12 12 10556 8.36600000 2891429281 2891429281 -3.00000000
8.07085896 -2.25038767 -0.14625117 12 14 10558 8.38000000 2891429286 2891429286 -1.00000000
8.12827301 -2.26639652 2.26104307 47 15 10558 8.73600000 2891429288 2891429288 15.00000000
2.09824038 -0.58820850 -0.58389574 4 0 10566 2.25600000 2891429309 2891429309 -15.00000000
8.07694149 -2.26576328 0.14642569 12 1 10567 8.39000000 2891429311 2891429311 1.00000000
2.45784831 -0.68994433 -0.58937174 4 2 10568 2.62000000 2891429313 2891429313 -13.00000000
8.08361530 -2.27067971 0.44004071 13 3 10569 8.40800000 2891429316 2891429316 3.00000000
2.94666815 -0.82771617 -0.59494245 4 4 10569 3.11800000 2891429318 2891429318 -11.00000000
8.08077335 -2.27140307 0.73437428 79 5 10570 8.42600000 2891429320 2891429320 5.00000000
3.66815853 -1.03176367 -0.60352415 6 6 10571 3.85800000 2891429323 2891429323 -9.00000000
8.08669376 -2.27611303 1.03150213 90 7 10572 8.46400000 2891429325 2891429325 7.00000000
4.85712767 -1.36802149 -0.61958373 8 8 10573 5.08400000 2891429327 2891429327 -7.00000000
10.03508854 -2.82829714 1.65132225 11 9 10574 10.55600000 2891429330 2891429330 9.00000000
6.55463028 -1.84736192 -0.59579664 210 10 10574 6.83600000 2891429332 2891429332 -5.00000000
10.54932690 -2.97521782 2.13057327 3 11 10575 11.16600000 2891429334 2891429334 11.00000000
8.06353569 -2.27567172 -0.43909869 12 12 10576 8.39000000 2891429336 2891429336 -3.00000000
8.05525684 -2.27637148 -0.14611155 12 14 10578 8.37200000 2891429341 2891429341 -1.00000000
8.12774849 -2.29685712 2.26311374 47 15 10578 8.74400000 2891429343 2891429343 15.00000000
2.09989095 -0.59658504 -0.58493102 4 0 10586 2.26000000 2891429364 2891429364 -15.00000000
8.05551815 -2.29011536 0.14618136 12 1 10587 8.37600000 2891429366 2891429366 1.00000000
2.47041988 -0.70278537 -0.59297097 4 2 10588 2.63600000 2891429369 2891429369 -13.00000000
8.07796288 -2.29801989 0.44014540 10 3 10588 8.41000000 2891429371 2891429371 3.00000000
2.93620801 -0.83584684 -0.59341598 4 4 10589 3.11000000 2891429373 2891429373 -11.00000000
8.08046055 -2.30177951 0.73507154 79 5 10590 8.43400000 2891429376 2891429376 5.00000000
3.65883541 -1.04293716 -0.60258555 4 6 10591 3.85200000 2891429378 2891429378 -9.00000000
8.08633518 -2.30650496 1.03247702 87 7 10592 8.47200000 2891429380 2891429380 7.00000000
4.85614061 -1.38605738 -0.62007123 8 8 10593 5.08800000 2891429382 2891429382 -7.00000000
9.95347309 -2.84095669 1.63943315 11 9 10593 10.48000000 2891429385 2891429385 9.00000000
10.42939186 -2.98073268 2.10843945 9 11 10595 11.05000000 2891429389 2891429389 11.00000000
8.06898499 -2.30764914 -0.43983138 12 12 10596 8.40400000 2891429392 2891429392 -3.00000000
8.05687428 -2.30722809 -0.14628607 14 14 10598 8.38200000 2891429396 2891429396 -1.00000000
8.11410999 -2.32361865 2.26156092 47 15 10598 8.73800000 2891429399 2891429399 15.00000000
2.09779572 -0.60391140 -0.58493102 4 0 10606 2.26000000 2891429419 2891429419 -15.00000000
8.05708313 -2.32098818 0.14635588 18 1 10607 8.38600000 2891429422 2891429422 1.00000000
2.46046162 -0.70924544 -0.59117138 4 2 10608 2.62800000 2891429424 2891429424 -13.00000000
8.08291817 -2.33148646 0.44087809 13 3 10609 8.42400000 2891429426 2891429426 3.00000000
2.93327260 -0.84609103 -0.59341598 4 4 10609 3.11000000 2891429429 2891429429 -11.00000000
8.07620430 -2.33107662 0.73542017 79 5 10610 8.43800000 2891429431 2891429431 5.00000000
3.64947915 -1.05405807 -0.60164696 6 6 10611 3.84600000 2891429433 2891429433 -9.00000000
8.08014107 -2.33526874 1.03272080 90 7 10612 8.47400000 2891429435 2891429435 7.00000000
4.85317945 -1.40355158 -0.62031496 8 8 10613 5.09000000 2891429438 2891429438 -7.00000000
9.85950279 -2.85325742 1.62566698 14 9 10614 10.39200000 2891429440 2891429440 9.00000000
10.29446220 -2.98107839 2.08325267 12 11 10615 10.91800000 2891429445 2891429445 11.00000000
8.06855392 -2.33802462 -0.44025007 17 12 10616 8.41200000 2891429447 2891429447 -3.00000000
8.06029415 -2.33868122 -0.14649551 14 14 10618 8.39400000 2891429452 2891429452 -1.00000000
8.11667061 -2.35657477 2.26466656 47 15 10619 8.75000000 2891429454 2891429454 15.00000000
2.09752941 -0.61177129 -0.58544868 4 0 10626 2.26200000 2891429475 2891429475 -15.00000000
8.05661106 -2.35133934 0.14649551 15 1 10627 8.39400000 2891429477 2891429477 1.00000000
2.44113541 -0.71291310 -0.58712226 4 2 10628 2.61000000 2891429479 2891429479 -13.00000000
8.07130814 -2.35715771 0.44066876 13 3 10628 8.42000000 2891429482 2891429482 3.00000000
2.93407011 -0.85742629 -0.59417921 4 4 10629 3.11400000 2891429484 2891429484 -11.00000000
8.08331680 -2.36372733 0.73681468 72 5 10630 8.45400000 2891429486 2891429486 5.00000000
3.63250637 -1.06290746 -0.59945685 6 6 10631 3.83200000 2891429488 2891429488 -9.00000000
8.07384586 -2.36401725 1.03296459 87 7 10632 8.47600000 2891429491 2891429491 7.00000000
4.83872557 -1.41769302 -0.61909628 8 8 10633 5.08000000 2891429493 2891429493 -7.00000000
9.78503323 -2.86876082 1.61502945 20 9 10634 10.32400000 2891429495 2891429495 9.00000000
6.54830885 -1.91982305 -0.59701681 12 10 10634 6.85000000 2891429498 2891429498 -5.00000000
10.20487118 -2.99378276 2.06722474 12 11 10635 10.83400000 2891429500 2891429500 11.00000000
8.05267811 -2.36392450 -0.43983138 12 12 10636 8.40400000 2891429502 2891429502 -3.00000000
8.06359291 -2.37018633 -0.14670493 16 14 10638 8.40600000 2891429507 2891429507 -1.00000000
8.13105297 -2.39001513 2.27087831 47 15 10638 8.77400000 2891429509 2891429509 15.00000000
2.09908652 -0.62018406 -0.58648396 4 0 10646 2.26600000 2891429530 2891429530 -15.00000000
8.05794239 -2.38228273 0.14667003 12 1 10647 8.40400000 2891429532 2891429532 1.00000000
2.45171285 -0.72529966 -0.59027159 4 2 10648 2.62400000 2891429534 2891429534 -13.00000000
8.06686115 -2.38645053 0.44087809 13 3 10648 8.42400000 2891429537 2891429537 3.00000000
2.93105912 -0.86766285 -0.59417921 4 4 10649 3.11400000 2891429539 2891429539 -11.00000000
8.08647919 -2.39532423 0.73786050 72 5 10650 8.46600000 2891429541 2891429541 5.00000000
3.64013767 -1.07894897 -0.60133410 4 6 10651 3.84400000 2891429544 2891429544 -9.00000000
8.08457565 -2.39783049 1.03540194 90 7 10652 8.49600000 2891429546 2891429546 7.00000000
4.81661987 -1.42949152 -0.61690259 8 8 10653 5.06200000 2891429548 2891429548 -7.00000000
9.70678806 -2.88265443 1.60376608 28 9 10654 10.25200000 2891429551 2891429551 9.00000000
6.56448698 -1.94947565 -0.59910858 36 10 10654 6.87400000 2891429553 2891429553 -5.00000000
10.11155510 -3.00477958 2.05043340 9 11 10655 10.74600000 2891429555 2891429555 11.00000000
8.04820633 -2.39315772 -0.44004071 12 12 10656 8.40800000 2891429558 2891429558 -3.00000000
8.05527020 -2.39831901 -0.14670493 20 14 10658 8.40600000 2891429562 2891429562 -1.00000000
8.13006687 -2.42058825 2.27294874 47 15 10658 8.78200000 2891429564 2891429564 15.00000000
2.09516764 -0.62658799 -0.58596629 4 0 10665 2.26400000 2891429585 2891429585 -15.00000000
8.06723976 -2.41415024 0.14698416 12 1 10666 8.42200000 2891429587 2891429587 1.00000000
2.44556046 -0.73230779 -0.58937174 4 2 10667 2.62000000 2891429590 2891429590 -13.00000000
8.06996155 -2.41803432 0.44150612 10 3 10668 8.43600000 2891429592 2891429592 3.00000000
2.90747881 -0.87117928 -0.58998144 5 4 10668 3.09200000 2891429594 2891429594 -11.00000000
8.08039951 -2.42269897 0.73803484 76 5 10669 8.46800000 2891429597 2891429597 5.00000000
3.62518740 -1.08760834 -0.59945685 4 6 10670 3.83200000 2891429599 2891429599 -9.00000000
8.08418465 -2.42690969 1.03637695 85 7 10671 8.50400000 2891429601 2891429601 7.00000000
4.82326031 -1.44888282 -0.61836505 8 8 10672 5.07400000 2891429604 2891429604 -7.00000000
6.55417013 -1.97008646 -0.59875995 56 10 10673 6.87000000 2891429608 2891429608 -5.00000000
8.18387890 -2.46151042 1.66118312 3 11 10674 8.70600000 2891429611 2891429611 11.00000000
8.04978848 -2.42271137 -0.44056407 12 12 10675 8.41800000 2891429613 2891429613 -3.00000000
8.05301666 -2.42674899 -0.14680964 16 14 10677 8.41200000 2891429617 2891429617 -1.00000000
8.12341690 -2.44951034 2.27346659 47 15 10678 8.78400000 2891429620 2891429620 15.00000000
2.07632732 -0.62885779 -0.58130759 4 0 10685 2.24600000 2891429640 2891429640 -15.00000000
8.05493641 -2.44113564 0.14691436 12 1 10686 8.41800000 2891429643 2891429643 1.00000000
2.44671917 -0.74197096 -0.59027159 4 2 10687 2.62400000 2891429645 2891429645 -13.00000000
8.07527733 -2.44883919 0.44223884 13 3 10687 8.45000000 2891429647 2891429647 3.00000000
2.91569209 -0.88474339 -0.59227115 5 4 10688 3.10400000 2891429650 2891429650 -11.00000000
8.06998730 -2.45031118 0.73786050 76 5 10689 8.46600000 2891429652 2891429652 5.00000000
3.61758876 -1.09910750 -0.59883112 4 6 10690 3.82800000 2891429654 2891429654 -9.00000000
8.09085846 -2.45973325 1.03832686 85 7 10691 8.52000000 2891429657 2891429657 7.00000000
4.80867767 -1.46282160 -0.61714637 8 8 10692 5.06400000 2891429659 2891429659 -7.00000000
8.15434170 -2.48214293 1.35002947 2 9 10693 8.63000000 2891429661 2891429661 9.00000000
6.55868959 -1.99643397 -0.59980583 57 10 10693 6.88200000 2891429664 2891429664 -5.00000000
9.87864590 -3.00889683 2.00731063 9 11 10694 10.52000000 2891429666 2891429666 11.00000000
8.05465603 -2.45487165 -0.44129679 12 12 10695 8.43200000 2891429668 2891429668 -3.00000000
8.04832172 -2.45601177 -0.14687945 20 14 10697 8.41600000 2891429673 2891429673 -1.00000000
8.11666489 -2.47841573 2.27398419 47 15 10698 8.78600000 2891429675 2891429675 15.00000000
2.07781339 -0.63723457 -0.58234286 4 0 10705 2.25000000 2891429696 2891429696 -15.00000000
8.05783653 -2.47275758 0.14712378 12 1 10706 8.43000000 2891429698 2891429698 1.00000000
2.44411421 -0.75050712 -0.59027159 4 2 10707 2.62400000 2891429700 2891429700 -13.00000000
8.08004570 -2.48111629 0.44297153 10 3 10707 8.46400000 2891429703 2891429703 3.00000000
2.91446257 -0.89549226 -0.59265274 5 4 10708 3.10600000 2891429705 2891429705 -11.00000000
8.07090664 -2.48139334 0.73873210 76 5 10709 8.47600000 2891429707 2891429707 5.00000000
3.60995388 -1.11056685 -0.59820539 6 6 10710 3.82400000 2891429710 2891429710 -9.00000000
8.08222294 -2.48796058 1.03832686 90 7 10711 8.52000000 2891429712 2891429712 7.00000000
4.80733633 -1.48076689 -0.61763382 8 8 10712 5.06800000 2891429714 2891429714 -7.00000000
9.53929806 -2.93831658 1.58092666 46 9 10712 10.10600000 2891429717 2891429717 9.00000000
9.77615547 -3.01501083 1.98861134 9 11 10714 10.42200000 2891429721 2891429721 11.00000000
8.05367184 -2.48532844 -0.44171548 17 12 10715 8.44000000 2891429723 2891429723 -3.00000000
8.05689526 -2.48940372 -0.14719360 16 14 10717 8.43400000 2891429728 2891429728 -1.00000000
8.12088394 -2.51072741 2.27760768 45 15 10718 8.80000000 2891429730 2891429730 15.00000000
2.07004166 -0.64276499 -0.58078992 4 0 10725 2.24400000 2891429751 2891429751 -15.00000000
8.05297470 -2.50205636 0.14719360 12 1 10726 8.43400000 2891429753 2891429753 1.00000000
2.43961883 -0.75845557 -0.58982164 4 2 10727 2.62200000 2891429756 2891429756 -13.00000000
8.07705688 -2.51108456 0.44328555 13 3 10727 8.47000000 2891429758 2891429758 3.00000000
2.90756965 -0.90449387 -0.59188950 4 4 10728 3.10200000 2891429760 2891429760 -11.00000000
8.07931709 -2.51488018 0.74030089 79 5 10729 8.49400000 2891429763 2891429763 5.00000000
3.61359930 -1.12551093 -0.59945685 4 6 10730 3.83200000 2891429765 2891429765 -9.00000000
8.07727909 -2.51733899 1.03881431 85 7 10731 8.52400000 2891429767 2891429767 7.00000000
4.79266262 -1.49458361 -0.61641514 8 8 10732 5.05800000 2891429770 2891429770 -7.00000000
9.51201057 -2.96630430 1.57811093 48 9 10732 10.08800000 2891429772 2891429772 9.00000000
9.68311405 -3.02337170 1.97182012 18 11 10734 10.33400000 2891429776 2891429776 11.00000000
8.04113483 -2.51223469 -0.44150612 12 12 10735 8.43600000 2891429779 2891429779 -3.00000000
8.05388165 -2.51930332 -0.14729831 16 14 10737 8.44000000 2891429783 2891429783 -1.00000000
8.11944485 -2.54136753 2.27967811 47 15 10738 8.80800000 2891429786 2891429786 15.00000000
2.09174371 -0.65751791 -0.58751923 4 0 10745 2.27000000 2891429806 2891429806 -15.00000000
8.05563736 -2.53375101 0.14740303 12 1 10746 8.44600000 2891429809 2891429809 1.00000000
2.43509746 -0.76638174 -0.58937174 4 2 10747 2.62000000 2891429811 2891429811 -13.00000000
8.06062222 -2.53686500 0.44286686 13 3 10747 8.46200000 2891429813 2891429813 3.00000000
2.89315915 -0.91109937 -0.58959979 4 4 10748 3.09000000 2891429816 2891429816 -11.00000000
8.08569145 -2.54785728 0.74169534 76 5 10749 8.51000000 2891429818 2891429818 5.00000000
3.62095237 -1.14168191 -0.60133410 4 6 10750 3.84400000 2891429820 2891429820 -9.00000000
8.08358765 -2.55029678 1.04076421 83 7 10751 8.54000000 2891429822 2891429822 7.00000000
4.78363037 -1.51010895 -0.61592764 8 8 10752 5.05400000 2891429825 2891429825 -7.00000000
9.49217987 -2.99651599 1.57654655 69 9 10752 10.07800000 2891429827 2891429827 9.00000000
9.65378189 -3.05123711 1.96800399 40 11 10754 10.31400000 2891429832 2891429832 11.00000000
8.04564667 -2.54450393 -0.44223884 17 12 10755 8.45000000 2891429834 2891429834 -3.00000000
8.04885197 -2.54860854 -0.14736812 16 14 10757 8.44400000 2891429839 2891429839 -1.00000000
8.12938976 -2.57411027 2.28485441 45 15 10757 8.82800000 2891429841 2891429841 15.00000000
2.08207202 -0.66247249 -0.58544868 4 0 10765 2.26200000 2891429862 2891429862 -15.00000000
8.06389332 -2.56731486 0.14771716 18 1 10766 8.46400000 2891429864 2891429864 1.00000000
2.43797779 -0.77665168 -0.59072149 4 2 10767 2.62600000 2891429866 2891429866 -13.00000000
8.06694221 -2.56983638 0.44370425 13 3 10767 8.47800000 2891429869 2891429869 3.00000000
2.89370227 -0.92238533 -0.59036303 4 4 10768 3.09400000 2891429871 2891429871 -11.00000000
8.08244324 -2.57788253 0.74221832 83 5 10769 8.51600000 2891429873 2891429873 5.00000000
3.59812641 -1.14830863 -0.59820539 4 6 10770 3.82400000 2891429875 2891429875 -9.00000000
8.08976460 -2.58332920 1.04271412 83 7 10771 8.55600000 2891429878 2891429878 7.00000000
4.77265739 -1.52498507 -0.61519647 6 8 10772 5.04800000 2891429880 2891429880 -7.00000000
6.53776646 -2.09024000 -0.60050309 40 10 10773 6.89000000 2891429885 2891429885 -5.00000000
9.62063408 -3.07773805 1.96342456 53 11 10774 10.29000000 2891429887 2891429887 11.00000000
8.04812813 -2.57622623 -0.44286686 17 12 10775 8.46200000 2891429889 2891429889 -3.00000000
8.05133247 -2.58035040 -0.14757755 16 14 10777 8.45600000 2891429894 2891429894 -1.00000000
8.12357998 -2.60506845 2.28588986 45 15 10778 8.83200000 2891429896 2891429896 15.00000000
2.05756497 -0.66298944 -0.57923704 4 0 10786 2.23800000 2891429917 2891429917 -15.00000000
8.06013870 -2.59869409 0.14782189 18 1 10787 8.47000000 2891429919 2891429919 1.00000000
2.43140578 -0.78438550 -0.58982164 4 2 10788 2.62200000 2891429922 2891429922 -13.00000000
8.06461811 -2.60324621 0.44412291 13 3 10789 8.48600000 2891429924 2891429924 3.00000000
2.89030218 -0.93298513 -0.59036303 4 4 10789 3.09400000 2891429926 2891429926 -11.00000000
8.07104492 -2.60687637 0.74204397 76 5 10790 8.51400000 2891429928 2891429928 5.00000000
3.60893059 -1.16634846 -0.60070837 4 6 10791 3.84000000 2891429931 2891429931 -9.00000000
8.08590889 -2.61479449 1.04344535 78 7 10792 8.56200000 2891429933 2891429933 7.00000000
4.78214550 -1.54735649 -0.61714637 6 8 10793 5.06400000 2891429935 2891429935 -7.00000000
6.53195715 -2.11480165 -0.60067737 36 10 10794 6.89200000 2891429940 2891429940 -5.00000000
9.59247971 -3.10753322 1.95999002 50 11 10795 10.27200000 2891429942 2891429942 11.00000000
8.05953121 -2.61248136 -0.44401824 17 12 10796 8.48400000 2891429945 2891429945 -3.00000000
8.04752636 -2.61169457 -0.14768226 16 14 10798 8.46200000 2891429949 2891429949 -1.00000000
8.11076164 -2.63221669 2.28485441 45 15 10798 8.82800000 2891429952 2891429952 15.00000000
2.05523825 -0.67016762 -0.57923704 4 0 10806 2.23800000 2891429972 2891429972 -15.00000000
8.05291939 -2.62743378 0.14785679 18 1 10807 8.47200000 2891429975 2891429975 1.00000000
2.42124271 -0.79044878 -0.58802205 4 2 10808 2.61400000 2891429977 2891429977 -13.00000000
8.07826424 -2.63882327 0.44537899 21 3 10809 8.51000000 2891429979 2891429979 3.00000000
2.88702774 -0.94306844 -0.59036303 4 4 10809 3.09400000 2891429981 2891429981 -11.00000000
8.07704639 -2.63998556 0.74343848 79 5 10810 8.53000000 2891429984 2891429984 5.00000000
3.57667470 -1.16972840 -0.59601533 2 6 10811 3.81000000 2891429986 2891429986 -9.00000000
8.07484531 -2.64238644 1.04320157 83 7 10812 8.56000000 2891429988 2891429988 7.00000000
4.76162243 -1.55909812 -0.61519647 8 8 10813 5.04800000 2891429991 2891429991 -7.00000000
9.45356750 -3.09720874 1.57560790 186 9 10814 10.07200000 2891429993 2891429993 9.00000000
6.53778887 -2.14193177 -0.60189754 12 10 10814 6.90600000 2891429995 2891429995 -5.00000000
9.56851482 -3.13671732 1.95731866 56 11 10815 10.25800000 2891429998 2891429998 11.00000000
8.03897667 -2.63686347 -0.44339022 17 12 10816 8.47200000 2891430000 2891430000 -3.00000000
8.05166054 -2.64413714 -0.14792660 16 14 10818 8.47600000 2891430005 2891430005 -1.00000000
8.11207199 -2.66554475 2.28796029 45 15 10819 8.84000000 2891430007 2891430007 15.00000000
2.06194043 -0.68072408 -0.58182520 4 0 10827 2.24800000 2891430028 2891430028 -15.00000000
8.05462837 -2.66069484 0.14806622 18 1 10828 8.48400000 2891430030 2891430030 1.00000000
2.42202997 -0.80054092 -0.58892184 4 2 10829 2.61800000 2891430032 2891430032 -13.00000000
8.06664181 -2.66778660 0.44527432 13 3 10830 8.50800000 2891430034 2891430034 3.00000000
2.90591931 -0.96104097 -0.59494245 4 4 10830 3.11800000 2891430037 2891430037 -11.00000000
8.07677364 -2.67270136 0.74431002 83 5 10831 8.54000000 2891430039 2891430039 5.00000000
3.58736539 -1.18779695 -0.59851825 2 6 10832 3.82600000 2891430041 2891430041 -9.00000000
8.06699085 -2.67258859 1.04344535 80 7 10833 8.56200000 2891430044 2891430044 7.00000000
4.75399208 -1.57591534 -0.61495268 6 8 10834 5.04600000 2891430046 2891430046 -7.00000000
9.44269848 -3.13018894 1.57560790 195 9 10834 10.07200000 2891430048 2891430048 9.00000000
6.54124069 -2.16964316 -0.60294342 32 10 10835 6.91800000 2891430051 2891430051 -5.00000000
9.56068039 -3.17300344 1.95808196 40 11 10836 10.26200000 2891430053 2891430053 11.00000000
8.03873539 -2.66945720 -0.44391358 17 12 10837 8.48200000 2891430055 2891430055 -3.00000000
8.05709553 -2.67867708 -0.14820583 16 14 10839 8.49200000 2891430060 2891430060 -1.00000000
8.11738300 -2.69872069 2.29210138 45 15 10839 8.85600000 2891430062 2891430062 15.00000000
2.07054567 -0.69158959 -0.58493102 4 0 10847 2.26000000 2891430083 2891430083 -15.00000000
8.05477428 -2.69196367 0.14824075 15 1 10848 8.49400000 2891430085 2891430085 1.00000000
2.41552448 -0.80775446 -0.58802205 4 2 10849 2.61400000 2891430087 2891430087 -13.00000000
8.05728054 -2.69592834 0.44527432 10 3 10850 8.50800000 2891430090 2891430090 3.00000000
2.86903477 -0.95996559 -0.58807331 4 4 10850 3.08200000 2891430092 2891430092 -11.00000000
8.08061981 -2.70530605 0.74553025 79 5 10851 8.55400000 2891430094 2891430094 5.00000000
3.58132434 -1.19968462 -0.59820539 4 6 10852 3.82400000 2891430097 2891430097 -9.00000000
8.07266998 -2.70577836 1.04539526 78 7 10853 8.57800000 2891430099 2891430099 7.00000000
4.75410843 -1.59439385 -0.61568391 6 8 10854 5.05200000 2891430101 2891430101 -7.00000000
9.43490791 -3.16603398 1.57623363 186 9 10855 10.07600000 2891430104 2891430104 9.00000000
9.54954624 -3.20635724 1.95808196 56 11 10856 10.26200000 2891430108 2891430108 11.00000000
8.03504753 -2.69940948 -0.44422761 25 12 10857 8.48800000 2891430110 2891430110 -3.00000000
8.04580116 -2.70614791 -0.14817093 16 14 10859 8.49000000 2891430115 2891430115 -1.00000000
8.12025452 -2.73276758 2.29572487 47 15 10860 8.87000000 2891430117 2891430117 15.00000000
2.05738044 -0.69438434 -0.58182520 4 0 10865 2.24800000 2891430138 2891430138 -15.00000000
8.06522369 -2.72365332 0.14858979 15 1 10866 8.51400000 2891430140 2891430140 1.00000000
2.41297507 -0.81533903 -0.58802205 4 2 10867 2.61400000 2891430143 2891430143 -13.00000000
8.06201553 -2.72570539 0.44600701 10 3 10868 8.52200000 2891430145 2891430145 3.00000000
2.86972427 -0.97023177 -0.58883655 4 4 10868 3.08600000 2891430147 2891430147 -11.00000000
8.07585621 -2.73195553 0.74587888 79 5 10869 8.55800000 2891430150 2891430150 5.00000000
3.57379556 -1.20966303 -0.59757966 4 6 10870 3.82000000 2891430152 2891430152 -9.00000000
8.07541084 -2.73494673 1.04685771 76 7 10871 8.59000000 2891430154 2891430154 7.00000000
4.74343586 -1.60741007 -0.61495268 4 8 10872 5.04600000 2891430157 2891430157 -7.00000000
9.42547321 -3.19401407 1.57623363 186 9 10872 10.07600000 2891430159 2891430159 9.00000000
9.54314423 -3.23760366 1.95884514 59 11 10874 10.26600000 2891430163 2891430163 11.00000000
8.04544067 -2.73105907 -0.44527432 21 12 10875 8.50800000 2891430166 2891430166 -3.00000000
8.04104614 -2.73269796 -0.14824075 14 14 10877 8.49400000 2891430170 2891430170 -1.00000000
8.11211014 -2.75684857 2.29572487 47 15 10877 8.87000000 2891430173 2891430173 15.00000000
2.05311561 -0.70093751 -0.58130759 4 0 10885 2.24600000 2891430193 2891430193 -15.00000000
8.06323624 -2.75437522 0.14872941 12 1 10886 8.52200000 2891430196 2891430196 1.00000000
2.42486620 -0.82879907 -0.59162128 4 2 10887 2.63000000 2891430198 2891430198 -13.00000000
8.06001091 -2.75641561 0.44642571 13 3 10888 8.53000000 2891430200 2891430200 3.00000000
2.87375069 -0.98278415 -0.59036303 4 4 10888 3.09400000 2891430203 2891430203 -11.00000000
8.06438541 -2.75948381 0.74570453 76 5 10889 8.55600000 2891430205 2891430205 5.00000000
3.57328892 -1.22341025 -0.59820539 4 6 10890 3.82400000 2891430207 2891430207 -9.00000000
8.07896042 -2.76762176 1.04856384 85 7 10891 8.60400000 2891430210 2891430210 7.00000000
4.73591805 -1.62331426 -0.61470896 6 8 10892 5.04400000 2891430212 2891430212 -7.00000000
9.41930866 -3.23046112 1.57717228 163 9 10893 10.08200000 2891430214 2891430214 9.00000000
6.55098152 -2.24673533 -0.60590672 145 10 10893 6.95200000 2891430216 2891430216 -5.00000000
9.52992821 -3.27025843 1.95846355 59 11 10894 10.26400000 2891430219 2891430219 11.00000000
