# .PCD v0.7 - Point Cloud Data file format
VERSION 0.7
FIELDS x y z intensity laser_id azimuth distance_m adjustedtime timestamp vertical_angle
SIZE 4 4 4 1 1 2 8 8 4 8
TYPE F F F U U U F U U F
COUNT 1 1 1 1 1 1 1 1 1 1
WIDTH 539
HEIGHT 1
VIEWPOINT 0 0 0 1 0 0 0
POINTS 539
DATA ascii
3.01702666 1.08441234 -0.62318218 5 4 7023 3.26600000 2893019633 2893019633 -11.00000000
8.17156219 2.93550062 0.75964946 75 5 7024 8.71600000 2893019636 2893019636 5.00000000
3.80015802 1.36439621 -0.63950408 6 6 7025 4.08800000 2893019638 2893019638 -9.00000000
8.19683933 2.94135094 1.06928158 90 7 7026 8.77400000 2893019640 2893019640 7.00000000
5.13478994 1.84155476 -0.66979390 6 8 7027 5.49600000 2893019643 2893019643 -7.00000000
8.19627953 2.93953562 1.37912619 86 9 7027 8.81600000 2893019645 2893019645 9.00000000
7.92791319 2.84172654 -0.73681468 13 10 7028 8.45400000 2893019647 2893019647 -5.00000000
8.20984077 2.94116521 1.69514716 81 11 7029 8.88400000 2893019649 2893019649 11.00000000
8.16452599 2.92332339 -0.45448545 12 12 7030 8.68400000 2893019652 2893019652 -3.00000000
8.20520782 2.93627429 2.01196218 106 13 7031 8.94400000 2893019654 2893019654 13.00000000
8.16232586 2.91932178 -0.15131237 14 14 7032 8.67000000 2893019656 2893019656 -1.00000000
7.30559444 2.61146688 2.07883453 45 15 7033 8.03200000 2893019659 2893019659 15.00000000
2.12956548 0.75746661 -0.60563654 4 0 7042 2.34000000 2893019679 2893019679 -15.00000000
8.17168427 2.90498543 0.15138218 12 1 7043 8.67400000 2893019682 2893019682 1.00000000
2.52488661 0.89708591 -0.61861539 4 2 7044 2.75000000 2893019684 2893019684 -13.00000000
8.18105412 2.90670824 0.45500880 13 3 7044 8.69400000 2893019686 2893019686 3.00000000
3.02301836 1.07347679 -0.62356383 5 4 7045 3.26800000 2893019689 2893019689 -11.00000000
8.16775227 2.89877152 0.75825495 75 5 7046 8.70000000 2893019691 2893019691 5.00000000
3.80909252 1.35111535 -0.64012980 4 6 7047 4.09200000 2893019693 2893019693 -9.00000000
8.20058823 2.90720248 1.06830668 92 7 7048 8.76600000 2893019695 2893019695 7.00000000
5.14182329 1.82182515 -0.66979390 6 8 7049 5.49600000 2893019698 2893019698 -7.00000000
8.19447231 2.90342450 1.37693620 81 9 7049 8.80200000 2893019700 2893019700 9.00000000
7.94064426 2.81192970 -0.73698896 13 10 7050 8.45600000 2893019702 2893019702 -5.00000000
8.21366978 2.90699983 1.69362068 84 11 7051 8.87600000 2893019705 2893019705 11.00000000
8.17569065 2.89195251 -0.45448545 12 12 7052 8.68400000 2893019707 2893019707 -3.00000000
8.20907307 2.90214872 2.01016259 106 13 7053 8.93600000 2893019709 2893019709 13.00000000
8.16216278 2.88396215 -0.15110293 14 14 7054 8.65800000 2893019712 2893019712 -1.00000000
7.31511688 2.58467293 2.07883453 45 15 7054 8.03200000 2893019714 2893019714 15.00000000
2.13219643 0.75002843 -0.60563654 4 0 7062 2.34000000 2893019735 2893019735 -15.00000000
8.15913677 2.86848450 0.15096332 12 1 7063 8.65000000 2893019737 2893019737 1.00000000
2.52432537 0.88697493 -0.61771560 4 2 7064 2.74600000 2893019739 2893019739 -13.00000000
8.18549824 2.87614703 0.45469478 13 3 7064 8.68800000 2893019742 2893019742 3.00000000
3.02489471 1.06226742 -0.62318218 5 4 7065 3.26600000 2893019744 2893019744 -11.00000000
8.17218113 2.86826348 0.75773203 75 5 7066 8.69400000 2893019746 2893019746 5.00000000
3.79514527 1.33127224 -0.63700116 4 6 7067 4.07200000 2893019748 2893019748 -9.00000000
8.19944668 2.87461901 1.06684422 90 7 7068 8.75400000 2893019751 2893019751 7.00000000
5.15939188 1.80780423 -0.67125636 6 8 7069 5.50800000 2893019753 2893019753 -7.00000000
8.20269299 2.87414956 1.37662327 86 9 7069 8.80000000 2893019755 2893019755 9.00000000
7.97297668 2.79209661 -0.73908073 13 10 7070 8.48000000 2893019758 2893019758 -5.00000000
8.20153141 2.87052846 1.68904126 87 11 7071 8.85200000 2893019760 2893019760 11.00000000
8.16688251 2.85680175 -0.45343873 12 12 7072 8.66400000 2893019762 2893019762 -3.00000000
8.21547413 2.87218976 2.00926280 106 13 7073 8.93200000 2893019765 2893019765 13.00000000
8.17029190 2.85479355 -0.15106803 12 14 7074 8.65600000 2893019767 2893019767 -1.00000000
7.31724596 2.55529666 2.07676411 45 15 7075 8.02400000 2893019769 2893019769 15.00000000
2.14939857 0.74765855 -0.60977769 4 0 7082 2.35600000 2893019790 2893019790 -15.00000000
8.17287731 2.84129953 0.15103312 12 1 7083 8.65400000 2893019792 2893019792 1.00000000
2.52556539 0.87751842 -0.61726570 3 2 7084 2.74400000 2893019795 2893019795 -13.00000000
8.17900372 2.84022975 0.45375273 13 3 7085 8.67000000 2893019797 2893019797 3.00000000
3.03043890 1.05234611 -0.62356383 5 4 7085 3.26800000 2893019799 2893019799 -11.00000000
8.18214321 2.83971977 0.75773203 82 5 7086 8.69400000 2893019801 2893019801 5.00000000
3.82589722 1.32707953 -0.64138132 4 6 7087 4.10000000 2893019804 2893019804 -9.00000000
8.19442654 2.84077835 1.06489432 92 7 7088 8.73800000 2893019806 2893019806 7.00000000
5.15441656 1.78588426 -0.66979390 6 8 7089 5.49600000 2893019808 2893019808 -7.00000000
8.21080875 2.84485269 1.37631047 81 9 7089 8.79800000 2893019811 2893019811 9.00000000
8.00903225 2.77337599 -0.74152106 13 10 7090 8.50800000 2893019813 2893019813 -5.00000000
8.20036888 2.83802962 1.68675148 81 11 7091 8.84000000 2893019815 2893019815 11.00000000
8.14660454 2.81783032 -0.45176399 12 12 7092 8.63200000 2893019818 2893019818 -3.00000000
8.19966507 2.83458114 2.00296426 108 13 7093 8.90400000 2893019820 2893019820 13.00000000
8.17642689 2.82495046 -0.15099822 12 14 7094 8.65200000 2893019822 2893019822 -1.00000000
7.31837559 2.52849436 2.07469344 45 15 7094 8.01600000 2893019825 2893019825 15.00000000
2.14286113 0.73700964 -0.60718948 4 0 7102 2.34600000 2893019845 2893019845 -15.00000000
8.17139912 2.80885339 0.15082370 12 1 7103 8.64200000 2893019848 2893019848 1.00000000
2.52861309 0.86869717 -0.61726570 3 2 7104 2.74400000 2893019850 2893019850 -13.00000000
8.16997814 2.80517650 0.45270601 13 3 7105 8.65000000 2893019852 2893019852 3.00000000
3.03595066 1.04239905 -0.62394542 5 4 7105 3.27000000 2893019854 2893019854 -11.00000000
8.19012165 2.81049490 0.75755769 86 5 7106 8.69200000 2893019857 2893019857 5.00000000
3.83424330 1.31499827 -0.64200705 4 6 7107 4.10400000 2893019859 2893019859 -9.00000000
8.19865894 2.81022620 1.06416309 90 7 7108 8.73200000 2893019861 2893019861 7.00000000
5.16813087 1.77045453 -0.67076886 6 8 7109 5.50400000 2893019864 2893019864 -7.00000000
8.20623016 2.80962038 1.37380743 81 9 7110 8.78200000 2893019866 2893019866 9.00000000
8.03751373 2.75185609 -0.74326420 13 10 7110 8.52800000 2893019868 2893019868 -5.00000000
8.20279598 2.80684543 1.68522501 81 11 7111 8.83200000 2893019871 2893019871 11.00000000
8.16772938 2.79325414 -0.45239201 12 12 7112 8.64400000 2893019873 2893019873 -3.00000000
8.19106960 2.79963899 1.99846518 104 13 7113 8.88400000 2893019875 2893019875 13.00000000
8.16731453 2.78992820 -0.15064918 14 14 7114 8.63200000 2893019878 2893019878 -1.00000000
7.33856297 2.50539899 2.07779932 45 15 7115 8.02800000 2893019880 2893019880 15.00000000
2.13810468 0.72703749 -0.60511893 4 0 7122 2.33800000 2893019901 2893019901 -15.00000000
8.17736721 2.77902579 0.15075389 12 1 7123 8.63800000 2893019903 2893019903 1.00000000
2.53901076 0.86237228 -0.61906528 3 2 7124 2.75200000 2893019905 2893019905 -13.00000000
8.18161106 2.77728295 0.45281070 15 3 7125 8.65200000 2893019907 2893019907 3.00000000
3.03771162 1.03116417 -0.62356383 5 4 7125 3.26800000 2893019910 2893019910 -11.00000000
8.18290138 2.77612805 0.75598890 75 5 7126 8.67400000 2893019912 2893019912 5.00000000
3.83506870 1.30033767 -0.64138132 4 6 7127 4.10000000 2893019914 2893019914 -9.00000000
8.20653820 2.78095317 1.06391943 92 7 7128 8.73000000 2893019917 2893019917 7.00000000
5.17803955 1.75367713 -0.67125636 6 8 7129 5.50800000 2893019919 2893019919 -7.00000000
8.19866276 2.77668929 1.37099171 86 9 7129 8.76400000 2893019921 2893019921 9.00000000
8.05839443 2.72761583 -0.74431002 13 10 7130 8.54000000 2893019924 2893019924 -5.00000000
8.20882416 2.77693701 1.68446183 78 11 7131 8.82800000 2893019926 2893019926 11.00000000
8.16418552 2.76024842 -0.45165929 12 12 7132 8.63000000 2893019928 2893019928 -3.00000000
8.19340706 2.76853466 1.99666560 104 13 7133 8.87600000 2893019931 2893019931 13.00000000
8.16184711 2.75628352 -0.15036993 12 14 7134 8.61600000 2893019933 2893019933 -1.00000000
7.34683084 2.48104978 2.07779932 45 15 7134 8.02800000 2893019935 2893019935 15.00000000
2.13696718 0.71833855 -0.60408366 4 0 7142 2.33400000 2893019956 2893019956 -15.00000000
8.16806221 2.74409628 0.15040484 12 1 7143 8.61800000 2893019958 2893019958 1.00000000
2.53646350 0.85164338 -0.61771560 4 2 7144 2.74600000 2893019960 2893019960 -13.00000000
8.17800140 2.74425912 0.45207798 13 3 7145 8.63800000 2893019963 2893019963 3.00000000
3.03570890 1.01868057 -0.62241894 4 4 7145 3.26200000 2893019965 2893019965 -11.00000000
8.17365170 2.74121237 0.75424582 72 5 7146 8.65400000 2893019967 2893019967 5.00000000
3.83958435 1.28694284 -0.64138132 4 6 7147 4.10000000 2893019970 2893019970 -9.00000000
8.19737339 2.74598479 1.06148195 95 7 7148 8.71000000 2893019972 2893019972 7.00000000
5.18789434 1.73685205 -0.67174381 6 8 7149 5.51200000 2893019974 2893019974 -7.00000000
8.19754505 2.74286032 1.36911440 89 9 7150 8.75200000 2893019977 2893019977 9.00000000
8.05652905 2.69567704 -0.74326420 13 10 7150 8.52800000 2893019979 2893019979 -5.00000000
8.20729637 2.74453020 1.68217206 68 11 7151 8.81600000 2893019981 2893019981 11.00000000
8.17945385 2.73363256 -0.45197332 12 12 7152 8.63600000 2893019983 2893019983 -3.00000000
8.19562721 2.73744774 1.99486589 103 13 7153 8.86800000 2893019986 2893019986 13.00000000
8.16383171 2.72524381 -0.15023032 12 14 7154 8.60800000 2893019988 2893019988 -1.00000000
7.33754969 2.44799185 2.07262301 45 15 7155 8.00800000 2893019990 2893019990 15.00000000
2.15033674 0.71490496 -0.60718948 4 0 7161 2.34600000 2893020011 2893020011 -15.00000000
8.16573048 2.71321177 0.15019540 12 1 7162 8.60600000 2893020013 2893020013 1.00000000
2.53742433 0.84261334 -0.61726570 4 2 7163 2.74400000 2893020016 2893020016 -13.00000000
8.19463921 2.71964121 0.45249668 13 3 7164 8.64600000 2893020018 2893020018 3.00000000
3.04652357 1.01108181 -0.62394542 5 4 7164 3.27000000 2893020020 2893020020 -11.00000000
8.17513275 2.71158338 0.75354856 76 5 7165 8.64600000 2893020023 2893020023 5.00000000
3.82133055 1.26674449 -0.63762689 4 6 7166 4.07600000 2893020025 2893020025 -9.00000000
8.19135857 2.71379185 1.05953205 95 7 7167 8.69400000 2893020027 2893020027 7.00000000
5.18231869 1.71589506 -0.67028141 6 8 7168 5.50000000 2893020030 2893020030 -7.00000000
8.19862080 2.71460986 1.36786294 89 9 7168 8.74400000 2893020032 2893020032 9.00000000
8.08055687 2.67395329 -0.74465865 13 10 7169 8.54400000 2893020034 2893020034 -5.00000000
8.19398403 2.70990133 1.67759264 78 11 7170 8.79200000 2893020036 2893020036 11.00000000
8.16951084 2.70022559 -0.45092660 12 12 7171 8.61600000 2893020039 2893020039 -3.00000000
8.20466042 2.71025515 1.99486589 101 13 7172 8.86800000 2893020041 2893020041 13.00000000
8.16522789 2.69564891 -0.15009069 14 14 7173 8.60000000 2893020043 2893020043 -1.00000000
7.34887314 2.42613935 2.07365823 45 15 7173 8.01200000 2893020046 2893020046 15.00000000
2.15465426 0.70799762 -0.60770714 4 0 7181 2.34800000 2893020066 2893020066 -15.00000000
8.16755199 2.68219566 0.15005580 12 1 7182 8.59800000 2893020069 2893020069 1.00000000
2.53109217 0.83071250 -0.61501616 4 2 7183 2.73400000 2893020071 2893020071 -13.00000000
8.18510532 2.68479514 0.45144996 13 3 7184 8.62600000 2893020073 2893020073 3.00000000
3.05936170 1.00350070 -0.62585348 5 4 7184 3.28000000 2893020076 2893020076 -11.00000000
8.18265533 2.68240976 0.75337422 83 5 7185 8.64400000 2893020078 2893020078 5.00000000
3.82572889 1.25339782 -0.63762689 6 6 7186 4.07600000 2893020080 2893020080 -9.00000000
8.17814350 2.67776966 1.05660725 97 7 7187 8.67000000 2893020083 2893020083 7.00000000
5.16941023 1.69162118 -0.66784400 9 8 7188 5.48000000 2893020085 2893020085 -7.00000000
8.20100498 2.68208599 1.36661148 91 9 7189 8.73600000 2893020087 2893020087 9.00000000
8.10499096 2.65068507 -0.74605316 13 10 7189 8.56000000 2893020089 2893020089 -5.00000000
8.19592953 2.67884278 1.67606616 81 11 7190 8.78400000 2893020092 2893020092 11.00000000
8.15990067 2.66549063 -0.44987988 12 12 7191 8.59600000 2893020094 2893020094 -3.00000000
8.19554615 2.67555118 1.99036694 101 13 7192 8.84800000 2893020096 2893020096 13.00000000
8.17458820 2.66713047 -0.15009069 14 14 7193 8.60000000 2893020099 2893020099 -1.00000000
7.35036898 2.39679241 2.07158756 45 15 7194 8.00400000 2893020101 2893020101 15.00000000
2.15160036 0.69868219 -0.60615420 4 0 7201 2.34200000 2893020122 2893020122 -15.00000000
8.17306137 2.65243483 0.14998598 12 1 7202 8.59400000 2893020124 2893020124 1.00000000
2.53583026 0.82247353 -0.61546606 4 2 7203 2.73600000 2893020126 2893020126 -13.00000000
8.17542744 2.65004873 0.45040324 15 3 7204 8.60600000 2893020129 2893020129 3.00000000
3.05537558 0.99039400 -0.62432700 5 4 7204 3.27200000 2893020131 2893020131 -11.00000000
8.18628216 2.65198851 0.75285131 79 5 7205 8.63800000 2893020133 2893020133 5.00000000
3.83383942 1.24125278 -0.63825262 6 6 7206 4.08000000 2893020136 2893020136 -9.00000000
8.18932915 2.64981747 1.05685091 99 7 7207 8.67200000 2893020138 2893020138 7.00000000
5.17528343 1.67356622 -0.66784400 6 8 7208 5.48000000 2893020140 2893020140 -7.00000000
8.19669724 2.65062118 1.36442137 94 9 7208 8.72200000 2893020142 2893020142 9.00000000
8.11419392 2.62237716 -0.74605316 17 10 7209 8.56000000 2893020145 2893020145 -5.00000000
8.20149422 2.64901042 1.67530298 84 11 7210 8.78000000 2893020147 2893020147 11.00000000
8.18056011 2.64067221 -0.45050791 12 12 7211 8.60800000 2893020149 2893020149 -3.00000000
8.18628883 2.64094400 1.98586786 103 13 7212 8.82800000 2893020152 2893020152 13.00000000
8.16862202 2.63367057 -0.14981146 12 14 7213 8.58400000 2893020154 2893020154 -1.00000000
7.36379290 2.37418294 2.07314062 45 15 7213 8.01000000 2893020156 2893020156 15.00000000
2.15402603 0.69116747 -0.60615420 4 0 7221 2.34200000 2893020177 2893020177 -15.00000000
8.17846203 2.62266803 0.14991617 12 1 7222 8.59000000 2893020179 2893020179 1.00000000
2.55167603 0.81778002 -0.61861539 4 2 7223 2.75000000 2893020182 2893020182 -13.00000000
8.17892170 2.61966729 0.45008922 13 3 7224 8.60000000 2893020184 2893020184 3.00000000
3.04759598 0.97612959 -0.62203735 5 4 7224 3.26000000 2893020186 2893020186 -11.00000000
8.18220711 2.61914492 0.75163114 83 5 7225 8.62400000 2893020189 2893020189 5.00000000
3.84191179 1.22906649 -0.63887835 6 6 7226 4.08400000 2893020191 2893020191 -9.00000000
8.18529320 2.61698341 1.05514479 95 7 7227 8.65800000 2893020193 2893020193 7.00000000
5.18487597 1.65669930 -0.66833150 6 8 7228 5.48400000 2893020195 2893020195 -7.00000000
8.18754005 2.61455178 1.36129272 97 9 7229 8.70200000 2893020198 2893020198 9.00000000
8.11570644 2.59161305 -0.74535590 13 10 7229 8.55200000 2893020200 2893020200 -5.00000000
8.20695019 2.61917186 1.67453969 84 11 7230 8.77600000 2893020202 2893020202 11.00000000
8.16689396 2.60481787 -0.44925186 12 12 7231 8.58400000 2893020205 2893020205 -3.00000000
8.19545746 2.61235237 1.98586786 101 13 7232 8.82800000 2893020207 2893020207 13.00000000
8.16252327 2.60028505 -0.14953221 12 14 7233 8.56800000 2893020209 2893020209 -1.00000000
7.36876345 2.34600544 2.07210517 45 15 7234 8.00600000 2893020212 2893020212 15.00000000
2.14894056 0.68168414 -0.60408366 4 0 7240 2.33400000 2893020232 2893020232 -15.00000000
8.16805172 2.58948970 0.14956713 12 1 7241 8.57000000 2893020235 2893020235 1.00000000
2.56180477 0.81166822 -0.62041503 4 2 7242 2.75800000 2893020237 2893020237 -13.00000000
8.18566036 2.59192777 0.44998455 13 3 7243 8.59800000 2893020239 2893020239 3.00000000
3.05081606 0.96601802 -0.62203735 5 4 7243 3.26000000 2893020242 2893020242 -11.00000000
8.17185116 2.58598638 0.74988800 83 5 7244 8.60400000 2893020244 2893020244 5.00000000
3.83843255 1.21393681 -0.63762689 6 6 7245 4.07600000 2893020246 2893020246 -9.00000000
8.19014072 2.58862925 1.05465734 97 7 7246 8.65400000 2893020248 2893020248 7.00000000
5.19791269 1.64188826 -0.66930646 6 8 7247 5.49200000 2893020251 2893020251 -7.00000000
8.18817806 2.58643699 1.36004126 99 9 7247 8.69400000 2893020253 2893020253 9.00000000
8.12425613 2.56468630 -0.74535590 13 10 7248 8.55200000 2893020255 2893020255 -5.00000000
8.20435715 2.58839822 1.67225003 87 11 7249 8.76400000 2893020258 2893020258 11.00000000
8.16786766 2.57531881 -0.44883317 12 12 7250 8.57600000 2893020260 2893020260 -3.00000000
8.19664097 2.58281827 1.98406827 101 13 7251 8.82000000 2893020262 2893020262 13.00000000
8.16347122 2.57080007 -0.14939260 12 14 7252 8.56000000 2893020265 2893020265 -1.00000000
7.37609720 2.32284403 2.07210517 45 15 7252 8.00600000 2893020267 2893020267 15.00000000
2.15868092 0.67648959 -0.60615420 4 0 7260 2.34200000 2893020288 2893020288 -15.00000000
8.16177464 2.55618095 0.14928788 12 1 7261 8.55400000 2893020290 2893020290 1.00000000
2.55346394 0.79922831 -0.61771560 4 2 7262 2.74600000 2893020292 2893020292 -13.00000000
8.19084549 2.56214619 0.44977522 13 3 7263 8.59400000 2893020295 2893020295 3.00000000
3.05042219 0.95419055 -0.62127411 5 4 7263 3.25600000 2893020297 2893020297 -11.00000000
8.17702579 2.55625653 0.74953938 83 5 7264 8.60000000 2893020299 2893020299 5.00000000
3.82756281 1.19581819 -0.63512391 6 6 7265 4.06000000 2893020301 2893020301 -9.00000000
8.18017864 2.55410814 1.05221987 95 7 7266 8.63400000 2893020304 2893020304 7.00000000
5.20740223 1.62491679 -0.66979390 6 8 7267 5.49600000 2893020306 2893020306 -7.00000000
8.18395710 2.55372024 1.35785115 91 9 7267 8.68000000 2893020308 2893020308 9.00000000
6.66097355 2.07721305 -0.61043882 12 10 7268 7.00400000 2893020311 2893020311 -5.00000000
8.18897533 2.55214977 1.66728902 96 11 7269 8.73800000 2893020313 2893020313 11.00000000
8.16536617 2.54322815 -0.44820514 12 12 7270 8.56400000 2893020315 2893020315 -3.00000000
8.20560646 2.55419087 1.98406827 90 13 7271 8.82000000 2893020318 2893020318 13.00000000
8.16475773 2.53991270 -0.14925298 12 14 7272 8.55200000 2893020320 2893020320 -1.00000000
7.40998554 2.30511642 2.07935214 45 15 7272 8.03400000 2893020322 2893020322 15.00000000
2.16091228 0.66932738 -0.60615420 4 0 7279 2.34200000 2893020343 2893020343 -15.00000000
8.16256523 2.52673602 0.14914827 12 1 7280 8.54600000 2893020345 2893020345 1.00000000
2.53934503 0.78557295 -0.61366647 4 2 7281 2.72800000 2893020348 2893020348 -13.00000000
8.17830658 2.52848101 0.44862381 13 3 7282 8.57200000 2893020350 2893020350 3.00000000
3.07232618 0.94986874 -0.62509024 5 4 7282 3.27600000 2893020352 2893020352 -11.00000000
8.16071033 2.52148032 0.74727333 76 5 7283 8.57400000 2893020354 2893020354 5.00000000
3.84660673 1.18778157 -0.63762689 6 6 7284 4.07600000 2893020357 2893020357 -9.00000000
8.16963482 2.52111411 1.04978251 92 7 7285 8.61400000 2893020359 2893020359 7.00000000
5.18999863 1.60061920 -0.66686904 9 8 7286 5.47200000 2893020361 2893020361 -7.00000000
8.19470882 2.52571917 1.35816407 99 9 7287 8.68200000 2893020364 2893020364 9.00000000
6.65449715 2.05100536 -0.60921866 12 10 7287 6.99000000 2893020366 2893020366 -5.00000000
8.19927025 2.52555823 1.66767061 90 11 7288 8.74000000 2893020368 2893020368 11.00000000
8.16421032 2.51319885 -0.44768175 17 12 7289 8.55400000 2893020371 2893020371 -3.00000000
8.19913101 2.52238202 1.98046911 101 13 7290 8.80400000 2893020373 2893020373 13.00000000
8.16931248 2.51164818 -0.14918317 12 14 7291 8.54800000 2893020375 2893020375 -1.00000000
7.45821333 2.29302120 2.09074020 45 15 7291 8.07800000 2893020377 2893020377 15.00000000
2.16138816 0.66121519 -0.60563654 4 0 7299 2.34000000 2893020398 2893020398 -15.00000000
8.16368675 2.49588943 0.14900865 12 1 7300 8.53800000 2893020401 2893020401 1.00000000
2.54207158 0.77670419 -0.61366647 5 2 7301 2.72800000 2893020403 2893020403 -13.00000000
8.16034031 2.49175215 0.44715840 13 3 7302 8.54400000 2893020405 2893020405 3.00000000
3.06060171 0.93455178 -0.62203735 5 4 7302 3.26000000 2893020407 2893020407 -11.00000000
8.17136765 2.49356031 0.74744767 76 5 7303 8.57600000 2893020410 2893020410 5.00000000
3.85450840 1.17549956 -0.63825262 6 6 7304 4.08000000 2893020412 2893020412 -9.00000000
8.18028450 2.49316001 1.05002630 99 7 7305 8.61600000 2893020414 2893020414 7.00000000
5.19935226 1.58364975 -0.66735655 9 8 7306 5.47600000 2893020417 2893020417 -7.00000000
8.18457794 2.49134660 1.35503531 97 9 7307 8.66200000 2893020419 2893020419 9.00000000
6.65970993 2.02718401 -0.60904431 12 10 7307 6.98800000 2893020421 2893020421 -5.00000000
8.19301033 2.49235106 1.66461766 93 11 7308 8.72400000 2893020424 2893020424 11.00000000
8.17293358 2.48468518 -0.44768175 17 12 7309 8.55400000 2893020426 2893020426 -3.00000000
8.19296932 2.48921442 1.97686982 104 13 7310 8.78800000 2893020428 2893020428 13.00000000
8.15889645 2.47730684 -0.14883412 14 14 7311 8.52800000 2893020430 2893020430 -1.00000000
7.52572298 2.28362036 2.10730457 45 15 7312 8.14200000 2893020433 2893020433 15.00000000
2.16368318 0.65366650 -0.60563654 4 0 7319 2.34000000 2893020454 2893020454 -15.00000000
8.18000603 2.46968961 0.14914827 12 1 7320 8.54600000 2893020456 2893020456 1.00000000
2.55596137 0.77120346 -0.61636591 5 2 7321 2.74000000 2893020458 2893020458 -13.00000000
8.17281342 2.46440506 0.44736776 10 3 7322 8.54800000 2893020460 2893020460 3.00000000
3.07136393 0.92612970 -0.62356383 5 4 7322 3.26800000 2893020463 2893020463 -11.00000000
8.16857624 2.46157241 0.74640179 79 5 7323 8.56400000 2893020465 2893020465 5.00000000
3.85858798 1.16203773 -0.63825262 6 6 7324 4.08000000 2893020467 2893020467 -9.00000000
8.19083786 2.46516252 1.05026996 97 7 7325 8.61800000 2893020470 2893020470 7.00000000
5.20484877 1.56549096 -0.66735655 6 8 7326 5.47600000 2893020472 2893020472 -7.00000000
8.17619896 2.45764422 1.35221946 87 9 7327 8.64400000 2893020474 2893020474 9.00000000
6.64003277 1.99589550 -0.60660398 12 10 7327 6.96000000 2893020477 2893020477 -5.00000000
8.20166016 2.46373677 1.66461766 100 11 7328 8.72400000 2893020479 2893020479 11.00000000
8.16434002 2.45097280 -0.44673973 12 12 7329 8.53600000 2893020481 2893020481 -3.00000000
8.19414234 2.45836043 1.97507024 104 13 7330 8.78000000 2893020483 2893020483 13.00000000
8.15791607 2.44594026 -0.14865960 14 14 7331 8.51800000 2893020486 2893020486 -1.00000000
7.61097431 2.28195381 2.12904549 45 15 7331 8.22600000 2893020488 2893020488 15.00000000
2.16224909 0.64500540 -0.60460126 4 0 7339 2.33600000 2893020509 2893020509 -15.00000000
8.17324638 2.43655062 0.14886902 12 1 7340 8.53000000 2893020511 2893020511 1.00000000
2.55863786 0.76227683 -0.61636591 5 2 7341 2.74000000 2893020513 2893020513 -13.00000000
8.17562294 2.43415189 0.44705373 13 3 7342 8.54200000 2893020516 2893020516 3.00000000
3.06140661 0.91148144 -0.62089247 5 4 7342 3.25400000 2893020518 2893020518 -11.00000000
8.16566086 2.42963457 0.74535590 76 5 7343 8.55200000 2893020520 2893020520 5.00000000
3.87019467 1.15081370 -0.63950408 6 6 7344 4.08800000 2893020523 2893020523 -9.00000000
8.18797588 2.43316340 1.04880762 97 7 7345 8.60600000 2893020525 2893020525 7.00000000
5.21789312 1.54957366 -0.66833150 9 8 7346 5.48400000 2893020527 2893020527 -7.00000000
8.18093967 2.42796493 1.35159373 87 9 7347 8.64000000 2893020530 2893020530 9.00000000
6.63167858 1.96817029 -0.60520947 16 10 7347 6.94400000 2893020532 2893020532 -5.00000000
8.19515228 2.43062663 1.66156471 68 11 7348 8.70800000 2893020534 2893020534 11.00000000
8.18242073 2.42529678 -0.44726309 17 12 7349 8.54600000 2893020536 2893020536 -3.00000000
8.20080471 2.42918897 1.97462034 60 13 7350 8.77800000 2893020539 2893020539 13.00000000
8.16257000 2.41631365 -0.14858979 14 14 7351 8.51400000 2893020541 2893020541 -1.00000000
7.68928432 2.27621007 2.14871573 45 15 7351 8.30200000 2893020543 2893020543 15.00000000
2.16830516 0.63816690 -0.60563654 4 0 7360 2.34000000 2893020564 2893020564 -15.00000000
8.16101933 2.40037084 0.14848508 12 1 7361 8.50800000 2893020566 2893020566 1.00000000
2.55393577 0.75069559 -0.61456627 6 2 7362 2.73200000 2893020569 2893020569 -13.00000000
8.19939995 2.41010475 0.44789112 28 3 7362 8.55800000 2893020571 2893020571 3.00000000
3.06661034 0.90080804 -0.62127411 5 4 7363 3.25600000 2893020573 2893020573 -11.00000000
8.16304111 2.39632249 0.74431002 76 5 7364 8.54000000 2893020576 2893020576 5.00000000
3.85922265 1.13217235 -0.63700116 6 6 7365 4.07200000 2893020578 2893020578 -9.00000000
8.18540955 2.39978576 1.04734516 90 7 7366 8.59400000 2893020580 2893020580 7.00000000
5.21401262 1.52764797 -0.66711277 9 8 7367 5.47400000 2893020582 2893020582 -7.00000000
8.20453072 2.40383673 1.35409677 22 9 7367 8.65600000 2893020585 2893020585 9.00000000
6.63693571 1.94329095 -0.60503519 44 10 7368 6.94200000 2893020587 2893020587 -5.00000000
8.16250038 2.38688207 -0.44569302 12 12 7370 8.51600000 2893020592 2893020592 -3.00000000
8.24706364 2.41004777 1.98361838 21 13 7371 8.81800000 2893020594 2893020594 13.00000000
8.17137146 2.38638020 -0.14858979 14 14 7372 8.51400000 2893020596 2893020596 -1.00000000
7.78658628 2.27400708 2.17356229 45 15 7372 8.39800000 2893020599 2893020599 15.00000000
2.15938878 0.62736040 -0.60253072 4 0 7380 2.32800000 2893020619 2893020619 -15.00000000
8.15974617 2.36908126 0.14831056 12 1 7381 8.49800000 2893020622 2893020622 1.00000000
2.55092597 0.74014705 -0.61321658 6 2 7382 2.72600000 2893020624 2893020624 -13.00000000
8.18324089 2.37280560 0.44653037 15 3 7383 8.53200000 2893020626 2893020626 3.00000000
3.08293533 0.89392531 -0.62394542 5 4 7383 3.27000000 2893020629 2893020629 -11.00000000
8.16178799 2.36504078 0.74343848 72 5 7384 8.53000000 2893020631 2893020631 5.00000000
3.85556149 1.11649644 -0.63574964 4 6 7385 4.06400000 2893020633 2893020633 -9.00000000
8.17848206 2.36678410 1.04539526 92 7 7386 8.57800000 2893020635 2893020635 7.00000000
5.21168566 1.50723243 -0.66613781 9 8 7387 5.46600000 2893020638 2893020638 -7.00000000
8.33473969 2.40885115 1.37412035 13 9 7388 8.78400000 2893020640 2893020640 9.00000000
6.65133476 1.92232466 -0.60573244 40 10 7388 6.95000000 2893020642 2893020642 -5.00000000
8.33116341 2.40624213 1.68560672 12 11 7389 8.83400000 2893020645 2893020645 11.00000000
8.15926838 2.35505176 -0.44506496 12 12 7390 8.50400000 2893020647 2893020647 -3.00000000
8.28351212 2.38934660 1.99036694 8 13 7391 8.84800000 2893020649 2893020649 13.00000000
8.17772961 2.35728836 -0.14855488 12 14 7392 8.51200000 2893020652 2893020652 -1.00000000
7.87654829 2.26898193 2.19633842 45 15 7393 8.48600000 2893020654 2893020654 15.00000000
2.17259884 0.62339306 -0.60563654 4 0 7399 2.34000000 2893020675 2893020675 -15.00000000
8.16755772 2.34200954 0.14831056 12 1 7400 8.49800000 2893020677 2893020677 1.00000000
2.55336642 0.73168379 -0.61321658 6 2 7401 2.72600000 2893020679 2893020679 -13.00000000
8.17145443 2.34158349 0.44548365 13 3 7401 8.51200000 2893020682 2893020682 3.00000000
3.07455826 0.88045406 -0.62165570 5 4 7402 3.25800000 2893020684 2893020684 -11.00000000
8.16575432 2.33686614 0.74308985 76 5 7403 8.52600000 2893020686 2893020686 5.00000000
3.86683965 1.10587752 -0.63700116 4 6 7404 4.07200000 2893020688 2893020688 -9.00000000
8.18246841 2.33855915 1.04490781 90 7 7405 8.57400000 2893020691 2893020691 7.00000000
5.21474648 1.48939633 -0.66589409 9 8 7406 5.46400000 2893020693 2893020693 -7.00000000
8.28379726 2.36439157 1.36442137 7 9 7407 8.72200000 2893020695 2893020695 9.00000000
6.66533661 1.90244472 -0.60642964 16 10 7407 6.95800000 2893020698 2893020698 -5.00000000
8.30322552 2.36837006 1.67835593 6 11 7408 8.79600000 2893020700 2893020700 11.00000000
8.16127110 2.32633924 -0.44475096 17 12 7409 8.49800000 2893020702 2893020702 -3.00000000
8.44882107 2.40670991 2.02815866 8 13 7410 9.01600000 2893020705 2893020705 13.00000000
8.16242218 2.32358718 -0.14813602 14 14 7411 8.48800000 2893020707 2893020707 -1.00000000
7.99140358 2.27490330 2.22636151 45 15 7411 8.60200000 2893020709 2893020709 15.00000000
2.17104411 0.61475283 -0.60460126 4 0 7419 2.33600000 2893020730 2893020730 -15.00000000
8.17375851 2.31294060 0.14827564 12 1 7420 8.49600000 2893020732 2893020732 1.00000000
2.55402970 0.72223616 -0.61276668 7 2 7421 2.72400000 2893020734 2893020734 -13.00000000
8.16996956 2.31032825 0.44496030 21 3 7421 8.50200000 2893020737 2893020737 3.00000000
3.08139157 0.87078428 -0.62241894 5 4 7422 3.26200000 2893020739 2893020739 -11.00000000
8.16427517 2.30564070 0.74221832 76 5 7423 8.51600000 2893020741 2893020741 5.00000000
3.88208294 1.09559214 -0.63887835 4 6 7424 4.08400000 2893020744 2893020744 -9.00000000
8.18484974 2.30836630 1.04417658 85 7 7425 8.56800000 2893020746 2893020746 7.00000000
5.22182417 1.47172296 -0.66613781 9 8 7426 5.46600000 2893020748 2893020748 -7.00000000
8.53728008 2.40454531 1.40478146 10 9 7427 8.98000000 2893020751 2893020751 9.00000000
6.65467691 1.87430549 -0.60486084 12 10 7427 6.94000000 2893020753 2893020753 -5.00000000
8.57790756 2.41437221 1.73216403 12 11 7428 9.07800000 2893020755 2893020755 11.00000000
8.15780640 2.29459214 -0.44412291 17 12 7429 8.48600000 2893020758 2893020758 -3.00000000
8.15508175 2.29075456 -0.14785679 16 14 7431 8.47200000 2893020762 2893020762 -1.00000000
8.07369041 2.26789165 2.24706697 45 15 7431 8.68200000 2893020764 2893020764 15.00000000
2.17317677 0.60717070 -0.60460126 5 0 7439 2.33600000 2893020785 2893020785 -15.00000000
8.17022705 2.28116822 0.14806622 12 1 7440 8.48400000 2893020787 2893020787 1.00000000
2.56404352 0.71541142 -0.61456627 7 2 7441 2.73200000 2893020790 2893020790 -13.00000000
8.17645836 2.27983189 0.44485563 23 3 7442 8.50000000 2893020792 2893020792 3.00000000
3.08063006 0.85896832 -0.62165570 5 4 7442 3.25800000 2893020794 2893020794 -11.00000000
8.15691948 2.27284956 0.74082381 72 5 7443 8.50000000 2893020797 2893020797 5.00000000
3.87827182 1.07991493 -0.63762689 4 6 7444 4.07600000 2893020799 2893020799 -9.00000000
8.18903255 2.27871752 1.04368901 90 7 7445 8.56400000 2893020801 2893020801 7.00000000
5.21927977 1.45135903 -0.66516286 9 8 7446 5.45800000 2893020804 2893020804 -7.00000000
8.64226818 2.40321183 1.42073786 10 9 7446 9.08200000 2893020806 2893020806 9.00000000
6.64198208 1.84573042 -0.60311776 16 10 7447 6.92000000 2893020808 2893020808 -5.00000000
8.68843269 2.41278219 1.75277138 12 11 7448 9.18600000 2893020811 2893020811 11.00000000
8.17153931 2.26770449 -0.44443694 12 12 7449 8.49200000 2893020813 2893020813 -3.00000000
8.64756966 2.39818335 2.07179928 40 13 7450 9.21000000 2893020815 2893020815 13.00000000
8.16110134 2.26173997 -0.14782189 14 14 7451 8.47000000 2893020817 2893020817 -1.00000000
8.20296383 2.27179980 2.28071332 47 15 7452 8.81200000 2893020820 2893020820 15.00000000
2.17155814 0.59855455 -0.60356599 4 0 7459 2.33200000 2893020840 2893020840 -15.00000000
8.16078854 2.24785566 0.14775208 12 1 7460 8.46600000 2893020843 2893020843 1.00000000
2.56276727 0.70542252 -0.61366647 7 2 7461 2.72800000 2893020845 2893020845 -13.00000000
8.18012238 2.25164509 0.44464630 28 3 7461 8.49600000 2893020847 2893020847 3.00000000
3.08739567 0.84925103 -0.62241894 5 4 7462 3.26200000 2893020850 2893020850 -11.00000000
8.15519810 2.24172235 0.73995227 72 5 7463 8.49000000 2893020852 2893020852 5.00000000
3.87439847 1.06427765 -0.63637543 4 6 7464 4.06800000 2893020854 2893020854 -9.00000000
8.18736553 2.24749112 1.04247034 90 7 7465 8.55400000 2893020857 2893020857 7.00000000
5.23580027 1.43628240 -0.66662532 9 8 7466 5.47000000 2893020859 2893020859 -7.00000000
8.30238724 2.27594924 1.36348283 5 9 7467 8.71600000 2893020861 2893020861 9.00000000
6.63493395 1.81884718 -0.60189754 36 10 7467 6.90600000 2893020864 2893020864 -5.00000000
8.24993896 2.26002336 1.66270959 3 11 7468 8.71400000 2893020866 2893020866 11.00000000
8.16014194 2.23389292 -0.44339022 12 12 7469 8.47200000 2893020868 2893020868 -3.00000000
8.16316032 2.23165655 -0.14771716 12 14 7471 8.46400000 2893020873 2893020873 -1.00000000
8.17916298 2.23449755 2.27191353 31 15 7472 8.77800000 2893020875 2893020875 15.00000000
2.18471551 0.59439307 -0.60667187 4 0 7478 2.34400000 2893020896 2893020896 -15.00000000
8.16047955 2.21868253 0.14761245 12 1 7479 8.45800000 2893020898 2893020898 1.00000000
2.55380917 0.69385457 -0.61096704 7 2 7480 2.71600000 2893020900 2893020900 -13.00000000
8.17790699 2.22188807 0.44412291 55 3 7480 8.48600000 2893020903 2893020903 3.00000000
3.09019470 0.83900821 -0.62241894 5 4 7481 3.26200000 2893020905 2893020905 -11.00000000
8.15297222 2.21205783 0.73908073 61 5 7482 8.48000000 2893020907 2893020907 5.00000000
3.86646724 1.04832232 -0.63449818 6 6 7483 4.05600000 2893020910 2893020910 -9.00000000
8.13729286 2.20475459 1.03515816 40 7 7484 8.49400000 2893020912 2893020912 7.00000000
5.23670197 1.41787446 -0.66613781 9 8 7485 5.46600000 2893020914 2893020914 -7.00000000
8.07878208 2.18738794 1.32562566 10 9 7485 8.47400000 2893020917 2893020917 9.00000000
6.64285231 1.79735529 -0.60207188 36 10 7486 6.90800000 2893020919 2893020919 -5.00000000
8.06407738 2.18038535 1.62378454 18 11 7487 8.51000000 2893020921 2893020921 11.00000000
8.14822388 2.20161104 -0.44234350 12 12 7488 8.45200000 2893020923 2893020923 -3.00000000
8.04660511 2.17264748 1.92423129 18 13 7489 8.55400000 2893020926 2893020926 13.00000000
8.12611103 2.19259286 -0.14691436 14 14 7490 8.41800000 2893020928 2893020928 -1.00000000
8.07088375 2.17618036 2.23982000 22 15 7491 8.65400000 2893020930 2893020930 15.00000000
2.19050884 0.58776468 -0.60770714 4 0 7498 2.34800000 2893020951 2893020951 -15.00000000
8.04842281 2.15807414 0.14544836 15 1 7499 8.33400000 2893020953 2893020953 1.00000000
2.56374502 0.68695337 -0.61276668 7 2 7500 2.72400000 2893020956 2893020956 -13.00000000
8.03127670 2.15197420 0.43574917 21 3 7500 8.32600000 2893020958 2893020958 3.00000000
3.08741522 0.82669294 -0.62127411 5 4 7501 3.25600000 2893020960 2893020960 -11.00000000
8.03938961 2.15114045 0.72809905 18 5 7502 8.35400000 2893020963 2893020963 5.00000000
3.88918638 1.03992200 -0.63762689 4 6 7503 4.07600000 2893020965 2893020965 -9.00000000
8.05288506 2.15173960 1.02345872 26 7 7504 8.39800000 2893020967 2893020967 7.00000000
5.22627640 1.39548945 -0.66418791 9 8 7505 5.45000000 2893020970 2893020970 -7.00000000
8.07873440 2.15713596 1.32437420 27 9 7505 8.46600000 2893020972 2893020972 9.00000000
6.64331055 1.77261543 -0.60154891 40 10 7506 6.90200000 2893020974 2893020974 -5.00000000
8.07543278 2.15323496 1.62454784 28 11 7507 8.51400000 2893020976 2893020976 11.00000000
8.03234386 2.14024401 -0.43564451 21 12 7508 8.32400000 2893020979 2893020979 -3.00000000
8.05602360 2.14504766 1.92468119 31 13 7509 8.55600000 2893020981 2893020981 13.00000000
8.02936172 2.13644814 -0.14502950 20 14 7510 8.31000000 2893020983 2893020983 -1.00000000
8.08963299 2.15097308 2.24292588 22 15 7511 8.66600000 2893020986 2893020986 15.00000000
2.17947412 0.57665586 -0.60408366 4 0 7518 2.33400000 2893021006 2893021006 -15.00000000
8.05010796 2.12843323 0.14534365 37 1 7519 8.32800000 2893021009 2893021009 1.00000000
2.56612730 0.67800003 -0.61276668 7 2 7520 2.72400000 2893021011 2893021011 -13.00000000
8.05804920 2.12902856 0.43679589 39 3 7520 8.34600000 2893021013 2893021013 3.00000000
3.09218049 0.81641197 -0.62165570 5 4 7521 3.25800000 2893021016 2893021016 -11.00000000
8.06418800 2.12763906 0.72966790 32 5 7522 8.37200000 2893021018 2893021018 5.00000000
3.89852285 1.02785075 -0.63856548 6 6 7523 4.08200000 2893021020 2893021020 -9.00000000
8.06226635 2.12412238 1.02370250 26 7 7524 8.40000000 2893021022 2893021022 7.00000000
5.23303509 1.37774324 -0.66443163 9 8 7525 5.45200000 2893021025 2893021025 -7.00000000
8.07284355 2.12540221 1.32218409 22 9 7525 8.45200000 2893021027 2893021027 9.00000000
6.63597012 1.74586666 -0.60032874 52 10 7526 6.88800000 2893021029 2893021029 -5.00000000
8.08290005 2.12503314 1.62454784 21 11 7527 8.51400000 2893021032 2893021032 11.00000000
8.02237988 2.10762548 -0.43470246 34 12 7528 8.30600000 2893021034 2893021034 -3.00000000
8.08607960 2.12285185 1.93008006 14 13 7529 8.58000000 2893021036 2893021036 13.00000000
8.02903366 2.10637760 -0.14488988 30 14 7530 8.30200000 2893021039 2893021039 -1.00000000
8.19575787 2.15011668 2.27036071 33 15 7530 8.77200000 2893021041 2893021041 15.00000000
2.17212725 0.56660646 -0.60149544 4 0 7538 2.32400000 2893021062 2893021062 -15.00000000
8.04781246 2.09779811 0.14516912 28 1 7539 8.31800000 2893021064 2893021064 1.00000000
2.56659245 0.66854727 -0.61231679 9 2 7540 2.72200000 2893021066 2893021066 -13.00000000
8.06736469 2.10139108 0.43690056 23 3 7540 8.34800000 2893021069 2893021069 3.00000000
3.09691143 0.80610782 -0.62203735 5 4 7541 3.26000000 2893021071 2893021071 -11.00000000
8.13519669 2.11602783 0.73542017 39 5 7542 8.43800000 2893021073 2893021073 5.00000000
3.88679218 1.01026058 -0.63606256 6 6 7543 4.06600000 2893021075 2893021075 -9.00000000
8.17530537 2.12341404 1.03710806 66 7 7544 8.51000000 2893021078 2893021078 7.00000000
5.23396969 1.35847068 -0.66394418 9 8 7545 5.44800000 2893021080 2893021080 -7.00000000
6.63238096 1.72019124 -0.59945720 48 10 7546 6.87800000 2893021085 2893021085 -5.00000000
8.06642437 2.08912349 -0.43669122 17 12 7548 8.34400000 2893021089 2893021089 -3.00000000
8.06731319 2.08634925 -0.14544836 14 14 7550 8.33400000 2893021094 2893021094 -1.00000000
8.20171261 2.11958003 2.26984310 45 15 7551 8.77000000 2893021096 2893021096 15.00000000
2.17970467 0.56046414 -0.60304838 4 0 7558 2.33000000 2893021117 2893021117 -15.00000000
8.13836861 2.09109187 0.14667003 12 1 7559 8.40400000 2893021119 2893021119 1.00000000
2.57079792 0.66006875 -0.61276668 7 2 7560 2.72400000 2893021122 2893021122 -13.00000000
8.17948151 2.09861207 0.44255283 86 3 7561 8.45600000 2893021124 2893021124 3.00000000
3.09780455 0.79480475 -0.62165570 5 4 7561 3.25800000 2893021126 2893021126 -11.00000000
8.15990353 2.09207129 0.73698896 83 5 7562 8.45600000 2893021128 2893021128 5.00000000
3.86350489 0.98982346 -0.63168240 6 6 7563 4.03800000 2893021131 2893021131 -9.00000000
8.17497540 2.09289455 1.03613317 87 7 7564 8.50200000 2893021133 2893021133 7.00000000
5.25791121 1.34511244 -0.66638160 9 8 7565 5.46800000 2893021135 2893021135 -7.00000000
6.63448429 1.69604242 -0.59910858 44 10 7566 6.87400000 2893021140 2893021140 -5.00000000
8.15688133 2.08219552 -0.44119212 17 12 7568 8.43000000 2893021145 2893021145 -3.00000000
8.15980721 2.07990885 -0.14698416 14 14 7570 8.42200000 2893021149 2893021149 -1.00000000
8.21618462 2.09427905 2.27191353 49 15 7570 8.77800000 2893021152 2893021152 15.00000000
2.18726587 0.55427581 -0.60460126 4 0 7578 2.33600000 2893021172 2893021172 -15.00000000
8.15531063 2.06512547 0.14684455 12 1 7579 8.41400000 2893021175 2893021175 1.00000000
2.56552958 0.64917880 -0.61096704 7 2 7580 2.71600000 2893021177 2893021177 -13.00000000
8.17901134 2.06808925 0.44213417 84 3 7581 8.44800000 2893021179 2893021179 3.00000000
3.10627031 0.78543037 -0.62280059 5 4 7581 3.26400000 2893021181 2893021181 -11.00000000
8.16522503 2.06308699 0.73681468 76 5 7582 8.45400000 2893021184 2893021184 5.00000000
3.88608932 0.98116702 -0.63481104 6 6 7583 4.05800000 2893021186 2893021186 -9.00000000
8.16875744 2.06094646 1.03442693 99 7 7584 8.48800000 2893021188 2893021188 7.00000000
5.24332619 1.32189786 -0.66394418 6 8 7585 5.44800000 2893021191 2893021191 -7.00000000
6.63650036 1.67190003 -0.59875995 40 10 7586 6.87000000 2893021195 2893021195 -5.00000000
8.15635204 2.05176115 -0.44077343 17 12 7588 8.42200000 2893021200 2893021200 -3.00000000
8.15732098 2.04897738 -0.14680964 12 14 7590 8.41200000 2893021205 2893021205 -1.00000000
8.21631050 2.06227016 2.26984310 49 15 7591 8.77000000 2893021207 2893021207 15.00000000
2.20043302 0.54944551 -0.60770714 4 0 7598 2.34800000 2893021228 2893021228 -15.00000000
8.16052914 2.03616142 0.14680964 12 1 7599 8.41200000 2893021230 2893021230 1.00000000
2.56021667 0.63833368 -0.60916746 7 2 7600 2.70800000 2893021232 2893021232 -13.00000000
8.17261410 2.03614664 0.44140145 100 3 7601 8.43400000 2893021234 2893021234 3.00000000
3.10708785 0.77410805 -0.62241894 5 4 7601 3.26200000 2893021237 2893021237 -11.00000000
8.17237663 2.03457260 0.73681468 76 5 7602 8.45400000 2893021239 2893021239 5.00000000
3.88949060 0.96759605 -0.63481104 6 6 7603 4.05800000 2893021241 2893021241 -9.00000000
8.17397594 2.03194094 1.03418326 97 7 7604 8.48600000 2893021244 2893021244 7.00000000
5.24020243 1.30167294 -0.66296923 9 8 7605 5.44000000 2893021246 2893021246 -7.00000000
6.63842869 1.64776421 -0.59841132 40 10 7606 6.86600000 2893021251 2893021251 -5.00000000
8.16152573 2.02279711 -0.44066876 12 12 7608 8.42000000 2893021255 2893021255 -3.00000000
8.15665913 2.01856899 -0.14667003 12 14 7610 8.40400000 2893021260 2893021260 -1.00000000
8.22685432 2.03594065 2.27087831 47 15 7610 8.77400000 2893021262 2893021262 15.00000000
2.18357825 0.53714657 -0.60253072 4 0 7618 2.32800000 2893021283 2893021283 -15.00000000
8.16564560 2.00718594 0.14677474 12 1 7619 8.41000000 2893021285 2893021285 1.00000000
2.57756901 0.63311172 -0.61276668 7 2 7620 2.72400000 2893021287 2893021287 -13.00000000
8.17385292 2.00617838 0.44108742 99 3 7621 8.42800000 2893021290 2893021290 3.00000000
3.10023785 0.76091772 -0.62051088 5 4 7621 3.25200000 2893021292 2893021292 -11.00000000
8.16394806 2.00223660 0.73542017 79 5 7622 8.43800000 2893021294 2893021294 5.00000000
3.89284444 0.95401329 -0.63481104 6 6 7623 4.05800000 2893021297 2893021297 -9.00000000
8.18101883 2.00339603 1.03418326 95 7 7624 8.48600000 2893021299 2893021299 7.00000000
5.24857044 1.28431702 -0.66345668 9 8 7625 5.44400000 2893021301 2893021301 -7.00000000
8.16853714 1.99429572 -0.44066876 12 12 7628 8.42000000 2893021310 2893021310 -3.00000000
8.15199852 1.98724306 -0.14646059 12 14 7630 8.39200000 2893021315 2893021315 -1.00000000
8.21736813 2.00165915 2.26621962 51 15 7631 8.75600000 2893021317 2893021317 15.00000000
2.19276452 0.53210628 -0.60460126 4 0 7636 2.33600000 2893021338 2893021338 -15.00000000
8.16413689 1.97963810 0.14663512 12 1 7637 8.40200000 2893021340 2893021340 1.00000000
2.57575750 0.62409312 -0.61186689 7 2 7638 2.72000000 2893021343 2893021343 -13.00000000
8.17623329 1.97954953 0.44087809 94 3 7639 8.42400000 2893021345 2893021345 3.00000000
3.10261297 0.75117433 -0.62051088 5 4 7639 3.25200000 2893021347 2893021347 -11.00000000
8.16051579 1.97423649 0.73454863 83 5 7640 8.42800000 2893021350 2893021350 5.00000000
3.88622189 0.93945807 -0.63324672 6 6 7641 4.04800000 2893021352 2893021352 -9.00000000
8.17955399 1.97582030 1.03320825 95 7 7642 8.47800000 2893021354 2893021354 7.00000000
5.25257921 1.26782179 -0.66345668 9 8 7643 5.44400000 2893021357 2893021357 -7.00000000
6.61628437 1.59575903 -0.59544802 12 10 7644 6.83200000 2893021361 2893021361 -5.00000000
8.16699505 1.96675324 -0.44025007 12 12 7646 8.41200000 2893021366 2893021366 -3.00000000
8.15625668 1.96115553 -0.14642569 12 14 7648 8.39000000 2893021370 2893021370 -1.00000000
8.20636654 1.97320426 2.26156092 47 15 7648 8.73800000 2893021373 2893021373 15.00000000
2.19648743 0.52489787 -0.60511893 4 0 7656 2.33800000 2893021393 2893021393 -15.00000000
8.15543747 1.94741237 0.14635588 12 1 7657 8.38600000 2893021396 2893021396 1.00000000
2.57412934 0.61419368 -0.61096704 7 2 7658 2.71600000 2893021398 2893021398 -13.00000000
8.18309307 1.95099711 0.44087809 94 3 7659 8.42400000 2893021400 2893021400 3.00000000
3.10903573 0.74125022 -0.62127411 5 4 7659 3.25600000 2893021403 2893021403 -11.00000000
8.15572834 1.94296849 0.73350275 76 5 7660 8.41600000 2893021405 2893021405 5.00000000
3.89524269 0.92725927 -0.63418531 6 6 7661 4.05400000 2893021407 2893021407 -9.00000000
8.17095089 1.94358134 1.03125834 97 7 7662 8.46200000 2893021410 2893021410 7.00000000
5.26083517 1.25039721 -0.66394418 9 8 7663 5.44800000 2893021412 2893021412 -7.00000000
6.62375259 1.57311463 -0.59562236 16 10 7664 6.83400000 2893021416 2893021416 -5.00000000
8.15243340 1.93316412 -0.43909869 17 12 7666 8.39000000 2893021421 2893021421 -3.00000000
8.15137768 1.92990863 -0.14621626 14 14 7668 8.37800000 2893021426 2893021426 -1.00000000
8.21166325 1.94266832 2.26104307 51 15 7669 8.73600000 2893021428 2893021428 15.00000000
2.18890381 0.51501524 -0.60253072 4 0 7676 2.32800000 2893021449 2893021449 -15.00000000
8.15634537 1.91755974 0.14625117 18 1 7677 8.38000000 2893021451 2893021451 1.00000000
2.56487489 0.60253060 -0.60826766 7 2 7678 2.70400000 2893021453 2893021453 -13.00000000
8.18013191 1.92013884 0.44035473 100 3 7679 8.41400000 2893021456 2893021456 3.00000000
3.11542678 0.73129040 -0.62203735 5 4 7679 3.26000000 2893021458 2893021458 -11.00000000
8.15664196 1.91312301 0.73297977 76 5 7680 8.41000000 2893021460 2893021460 5.00000000
3.89076257 0.91185373 -0.63293386 6 6 7681 4.04600000 2893021463 2893021463 -9.00000000
8.16222286 1.91142654 1.02930844 97 7 7682 8.44600000 2893021465 2893021465 7.00000000
5.25550365 1.22976446 -0.66272551 9 8 7683 5.43800000 2893021467 2893021467 -7.00000000
6.63502359 1.55134463 -0.59614527 28 10 7684 6.84000000 2893021472 2893021472 -5.00000000
8.15524197 1.90378690 -0.43888932 17 12 7686 8.38600000 2893021476 2893021476 -3.00000000
8.15806484 1.90144324 -0.14621626 18 14 7688 8.37800000 2893021481 2893021481 -1.00000000
8.21053505 1.91367280 2.25897264 60 15 7688 8.72800000 2893021483 2893021483 15.00000000
2.20574450 0.51085848 -0.60667187 4 0 7696 2.34400000 2893021504 2893021504 -15.00000000
8.15324879 1.88682282 0.14607663 18 1 7697 8.37000000 2893021506 2893021506 1.00000000
2.57075977 0.59445190 -0.60916746 7 2 7698 2.70800000 2893021509 2893021509 -13.00000000
8.15564823 1.88437915 0.43867999 100 3 7699 8.38200000 2893021511 2893021511 3.00000000
3.11222196 0.71908522 -0.62089247 12 4 7699 3.25400000 2893021513 2893021513 -11.00000000
8.15356350 1.88239837 0.73210824 76 5 7700 8.40000000 2893021516 2893021516 5.00000000
3.89777160 0.89915496 -0.63355958 6 6 7701 4.05000000 2893021518 2893021518 -9.00000000
8.16497707 1.88203168 1.02882099 95 7 7702 8.44200000 2893021520 2893021520 7.00000000
5.25976419 1.21141183 -0.66272551 9 8 7703 5.43800000 2893021522 2893021522 -7.00000000
6.63263226 1.52638733 -0.59544802 16 10 7704 6.83200000 2893021527 2893021527 -5.00000000
8.15599823 1.87396646 -0.43857533 17 12 7706 8.38000000 2893021532 2893021532 -3.00000000
8.24308395 1.89246142 1.95257521 3 13 7707 8.68000000 2893021534 2893021534 13.00000000
8.15490723 1.87071919 -0.14604174 16 14 7708 8.36800000 2893021536 2893021536 -1.00000000
8.20996189 1.88184035 2.25690198 51 15 7709 8.72000000 2893021539 2893021539 15.00000000
2.19424224 0.50053364 -0.60304838 4 0 7715 2.33000000 2893021559 2893021559 -15.00000000
8.16530991 1.86110854 0.14618136 15 1 7716 8.37600000 2893021562 2893021562 1.00000000
2.57841730 0.58722192 -0.61051714 6 2 7717 2.71400000 2893021564 2893021564 -13.00000000
8.15406227 1.85555100 0.43826130 100 3 7718 8.37400000 2893021566 2893021566 3.00000000
3.11076069 0.70788950 -0.62012923 13 4 7718 3.25000000 2893021569 2893021569 -11.00000000
8.15198994 1.85358286 0.73141098 76 5 7719 8.39200000 2893021571 2893021571 5.00000000
3.91999459 0.89060092 -0.63668829 6 6 7720 4.07000000 2893021573 2893021573 -9.00000000
8.17504501 1.85582423 1.02930844 92 7 7721 8.44600000 2893021575 2893021575 7.00000000
5.26181650 1.19352400 -0.66248173 9 8 7722 5.43600000 2893021578 2893021578 -7.00000000
6.62988472 1.50262272 -0.59475076 16 10 7723 6.82400000 2893021582 2893021582 -5.00000000
8.15827084 1.84602833 -0.43836597 17 12 7725 8.37600000 2893021587 2893021587 -3.00000000
8.24361229 1.86382663 1.95122540 3 13 7726 8.67400000 2893021589 2893021589 13.00000000
8.14156055 1.83925974 -0.14569269 18 14 7727 8.34800000 2893021592 2893021592 -1.00000000
