# .PCD v0.7 - Point Cloud Data file format
VERSION 0.7
FIELDS x y z intensity laser_id azimuth distance_m adjustedtime timestamp vertical_angle
SIZE 4 4 4 1 1 2 8 8 4 8
TYPE F F F U U U F U U F
COUNT 1 1 1 1 1 1 1 1 1 1
WIDTH 534
HEIGHT 1
VIEWPOINT 0 0 0 1 0 0 0
POINTS 534
DATA ascii
1.77493310 10.10740376 2.36918449 56 13 996 10.53200000 2886102723 2886102723 13.00000000
1.53304183 8.71209431 2.37026477 42 15 998 9.15800000 2886102727 2886102727 15.00000000
0.39375925 2.22178006 -0.60460126 4 0 1005 2.33600000 2886102748 2886102748 -15.00000000
0.46953914 2.64399552 -0.61996508 3 2 1007 2.75600000 2886102753 2886102753 -13.00000000
0.56421548 3.17390418 -0.62661672 2 4 1008 3.28400000 2886102757 2886102757 -11.00000000
0.71084428 3.99065709 -0.64200705 2 6 1010 4.10400000 2886102762 2886102762 -9.00000000
1.42973733 8.00222874 -0.71119088 4 10 1013 8.16000000 2886102771 2886102771 -5.00000000
1.88062060 10.51521873 2.07638359 59 11 1014 10.88200000 2886102773 2886102773 11.00000000
1.81157875 10.10881901 2.37098408 55 13 1016 10.54000000 2886102778 2886102778 13.00000000
1.56480920 8.71429634 2.37233543 45 15 1018 9.16600000 2886102783 2886102783 15.00000000
0.40189981 2.22032189 -0.60460126 4 0 1026 2.33600000 2886102803 2886102803 -15.00000000
0.47783566 2.63458705 -0.61816549 3 2 1028 2.74800000 2886102808 2886102808 -13.00000000
0.57584465 3.17181492 -0.62661672 2 4 1029 3.28400000 2886102813 2886102813 -11.00000000
0.72688013 3.99579883 -0.64325851 2 6 1031 4.11200000 2886102817 2886102817 -9.00000000
0.97533447 5.35099125 -0.66784400 2 8 1033 5.48000000 2886102822 2886102822 -7.00000000
1.45977259 8.00085449 -0.71153951 4 10 1034 8.16400000 2886102826 2886102826 -5.00000000
1.92126453 10.51984310 2.07867312 56 11 1035 10.89400000 2886102829 2886102829 11.00000000
1.84651256 10.09060955 2.36828470 56 13 1037 10.52800000 2886102833 2886102833 13.00000000
1.59591436 8.71258068 2.37337065 45 15 1038 9.17000000 2886102838 2886102838 15.00000000
0.41140139 2.22840428 -0.60718948 4 0 1046 2.34600000 2886102859 2886102859 -15.00000000
0.48915592 2.64440036 -0.62086493 3 2 1048 2.76000000 2886102863 2886102863 -13.00000000
0.58548307 3.16206384 -0.62509024 2 4 1049 3.27600000 2886102868 2886102868 -11.00000000
0.74226499 4.00100613 -0.64450997 2 6 1051 4.12000000 2886102872 2886102872 -9.00000000
0.99763477 5.36707067 -0.67028141 2 8 1053 5.50000000 2886102877 2886102877 -7.00000000
1.48696291 7.99179268 -0.71119088 4 10 1054 8.16000000 2886102882 2886102882 -5.00000000
1.96049011 10.52658272 2.08134460 59 11 1055 10.90800000 2886102884 2886102884 11.00000000
1.87957931 10.07260895 2.36558533 57 13 1057 10.51600000 2886102889 2886102889 13.00000000
1.62961197 8.71616840 2.37595892 45 15 1059 9.18000000 2886102893 2886102893 15.00000000
0.41661662 2.21760774 -0.60460126 4 0 1064 2.33600000 2886102914 2886102914 -15.00000000
0.49746111 2.64285064 -0.62086493 3 2 1066 2.76000000 2886102919 2886102919 -13.00000000
0.59468710 3.15635037 -0.62432700 2 4 1067 3.27200000 2886102923 2886102923 -11.00000000
0.75702935 4.01030111 -0.64638722 2 6 1069 4.13200000 2886102928 2886102928 -9.00000000
1.01080191 5.34440470 -0.66784400 2 8 1071 5.48000000 2886102932 2886102932 -7.00000000
1.51428616 7.99882746 -0.71223670 4 10 1072 8.17200000 2886102937 2886102937 -5.00000000
1.99464715 10.52615833 2.08248949 59 11 1073 10.91400000 2886102939 2886102939 11.00000000
1.91194093 10.07048321 2.36648512 59 13 1075 10.52000000 2886102944 2886102944 13.00000000
1.65438414 8.70560074 2.37440586 42 15 1076 9.17400000 2886102949 2886102949 15.00000000
0.42435497 2.21614003 -0.60460126 4 0 1084 2.33600000 2886102969 2886102969 -15.00000000
0.50815201 2.64875340 -0.62266451 3 2 1086 2.76800000 2886102974 2886102974 -13.00000000
0.60792255 3.16582346 -0.62661672 2 4 1087 3.28400000 2886102978 2886102978 -11.00000000
0.76953053 3.99987483 -0.64513576 2 6 1089 4.12400000 2886102983 2886102983 -9.00000000
1.02945125 5.34084415 -0.66784400 2 8 1091 5.48000000 2886102988 2886102988 -7.00000000
1.53993344 7.98175478 -0.71119088 4 10 1092 8.16000000 2886102992 2886102992 -5.00000000
2.03100586 10.51720428 2.08210778 59 11 1093 10.91200000 2886102995 2886102995 11.00000000
1.86860633 9.65813637 2.27110577 45 13 1095 10.09600000 2886102999 2886102999 13.00000000
1.68333972 8.68430614 2.37026477 45 15 1097 9.15800000 2886103004 2886103004 15.00000000
0.43282804 2.21843743 -0.60563654 4 0 1104 2.34000000 2886103025 2886103025 -15.00000000
0.51664710 2.64313841 -0.62176472 3 2 1106 2.76400000 2886103029 2886103029 -13.00000000
0.61746180 3.15597510 -0.62509024 2 4 1107 3.27600000 2886103034 2886103034 -11.00000000
0.78196812 3.98941040 -0.64388424 2 6 1109 4.11600000 2886103038 2886103038 -9.00000000
1.04961801 5.34500933 -0.66881895 2 8 1111 5.48800000 2886103043 2886103043 -7.00000000
1.57162821 7.99588060 -0.71293396 4 10 1112 8.18000000 2886103048 2886103048 -5.00000000
2.06618953 10.50234509 2.08058119 56 11 1113 10.90400000 2886103050 2886103050 11.00000000
1.98408329 10.06645012 2.36873460 59 13 1115 10.53000000 2886103055 2886103055 13.00000000
1.71362436 8.68625736 2.37233543 42 15 1116 9.16600000 2886103059 2886103059 15.00000000
0.44056919 2.21691298 -0.60563654 4 0 1124 2.34000000 2886103080 2886103080 -15.00000000
0.52472872 2.63558507 -0.62041503 3 2 1126 2.75800000 2886103084 2886103084 -13.00000000
0.62847447 3.15380049 -0.62509024 2 4 1127 3.27600000 2886103089 2886103089 -11.00000000
0.79666245 3.99053073 -0.64450997 2 6 1129 4.12000000 2886103094 2886103094 -9.00000000
1.06671190 5.33352709 -0.66784400 2 8 1131 5.48000000 2886103098 2886103098 -7.00000000
1.60109377 7.99816084 -0.71363121 4 10 1132 8.18800000 2886103103 2886103103 -5.00000000
2.10399413 10.50084400 2.08172607 56 11 1133 10.91000000 2886103105 2886103105 11.00000000
2.01959324 10.06137371 2.36918449 56 13 1135 10.53200000 2886103110 2886103110 13.00000000
1.74621117 8.68370628 2.37337065 42 15 1137 9.17000000 2886103114 2886103114 15.00000000
0.44907132 2.21914864 -0.60667187 4 0 1144 2.34400000 2886103135 2886103135 -15.00000000
0.53353822 2.63182759 -0.61996508 3 2 1146 2.75600000 2886103140 2886103140 -13.00000000
0.63869864 3.14773941 -0.62432700 4 4 1147 3.27200000 2886103144 2886103144 -11.00000000
0.81688297 4.01869822 -0.64951593 2 6 1149 4.15200000 2886103149 2886103149 -9.00000000
1.08849180 5.34533215 -0.66979390 2 8 1151 5.49600000 2886103154 2886103154 -7.00000000
1.64173555 8.05499554 -0.71920919 4 10 1152 8.25200000 2886103158 2886103158 -5.00000000
2.14456010 10.51267242 2.08554220 59 11 1153 10.93000000 2886103160 2886103160 11.00000000
2.05158019 10.03898811 2.36558533 60 13 1155 10.51600000 2886103165 2886103165 13.00000000
1.77538502 8.67976093 2.37388825 45 15 1156 9.17200000 2886103170 2886103170 15.00000000
0.45681486 2.21756744 -0.60667187 4 0 1164 2.34400000 2886103190 2886103190 -15.00000000
0.54272175 2.62994909 -0.61996508 3 2 1166 2.75600000 2886103195 2886103195 -13.00000000
0.64809394 3.13780022 -0.62280059 2 4 1167 3.26400000 2886103200 2886103200 -11.00000000
0.82930493 4.00808477 -0.64826441 2 6 1169 4.14400000 2886103204 2886103204 -9.00000000
1.10794961 5.34538794 -0.67028141 2 8 1171 5.50000000 2886103209 2886103209 -7.00000000
1.65527308 7.97898483 -0.71293396 4 10 1172 8.18000000 2886103213 2886103213 -5.00000000
2.18403721 10.51857758 2.08821368 59 11 1173 10.94400000 2886103216 2886103216 11.00000000
2.08502293 10.02413368 2.36378574 62 13 1175 10.50800000 2886103220 2886103220 13.00000000
1.80600381 8.66752148 2.37233543 45 15 1177 9.16600000 2886103225 2886103225 15.00000000
0.46217456 2.20461488 -0.60356599 4 0 1184 2.33200000 2886103246 2886103246 -15.00000000
0.55189872 2.62803864 -0.61996508 3 2 1186 2.75600000 2886103250 2886103250 -13.00000000
0.66308123 3.15473151 -0.62661672 2 4 1187 3.28400000 2886103255 2886103255 -11.00000000
0.84084874 3.99356747 -0.64638722 2 6 1189 4.13200000 2886103260 2886103260 -9.00000000
1.13315654 5.37256527 -0.67418122 2 8 1191 5.53200000 2886103264 2886103264 -7.00000000
1.68723011 7.99265242 -0.71467710 4 10 1192 8.20000000 2886103269 2886103269 -5.00000000
2.22276974 10.52049446 2.09012175 59 11 1193 10.95400000 2886103271 2886103271 11.00000000
2.12322903 10.03204727 2.36738491 59 13 1195 10.52400000 2886103276 2886103276 13.00000000
1.83313501 8.65392494 2.37026477 42 15 1196 9.15800000 2886103280 2886103280 15.00000000
0.47147918 2.21054554 -0.60563654 4 0 1204 2.34000000 2886103301 2886103301 -15.00000000
0.56269753 2.63371897 -0.62176472 3 2 1206 2.76400000 2886103306 2886103306 -13.00000000
0.67408925 3.15239763 -0.62661672 2 4 1207 3.28400000 2886103310 2886103310 -11.00000000
0.85478377 3.99060798 -0.64638722 2 6 1209 4.13200000 2886103315 2886103315 -9.00000000
1.15190339 5.36857748 -0.67418122 2 8 1211 5.53200000 2886103319 2886103319 -7.00000000
1.73603547 8.08411312 -0.72339267 4 10 1212 8.30000000 2886103324 2886103324 -5.00000000
2.25865436 10.50883293 2.08935857 62 11 1213 10.95000000 2886103326 2886103326 11.00000000
2.15905476 10.02838421 2.36828470 60 13 1215 10.52800000 2886103331 2886103331 13.00000000
1.86402643 8.64337158 2.36922956 45 15 1217 9.15400000 2886103336 2886103336 15.00000000
0.48039785 2.21257830 -0.60667187 4 0 1225 2.34400000 2886103356 2886103356 -15.00000000
0.56820542 2.61259675 -0.61726570 3 2 1227 2.74400000 2886103361 2886103361 -13.00000000
0.68563884 3.14990592 -0.62661672 2 4 1228 3.28400000 2886103366 2886103366 -11.00000000
0.86772108 3.97972822 -0.64513576 2 6 1230 4.12400000 2886103370 2886103370 -9.00000000
1.16394830 5.32941055 -0.66979390 2 8 1232 5.49600000 2886103375 2886103375 -7.00000000
1.74948609 8.00373173 -0.71676880 4 10 1233 8.22400000 2886103379 2886103379 -5.00000000
2.29715610 10.50048351 2.08935857 59 11 1234 10.95000000 2886103382 2886103382 11.00000000
2.19412756 10.01278973 2.36648512 59 13 1236 10.52000000 2886103386 2886103386 13.00000000
1.89418602 8.63681221 2.36922956 45 15 1237 9.15400000 2886103391 2886103391 15.00000000
0.48978421 2.21843362 -0.60874242 4 0 1245 2.35200000 2886103412 2886103412 -15.00000000
0.58068788 2.62581944 -0.62086493 3 2 1247 2.76000000 2886103416 2886103416 -13.00000000
0.69578135 3.14365959 -0.62585348 2 4 1248 3.28000000 2886103421 2886103421 -11.00000000
0.88588309 3.99596047 -0.64826441 2 6 1250 4.14400000 2886103425 2886103425 -9.00000000
1.19029021 5.36019707 -0.67418122 2 8 1252 5.53200000 2886103430 2886103430 -7.00000000
2.33891082 10.51539803 2.09393787 59 11 1254 10.97400000 2886103437 2886103437 11.00000000
2.22652268 9.99365711 2.36378574 59 13 1256 10.50800000 2886103442 2886103442 13.00000000
1.92642474 8.63957500 2.37181783 45 15 1257 9.16400000 2886103446 2886103446 15.00000000
0.49375620 2.20171714 -0.60460126 4 0 1264 2.33600000 2886103467 2886103467 -15.00000000
0.58896512 2.62197804 -0.62041503 4 2 1266 2.75800000 2886103472 2886103472 -13.00000000
0.70275742 3.12601137 -0.62280059 2 4 1267 3.26400000 2886103476 2886103476 -11.00000000
0.89912933 3.99300075 -0.64826441 2 6 1269 4.14400000 2886103481 2886103481 -9.00000000
1.20019722 5.32136440 -0.66979390 2 8 1271 5.49600000 2886103485 2886103485 -7.00000000
1.82059538 8.06549072 -0.72339267 4 10 1272 8.30000000 2886103490 2886103490 -5.00000000
2.37766171 10.52481937 2.09737253 50 11 1273 10.99200000 2886103492 2886103492 11.00000000
2.26051068 9.99001980 2.36468554 59 13 1275 10.51200000 2886103497 2886103497 13.00000000
1.95207727 8.61995029 2.36819434 45 15 1276 9.15000000 2886103501 2886103501 15.00000000
0.50143862 2.19998002 -0.60460126 4 0 1284 2.33600000 2886103522 2886103522 -15.00000000
0.59768021 2.61800647 -0.61996508 3 2 1286 2.75600000 2886103527 2886103527 -13.00000000
0.71366495 3.12353921 -0.62280059 2 4 1287 3.26400000 2886103531 2886103531 -11.00000000
0.91041803 3.97828436 -0.64638722 2 6 1289 4.13200000 2886103536 2886103536 -9.00000000
1.22674811 5.35197115 -0.67418122 2 8 1291 5.53200000 2886103541 2886103541 -7.00000000
2.41350722 10.51262856 2.09660935 46 11 1293 10.98800000 2886103548 2886103548 11.00000000
2.29536867 9.98206806 2.36468554 59 13 1295 10.51200000 2886103552 2886103552 13.00000000
1.98192346 8.60520744 2.36612368 40 15 1297 9.14200000 2886103557 2886103557 15.00000000
0.51047349 2.20583367 -0.60667187 4 0 1303 2.34400000 2886103578 2886103578 -15.00000000
0.60899872 2.62740040 -0.62266451 3 2 1305 2.76800000 2886103582 2886103582 -13.00000000
0.73111725 3.15175509 -0.62890643 2 4 1306 3.29600000 2886103587 2886103587 -11.00000000
0.92181730 3.96754694 -0.64513576 2 6 1308 4.12400000 2886103591 2886103591 -9.00000000
1.24178958 5.33627272 -0.67271876 2 8 1310 5.52000000 2886103596 2886103596 -7.00000000
1.87545288 8.05291080 -0.72339267 4 10 1311 8.30000000 2886103601 2886103601 -5.00000000
2.44657254 10.49691868 2.09508276 46 11 1312 10.98000000 2886103603 2886103603 11.00000000
2.33022976 9.98199272 2.36648512 60 13 1314 10.52000000 2886103607 2886103607 13.00000000
2.00894785 8.59893894 2.36612368 42 15 1315 9.14200000 2886103612 2886103612 15.00000000
0.51817018 2.20403838 -0.60667187 4 0 1323 2.34400000 2886103633 2886103633 -15.00000000
0.61280656 2.60249639 -0.61726570 3 2 1325 2.74400000 2886103637 2886103637 -13.00000000
0.74211448 3.14918375 -0.62890643 2 4 1326 3.29600000 2886103642 2886103642 -11.00000000
0.94019860 3.98353052 -0.64826441 2 6 1328 4.14400000 2886103647 2886103647 -9.00000000
1.26040912 5.33190584 -0.67271876 2 8 1330 5.52000000 2886103651 2886103651 -7.00000000
1.88520384 7.96876097 -0.71642023 4 10 1331 8.22000000 2886103656 2886103656 -5.00000000
2.48455548 10.49404621 2.09622765 50 11 1332 10.98600000 2886103658 2886103658 11.00000000
2.36146212 9.95862865 2.36288595 60 13 1334 10.50400000 2886103663 2886103663 13.00000000
2.03984356 8.59563351 2.36715889 42 15 1335 9.14600000 2886103667 2886103667 15.00000000
0.52714294 2.20588231 -0.60770714 4 0 1344 2.34800000 2886103688 2886103688 -15.00000000
0.62415546 2.60781360 -0.61906528 3 2 1346 2.75200000 2886103693 2886103693 -13.00000000
0.75182259 3.13880563 -0.62737995 2 4 1347 3.28800000 2886103697 2886103697 -11.00000000
0.95387107 3.97621608 -0.64763868 2 6 1349 4.14000000 2886103702 2886103702 -9.00000000
1.28272557 5.33883142 -0.67418122 2 8 1351 5.53200000 2886103706 2886103706 -7.00000000
1.91719282 7.97342062 -0.71746606 4 10 1352 8.23200000 2886103711 2886103711 -5.00000000
2.39520717 9.93853951 2.36018658 60 13 1355 10.49200000 2886103718 2886103718 13.00000000
2.07450509 8.60124493 2.37078238 45 15 1356 9.16000000 2886103723 2886103723 15.00000000
0.53483969 2.20402861 -0.60770714 4 0 1364 2.34800000 2886103743 2886103743 -15.00000000
0.63417506 2.60940623 -0.61996508 3 2 1366 2.75600000 2886103748 2886103748 -13.00000000
0.76091862 3.12853169 -0.62585348 2 4 1367 3.28000000 2886103753 2886103753 -11.00000000
0.96306974 3.95366955 -0.64450997 2 6 1369 4.12000000 2886103757 2886103757 -9.00000000
1.29853082 5.32275009 -0.67271876 2 8 1371 5.52000000 2886103762 2886103762 -7.00000000
1.94217837 7.95506668 -0.71642023 4 10 1372 8.22000000 2886103766 2886103766 -5.00000000
2.35315943 9.63112926 1.92717087 6 11 1373 10.10000000 2886103769 2886103769 11.00000000
2.43081093 9.93390369 2.36108637 59 13 1375 10.49600000 2886103773 2886103773 13.00000000
2.10279751 8.58045006 2.36715889 45 15 1377 9.14600000 2886103778 2886103778 15.00000000
0.53845125 2.18723631 -0.60356599 4 0 1383 2.33200000 2886103799 2886103799 -15.00000000
0.64469063 2.61485720 -0.62176472 3 2 1385 2.76400000 2886103803 2886103803 -13.00000000
0.77222961 3.12980342 -0.62661672 2 4 1386 3.28400000 2886103808 2886103808 -11.00000000
0.97996628 3.96579576 -0.64701295 2 6 1388 4.13600000 2886103812 2886103812 -9.00000000
1.32285082 5.34539223 -0.67613113 2 8 1390 5.54800000 2886103817 2886103817 -7.00000000
1.96375799 7.92924261 -0.71467710 4 10 1391 8.20000000 2886103822 2886103822 -5.00000000
2.38319540 9.61565113 1.92564440 12 11 1392 10.09200000 2886103824 2886103824 11.00000000
2.46561742 9.93335342 2.36288595 55 13 1394 10.50400000 2886103829 2886103829 13.00000000
2.12927747 8.57192612 2.36664128 45 15 1395 9.14400000 2886103833 2886103833 15.00000000
0.54748785 2.19096613 -0.60511893 3 0 1403 2.33800000 2886103854 2886103854 -15.00000000
0.65097570 2.60124826 -0.61906528 3 2 1405 2.75200000 2886103858 2886103858 -13.00000000
0.78601164 3.13851523 -0.62890643 2 4 1406 3.29600000 2886103863 2886103863 -11.00000000
0.99284238 3.95851898 -0.64638722 2 6 1408 4.13200000 2886103868 2886103868 -9.00000000
1.33763289 5.32533979 -0.67418122 2 8 1410 5.53200000 2886103872 2886103872 -7.00000000
2.00405264 7.97257900 -0.71920919 4 10 1411 8.25200000 2886103877 2886103877 -5.00000000
2.41866136 9.61488914 1.92717087 12 11 1412 10.10000000 2886103879 2886103879 11.00000000
2.50218034 9.93224525 2.36468554 60 13 1414 10.51200000 2886103884 2886103884 13.00000000
2.16013074 8.56818771 2.36767673 45 15 1415 9.14800000 2886103888 2886103888 15.00000000
0.55750680 2.19840455 -0.60770714 4 0 1423 2.34800000 2886103909 2886103909 -15.00000000
0.66197056 2.60651517 -0.62086493 3 2 1425 2.76000000 2886103914 2886103914 -13.00000000
0.79406077 3.12433600 -0.62661672 2 4 1426 3.28400000 2886103918 2886103918 -11.00000000
1.00762868 3.95885777 -0.64701295 2 6 1428 4.13600000 2886103923 2886103923 -9.00000000
1.35229111 5.30524921 -0.67223132 2 8 1430 5.51600000 2886103928 2886103928 -7.00000000
2.02596068 7.94236803 -0.71711743 4 10 1431 8.22800000 2886103932 2886103932 -5.00000000
2.45463681 9.61589909 1.92907894 12 11 1432 10.11000000 2886103935 2886103935 11.00000000
2.53104329 9.90079403 2.35928655 59 13 1434 10.48800000 2886103939 2886103939 13.00000000
2.19008279 8.55459881 2.36612368 45 15 1436 9.14200000 2886103944 2886103944 15.00000000
0.56710291 2.20392871 -0.60977769 4 0 1443 2.35600000 2886103964 2886103964 -15.00000000
0.66620219 2.58531785 -0.61636591 3 2 1445 2.74000000 2886103969 2886103969 -13.00000000
0.80790329 3.13295150 -0.62890643 2 4 1446 3.29600000 2886103974 2886103974 -11.00000000
1.01847792 3.94384050 -0.64513576 2 6 1448 4.12400000 2886103978 2886103978 -9.00000000
1.36384320 5.27359056 -0.66881895 2 8 1450 5.48800000 2886103983 2886103983 -7.00000000
2.05666733 7.94682074 -0.71816331 4 10 1451 8.24000000 2886103988 2886103988 -5.00000000
2.48818779 9.60727215 1.92907894 18 11 1452 10.11000000 2886103990 2886103990 11.00000000
2.56558824 9.89189911 2.35928655 60 13 1454 10.48800000 2886103994 2886103994 13.00000000
2.22235894 8.55625057 2.36871195 45 15 1456 9.15200000 2886103999 2886103999 15.00000000
0.57381672 2.19819713 -0.60874242 4 0 1463 2.35200000 2886104020 2886104020 -15.00000000
0.68113691 2.60560107 -0.62176472 3 2 1465 2.76400000 2886104024 2886104024 -13.00000000
0.81386572 3.11111879 -0.62509024 2 4 1466 3.27600000 2886104029 2886104029 -11.00000000
1.03323948 3.94408321 -0.64576149 2 6 1468 4.12800000 2886104034 2886104034 -9.00000000
1.38627303 5.28415871 -0.67076886 2 8 1470 5.50400000 2886104038 2886104038 -7.00000000
2.07124043 7.88948917 -0.71363121 4 10 1471 8.18800000 2886104043 2886104043 -5.00000000
2.52470136 9.60992146 1.93136871 18 11 1472 10.12200000 2886104045 2886104045 11.00000000
2.60010171 9.88288307 2.35928655 60 13 1474 10.48800000 2886104050 2886104050 13.00000000
2.25024343 8.54096889 2.36664128 45 15 1476 9.14400000 2886104054 2886104054 15.00000000
0.57851958 2.18497586 -0.60563654 4 0 1483 2.34000000 2886104075 2886104075 -15.00000000
0.68922913 2.59944034 -0.62086493 3 2 1485 2.76000000 2886104080 2886104080 -13.00000000
0.82673454 3.11584949 -0.62661672 2 4 1486 3.28400000 2886104084 2886104084 -11.00000000
1.05105877 3.95572567 -0.64826441 2 6 1488 4.14400000 2886104089 2886104089 -9.00000000
1.41032457 5.30038929 -0.67344999 2 8 1490 5.52600000 2886104094 2886104094 -7.00000000
2.11312151 7.93611956 -0.71851194 4 10 1491 8.24400000 2886104098 2886104098 -5.00000000
2.56328559 9.62001991 1.93518484 18 11 1492 10.14200000 2886104100 2886104100 11.00000000
2.63458347 9.87374687 2.35928655 60 13 1494 10.48800000 2886104105 2886104105 13.00000000
2.27854729 8.52746296 2.36508846 42 15 1496 9.13800000 2886104110 2886104110 15.00000000
0.58714503 2.18667459 -0.60667187 4 0 1503 2.34400000 2886104130 2886104130 -15.00000000
0.69931066 2.60078239 -0.62176472 3 2 1505 2.76400000 2886104135 2886104135 -13.00000000
0.83964634 3.12052774 -0.62814319 2 4 1506 3.29200000 2886104140 2886104140 -11.00000000
1.06280470 3.94440317 -0.64701295 2 6 1508 4.13600000 2886104144 2886104144 -9.00000000
1.43088627 5.30310011 -0.67442495 2 8 1510 5.53400000 2886104149 2886104149 -7.00000000
2.13353968 7.90176582 -0.71607161 4 10 1511 8.21600000 2886104153 2886104153 -5.00000000
2.59582591 9.60722351 1.93442154 18 11 1512 10.13800000 2886104156 2886104156 11.00000000
2.66903329 9.86449051 2.35928655 57 13 1514 10.48800000 2886104160 2886104160 13.00000000
2.30580306 8.51613045 2.36405325 40 15 1515 9.13400000 2886104165 2886104165 15.00000000
0.59578931 2.18833971 -0.60770714 4 0 1523 2.34800000 2886104186 2886104186 -15.00000000
0.70325905 2.57952428 -0.61726570 3 2 1525 2.74400000 2886104190 2886104190 -13.00000000
0.85156733 3.12136602 -0.62890643 2 4 1526 3.29600000 2886104195 2886104195 -11.00000000
1.07864904 3.94829154 -0.64826441 2 6 1528 4.14400000 2886104199 2886104199 -9.00000000
1.44467449 5.28084040 -0.67223132 2 8 1530 5.51600000 2886104204 2886104204 -7.00000000
2.16742182 7.91733074 -0.71816331 4 10 1531 8.24000000 2886104209 2886104209 -5.00000000
2.63142037 9.60567760 1.93594801 25 11 1532 10.14600000 2886104211 2886104211 11.00000000
2.70138836 9.84759617 2.35748696 59 13 1534 10.48000000 2886104216 2886104216 13.00000000
2.33955932 8.51693630 2.36664128 45 15 1536 9.14400000 2886104220 2886104220 15.00000000
0.60471463 2.19390678 -0.60977769 4 0 1541 2.35600000 2886104241 2886104241 -15.00000000
0.71343333 2.58481622 -0.61906528 3 2 1543 2.75200000 2886104246 2886104246 -13.00000000
0.86136919 3.11867523 -0.62890643 2 4 1544 3.29600000 2886104250 2886104250 -11.00000000
1.08894145 3.93726778 -0.64701295 2 6 1546 4.13600000 2886104255 2886104255 -9.00000000
1.46019793 5.27244997 -0.67174381 2 8 1548 5.51200000 2886104259 2886104259 -7.00000000
2.19973373 7.93736267 -0.72060370 4 10 1549 8.26800000 2886104264 2886104264 -5.00000000
2.66630650 9.61439037 1.93938267 25 11 1550 10.16400000 2886104266 2886104266 11.00000000
2.73022652 9.83155060 2.35568738 55 13 1552 10.47200000 2886104271 2886104271 13.00000000
2.36481929 8.50995731 2.36664128 40 15 1553 9.14400000 2886104276 2886104276 15.00000000
0.61028975 2.18434024 -0.60770714 4 0 1561 2.34800000 2886104296 2886104296 -15.00000000
0.72402680 2.58794022 -0.62041503 3 2 1563 2.75800000 2886104301 2886104301 -13.00000000
0.86695737 3.09674406 -0.62509024 2 4 1564 3.27600000 2886104305 2886104305 -11.00000000
1.10161197 3.92963839 -0.64638722 2 6 1566 4.13200000 2886104310 2886104310 -9.00000000
1.48073936 5.27496529 -0.67271876 2 8 1568 5.52000000 2886104315 2886104315 -7.00000000
2.21557307 7.88743639 -0.71676880 4 10 1569 8.22400000 2886104319 2886104319 -5.00000000
2.70303822 9.61636448 1.94167233 25 11 1570 10.17600000 2886104322 2886104322 11.00000000
2.76452827 9.82196045 2.35568738 59 13 1572 10.47200000 2886104326 2886104326 13.00000000
2.39442182 8.49565411 2.36508846 40 15 1574 9.13800000 2886104331 2886104331 15.00000000
0.61618501 2.17465401 -0.60563654 4 0 1582 2.34000000 2886104352 2886104352 -15.00000000
0.73403913 2.58714390 -0.62086493 3 2 1584 2.76000000 2886104356 2886104356 -13.00000000
0.88151890 3.10487723 -0.62737995 2 4 1585 3.28800000 2886104361 2886104361 -11.00000000
1.11546719 3.92367435 -0.64607435 2 6 1587 4.13000000 2886104365 2886104365 -9.00000000
1.49462807 5.25041056 -0.67028141 2 8 1589 5.50000000 2886104370 2886104370 -7.00000000
2.24774218 7.89075994 -0.71781468 4 10 1590 8.23600000 2886104375 2886104375 -5.00000000
2.74041843 9.61394501 1.94319880 25 11 1591 10.18400000 2886104377 2886104377 11.00000000
3.19663477 11.20702457 -0.61076063 4 12 1592 11.67000000 2886104379 2886104379 -3.00000000
2.80264854 9.81925774 2.35748696 59 13 1593 10.48000000 2886104382 2886104382 13.00000000
3.19786048 11.19650364 -0.20325072 2 14 1594 11.64600000 2886104384 2886104384 -1.00000000
2.42300153 8.48352909 2.36405325 45 15 1594 9.13400000 2886104386 2886104386 15.00000000
0.62483853 2.17620349 -0.60667187 4 0 1602 2.34400000 2886104407 2886104407 -15.00000000
3.21157861 11.17801285 0.20300639 3 1 1603 11.63200000 2886104409 2886104409 1.00000000
0.74414235 2.58831167 -0.62176472 3 2 1604 2.76400000 2886104411 2886104411 -13.00000000
0.89452273 3.10932827 -0.62890643 2 4 1605 3.29600000 2886104416 2886104416 -11.00000000
1.12970340 3.92165494 -0.64638722 2 6 1607 4.13200000 2886104421 2886104421 -9.00000000
1.51404667 5.24897575 -0.67076886 2 8 1609 5.50400000 2886104425 2886104425 -7.00000000
2.27306223 7.87520885 -0.71711743 4 10 1610 8.22800000 2886104430 2886104430 -5.00000000
2.77232647 9.59866238 1.94205391 21 11 1611 10.17800000 2886104432 2886104432 11.00000000
3.20911717 11.10369873 -0.60573637 4 12 1612 11.57400000 2886104434 2886104434 -3.00000000
2.83798981 9.81315899 2.35838675 56 13 1613 10.48400000 2886104437 2886104437 13.00000000
3.22135925 11.13148785 -0.20227338 6 14 1614 11.59000000 2886104439 2886104439 -1.00000000
2.45461631 8.47644711 2.36457086 40 15 1615 9.13600000 2886104441 2886104441 15.00000000
0.63458955 2.18142915 -0.60874242 4 0 1622 2.35200000 2886104462 2886104462 -15.00000000
3.23045707 11.09761429 0.20174982 6 1 1623 11.56000000 2886104464 2886104464 1.00000000
0.74990278 2.57447243 -0.61906528 3 2 1624 2.75200000 2886104467 2886104467 -13.00000000
3.24715686 11.14049053 0.60814381 26 3 1625 11.62000000 2886104469 2886104469 3.00000000
0.90756840 3.11372614 -0.63043290 2 4 1625 3.30400000 2886104471 2886104471 -11.00000000
3.25177884 11.14910412 1.01606166 17 5 1626 11.65800000 2886104474 2886104474 5.00000000
1.14670622 3.92906523 -0.64826441 2 6 1627 4.14400000 2886104476 2886104476 -9.00000000
3.25710201 11.15287113 1.42660248 23 7 1628 11.70600000 2886104478 2886104478 7.00000000
1.53458703 5.25128031 -0.67174381 2 8 1629 5.51200000 2886104481 2886104481 -7.00000000
3.27246475 11.19821167 1.84780395 9 9 1629 11.81200000 2886104483 2886104483 9.00000000
2.30501151 7.88252497 -0.71851194 4 10 1630 8.24400000 2886104485 2886104485 -5.00000000
2.81132865 9.60776901 1.94587016 21 11 1631 10.19800000 2886104487 2886104487 11.00000000
3.19902945 10.92566872 -0.59662992 4 12 1632 11.40000000 2886104490 2886104490 -3.00000000
2.86893916 9.79197121 2.35568738 62 13 1633 10.47200000 2886104492 2886104492 13.00000000
3.22193980 10.98968887 -0.19989987 6 14 1634 11.45400000 2886104494 2886104494 -1.00000000
2.48488569 8.47567654 2.36664128 45 15 1634 9.14400000 2886104497 2886104497 15.00000000
0.64110810 2.17549443 -0.60770714 4 0 1642 2.34800000 2886104517 2886104517 -15.00000000
3.23014879 10.95392513 0.19934139 6 1 1643 11.42200000 2886104520 2886104520 1.00000000
0.76053935 2.57744622 -0.62041503 3 2 1644 2.75800000 2886104522 2886104522 -13.00000000
3.23908138 10.97010136 0.59945607 28 3 1645 11.45400000 2886104524 2886104524 3.00000000
0.91509610 3.09924173 -0.62814319 2 4 1645 3.29200000 2886104527 2886104527 -11.00000000
3.25059462 11.00202274 1.00368547 12 5 1646 11.51600000 2886104529 2886104529 5.00000000
1.16489470 3.94019318 -0.65076739 2 6 1647 4.16000000 2886104531 2886104531 -9.00000000
3.25715685 11.01008892 1.40978456 27 7 1648 11.56800000 2886104534 2886104534 7.00000000
1.55966961 5.26873302 -0.67466867 2 8 1649 5.53600000 2886104536 2886104536 -7.00000000
3.27309155 11.04977226 1.82527733 31 9 1650 11.66800000 2886104538 2886104538 9.00000000
2.33703971 7.88971376 -0.71990645 4 10 1650 8.26000000 2886104540 2886104540 -5.00000000
2.84875441 9.61107349 1.94854140 15 11 1651 10.21200000 2886104543 2886104543 11.00000000
3.19455361 10.77082443 -0.58877951 4 12 1652 11.25000000 2886104545 2886104545 -3.00000000
2.90088439 9.77442455 2.35388780 57 13 1653 10.46400000 2886104547 2886104547 13.00000000
3.21416950 10.82310200 -0.19707258 6 14 1654 11.29200000 2886104550 2886104550 -1.00000000
2.51318240 8.45725250 2.36405325 45 15 1655 9.13400000 2886104552 2886104552 15.00000000
0.65014708 2.18087506 -0.60977769 4 0 1660 2.35600000 2886104573 2886104573 -15.00000000
3.23253465 10.83641338 0.19738671 6 1 1661 11.31000000 2886104575 2886104575 1.00000000
0.76919025 2.57691145 -0.62086493 3 2 1662 2.76000000 2886104577 2886104577 -13.00000000
3.23637533 10.83547974 0.59265238 31 3 1663 11.32400000 2886104580 2886104580 3.00000000
0.92033321 3.08130240 -0.62509024 2 4 1663 3.27600000 2886104582 2886104582 -11.00000000
3.23550582 10.82567787 0.98852044 12 5 1664 11.34200000 2886104584 2886104584 5.00000000
1.17896533 3.94219184 -0.65170598 2 6 1665 4.16600000 2886104587 2886104587 -9.00000000
3.25416875 10.87428570 1.39369786 31 7 1666 11.43600000 2886104589 2886104589 7.00000000
1.57279754 5.25239754 -0.67320627 2 8 1667 5.52400000 2886104591 2886104591 -7.00000000
3.25713015 10.87726879 1.79837060 28 9 1667 11.49600000 2886104593 2886104593 9.00000000
2.35838318 7.87088108 -0.71886057 4 10 1668 8.24800000 2886104596 2886104596 -5.00000000
2.88400888 9.61900139 1.95197606 15 11 1669 10.23000000 2886104598 2886104598 11.00000000
3.19279146 10.64212799 -0.58228987 4 12 1670 11.12600000 2886104600 2886104600 -3.00000000
2.93269777 9.76899624 2.35478759 57 13 1671 10.46800000 2886104603 2886104603 13.00000000
3.20328188 10.66356945 -0.19435000 4 14 1672 11.13600000 2886104605 2886104605 -1.00000000
2.53826451 8.44975853 2.36405325 40 15 1672 9.13400000 2886104607 2886104607 15.00000000
0.65496397 2.16934538 -0.60718948 4 0 1680 2.34600000 2886104628 2886104628 -15.00000000
3.22002816 10.65852451 0.19435000 3 1 1681 11.13600000 2886104630 2886104630 1.00000000
0.77930844 2.57794166 -0.62176472 3 2 1682 2.76400000 2886104633 2886104633 -13.00000000
3.23601246 10.69794369 0.58574402 28 3 1683 11.19200000 2886104635 2886104635 3.00000000
0.93563074 3.09310436 -0.62814319 2 4 1683 3.29200000 2886104637 2886104637 -11.00000000
3.24037457 10.70562172 0.97858471 28 5 1684 11.22800000 2886104640 2886104640 5.00000000
1.17840409 3.89078832 -0.64388424 2 6 1685 4.11600000 2886104642 2886104642 -9.00000000
3.25122952 10.72797680 1.37639236 29 7 1686 11.29400000 2886104644 2886104644 7.00000000
1.58766580 5.23547745 -0.67174381 2 8 1687 5.51200000 2886104646 2886104646 -7.00000000
3.26313376 10.75373268 1.77991140 28 9 1688 11.37800000 2886104649 2886104649 9.00000000
2.37774396 7.83590937 -0.71642023 4 10 1688 8.22000000 2886104651 2886104651 -5.00000000
2.91699743 9.60699654 1.95159435 12 11 1689 10.22800000 2886104653 2886104653 11.00000000
3.21772718 10.59078789 -0.58009171 17 12 1690 11.08400000 2886104656 2886104656 -3.00000000
2.96678019 9.75869942 2.35478759 60 13 1691 10.46800000 2886104658 2886104658 13.00000000
3.22069764 10.58727646 -0.19316323 8 14 1692 11.06800000 2886104660 2886104660 -1.00000000
2.56471682 8.42561340 2.35991216 40 15 1693 9.11800000 2886104663 2886104663 15.00000000
0.66555065 2.17420340 -0.60926002 4 0 1702 2.35400000 2886104683 2886104683 -15.00000000
3.24628878 10.59828186 0.19347738 13 1 1703 11.08600000 2886104686 2886104686 1.00000000
0.78691703 2.56747746 -0.61996508 3 2 1704 2.75600000 2886104688 2886104688 -13.00000000
3.25891185 10.62624550 0.58249921 10 3 1705 11.13000000 2886104690 2886104690 3.00000000
0.94404668 3.07822728 -0.62585348 2 4 1705 3.28000000 2886104693 2886104693 -11.00000000
3.26216841 10.63024426 0.97283238 12 5 1706 11.16200000 2886104695 2886104695 5.00000000
1.19449461 3.89001155 -0.64450997 2 6 1707 4.12000000 2886104697 2886104697 -9.00000000
3.26965952 10.64140987 1.36688650 10 7 1708 11.21600000 2886104699 2886104699 7.00000000
3.25459909 10.58581352 -1.35981810 2 8 1709 11.15800000 2886104702 2886104702 -7.00000000
3.27408123 10.64918041 1.76458073 12 9 1709 11.28000000 2886104704 2886104704 9.00000000
2.40781403 7.82672167 -0.71642023 4 10 1710 8.22000000 2886104706 2886104706 -5.00000000
2.95732975 9.60698414 1.95388412 12 11 1711 10.24000000 2886104709 2886104709 11.00000000
3.26130891 10.58789825 -0.58061510 12 12 1712 11.09400000 2886104711 2886104711 -3.00000000
3.00652480 9.75468540 2.35658717 57 13 1713 10.47600000 2886104713 2886104713 13.00000000
3.26662993 10.59202957 -0.19347738 12 14 1714 11.08600000 2886104716 2886104716 -1.00000000
2.59728909 8.42169476 2.36146498 40 15 1714 9.12400000 2886104718 2886104718 15.00000000
0.67370790 2.17371225 -0.60977769 4 0 1722 2.35600000 2886104739 2886104739 -15.00000000
3.28504086 10.59261513 0.19358209 13 1 1723 11.09200000 2886104741 2886104741 1.00000000
0.79356420 2.55727029 -0.61816549 3 2 1724 2.74800000 2886104743 2886104743 -13.00000000
3.29776120 10.62052727 0.58281320 10 3 1725 11.13600000 2886104746 2886104746 3.00000000
0.95711470 3.08241296 -0.62737995 2 4 1725 3.28800000 2886104748 2886104748 -11.00000000
3.29748154 10.61308479 0.97230947 12 5 1726 11.15600000 2886104750 2886104750 5.00000000
1.21275747 3.90090871 -0.64701295 2 6 1727 4.13600000 2886104752 2886104752 -9.00000000
3.30796432 10.63372326 1.36737406 10 7 1728 11.22000000 2886104755 2886104755 7.00000000
1.63013065 5.23696613 -0.67344999 2 8 1729 5.52600000 2886104757 2886104757 -7.00000000
3.31299520 10.64334488 1.76551938 12 9 1729 11.28600000 2886104759 2886104759 9.00000000
3.32503438 10.67545700 -0.97823608 4 10 1730 11.22400000 2886104762 2886104762 -5.00000000
3.00837088 9.65283203 1.96533263 12 11 1731 10.30000000 2886104764 2886104764 11.00000000
3.30300450 10.59170341 -0.58145249 12 12 1732 11.11000000 2886104766 2886104766 -3.00000000
3.03591275 9.72924900 2.35298800 56 13 1733 10.46000000 2886104769 2886104769 13.00000000
3.31311893 10.61110306 -0.19403586 14 14 1734 11.11800000 2886104771 2886104771 -1.00000000
2.62494302 8.40704536 2.35991216 45 15 1734 9.11800000 2886104773 2886104773 15.00000000
0.67937809 2.16789818 -0.60874242 4 0 1740 2.35200000 2886104794 2886104794 -15.00000000
3.32488394 10.60323143 0.19396605 13 1 1741 11.11400000 2886104796 2886104796 1.00000000
0.80509460 2.56592083 -0.62086493 3 2 1742 2.76000000 2886104799 2886104799 -13.00000000
3.33469987 10.62154770 0.58344126 13 3 1743 11.14800000 2886104801 2886104801 3.00000000
0.96326518 3.06815219 -0.62509024 2 4 1743 3.27600000 2886104803 2886104803 -11.00000000
3.34036112 10.63308620 0.97509843 12 5 1744 11.18800000 2886104805 2886104805 5.00000000
1.22263706 3.88954163 -0.64576149 2 6 1745 4.12800000 2886104808 2886104808 -9.00000000
3.34492850 10.63463974 1.36883652 12 7 1746 11.23200000 2886104810 2886104810 7.00000000
1.64538312 5.22803211 -0.67296249 2 8 1747 5.52200000 2886104812 2886104812 -7.00000000
3.35301828 10.64737415 1.76802230 12 9 1748 11.30200000 2886104815 2886104815 9.00000000
2.47044182 7.84478760 -0.71955782 4 10 1748 8.25600000 2886104817 2886104817 -5.00000000
3.07290316 9.75193787 1.98746645 12 11 1749 10.41600000 2886104819 2886104819 11.00000000
3.34046698 10.59460831 -0.58218515 12 12 1750 11.12400000 2886104822 2886104822 -3.00000000
3.06646323 9.71966267 2.35298800 59 13 1751 10.46000000 2886104824 2886104824 13.00000000
3.35065222 10.61399078 -0.19428019 10 14 1752 11.13200000 2886104826 2886104826 -1.00000000
2.65599418 8.41349506 2.36405325 45 15 1752 9.13400000 2886104828 2886104828 15.00000000
0.68402064 2.15630627 -0.60615420 4 0 1760 2.34200000 2886104849 2886104849 -15.00000000
3.37337041 10.62777519 0.19462924 13 1 1761 11.15200000 2886104852 2886104852 1.00000000
0.81286663 2.55938029 -0.61996508 3 2 1762 2.75600000 2886104854 2886104854 -13.00000000
3.37659502 10.62507057 0.58427864 10 3 1763 11.16400000 2886104856 2886104856 3.00000000
0.97634757 3.07225537 -0.62661672 2 4 1763 3.28400000 2886104858 2886104858 -11.00000000
3.37504220 10.61376572 0.97440118 12 5 1764 11.18000000 2886104861 2886104861 5.00000000
1.24399292 3.90972114 -0.64982879 2 6 1765 4.15400000 2886104863 2886104863 -9.00000000
3.38443875 10.63046551 1.36981142 12 7 1766 11.24000000 2886104865 2886104865 7.00000000
1.66362238 5.22225666 -0.67296249 2 8 1767 5.52200000 2886104868 2886104868 -7.00000000
3.39016414 10.63560486 1.76802230 12 9 1768 11.30200000 2886104870 2886104870 9.00000000
2.49417949 7.82472658 -0.71851194 4 10 1768 8.24400000 2886104872 2886104872 -5.00000000
3.18447900 9.98430729 2.03707695 50 11 1769 10.67600000 2886104875 2886104875 11.00000000
3.38775182 10.61522865 -0.58396459 12 12 1770 11.15800000 2886104877 2886104877 -3.00000000
3.09918690 9.70518684 2.35208821 59 13 1771 10.45600000 2886104879 2886104879 13.00000000
3.38768172 10.60223007 -0.19428019 10 14 1772 11.13200000 2886104881 2886104881 -1.00000000
2.68445992 8.39634418 2.36198258 45 15 1773 9.12600000 2886104884 2886104884 15.00000000
0.69014668 2.14826703 -0.60460126 4 0 1781 2.33600000 2886104905 2886104905 -15.00000000
3.41107655 10.61153221 0.19455943 13 1 1782 11.14800000 2886104907 2886104907 1.00000000
0.82462853 2.56380439 -0.62176472 3 2 1783 2.76400000 2886104909 2886104909 -13.00000000
3.41918635 10.62403011 0.58490664 13 3 1784 11.17600000 2886104911 2886104911 3.00000000
0.99000728 3.07613158 -0.62814319 2 4 1784 3.29200000 2886104914 2886104914 -11.00000000
3.41758513 10.61270332 0.97544706 12 5 1785 11.19200000 2886104916 2886104916 5.00000000
1.26013184 3.91077614 -0.65076739 2 6 1786 4.16000000 2886104918 2886104918 -9.00000000
3.42947006 10.63688278 1.37224877 12 7 1787 11.26000000 2886104921 2886104921 7.00000000
1.67726648 5.19912148 -0.67076886 2 8 1788 5.50400000 2886104923 2886104923 -7.00000000
3.43337059 10.63626671 1.77021241 12 9 1789 11.31600000 2886104925 2886104925 9.00000000
3.42744160 10.61789894 -0.97614431 4 10 1789 11.20000000 2886104928 2886104928 -5.00000000
3.22044849 9.97070026 2.03669524 43 11 1790 10.67400000 2886104930 2886104930 11.00000000
3.42909265 10.61034298 -0.58438331 12 12 1791 11.16600000 2886104932 2886104932 -3.00000000
3.12634277 9.66780376 2.34578967 60 13 1792 10.42800000 2886104934 2886104934 13.00000000
3.43144298 10.60496330 -0.19455943 10 14 1793 11.14800000 2886104937 2886104937 -1.00000000
2.70899463 8.37221813 2.35784149 45 15 1793 9.11000000 2886104939 2886104939 15.00000000
0.70003051 2.15319347 -0.60667187 4 0 1801 2.34400000 2886104960 2886104960 -15.00000000
3.44933414 10.60336304 0.19462924 13 1 1802 11.15200000 2886104962 2886104962 1.00000000
0.82995385 2.54979181 -0.61906528 3 2 1803 2.75200000 2886104964 2886104964 -13.00000000
3.46243548 10.63102150 0.58595335 10 3 1804 11.19600000 2886104967 2886104967 3.00000000
1.00317085 3.08012414 -0.62966967 2 4 1804 3.30000000 2886104969 2886104969 -11.00000000
3.45954847 10.61586380 0.97684157 12 5 1805 11.20800000 2886104971 2886104971 5.00000000
1.26642668 3.88381696 -0.64701295 2 6 1806 4.13600000 2886104974 2886104974 -9.00000000
3.46781015 10.62862110 1.37273633 14 7 1807 11.26400000 2886104976 2886104976 7.00000000
3.46843314 10.62424183 -1.37224877 2 8 1808 11.26000000 2886104978 2886104978 -7.00000000
3.47783780 10.64675045 1.77396679 12 9 1809 11.34000000 2886104981 2886104981 9.00000000
2.55381966 7.81804180 -0.71955782 4 10 1809 8.25600000 2886104983 2886104983 -5.00000000
3.25218344 9.95006752 2.03478718 46 11 1810 10.66400000 2886104985 2886104985 11.00000000
3.46921277 10.60780048 -0.58490664 12 12 1811 11.17600000 2886104987 2886104987 -3.00000000
3.12491846 9.54941082 2.31969523 66 13 1812 10.31200000 2886104990 2886104990 13.00000000
3.47341824 10.60812378 -0.19483867 10 14 1813 11.16400000 2886104992 2886104992 -1.00000000
2.74060702 8.37005424 2.35991216 40 15 1813 9.11800000 2886104994 2886104994 15.00000000
0.71161604 2.16566634 -0.61081296 4 0 1819 2.36000000 2886105015 2886105015 -15.00000000
3.48762512 10.60767174 0.19490847 13 1 1820 11.16800000 2886105017 2886105017 1.00000000
0.83796018 2.54717183 -0.61906528 3 2 1821 2.75200000 2886105020 2886105020 -13.00000000
3.49708390 10.63018703 0.58647674 13 3 1821 11.20600000 2886105022 2886105022 3.00000000
1.01529777 3.08441663 -0.63119614 2 4 1822 3.30800000 2886105024 2886105024 -11.00000000
3.49911475 10.62386703 0.97858471 12 5 1823 11.22800000 2886105027 2886105027 5.00000000
1.28047657 3.88544750 -0.64795154 2 6 1824 4.14200000 2886105029 2886105029 -9.00000000
3.50367045 10.62521458 1.37371123 12 7 1825 11.27200000 2886105031 2886105031 7.00000000
3.50676894 10.62837410 -1.37419868 2 8 1826 11.27600000 2886105033 2886105033 -7.00000000
3.51498246 10.65326786 1.77678263 12 9 1826 11.35800000 2886105036 2886105036 9.00000000
2.57149744 7.78916883 -0.71764040 4 10 1827 8.23400000 2886105038 2886105038 -5.00000000
3.28342628 9.93980122 2.03478718 46 11 1828 10.66400000 2886105040 2886105040 11.00000000
3.50314784 10.59874535 -0.58501130 12 12 1829 11.17800000 2886105043 2886105043 -3.00000000
3.12186122 9.43963623 2.29540062 64 13 1830 10.20400000 2886105045 2886105045 13.00000000
3.51300979 10.61614418 -0.19518772 10 14 1831 11.18400000 2886105047 2886105047 -1.00000000
2.76688886 8.36140347 2.35991216 40 15 1831 9.11800000 2886105050 2886105050 15.00000000
0.71795231 2.15950274 -0.60977769 4 0 1839 2.35600000 2886105070 2886105070 -15.00000000
3.52968121 10.61061287 0.19518772 13 1 1840 11.18400000 2886105073 2886105073 1.00000000
0.85053903 2.55532551 -0.62176472 3 2 1841 2.76400000 2886105075 2886105075 -13.00000000
3.53412867 10.61161423 0.58616269 13 3 1842 11.20000000 2886105077 2886105077 3.00000000
1.01985466 3.06222701 -0.62737995 2 4 1842 3.28800000 2886105080 2886105080 -11.00000000
3.53869724 10.61914921 0.97928190 12 5 1843 11.23600000 2886105082 2886105082 5.00000000
1.29403150 3.88095427 -0.64795154 2 6 1844 4.14200000 2886105084 2886105084 -9.00000000
3.54702044 10.63175106 1.37614858 14 7 1845 11.29200000 2886105086 2886105086 7.00000000
3.54133320 10.60853577 -1.37322378 2 8 1846 11.26800000 2886105089 2886105089 -7.00000000
3.55150175 10.63281822 1.77553117 12 9 1847 11.35000000 2886105091 2886105091 9.00000000
2.59362149 7.76502705 -0.71624589 4 10 1847 8.21800000 2886105093 2886105093 -5.00000000
3.31810260 9.92827988 2.03478718 43 11 1848 10.66400000 2886105096 2886105096 11.00000000
3.54519033 10.60160542 -0.58584869 12 12 1849 11.19400000 2886105098 2886105098 -3.00000000
3.11274529 9.30301476 2.26480722 60 13 1850 10.06800000 2886105100 2886105100 13.00000000
3.55258489 10.61140156 -0.19532733 10 14 1851 11.19200000 2886105103 2886105103 -1.00000000
2.80303884 8.36769199 2.36457086 45 15 1852 9.13600000 2886105105 2886105105 15.00000000
0.72425431 2.15332127 -0.60874242 4 0 1859 2.35200000 2886105126 2886105126 -15.00000000
3.57180023 10.61338902 0.19546695 13 1 1860 11.20000000 2886105128 2886105128 1.00000000
0.85945356 2.55234098 -0.62176472 3 2 1861 2.76400000 2886105130 2886105130 -13.00000000
3.57694697 10.62255001 0.58741879 13 3 1861 11.22400000 2886105133 2886105133 3.00000000
1.03429878 3.06981134 -0.62966967 2 4 1862 3.30000000 2886105135 2886105135 -11.00000000
3.58083534 10.62183571 0.98067641 12 5 1863 11.25200000 2886105137 2886105137 5.00000000
1.31199038 3.88951588 -0.65014166 2 6 1864 4.15600000 2886105139 2886105139 -9.00000000
3.58918905 10.63435173 1.37809849 12 7 1865 11.30800000 2886105142 2886105142 7.00000000
3.58469367 10.61491776 -1.37566113 2 8 1866 11.28800000 2886105144 2886105144 -7.00000000
3.59238958 10.63158512 1.77740836 12 9 1867 11.36200000 2886105146 2886105146 9.00000000
2.62071061 7.75592613 -0.71624589 4 10 1867 8.21800000 2886105149 2886105149 -5.00000000
3.35651135 9.92779541 2.03707695 46 11 1868 10.67600000 2886105151 2886105151 11.00000000
3.58601522 10.60051727 -0.58647674 12 12 1869 11.20600000 2886105153 2886105153 -3.00000000
3.11520982 9.20349121 2.24321198 64 13 1870 9.97200000 2886105156 2886105156 13.00000000
3.59088683 10.60272408 -0.19539714 10 14 1871 11.19600000 2886105158 2886105158 -1.00000000
2.82643390 8.34554291 2.36094737 42 15 1871 9.12200000 2886105160 2886105160 15.00000000
0.72927737 2.14346433 -0.60667187 4 0 1879 2.34400000 2886105181 2886105181 -15.00000000
3.61011481 10.60464287 0.19553676 13 1 1880 11.20400000 2886105183 2886105183 1.00000000
0.87087101 2.55670404 -0.62356430 3 2 1881 2.77200000 2886105185 2886105185 -13.00000000
3.61658072 10.61756134 0.58783746 10 3 1881 11.23200000 2886105188 2886105188 3.00000000
1.03994143 3.05131602 -0.62661672 2 4 1882 3.28400000 2886105190 2886105190 -11.00000000
3.61789060 10.60927200 0.98067641 12 5 1883 11.25200000 2886105192 2886105192 5.00000000
1.31981814 3.86808658 -0.64732581 2 6 1884 4.13800000 2886105195 2886105195 -9.00000000
3.63141894 10.63678741 1.38004839 12 7 1885 11.32400000 2886105197 2886105197 7.00000000
3.61915803 10.59482574 -1.37468624 2 8 1886 11.28000000 2886105199 2886105199 -7.00000000
3.63458991 10.63393402 1.77991140 12 9 1887 11.37800000 2886105202 2886105202 9.00000000
2.65099001 7.75615740 -0.71711743 4 10 1887 8.22800000 2886105204 2886105204 -5.00000000
3.38860416 9.90858841 2.03555036 46 11 1888 10.66800000 2886105206 2886105206 11.00000000
3.62428951 10.59171486 -0.58668607 12 12 1889 11.21000000 2886105209 2886105209 -3.00000000
3.10818076 9.07825279 2.21531796 50 13 1890 9.84800000 2886105211 2886105211 13.00000000
3.63435602 10.60904312 -0.19574618 10 14 1891 11.21600000 2886105213 2886105213 -1.00000000
2.85304379 8.32831573 2.35887671 40 15 1891 9.11400000 2886105215 2886105215 15.00000000
0.73926955 2.14821267 -0.60874242 4 0 1899 2.35200000 2886105236 2886105236 -15.00000000
3.64841223 10.59575844 0.19560657 13 1 1900 11.20800000 2886105238 2886105238 1.00000000
0.87852073 2.54996347 -0.62266451 3 2 1901 2.76800000 2886105241 2886105241 -13.00000000
3.66198087 10.62311745 0.58888417 13 3 1902 11.25200000 2886105243 2886105243 3.00000000
1.05186582 3.05137944 -0.62737995 2 4 1902 3.28800000 2886105245 2886105245 -11.00000000
3.66139817 10.61541367 0.98241955 12 5 1903 11.27200000 2886105248 2886105248 5.00000000
1.33395672 3.86532331 -0.64763868 4 6 1904 4.14000000 2886105250 2886105250 -9.00000000
3.66982198 10.62779903 1.38053596 12 7 1905 11.32800000 2886105252 2886105252 7.00000000
3.66908383 10.61965370 -1.37956095 2 8 1906 11.32000000 2886105255 2886105255 -7.00000000
3.67499399 10.63675976 1.78241432 12 9 1906 11.39400000 2886105257 2886105257 9.00000000
2.67674589 7.74309063 -0.71676880 4 10 1907 8.22400000 2886105259 2886105259 -5.00000000
3.42060399 9.88927746 2.03402400 46 11 1908 10.66000000 2886105262 2886105262 11.00000000
3.66515851 10.59032345 -0.58731413 12 12 1909 11.22200000 2886105264 2886105264 -3.00000000
3.10988069 8.98079967 2.19417262 57 13 1910 9.75400000 2886105266 2886105266 13.00000000
3.67333055 10.60196114 -0.19585091 10 14 1911 11.22200000 2886105268 2886105268 -1.00000000
0.74549371 2.14196992 -0.60770714 4 0 1919 2.34800000 2886105291 2886105291 -15.00000000
3.68997931 10.59617710 0.19585091 13 1 1920 11.22200000 2886105294 2886105294 1.00000000
0.88741642 2.54688144 -0.62266451 3 2 1921 2.76800000 2886105296 2886105296 -13.00000000
3.69981694 10.61845970 0.58930284 13 3 1921 11.26000000 2886105298 2886105298 3.00000000
1.07026625 3.06993508 -0.63195938 2 4 1922 3.31200000 2886105301 2886105301 -11.00000000
3.70696139 10.62702370 0.98468560 12 5 1923 11.29800000 2886105303 2886105303 5.00000000
1.34744108 3.86064339 -0.64763868 2 6 1924 4.14000000 2886105305 2886105305 -9.00000000
3.70951533 10.62242031 1.38151085 12 7 1925 11.33600000 2886105308 2886105308 7.00000000
3.70089245 10.59178925 -1.37761104 2 8 1926 11.30400000 2886105310 2886105310 -7.00000000
3.71982217 10.64000130 1.78523016 12 9 1927 11.41200000 2886105312 2886105312 9.00000000
2.70178533 7.72805738 -0.71624589 4 10 1927 8.21800000 2886105315 2886105315 -5.00000000
3.45639968 9.88098335 2.03478718 46 11 1928 10.66400000 2886105317 2886105317 11.00000000
3.70210338 10.57746506 -0.58731413 12 12 1929 11.22200000 2886105319 2886105319 -3.00000000
