# .PCD v0.7 - Point Cloud Data file format
VERSION 0.7
FIELDS x y z intensity laser_id azimuth distance_m adjustedtime timestamp vertical_angle
SIZE 4 4 4 1 1 2 8 8 4 8
TYPE F F F U U U F U U F
COUNT 1 1 1 1 1 1 1 1 1 1
WIDTH 537
HEIGHT 1
VIEWPOINT 0 0 0 1 0 0 0
POINTS 537
DATA ascii
0.63903034 8.84995365 2.37751174 40 15 413 9.18600000 2893300949 2893300949 15.00000000
0.16497190 2.24648976 -0.60356599 4 0 420 2.33200000 2893300970 2893300970 -15.00000000
0.76395845 10.37833500 0.18164465 6 1 421 10.40800000 2893300972 2893300972 1.00000000
0.19502483 2.64310122 -0.61186689 3 2 422 2.72000000 2893300975 2893300975 -13.00000000
0.85169661 11.54273701 0.60657376 2 3 422 11.59000000 2893300977 2893300977 3.00000000
0.23459283 3.17180848 -0.61822116 4 4 423 3.24000000 2893300979 2893300979 -11.00000000
0.30010396 4.03838682 -0.64138132 2 6 425 4.10000000 2893300984 2893300984 -9.00000000
0.76813328 10.28788853 -1.26670992 24 8 427 10.39400000 2893300989 2893300989 -7.00000000
0.86197501 11.51767159 -1.01048362 4 10 428 11.59400000 2893300993 2893300993 -5.00000000
0.79554397 10.60515213 2.06722474 43 11 429 10.83400000 2893300995 2893300995 11.00000000
0.77634847 10.30105782 2.38493109 50 13 431 10.60200000 2893301000 2893301000 13.00000000
0.77996558 10.32500458 -0.18073712 100 14 432 10.35600000 2893301002 2893301002 -1.00000000
0.67021030 8.85152149 2.37854695 42 15 433 9.19000000 2893301005 2893301005 15.00000000
0.17271636 2.24978280 -0.60460126 4 0 439 2.33600000 2893301025 2893301025 -15.00000000
0.79898369 10.38371944 0.18178427 6 1 440 10.41600000 2893301028 2893301028 1.00000000
0.20438798 2.65021181 -0.61366647 3 2 441 2.72800000 2893301030 2893301030 -13.00000000
0.89242625 11.57171059 0.60824847 2 3 441 11.62200000 2893301032 2893301032 3.00000000
0.24632005 3.18667245 -0.62127411 2 4 442 3.25600000 2893301035 2893301035 -11.00000000
0.31272948 4.02752209 -0.63981694 2 6 444 4.09000000 2893301039 2893301039 -9.00000000
0.80147308 10.27538967 -1.26549125 29 8 446 10.38400000 2893301044 2893301044 -7.00000000
0.90125126 11.52865410 -1.01170385 4 10 447 11.60800000 2893301048 2893301048 -5.00000000
0.83147430 10.61224174 2.06913280 43 11 448 10.84400000 2893301051 2893301051 11.00000000
0.80943346 10.28482723 2.38178182 53 13 450 10.58800000 2893301055 2893301055 13.00000000
0.81357127 10.31438732 -0.18059750 100 14 451 10.34800000 2893301058 2893301058 -1.00000000
0.69801480 8.84937191 2.37854695 42 15 451 9.19000000 2893301060 2893301060 15.00000000
0.17979553 2.23953795 -0.60201311 4 0 459 2.32600000 2893301081 2893301081 -15.00000000
0.83682853 10.40079975 0.18213332 6 1 460 10.43600000 2893301083 2893301083 1.00000000
0.21426421 2.65725207 -0.61546606 3 2 461 2.73600000 2893301085 2893301085 -13.00000000
0.93441886 11.58843327 0.60929519 2 3 461 11.64200000 2893301088 2893301088 3.00000000
0.25649330 3.17405200 -0.61898440 2 4 462 3.24400000 2893301090 2893301090 -11.00000000
0.32518828 4.00671673 -0.63668829 4 6 464 4.07000000 2893301094 2893301094 -9.00000000
0.83830363 10.28439999 -1.26695371 36 8 466 10.39600000 2893301099 2893301099 -7.00000000
0.93986613 11.50557995 -1.00996077 4 10 467 11.58800000 2893301104 2893301104 -5.00000000
0.86819255 10.60536098 2.06836963 43 11 468 10.84000000 2893301106 2893301106 11.00000000
0.84628737 10.29359245 2.38448119 57 13 470 10.60000000 2893301111 2893301111 13.00000000
0.84759986 10.28756905 -0.18017864 95 14 471 10.32400000 2893301113 2893301113 -1.00000000
0.73044467 8.84675407 2.37854695 42 15 472 9.19000000 2893301115 2893301115 15.00000000
0.18719438 2.22923851 -0.59942490 4 0 480 2.31600000 2893301136 2893301136 -15.00000000
0.87309927 10.37574387 0.18174936 6 1 481 10.41400000 2893301138 2893301138 1.00000000
0.22367460 2.65256524 -0.61456627 3 2 482 2.73200000 2893301141 2893301141 -13.00000000
0.98126262 11.61262226 0.61076063 2 3 483 11.67000000 2893301143 2893301143 3.00000000
0.26812506 3.17309046 -0.61898440 2 4 483 3.24400000 2893301145 2893301145 -11.00000000
0.34170857 4.02714968 -0.64012980 2 6 485 4.09200000 2893301150 2893301150 -9.00000000
0.97999597 11.47823620 -1.00786901 4 10 488 11.56400000 2893301159 2893301159 -5.00000000
0.90605319 10.59037113 2.06607985 43 11 489 10.82800000 2893301161 2893301161 11.00000000
0.88467675 10.29818821 2.38628078 57 13 491 10.60800000 2893301166 2893301166 13.00000000
0.88701504 10.30431747 -0.18052769 61 14 492 10.34400000 2893301168 2893301168 -1.00000000
0.75983000 8.82682800 2.37388825 38 15 492 9.17200000 2893301171 2893301171 15.00000000
0.19531149 2.23242044 -0.60046017 4 0 500 2.32000000 2893301191 2893301191 -15.00000000
0.90878814 10.36665726 0.18164465 6 1 501 10.40800000 2893301194 2893301194 1.00000000
0.23327346 2.65565085 -0.61546606 3 2 502 2.73600000 2893301196 2893301196 -13.00000000
1.02109182 11.60116768 0.61034191 2 3 503 11.66200000 2893301198 2893301198 3.00000000
0.27851105 3.16431236 -0.61745793 2 4 503 3.23600000 2893301200 2893301200 -11.00000000
0.35472059 4.01412582 -0.63825262 2 6 505 4.08000000 2893301205 2893301205 -9.00000000
0.47119984 5.31109667 -0.65468210 2 8 507 5.37200000 2893301210 2893301210 -7.00000000
1.02023292 11.47673035 -1.00804329 4 10 508 11.56600000 2893301214 2893301214 -5.00000000
0.94301492 10.58714390 2.06607985 43 11 509 10.82800000 2893301217 2893301217 11.00000000
0.92131305 10.30280113 2.38808036 55 13 511 10.61600000 2893301221 2893301221 13.00000000
0.79234958 8.82590771 2.37440586 45 15 513 9.17400000 2893301226 2893301226 15.00000000
0.20485377 2.25096416 -0.60563654 4 0 520 2.34000000 2893301247 2893301247 -15.00000000
0.94678485 10.38333607 0.18199369 6 1 521 10.42800000 2893301249 2893301249 1.00000000
0.24112362 2.63929510 -0.61186689 3 2 522 2.72000000 2893301251 2893301251 -13.00000000
1.06886351 11.67709064 0.61452878 2 3 523 11.74200000 2893301253 2893301253 3.00000000
0.29206029 3.19069219 -0.62280059 2 4 523 3.26400000 2893301256 2893301256 -11.00000000
0.36909184 4.01679754 -0.63887835 2 6 525 4.08400000 2893301260 2893301260 -9.00000000
0.49119478 5.32523298 -0.65663201 2 8 527 5.38800000 2893301265 2893301265 -7.00000000
1.06083798 11.47905064 -1.00856626 4 10 528 11.57200000 2893301270 2893301270 -5.00000000
0.97960323 10.57987785 2.06531668 43 11 529 10.82400000 2893301272 2893301272 11.00000000
0.95582813 10.28399944 2.38448119 59 13 531 10.60000000 2893301277 2893301277 13.00000000
0.96152622 10.32574844 -0.18101636 8 14 532 10.37200000 2893301279 2893301279 -1.00000000
0.82197124 8.82707882 2.37544131 42 15 532 9.17800000 2893301281 2893301281 15.00000000
0.21234626 2.24638867 -0.60460126 4 0 540 2.33600000 2893301302 2893301302 -15.00000000
0.98226953 10.37200451 0.18185407 6 1 541 10.42000000 2893301304 2893301304 1.00000000
0.25217569 2.65783763 -0.61636591 3 2 542 2.74000000 2893301306 2893301306 -13.00000000
1.10848367 11.66135883 0.61390078 2 3 543 11.73000000 2893301309 2893301309 3.00000000
0.30245298 3.18183541 -0.62127411 2 4 543 3.25600000 2893301311 2893301311 -11.00000000
0.38123468 3.99582005 -0.63574964 2 6 545 4.06400000 2893301316 2893301316 -9.00000000
0.51053721 5.33138990 -0.65760696 2 8 547 5.39600000 2893301320 2893301320 -7.00000000
1.09861767 11.45147800 -1.00647449 4 10 548 11.54800000 2893301325 2893301325 -5.00000000
1.01615226 10.57248592 2.06455326 50 11 549 10.82000000 2893301327 2893301327 11.00000000
0.99134594 10.27672100 2.38358140 57 13 551 10.59600000 2893301332 2893301332 13.00000000
0.99621749 10.30839634 -0.18077202 6 14 552 10.35800000 2893301334 2893301334 -1.00000000
0.85506326 8.83169842 2.37751174 42 15 553 9.18600000 2893301336 2893301336 15.00000000
0.21772440 2.22452283 -0.59890729 4 0 559 2.31400000 2893301357 2893301357 -15.00000000
1.01939082 10.39655209 0.18234274 6 1 560 10.44800000 2893301359 2893301359 1.00000000
0.26060700 2.65310788 -0.61546606 3 2 561 2.73600000 2893301362 2893301362 -13.00000000
1.15379822 11.72519970 0.61745960 2 3 562 11.79800000 2893301364 2893301364 3.00000000
0.31223363 3.17299962 -0.61974764 4 4 562 3.24800000 2893301366 2893301366 -11.00000000
0.39797762 4.02991867 -0.64138132 2 6 564 4.10000000 2893301371 2893301371 -9.00000000
0.53173798 5.36522532 -0.66199428 2 8 566 5.43200000 2893301376 2893301376 -7.00000000
1.13697982 11.45173740 -1.00682318 4 10 567 11.55200000 2893301380 2893301380 -5.00000000
1.05237210 10.58078003 2.06684303 50 11 568 10.83200000 2893301382 2893301382 11.00000000
1.02619350 10.28113365 2.38538098 56 13 570 10.60400000 2893301387 2893301387 13.00000000
1.03079379 10.30901527 -0.18084183 6 14 571 10.36200000 2893301389 2893301389 -1.00000000
0.88203573 8.82127953 2.37544131 42 15 571 9.17800000 2893301392 2893301392 15.00000000
0.22587788 2.22759342 -0.59994256 3 0 579 2.31800000 2893301412 2893301412 -15.00000000
1.05405867 10.37701511 0.18206351 6 1 580 10.43200000 2893301415 2893301415 1.00000000
0.27026105 2.65605950 -0.61636591 3 2 581 2.74000000 2893301417 2893301417 -13.00000000
0.32370570 3.17579675 -0.62051088 2 4 582 3.25200000 2893301422 2893301422 -11.00000000
0.40942928 4.00295830 -0.63731402 2 6 584 4.07400000 2893301426 2893301426 -9.00000000
0.55046290 5.36333656 -0.66199428 2 8 586 5.43200000 2893301431 2893301431 -7.00000000
1.17083395 11.38824081 -1.00159383 4 10 587 11.49200000 2893301435 2893301435 -5.00000000
1.08909845 10.57508850 2.06646132 50 11 588 10.83000000 2893301438 2893301438 11.00000000
1.06247580 10.28136539 2.38628078 57 13 590 10.60800000 2893301442 2893301442 13.00000000
1.06718445 10.30933285 -0.18091165 6 14 591 10.36600000 2893301445 2893301445 -1.00000000
0.91216964 8.79685020 2.36974716 45 15 592 9.15600000 2893301447 2893301447 15.00000000
0.23466025 2.23639774 -0.60253072 4 0 599 2.32800000 2893301468 2893301468 -15.00000000
1.09173799 10.38719368 0.18230784 6 1 600 10.44600000 2893301470 2893301470 1.00000000
0.27871463 2.64734793 -0.61456627 3 2 601 2.73200000 2893301472 2893301472 -13.00000000
0.33561292 3.18245721 -0.62203735 2 4 602 3.26000000 2893301477 2893301477 -11.00000000
0.42443901 4.01132679 -0.63887835 2 6 604 4.08400000 2893301482 2893301482 -9.00000000
1.09498203 10.31414700 -1.27353466 20 8 606 10.45000000 2893301486 2893301486 -7.00000000
1.21015787 11.38012218 -1.00124514 4 10 607 11.48800000 2893301491 2893301491 -5.00000000
1.12475812 10.55950928 2.06417179 50 11 608 10.81800000 2893301493 2893301493 11.00000000
1.09794378 10.27371883 2.38538098 59 13 610 10.60400000 2893301498 2893301498 13.00000000
1.10359001 10.30952168 -0.18098146 6 14 611 10.37000000 2893301500 2893301500 -1.00000000
0.94298100 8.80914402 2.37388825 45 15 611 9.17200000 2893301502 2893301502 15.00000000
0.24225701 2.23364449 -0.60201311 4 0 619 2.32600000 2893301523 2893301523 -15.00000000
1.12777352 10.38133144 0.18227293 3 1 620 10.44400000 2893301525 2893301525 1.00000000
0.28795391 2.64635873 -0.61456627 3 2 621 2.73200000 2893301528 2893301528 -13.00000000
0.34501803 3.16565275 -0.61898440 2 4 622 3.24400000 2893301532 2893301532 -11.00000000
0.44015625 4.02552986 -0.64138132 2 6 624 4.10000000 2893301537 2893301537 -9.00000000
1.24160588 11.30057049 -0.99462134 4 10 627 11.41200000 2893301546 2893301546 -5.00000000
1.16268456 10.56527615 2.06607985 50 11 628 10.82800000 2893301548 2893301548 11.00000000
1.13337135 10.26594925 2.38448119 59 13 630 10.60000000 2893301553 2893301553 13.00000000
1.14022946 10.31156921 -0.18108617 8 14 631 10.37600000 2893301555 2893301555 -1.00000000
0.97547448 8.80754948 2.37440586 45 15 632 9.17400000 2893301558 2893301558 15.00000000
0.25155744 2.24622416 -0.60563654 4 0 639 2.34000000 2893301578 2893301578 -15.00000000
1.16801643 10.41310120 0.18290122 3 1 640 10.48000000 2893301581 2893301581 1.00000000
0.29805991 2.65308380 -0.61636591 3 2 641 2.74000000 2893301583 2893301583 -13.00000000
0.35694420 3.17223287 -0.62051088 2 4 642 3.25200000 2893301588 2893301588 -11.00000000
0.45287591 4.01219177 -0.63950408 2 6 644 4.08800000 2893301592 2893301592 -9.00000000
1.27745247 11.26449203 -0.99183238 4 10 647 11.38000000 2893301601 2893301601 -5.00000000
1.19933558 10.55920315 2.06569815 50 11 648 10.82600000 2893301604 2893301604 11.00000000
1.16787565 10.25031376 2.38178182 59 13 650 10.58800000 2893301608 2893301608 13.00000000
1.17848384 10.32739449 -0.18143521 8 14 651 10.39600000 2893301611 2893301611 -1.00000000
1.00555217 8.81194305 2.37647653 42 15 651 9.18200000 2893301613 2893301613 15.00000000
0.25917500 2.24341345 -0.60511893 4 0 659 2.33800000 2893301634 2893301634 -15.00000000
1.20711601 10.43279839 0.18332008 3 1 660 10.50400000 2893301636 2893301636 1.00000000
0.30687043 2.64815569 -0.61546606 3 2 661 2.73600000 2893301638 2893301638 -13.00000000
0.36665720 3.15926647 -0.61822116 2 4 662 3.24000000 2893301643 2893301643 -11.00000000
0.46870562 4.02628326 -0.64200705 2 6 664 4.10400000 2893301647 2893301647 -9.00000000
1.20292950 10.30211449 -1.27353466 169 8 666 10.45000000 2893301652 2893301652 -7.00000000
1.30982256 11.20059681 -0.98660302 4 10 667 11.32000000 2893301657 2893301657 -5.00000000
1.23710036 10.56275177 2.06722474 50 11 668 10.83400000 2893301659 2893301659 11.00000000
1.20410359 10.25004482 2.38268161 56 13 670 10.59200000 2893301664 2893301664 13.00000000
1.21312404 10.31130219 -0.18122579 8 14 671 10.38400000 2893301666 2893301666 -1.00000000
1.03562820 8.80262375 2.37492347 45 15 671 9.17600000 2893301668 2893301668 15.00000000
0.26570073 2.23486829 -0.60304838 4 0 678 2.33000000 2893301689 2893301689 -15.00000000
1.24217856 10.43270969 0.18338989 3 1 679 10.50800000 2893301691 2893301691 1.00000000
0.31703478 2.65873361 -0.61816549 3 2 680 2.74800000 2893301694 2893301694 -13.00000000
0.37806290 3.16583085 -0.61974764 2 4 681 3.24800000 2893301698 2893301698 -11.00000000
0.48346421 4.03647518 -0.64388424 2 6 683 4.11600000 2893301703 2893301703 -9.00000000
1.23992705 10.32172012 -1.27645946 189 8 685 10.47400000 2893301707 2893301707 -7.00000000
1.34790981 11.20410442 -0.98730028 4 10 686 11.32800000 2893301712 2893301712 -5.00000000
1.27212083 10.55859089 2.06722474 53 11 687 10.83400000 2893301714 2893301714 11.00000000
1.23855484 10.24986553 2.38358140 55 13 689 10.59600000 2893301719 2893301719 13.00000000
1.24875236 10.31913376 -0.18143521 8 14 690 10.39600000 2893301721 2893301721 -1.00000000
1.06411684 8.79338741 2.37337065 45 15 690 9.17000000 2893301723 2893301723 15.00000000
0.27303073 2.23009205 -0.60201311 4 0 698 2.32600000 2893301744 2893301744 -15.00000000
1.28199494 10.45609760 0.18387856 3 1 699 10.53600000 2893301747 2893301747 1.00000000
0.32583860 2.65374231 -0.61726570 3 2 700 2.74400000 2893301749 2893301749 -13.00000000
0.39198661 3.18787479 -0.62432700 2 4 701 3.27200000 2893301753 2893301753 -11.00000000
0.49513355 4.01515770 -0.64075559 2 6 703 4.09600000 2893301758 2893301758 -9.00000000
1.27765453 10.33111954 -1.27816570 195 8 705 10.48800000 2893301763 2893301763 -7.00000000
1.00205684 8.09104252 -0.71328259 4 10 706 8.18400000 2893301767 2893301767 -5.00000000
1.30896950 10.55408669 2.06722474 53 11 707 10.83400000 2893301770 2893301770 11.00000000
1.39555097 11.23612785 -0.59338510 4 12 708 11.33800000 2893301772 2893301772 -3.00000000
1.27480710 10.24934673 2.38448119 59 13 709 10.60000000 2893301774 2893301774 13.00000000
1.28748405 10.33653927 -0.18181917 8 14 710 10.41800000 2893301776 2893301776 -1.00000000
1.09681726 8.79326248 2.37440586 42 15 711 9.17400000 2893301779 2893301779 15.00000000
0.28226227 2.24062562 -0.60511893 4 0 718 2.33800000 2893301800 2893301800 -15.00000000
1.32198966 10.47933388 0.18436722 3 1 719 10.56400000 2893301802 2893301802 1.00000000
0.33558837 2.65645552 -0.61816549 3 2 720 2.74800000 2893301804 2893301804 -13.00000000
0.40212637 3.17869616 -0.62280059 2 4 721 3.26400000 2893301809 2893301809 -11.00000000
0.50864881 4.00948572 -0.64012980 2 6 723 4.09200000 2893301813 2893301813 -9.00000000
1.31471109 10.33447361 -1.27914059 185 8 725 10.49600000 2893301818 2893301818 -7.00000000
1.39437115 10.94539261 -0.96533698 4 10 726 11.07600000 2893301823 2893301823 -5.00000000
1.34629905 10.55334759 2.06798792 50 11 727 10.83800000 2893301825 2893301825 11.00000000
1.40186214 10.97363758 -0.57977772 4 12 728 11.07800000 2893301827 2893301827 -3.00000000
1.30810344 10.22550488 2.37998223 59 13 729 10.58000000 2893301829 2893301829 13.00000000
1.32533610 10.34586716 -0.18206351 8 14 730 10.43200000 2893301832 2893301832 -1.00000000
1.12572527 8.78766060 2.37388825 45 15 730 9.17200000 2893301834 2893301834 15.00000000
0.28908920 2.23196340 -0.60304838 4 0 738 2.33000000 2893301855 2893301855 -15.00000000
1.36241937 10.50440216 0.18489079 3 1 739 10.59400000 2893301857 2893301857 1.00000000
0.34310216 2.64174032 -0.61501616 3 2 740 2.73400000 2893301859 2893301859 -13.00000000
0.41271326 3.17337942 -0.62203735 4 4 741 3.26000000 2893301864 2893301864 -11.00000000
0.52315235 4.01160336 -0.64075559 2 6 743 4.09600000 2893301869 2893301869 -9.00000000
1.35283625 10.34556866 -1.28109050 162 8 745 10.51200000 2893301873 2893301873 -7.00000000
1.07352149 8.19843006 -0.72339267 4 10 746 8.30000000 2893301878 2893301878 -5.00000000
1.38363934 10.55247688 2.06875110 50 11 747 10.84200000 2893301880 2893301880 11.00000000
1.43703878 10.94491386 -0.57852167 4 12 748 11.05400000 2893301882 2893301882 -3.00000000
1.34277308 10.21314812 2.37818265 60 13 749 10.57200000 2893301885 2893301885 13.00000000
1.36248589 10.34910774 -0.18220313 8 14 750 10.44000000 2893301887 2893301887 -1.00000000
1.15740168 8.79133892 2.37595892 45 15 750 9.18000000 2893301889 2893301889 15.00000000
0.29687846 2.23094058 -0.60304838 4 0 758 2.33000000 2893301911 2893301911 -15.00000000
1.40832269 10.56895828 0.18611246 3 1 759 10.66400000 2893301913 2893301913 1.00000000
0.35464108 2.65791130 -0.61906528 3 2 760 2.75200000 2893301916 2893301916 -13.00000000
0.42274794 3.16413569 -0.62051088 4 4 761 3.25200000 2893301920 2893301920 -11.00000000
0.53820139 4.01758432 -0.64200705 2 6 763 4.10400000 2893301925 2893301925 -9.00000000
1.08885419 8.09590244 -0.71467710 4 10 766 8.20000000 2893301934 2893301934 -5.00000000
1.42098999 10.55147457 2.06951427 56 11 767 10.84600000 2893301936 2893301936 11.00000000
1.47523487 10.93983173 -0.57852167 4 12 768 11.05400000 2893301939 2893301939 -3.00000000
1.37893701 10.21226120 2.37908244 60 13 769 10.57600000 2893301941 2893301941 13.00000000
1.39913857 10.34825230 -0.18227293 6 14 770 10.44400000 2893301943 2893301943 -1.00000000
1.18808222 8.78724575 2.37595892 45 15 770 9.18000000 2893301946 2893301946 15.00000000
0.30361801 2.22223449 -0.60097784 4 0 778 2.32200000 2893301966 2893301966 -15.00000000
0.36523911 2.66631055 -0.62131482 3 2 780 2.76200000 2893301971 2893301971 -13.00000000
0.43539095 3.17431092 -0.62280059 4 4 781 3.26400000 2893301976 2893301976 -11.00000000
0.55383676 4.02742290 -0.64388424 2 6 783 4.11600000 2893301980 2893301980 -9.00000000
1.45781291 10.54644966 2.06951427 56 11 787 10.84600000 2893301992 2893301992 11.00000000
1.51834178 10.97022629 -0.58040577 4 12 788 11.09000000 2893301994 2893301994 -3.00000000
1.41457605 10.20738506 2.37908244 59 13 789 10.57600000 2893301996 2893301996 13.00000000
1.43964982 10.37499714 -0.18283141 2 14 790 10.47600000 2893301999 2893301999 -1.00000000
1.21788836 8.76561069 2.37129998 45 15 791 9.16200000 2893302001 2893302001 15.00000000
0.31220302 2.23274899 -0.60408366 4 0 796 2.33400000 2893302022 2893302022 -15.00000000
0.37226108 2.65550065 -0.61906528 3 2 798 2.75200000 2893302026 2893302026 -13.00000000
0.44481540 3.16903901 -0.62203735 2 4 799 3.26000000 2893302031 2893302031 -11.00000000
0.56263286 3.99827743 -0.63950408 2 6 801 4.08800000 2893302035 2893302035 -9.00000000
1.15645707 8.18714333 -0.72339267 4 10 804 8.30000000 2893302045 2893302045 -5.00000000
1.48928869 10.53015423 2.06722474 56 11 805 10.83400000 2893302047 2893302047 11.00000000
1.55335832 10.96935749 -0.58061510 4 12 806 11.09400000 2893302049 2893302049 -3.00000000
1.44663644 10.20289135 2.37908244 59 13 807 10.57600000 2893302052 2893302052 13.00000000
1.24389100 8.76195812 2.37129998 42 15 808 9.16200000 2893302056 2893302056 15.00000000
0.32081747 2.23738241 -0.60563654 3 0 816 2.34000000 2893302077 2893302077 -15.00000000
0.37931004 2.63875365 -0.61546606 3 2 818 2.73600000 2893302081 2893302081 -13.00000000
0.45587468 3.16746712 -0.62203735 4 4 819 3.26000000 2893302086 2893302086 -11.00000000
0.57884276 4.01192999 -0.64200705 2 6 821 4.10400000 2893302091 2893302091 -9.00000000
0.77291608 5.34384441 -0.66296923 2 8 823 5.44000000 2893302095 2893302095 -7.00000000
1.17075109 8.08446503 -0.71467710 4 10 824 8.20000000 2893302100 2893302100 -5.00000000
1.52772701 10.53654957 2.06951427 53 11 825 10.84600000 2893302102 2893302102 11.00000000
1.48168170 10.19392204 2.37818265 57 13 827 10.57200000 2893302107 2893302107 13.00000000
1.27502477 8.76138687 2.37233543 45 15 828 9.16600000 2893302111 2893302111 15.00000000
0.33059159 2.24962831 -0.60926002 4 0 836 2.35400000 2893302132 2893302132 -15.00000000
0.39079073 2.65283704 -0.61906528 3 2 838 2.75200000 2893302137 2893302137 -13.00000000
0.46635550 3.16197205 -0.62127411 4 4 839 3.25600000 2893302141 2893302141 -11.00000000
0.59399909 4.01770163 -0.64325851 2 6 841 4.11200000 2893302146 2893302146 -9.00000000
0.79272896 5.34896851 -0.66394418 2 8 843 5.44800000 2893302151 2893302151 -7.00000000
1.19253051 8.03697109 -0.71084225 4 10 844 8.15600000 2893302155 2893302155 -5.00000000
1.56651652 10.54474640 2.07218575 56 11 845 10.86000000 2893302158 2893302158 11.00000000
1.51438582 10.16941357 2.37368345 59 13 847 10.55200000 2893302162 2893302162 13.00000000
1.30883968 8.76811886 2.37544131 45 15 849 9.17800000 2893302167 2893302167 15.00000000
0.33499169 2.22553658 -0.60304838 4 0 856 2.33000000 2893302187 2893302187 -15.00000000
0.40121141 2.65916467 -0.62086493 3 2 858 2.76000000 2893302192 2893302192 -13.00000000
0.47914943 3.17197227 -0.62356383 2 4 859 3.26800000 2893302197 2893302197 -11.00000000
0.61097717 4.03513479 -0.64638722 2 6 861 4.13200000 2893302201 2893302201 -9.00000000
0.81616139 5.37757063 -0.66784400 2 8 863 5.48000000 2893302206 2893302206 -7.00000000
1.22177470 8.04063892 -0.71153951 4 10 864 8.16400000 2893302211 2893302211 -5.00000000
1.60331500 10.53921413 2.07218575 56 11 865 10.86000000 2893302213 2893302213 11.00000000
1.55046201 10.16791821 2.37458324 62 13 867 10.55600000 2893302217 2893302217 13.00000000
1.33768678 8.75203800 2.37233543 42 15 869 9.16600000 2893302222 2893302222 15.00000000
0.34314644 2.22429395 -0.60304838 4 0 877 2.33000000 2893302243 2893302243 -15.00000000
0.40916830 2.64612103 -0.61816549 3 2 879 2.74800000 2893302247 2893302247 -13.00000000
0.49017137 3.16631460 -0.62280059 4 4 880 3.26400000 2893302252 2893302252 -11.00000000
0.62636834 4.03677273 -0.64701295 2 6 882 4.13600000 2893302257 2893302257 -9.00000000
0.83586568 5.37454319 -0.66784400 2 8 884 5.48000000 2893302261 2893302261 -7.00000000
1.24939775 8.02429485 -0.71049362 4 10 885 8.15200000 2893302266 2893302266 -5.00000000
1.64193237 10.53326702 2.07218575 56 11 886 10.86000000 2893302268 2893302268 11.00000000
1.58832049 10.16601753 2.37548304 57 13 888 10.56000000 2893302273 2893302273 13.00000000
1.36945677 8.74516773 2.37181783 45 15 890 9.16400000 2893302277 2893302277 15.00000000
0.35090858 2.22308254 -0.60304838 4 0 897 2.33000000 2893302298 2893302298 -15.00000000
0.41840249 2.64467669 -0.61816549 3 2 899 2.74800000 2893302303 2893302303 -13.00000000
0.50183511 3.16846228 -0.62356383 2 4 900 3.26800000 2893302307 2893302307 -11.00000000
0.63426155 3.99554253 -0.64075559 2 6 902 4.09600000 2893302312 2893302312 -9.00000000
0.85836411 5.39511776 -0.67076886 2 8 904 5.50400000 2893302317 2893302317 -7.00000000
1.27551985 8.00807953 -0.70944774 4 10 905 8.14000000 2893302321 2893302321 -5.00000000
1.67807209 10.52359390 2.07142234 56 11 906 10.85600000 2893302323 2893302323 11.00000000
1.62564206 10.17195797 2.37818265 56 13 908 10.57200000 2893302328 2893302328 13.00000000
1.39997482 8.74033451 2.37181783 45 15 910 9.16400000 2893302333 2893302333 15.00000000
0.36082152 2.23519421 -0.60667187 3 0 917 2.34400000 2893302353 2893302353 -15.00000000
0.42887652 2.65089488 -0.61996508 3 2 919 2.75600000 2893302358 2893302358 -13.00000000
0.51414764 3.17444324 -0.62509024 2 4 920 3.27600000 2893302363 2893302363 -11.00000000
0.64947075 4.00110388 -0.64200705 2 6 922 4.10400000 2893302367 2893302367 -9.00000000
0.87336642 5.36857653 -0.66784400 2 8 924 5.48000000 2893302372 2893302372 -7.00000000
1.30730855 8.02717590 -0.71153951 4 10 925 8.16400000 2893302376 2893302376 -5.00000000
1.71669149 10.52929783 2.07371211 56 11 926 10.86800000 2893302379 2893302379 11.00000000
1.65862489 10.15083504 2.37458324 57 13 928 10.55600000 2893302383 2893302383 13.00000000
1.43113410 8.74898911 2.37544131 45 15 929 9.17800000 2893302388 2893302388 15.00000000
0.36893612 2.23582721 -0.60718948 4 0 937 2.34600000 2893302409 2893302409 -15.00000000
0.43749136 2.64553642 -0.61906528 3 2 939 2.75200000 2893302413 2893302413 -13.00000000
0.52522534 3.17262936 -0.62509024 2 4 940 3.27600000 2893302418 2893302418 -11.00000000
0.66601974 4.01440191 -0.64450997 2 6 942 4.12000000 2893302422 2893302422 -9.00000000
0.89991492 5.41249228 -0.67369372 2 8 944 5.52800000 2893302427 2893302427 -7.00000000
1.34120893 8.05793953 -0.71467710 4 10 945 8.20000000 2893302432 2893302432 -5.00000000
1.75408053 10.52711391 2.07447529 59 11 946 10.87200000 2893302434 2893302434 11.00000000
1.69083822 10.12576199 2.37008429 59 13 948 10.53600000 2893302439 2893302439 13.00000000
1.46255338 8.73987484 2.37440586 45 15 950 9.17400000 2893302443 2893302443 15.00000000
0.37339428 2.21941638 -0.60304838 4 0 955 2.33000000 2893302464 2893302464 -15.00000000
0.44644836 2.64799237 -0.61996508 3 2 957 2.75600000 2893302469 2893302469 -13.00000000
0.53257602 3.15547657 -0.62203735 2 4 958 3.26000000 2893302473 2893302473 -11.00000000
0.68060464 4.02397633 -0.64638722 2 6 960 4.13200000 2893302478 2893302478 -9.00000000
0.91160655 5.37832355 -0.66979390 2 8 962 5.49600000 2893302482 2893302482 -7.00000000
1.37118316 8.08118725 -0.71711743 4 10 963 8.22800000 2893302487 2893302487 -5.00000000
1.79010260 10.53897190 2.07790995 59 11 964 10.89000000 2893302489 2893302489 11.00000000
1.72394884 10.12808514 2.37188387 57 13 966 10.54400000 2893302494 2893302494 13.00000000
1.48718071 8.72787952 2.37233543 45 15 967 9.16600000 2893302499 2893302499 15.00000000
0.37983057 2.21048379 -0.60097784 4 0 975 2.32200000 2893302519 2893302519 -15.00000000
0.45502746 2.64257669 -0.61906528 3 2 977 2.75200000 2893302524 2893302524 -13.00000000
0.54492140 3.16133714 -0.62356383 2 4 978 3.26800000 2893302528 2893302528 -11.00000000
0.69128454 4.00211048 -0.64325851 2 6 980 4.11200000 2893302533 2893302533 -9.00000000
0.93105197 5.37902069 -0.67028141 2 8 982 5.50000000 2893302538 2893302538 -7.00000000
1.38441682 7.98997355 -0.70944774 4 10 983 8.14000000 2893302542 2893302542 -5.00000000
1.82654405 10.53072453 2.07752824 56 11 984 10.88800000 2893302545 2893302545 11.00000000
1.75862443 10.11816597 2.37098408 57 13 986 10.54000000 2893302549 2893302549 13.00000000
1.51650822 8.70714378 2.36819434 45 15 988 9.15000000 2893302554 2893302554 15.00000000
0.39232901 2.23184109 -0.60718948 4 0 997 2.34600000 2893302575 2893302575 -15.00000000
0.46314248 2.62929487 -0.61636591 3 2 999 2.74000000 2893302579 2893302579 -13.00000000
0.55910146 3.17082214 -0.62585348 2 4 1000 3.28000000 2893302584 2893302584 -11.00000000
0.70733380 4.00331736 -0.64388424 2 6 1002 4.11600000 2893302588 2893302588 -9.00000000
1.41925800 8.00814056 -0.71153951 4 10 1005 8.16400000 2893302598 2893302598 -5.00000000
1.86627972 10.51976681 2.07676506 59 11 1006 10.88400000 2893302600 2893302600 11.00000000
1.79950881 10.12285042 2.37368345 57 13 1008 10.55200000 2893302605 2893302605 13.00000000
1.55111885 8.71674347 2.37233543 42 15 1009 9.16600000 2893302609 2893302609 15.00000000
0.39977607 2.22855663 -0.60667187 3 0 1017 2.34400000 2893302630 2893302630 -15.00000000
0.47300714 2.63149834 -0.61726570 3 2 1019 2.74400000 2893302634 2893302634 -13.00000000
0.57225227 3.18044448 -0.62814319 2 4 1020 3.29200000 2893302639 2893302639 -11.00000000
0.72410756 4.01637602 -0.64638722 2 6 1022 4.13200000 2893302644 2893302644 -9.00000000
1.45145738 8.02666473 -0.71363121 4 10 1025 8.18800000 2893302653 2893302653 -5.00000000
1.90368855 10.51705265 2.07752824 59 11 1026 10.88800000 2893302655 2893302655 11.00000000
1.83135557 10.09733295 2.36918449 57 13 1028 10.53200000 2893302660 2893302660 13.00000000
1.58409321 8.71670151 2.37388825 45 15 1030 9.17200000 2893302664 2893302664 15.00000000
0.40608117 2.22348881 -0.60563654 3 0 1035 2.34000000 2893302685 2893302685 -15.00000000
0.48267502 2.63766694 -0.61906528 3 2 1037 2.75200000 2893302690 2893302690 -13.00000000
0.58082616 3.17090654 -0.62661672 2 4 1038 3.28400000 2893302694 2893302694 -11.00000000
0.73529541 4.00630951 -0.64513576 2 6 1040 4.12400000 2893302699 2893302699 -9.00000000
0.98373860 5.34945250 -0.66784400 2 8 1042 5.48000000 2893302704 2893302704 -7.00000000
1.47378123 8.00638962 -0.71223670 4 10 1043 8.17200000 2893302708 2893302708 -5.00000000
1.93743086 10.51488113 2.07829165 56 11 1044 10.89200000 2893302710 2893302710 11.00000000
1.86129916 10.08194733 2.36693501 53 13 1046 10.52200000 2893302715 2893302715 13.00000000
1.61030018 8.71386242 2.37440586 42 15 1047 9.17400000 2893302720 2893302720 15.00000000
0.41348639 2.22015858 -0.60511893 4 0 1055 2.33800000 2893302740 2893302740 -15.00000000
0.49259418 2.63979745 -0.61996508 3 2 1057 2.75600000 2893302745 2893302745 -13.00000000
0.58900744 3.15342069 -0.62356383 2 4 1058 3.26800000 2893302750 2893302750 -11.00000000
0.74927557 4.00371838 -0.64513576 2 6 1060 4.12400000 2893302754 2893302754 -9.00000000
1.00679576 5.36939907 -0.67076886 2 8 1062 5.50400000 2893302759 2893302759 -7.00000000
1.50245476 8.00511265 -0.71258533 4 10 1063 8.17600000 2893302763 2893302763 -5.00000000
1.97629786 10.51963139 2.08058119 59 11 1064 10.90400000 2893302766 2893302766 11.00000000
1.89684093 10.07730389 2.36738491 56 13 1066 10.52400000 2893302770 2893302770 13.00000000
1.64043713 8.69841003 2.37181783 45 15 1068 9.16400000 2893302775 2893302775 15.00000000
0.42123368 2.21870160 -0.60511893 4 0 1075 2.33800000 2893302796 2893302796 -15.00000000
0.50471902 2.65337706 -0.62356430 3 2 1077 2.77200000 2893302800 2893302800 -13.00000000
0.60221457 3.16291714 -0.62585348 2 4 1078 3.28000000 2893302805 2893302805 -11.00000000
0.76472718 4.00884008 -0.64638722 2 6 1080 4.13200000 2893302810 2893302810 -9.00000000
1.02255118 5.35025358 -0.66881895 2 8 1082 5.48800000 2893302814 2893302814 -7.00000000
1.52290142 7.96068144 -0.70909911 4 10 1083 8.13600000 2893302819 2893302819 -5.00000000
2.01448298 10.52038193 2.08210778 56 11 1084 10.91200000 2893302821 2893302821 11.00000000
1.93273997 10.07444954 2.36828470 56 13 1086 10.52800000 2893302826 2893302826 13.00000000
1.66854453 8.68912792 2.37078238 45 15 1087 9.16000000 2893302830 2893302830 15.00000000
0.43044367 2.22480464 -0.60718948 4 0 1095 2.34600000 2893302851 2893302851 -15.00000000
0.51397800 2.65159917 -0.62356430 3 2 1097 2.77200000 2893302856 2893302856 -13.00000000
0.61325151 3.16079569 -0.62585348 2 4 1098 3.28000000 2893302860 2893302860 -11.00000000
0.77343911 3.97899914 -0.64200705 2 6 1100 4.10400000 2893302865 2893302865 -9.00000000
1.04273856 5.35444546 -0.66979390 2 8 1102 5.49600000 2893302869 2893302869 -7.00000000
1.55449212 7.97487259 -0.71084225 4 10 1103 8.15600000 2893302874 2893302874 -5.00000000
2.04969001 10.50557804 2.08058119 59 11 1104 10.90400000 2893302876 2893302876 11.00000000
1.96340859 10.04469109 2.36288595 56 13 1106 10.50400000 2893302881 2893302881 13.00000000
1.70075178 8.68484974 2.37129998 45 15 1108 9.16200000 2893302886 2893302886 15.00000000
0.43671274 2.21570683 -0.60511893 4 0 1115 2.33800000 2893302906 2893302906 -15.00000000
0.52021056 2.63449430 -0.61996508 3 2 1117 2.75600000 2893302911 2893302911 -13.00000000
0.62504232 3.16248798 -0.62661672 2 4 1118 3.28400000 2893302916 2893302916 -11.00000000
0.79192793 3.99952817 -0.64576149 2 6 1120 4.12800000 2893302920 2893302920 -9.00000000
1.05678773 5.32740736 -0.66686904 2 8 1122 5.47200000 2893302925 2893302925 -7.00000000
1.58232009 7.96939802 -0.71084225 4 10 1123 8.15600000 2893302929 2893302929 -5.00000000
2.08941007 10.51376438 2.08363414 56 11 1124 10.92000000 2893302932 2893302932 11.00000000
2.00302529 10.06071091 2.36828470 59 13 1126 10.52800000 2893302936 2893302936 13.00000000
1.73029757 8.68295193 2.37233543 42 15 1127 9.16600000 2893302941 2893302941 15.00000000
0.44748589 2.22932148 -0.60926002 4 0 1135 2.35400000 2893302962 2893302962 -15.00000000
0.52709842 2.62119937 -0.61726570 3 2 1137 2.74400000 2893302966 2893302966 -13.00000000
0.63452816 3.15258813 -0.62509024 2 4 1138 3.27600000 2893302971 2893302971 -11.00000000
0.80822676 4.00835800 -0.64763868 2 6 1140 4.14000000 2893302975 2893302975 -9.00000000
1.08166611 5.35481882 -0.67076886 2 8 1142 5.50400000 2893302980 2893302980 -7.00000000
1.61605132 7.99311924 -0.71345693 4 10 1143 8.18600000 2893302985 2893302985 -5.00000000
2.12882304 10.51987648 2.08630562 59 11 1144 10.93400000 2893302987 2893302987 11.00000000
2.03658271 10.04601765 2.36648512 56 13 1146 10.52000000 2893302992 2893302992 13.00000000
1.76213276 8.68443203 2.37440586 45 15 1147 9.17400000 2893302996 2893302996 15.00000000
0.45333025 2.22025418 -0.60718948 4 0 1154 2.34600000 2893303017 2893303017 -15.00000000
0.53813082 2.63089228 -0.61996508 3 2 1156 2.75600000 2893303022 2893303022 -13.00000000
0.64419150 3.14662004 -0.62432700 4 4 1157 3.27200000 2893303026 2893303026 -11.00000000
0.81992704 3.99791527 -0.64638722 2 6 1159 4.13200000 2893303031 2893303031 -9.00000000
1.09861839 5.34731340 -0.67028141 2 8 1161 5.50000000 2893303035 2893303035 -7.00000000
1.64575899 8.00332832 -0.71485138 4 10 1162 8.20200000 2893303040 2893303040 -5.00000000
2.16725850 10.53006554 2.08974004 59 11 1163 10.95200000 2893303042 2893303042 11.00000000
2.06909823 10.03539181 2.36558533 60 13 1165 10.51600000 2893303047 2893303047 13.00000000
1.78779829 8.66340542 2.37026477 45 15 1166 9.15800000 2893303051 2893303051 15.00000000
0.45793301 2.20352674 -0.60304838 4 0 1174 2.33000000 2893303072 2893303072 -15.00000000
0.54810542 2.63281345 -0.62086493 3 2 1176 2.76000000 2893303077 2893303077 -13.00000000
0.65597230 3.14819598 -0.62509024 2 4 1177 3.27600000 2893303081 2893303081 -11.00000000
0.83145565 3.98342681 -0.64450997 2 6 1179 4.12000000 2893303086 2893303086 -9.00000000
1.12134016 5.36287642 -0.67271876 2 8 1181 5.52000000 2893303091 2893303091 -7.00000000
1.69409168 8.09504223 -0.72356695 4 10 1182 8.30200000 2893303095 2893303095 -5.00000000
2.20359969 10.52051449 2.08935857 59 11 1183 10.95000000 2893303098 2893303098 11.00000000
2.10571647 10.03573704 2.36738491 59 13 1185 10.52400000 2893303102 2893303102 13.00000000
1.81874442 8.65301323 2.36922956 45 15 1187 9.15400000 2893303107 2893303107 15.00000000
0.46920630 2.21695352 -0.60718948 4 0 1195 2.34600000 2893303128 2893303128 -15.00000000
0.55775148 2.63078690 -0.62086493 3 2 1197 2.76000000 2893303132 2893303132 -13.00000000
0.66750658 3.14577079 -0.62509024 2 4 1198 3.27600000 2893303137 2893303137 -11.00000000
0.84276444 3.96489477 -0.64200705 2 6 1200 4.10400000 2893303141 2893303141 -9.00000000
1.13933492 5.35096455 -0.67174381 2 8 1202 5.51200000 2893303146 2893303146 -7.00000000
1.70298707 7.99134684 -0.71485138 4 10 1203 8.20200000 2893303151 2893303151 -5.00000000
2.24091578 10.50660706 2.08821368 62 11 1204 10.94400000 2893303153 2893303153 11.00000000
2.14411378 10.03557491 2.36918449 56 13 1206 10.53200000 2893303157 2893303157 13.00000000
1.84974599 8.65038967 2.37026477 42 15 1207 9.15800000 2893303162 2893303162 15.00000000
0.47612885 2.21152496 -0.60615420 4 0 1215 2.34200000 2893303183 2893303183 -15.00000000
0.56117976 2.60215473 -0.61456627 3 2 1217 2.73200000 2893303187 2893303187 -13.00000000
0.68096858 3.15493584 -0.62737995 2 4 1218 3.28800000 2893303192 2893303192 -11.00000000
0.85659933 3.96192884 -0.64200705 2 6 1220 4.10400000 2893303197 2893303197 -9.00000000
1.15632570 5.33919430 -0.67076886 2 8 1222 5.50400000 2893303201 2893303201 -7.00000000
1.73593640 8.00871944 -0.71694314 4 10 1223 8.22600000 2893303206 2893303206 -5.00000000
2.27840948 10.50255871 2.08897686 59 11 1224 10.94800000 2893303208 2893303208 11.00000000
2.17664862 10.01660347 2.36648512 62 13 1226 10.52000000 2893303213 2893303213 13.00000000
1.87910914 8.64010525 2.36922956 45 15 1227 9.15400000 2893303217 2893303217 15.00000000
0.48467201 2.21362376 -0.60718948 4 0 1235 2.34600000 2893303238 2893303238 -15.00000000
0.57568663 2.62492561 -0.62041503 3 2 1237 2.75800000 2893303243 2893303243 -13.00000000
0.68860996 3.13719869 -0.62432700 2 4 1238 3.27200000 2893303247 2893303247 -11.00000000
0.87381732 3.97434902 -0.64450997 2 6 1240 4.12000000 2893303252 2893303252 -9.00000000
1.17154038 5.31961632 -0.66881895 2 8 1242 5.48800000 2893303256 2893303256 -7.00000000
2.31886268 10.51179600 2.09241152 59 11 1244 10.96600000 2893303263 2893303263 11.00000000
2.20907712 9.99752808 2.36378574 59 13 1246 10.50800000 2893303268 2893303268 13.00000000
1.91176009 8.64481068 2.37233543 42 15 1247 9.16600000 2893303273 2893303273 15.00000000
0.49155650 2.20814705 -0.60615420 4 0 1255 2.34200000 2893303293 2893303293 -15.00000000
0.58569402 2.62670398 -0.62131482 4 2 1257 2.76200000 2893303298 2893303298 -13.00000000
0.70297742 3.15010500 -0.62737995 2 4 1258 3.28800000 2893303303 2893303303 -11.00000000
0.89027053 3.98284149 -0.64638722 2 6 1260 4.13200000 2893303307 2893303307 -9.00000000
1.20051122 5.36198568 -0.67466867 2 8 1262 5.53600000 2893303312 2893303312 -7.00000000
1.80835950 8.07028484 -0.72356695 4 10 1263 8.30200000 2893303316 2893303316 -5.00000000
2.35983777 10.52279377 2.09622765 53 11 1264 10.98600000 2893303319 2893303319 11.00000000
2.24481559 9.99355793 2.36468554 59 13 1266 10.51200000 2893303323 2893303323 13.00000000
1.94173586 8.63020706 2.37026477 45 15 1268 9.15800000 2893303328 2893303328 15.00000000
0.49755594 2.19888091 -0.60408366 4 0 1275 2.33400000 2893303349 2893303349 -15.00000000
0.59615159 2.63034534 -0.62266451 3 2 1277 2.76800000 2893303353 2893303353 -13.00000000
0.71049476 3.13231492 -0.62432700 2 4 1278 3.27200000 2893303358 2893303358 -11.00000000
0.90241724 3.97200441 -0.64513576 2 6 1280 4.12400000 2893303362 2893303362 -9.00000000
1.21922064 5.35776234 -0.67466867 2 8 1282 5.53600000 2893303367 2893303367 -7.00000000
2.39611840 10.51257801 2.09584594 50 11 1284 10.98400000 2893303374 2893303374 11.00000000
2.28055358 9.98946095 2.36558533 55 13 1286 10.51600000 2893303379 2893303379 13.00000000
1.96862280 8.61618710 2.36819434 45 15 1287 9.15000000 2893303383 2893303383 15.00000000
0.50869185 2.21219230 -0.60822475 4 0 1295 2.35000000 2893303404 2893303404 -15.00000000
0.60183060 2.61305618 -0.61906528 3 2 1297 2.75200000 2893303408 2893303408 -13.00000000
0.72054231 3.12598968 -0.62356383 2 4 1298 3.26800000 2893303413 2893303413 -11.00000000
0.91449916 3.96113110 -0.64388424 2 6 1300 4.11600000 2893303418 2893303418 -9.00000000
1.23433757 5.33800173 -0.67271876 2 8 1302 5.52000000 2893303422 2893303422 -7.00000000
2.31540918 9.98143959 2.36558533 56 13 1306 10.51600000 2893303434 2893303434 13.00000000
1.99956059 8.61302662 2.36922956 42 15 1307 9.15400000 2893303438 2893303438 15.00000000
0.51602495 2.21049333 -0.60822475 4 0 1314 2.35000000 2893303459 2893303459 -15.00000000
0.61137980 2.61484098 -0.61996508 3 2 1316 2.75600000 2893303464 2893303464 -13.00000000
0.73537761 3.14269924 -0.62737995 2 4 1317 3.28800000 2893303468 2893303468 -11.00000000
0.93033421 3.96961641 -0.64576149 2 6 1319 4.12800000 2893303473 2893303473 -9.00000000
1.25656855 5.35320473 -0.67515618 2 8 1321 5.54000000 2893303478 2893303478 -7.00000000
2.27531385 9.67805386 1.93251348 3 11 1323 10.12800000 2893303485 2893303485 11.00000000
2.34581637 9.96232605 2.36288595 59 13 1325 10.50400000 2893303489 2893303489 13.00000000
2.02739644 8.59659290 2.36664128 45 15 1327 9.14400000 2893303494 2893303494 15.00000000
0.52552080 2.21619749 -0.61029530 4 0 1334 2.35800000 2893303514 2893303514 -15.00000000
0.62050360 2.61269116 -0.61996508 3 2 1336 2.75600000 2893303519 2893303519 -13.00000000
0.74543524 3.13629293 -0.62661672 2 4 1337 3.28400000 2893303524 2893303524 -11.00000000
0.94235528 3.95865798 -0.64450997 2 6 1339 4.12000000 2893303528 2893303528 -9.00000000
1.26788104 5.31789017 -0.67125636 2 8 1341 5.50800000 2893303533 2893303533 -7.00000000
1.91298425 8.01745224 -0.72112662 4 10 1342 8.27400000 2893303538 2893303538 -5.00000000
2.30178690 9.63949966 1.92640758 3 11 1343 10.09600000 2893303540 2893303540 11.00000000
2.37785745 9.94270515 2.36018658 59 13 1345 10.49200000 2893303544 2893303544 13.00000000
2.06144166 8.60637188 2.37129998 45 15 1347 9.16200000 2893303549 2893303549 15.00000000
0.53234899 2.21059322 -0.60926002 4 0 1354 2.35400000 2893303570 2893303570 -15.00000000
0.63053364 2.61429811 -0.62086493 3 2 1356 2.76000000 2893303574 2893303574 -13.00000000
0.75177199 3.11458731 -0.62280059 2 4 1357 3.26400000 2893303579 2893303579 -11.00000000
0.95616782 3.95534444 -0.64450997 2 6 1359 4.12000000 2893303584 2893303584 -9.00000000
1.29391003 5.34430170 -0.67515618 2 8 1361 5.54000000 2893303588 2893303588 -7.00000000
1.93814373 7.99910784 -0.72008073 4 10 1362 8.26200000 2893303593 2893303593 -5.00000000
2.33403325 9.62568188 1.92526281 6 11 1363 10.09000000 2893303595 2893303595 11.00000000
2.41346908 9.93813133 2.36108637 59 13 1365 10.49600000 2893303600 2893303600 13.00000000
2.08736205 8.58222961 2.36664128 45 15 1367 9.14400000 2893303604 2893303604 15.00000000
0.53730911 2.19746208 -0.60615420 4 0 1374 2.34200000 2893303625 2893303625 -15.00000000
0.64058244 2.61586666 -0.62176472 3 2 1376 2.76400000 2893303630 2893303630 -13.00000000
0.76263934 3.11194420 -0.62280059 2 4 1377 3.26400000 2893303634 2893303634 -11.00000000
0.97091043 3.95581961 -0.64513576 2 6 1379 4.12400000 2893303639 2893303639 -9.00000000
1.30781877 5.32047558 -0.67271876 2 8 1381 5.52000000 2893303644 2893303644 -7.00000000
1.95653546 7.95359945 -0.71659452 4 10 1382 8.22200000 2893303648 2893303648 -5.00000000
2.36714959 9.61557007 1.92488110 9 11 1383 10.08800000 2893303650 2893303650 11.00000000
2.45094395 9.94099903 2.36378574 59 13 1385 10.50800000 2893303655 2893303655 13.00000000
2.11499143 8.56551361 2.36405325 42 15 1387 9.13400000 2893303660 2893303660 15.00000000
0.54404563 2.19182324 -0.60511893 4 0 1394 2.33800000 2893303680 2893303680 -15.00000000
0.64923948 2.61172366 -0.62131482 3 2 1396 2.76200000 2893303685 2893303685 -13.00000000
0.78013277 3.13593578 -0.62814319 2 4 1397 3.29200000 2893303690 2893303690 -11.00000000
0.98566800 3.95623994 -0.64576149 2 6 1399 4.12800000 2893303694 2893303694 -9.00000000
1.32734394 5.31972980 -0.67320627 2 8 1401 5.52400000 2893303699 2893303699 -7.00000000
1.98718286 7.95831966 -0.71764040 4 10 1402 8.23400000 2893303703 2893303703 -5.00000000
2.40165162 9.61105728 1.92564440 12 11 1403 10.09200000 2893303706 2893303706 11.00000000
2.48562956 9.93238258 2.36378574 60 13 1405 10.50800000 2893303710 2893303710 13.00000000
2.14619994 8.56969643 2.36715889 45 15 1406 9.14600000 2893303715 2893303715 15.00000000
0.55358094 2.19740415 -0.60718948 4 0 1414 2.34600000 2893303736 2893303736 -15.00000000
0.65501511 2.59621477 -0.61816549 3 2 1416 2.74800000 2893303740 2893303740 -13.00000000
0.79588050 3.15222859 -0.63195938 2 4 1417 3.31200000 2893303745 2893303745 -11.00000000
1.00140882 3.96043563 -0.64701295 2 6 1419 4.13600000 2893303749 2893303749 -9.00000000
1.34493053 5.31121540 -0.67271876 2 8 1421 5.52000000 2893303754 2893303754 -7.00000000
2.01103520 7.93588400 -0.71624589 4 10 1422 8.21800000 2893303759 2893303759 -5.00000000
2.43808150 9.61403370 1.92793405 12 11 1423 10.10400000 2893303761 2893303761 11.00000000
2.51740694 9.91231346 2.36108637 62 13 1425 10.49600000 2893303766 2893303766 13.00000000
2.17664266 8.55802822 2.36612368 45 15 1427 9.14200000 2893303770 2893303770 15.00000000
0.56316179 2.20294499 -0.60926002 4 0 1434 2.35400000 2893303791 2893303791 -15.00000000
0.66842341 2.61090302 -0.62221462 3 2 1436 2.76600000 2893303796 2893303796 -13.00000000
0.80005759 3.12280560 -0.62661672 4 4 1437 3.28400000 2893303800 2893303800 -11.00000000
1.01326358 3.94926238 -0.64576149 2 6 1439 4.12800000 2893303805 2893303805 -9.00000000
1.36148596 5.29879808 -0.67174381 2 8 1441 5.51200000 2893303809 2893303809 -7.00000000
2.04864740 7.96740818 -0.71973211 4 10 1442 8.25800000 2893303814 2893303814 -5.00000000
2.47456121 9.61687279 1.93022382 15 11 1443 10.11600000 2893303816 2893303816 11.00000000
2.54907417 9.89214230 2.35838675 60 13 1445 10.48400000 2893303821 2893303821 13.00000000
2.20501018 8.55076313 2.36612368 45 15 1446 9.14200000 2893303826 2893303826 15.00000000
0.57084811 2.20096588 -0.60926002 4 0 1454 2.35400000 2893303846 2893303846 -15.00000000
0.67410380 2.59535098 -0.61906528 3 2 1456 2.75200000 2893303851 2893303851 -13.00000000
0.80700225 3.10479307 -0.62356383 2 4 1457 3.26800000 2893303855 2893303855 -11.00000000
1.02803802 3.94952464 -0.64638722 2 6 1459 4.13200000 2893303860 2893303860 -9.00000000
1.38297820 5.30553865 -0.67320627 2 8 1461 5.52400000 2893303865 2893303865 -7.00000000
2.06236553 7.90622807 -0.71485138 4 10 1462 8.20200000 2893303869 2893303869 -5.00000000
2.51009893 9.61577415 1.93175030 18 11 1463 10.12400000 2893303872 2893303872 11.00000000
2.58556008 9.89072609 2.36018658 60 13 1465 10.49200000 2893303876 2893303876 13.00000000
2.23682451 8.54449272 2.36664128 45 15 1467 9.14400000 2893303881 2893303881 15.00000000
0.57557827 2.18775010 -0.60615420 4 0 1474 2.34200000 2893303902 2893303902 -15.00000000
0.68713099 2.60805750 -0.62266451 3 2 1476 2.76800000 2893303906 2893303906 -13.00000000
0.82484227 3.12853456 -0.62890643 2 4 1477 3.29600000 2893303911 2893303911 -11.00000000
1.03879261 3.93445253 -0.64450997 2 6 1479 4.12000000 2893303915 2893303915 -9.00000000
1.39743018 5.28532553 -0.67125636 2 8 1481 5.50800000 2893303920 2893303920 -7.00000000
2.09402776 7.91438961 -0.71624589 4 10 1482 8.21800000 2893303925 2893303925 -5.00000000
2.54766893 9.62213707 1.93480325 15 11 1483 10.14000000 2893303927 2893303927 11.00000000
2.61907053 9.87787342 2.35928655 64 13 1485 10.48800000 2893303932 2893303932 13.00000000
2.26167870 8.52395821 2.36301780 42 15 1486 9.13000000 2893303936 2893303936 15.00000000
0.58420753 2.18946075 -0.60718948 4 0 1494 2.34600000 2893303957 2893303957 -15.00000000
0.69421840 2.59811234 -0.62086493 3 2 1496 2.76000000 2893303961 2893303961 -13.00000000
0.83372933 3.11804962 -0.62737995 2 4 1497 3.28800000 2893303966 2893303966 -11.00000000
1.05558562 3.94225144 -0.64638722 2 6 1499 4.13200000 2893303971 2893303971 -9.00000000
1.41895556 5.29191971 -0.67271876 2 8 1501 5.52000000 2893303975 2893303975 -7.00000000
2.12887001 7.93397236 -0.71868628 4 10 1502 8.24600000 2893303980 2893303980 -5.00000000
2.57869530 9.60370445 1.93289506 18 11 1503 10.13000000 2893303982 2893303982 11.00000000
2.65555882 9.87619877 2.36108637 55 13 1505 10.49600000 2893303987 2893303987 13.00000000
2.29591918 8.52680302 2.36612368 40 15 1507 9.14200000 2893303991 2893303991 15.00000000
0.59297752 2.19310617 -0.60874242 4 0 1513 2.35200000 2893304012 2893304012 -15.00000000
0.70079303 2.58827186 -0.61906528 3 2 1515 2.75200000 2893304017 2893304017 -13.00000000
0.84509140 3.11905766 -0.62814319 2 4 1516 3.29200000 2893304021 2893304021 -11.00000000
1.06658387 3.93110347 -0.64513576 2 6 1518 4.12400000 2893304026 2893304026 -9.00000000
1.43441451 5.27952242 -0.67174381 2 8 1520 5.51200000 2893304031 2893304031 -7.00000000
