# .PCD v0.7 - Point Cloud Data file format
VERSION 0.7
FIELDS x y z intensity laser_id azimuth distance_m adjustedtime timestamp vertical_angle
SIZE 4 4 4 1 1 2 8 8 4 8
TYPE F F F U U U F U U F
COUNT 1 1 1 1 1 1 1 1 1 1
WIDTH 537
HEIGHT 1
VIEWPOINT 0 0 0 1 0 0 0
POINTS 537
DATA ascii
8.12045383 0.72615981 0.71328259 79 5 8489 8.18400000 2894423714 2894423714 5.00000000
3.97052860 0.35436022 -0.63136947 9 6 8490 4.03600000 2894423716 2894423716 -9.00000000
8.14632893 0.72560734 1.00420344 100 7 8491 8.24000000 2894423718 2894423718 7.00000000
5.29519606 0.47072059 -0.65273219 6 8 8492 5.35600000 2894423721 2894423721 -7.00000000
6.61663675 0.58702719 -0.58115447 12 10 8493 6.66800000 2894423725 2894423725 -5.00000000
8.13906956 0.71923393 -0.42821279 17 12 8495 8.18200000 2894423730 2894423730 -3.00000000
8.12932968 0.71551341 -0.14244655 14 14 8497 8.16200000 2894423734 2894423734 -1.00000000
8.17887592 0.71843588 2.19996190 51 15 8498 8.50000000 2894423737 2894423737 15.00000000
2.23258996 0.19336325 -0.60046017 4 0 8505 2.32000000 2894423757 2894423757 -15.00000000
8.12645817 0.70239866 0.14237674 21 1 8506 8.15800000 2894423760 2894423760 1.00000000
2.61524177 0.22558478 -0.60601813 6 2 8507 2.69400000 2894423762 2894423762 -13.00000000
8.13856888 0.70201433 0.42810813 15 3 8507 8.18000000 2894423764 2894423764 3.00000000
3.16092920 0.27209875 -0.61669469 5 4 8508 3.23200000 2894423767 2894423767 -11.00000000
8.13881969 0.69917399 0.71467710 90 5 8509 8.20000000 2894423769 2894423769 5.00000000
3.97764587 0.34100455 -0.63230813 9 6 8510 4.04200000 2894423771 2894423771 -9.00000000
8.13298893 0.69581324 1.00225353 99 7 8511 8.22400000 2894423773 2894423773 7.00000000
5.28098345 0.45088309 -0.65078229 9 8 8512 5.34000000 2894423776 2894423776 -7.00000000
6.62063074 0.56409639 -0.58132881 16 10 8513 6.67000000 2894423780 2894423780 -5.00000000
8.12162971 0.68913031 -0.42716607 17 12 8515 8.16200000 2894423785 2894423785 -3.00000000
8.13376999 0.68730080 -0.14248145 12 14 8517 8.16400000 2894423790 2894423790 -1.00000000
8.17736340 0.69098449 2.19892669 58 15 8517 8.49600000 2894423792 2894423792 15.00000000
2.23710179 0.18588883 -0.60149544 4 0 8525 2.32400000 2894423813 2894423813 -15.00000000
8.12886047 0.67402774 0.14237674 15 1 8526 8.15800000 2894423815 2894423815 1.00000000
2.61795545 0.21661520 -0.60646802 7 2 8527 2.69600000 2894423817 2894423817 -13.00000000
8.13300800 0.67294234 0.42768943 21 3 8527 8.17200000 2894423820 2894423820 3.00000000
3.14816356 0.25993255 -0.61402333 4 4 8528 3.21800000 2894423822 2894423822 -11.00000000
8.14121151 0.67075992 0.71467710 90 5 8529 8.20000000 2894423824 2894423824 5.00000000
3.98078060 0.32727975 -0.63262099 9 6 8530 4.04400000 2894423826 2894423826 -9.00000000
8.13734627 0.66758186 1.00249720 95 7 8531 8.22600000 2894423829 2894423829 7.00000000
5.26867580 0.43131250 -0.64907610 8 8 8532 5.32600000 2894423831 2894423831 -7.00000000
6.62255955 0.54098266 -0.58132881 24 10 8533 6.67000000 2894423836 2894423836 -5.00000000
8.13194847 0.66142398 -0.42758477 17 12 8535 8.17000000 2894423840 2894423840 -3.00000000
8.13014030 0.65842021 -0.14237674 12 14 8537 8.15800000 2894423845 2894423845 -1.00000000
8.18754387 0.66163069 2.20099711 58 15 8538 8.50400000 2894423847 2894423847 15.00000000
2.22618246 0.17715923 -0.59838963 4 0 8545 2.31200000 2894423868 2894423868 -15.00000000
8.13515091 0.64596516 0.14244655 15 1 8546 8.16200000 2894423870 2894423870 1.00000000
2.62063813 0.20762941 -0.60691792 6 2 8547 2.69800000 2894423873 2894423873 -13.00000000
8.13741016 0.64328629 0.42779410 23 3 8548 8.17400000 2894423875 2894423875 3.00000000
3.15296602 0.24925126 -0.61478657 4 4 8548 3.22200000 2894423877 2894423877 -11.00000000
8.13357162 0.64155436 0.71380556 83 5 8549 8.19000000 2894423879 2894423879 5.00000000
3.98780680 0.31384718 -0.63355958 9 6 8550 4.05000000 2894423882 2894423882 -9.00000000
8.14358521 0.63948393 1.00298464 97 7 8551 8.23000000 2894423884 2894423884 7.00000000
5.27608633 0.41338396 -0.64980733 8 8 8552 5.33200000 2894423886 2894423886 -7.00000000
6.61447573 0.51708591 -0.58045727 48 10 8553 6.66000000 2894423891 2894423891 -5.00000000
8.13619900 0.63318908 -0.42768943 17 12 8555 8.17200000 2894423896 2894423896 -3.00000000
8.12242031 0.62926441 -0.14220221 14 14 8557 8.14800000 2894423900 2894423900 -1.00000000
8.17813587 0.63358086 2.19789124 56 15 8557 8.49200000 2894423903 2894423903 15.00000000
2.22486115 0.16924080 -0.59787202 4 0 8565 2.31000000 2894423923 2894423923 -15.00000000
8.12938023 0.61695898 0.14230692 15 1 8566 8.15400000 2894423926 2894423926 1.00000000
2.63494921 0.19951034 -0.61006725 6 2 8567 2.71200000 2894423928 2894423928 -13.00000000
8.14358997 0.61517841 0.42800346 21 3 8568 8.17800000 2894423930 2894423930 3.00000000
3.14990163 0.23794806 -0.61402333 4 4 8568 3.21800000 2894423932 2894423932 -11.00000000
8.11986732 0.61196113 0.71241105 76 5 8569 8.17400000 2894423935 2894423935 5.00000000
3.97902894 0.29918468 -0.63199526 6 6 8570 4.04000000 2894423937 2894423937 -9.00000000
8.14972687 0.61135066 1.00347221 95 7 8571 8.23400000 2894423939 2894423939 7.00000000
5.26561975 0.39407557 -0.64834493 8 8 8572 5.32000000 2894423942 2894423942 -7.00000000
6.61425352 0.49384558 -0.58028293 68 10 8573 6.65800000 2894423946 2894423946 -5.00000000
8.13238430 0.60434055 -0.42737541 17 12 8575 8.16600000 2894423951 2894423951 -3.00000000
8.11858463 0.60046554 -0.14209749 14 14 8577 8.14200000 2894423956 2894423956 -1.00000000
8.16884422 0.60274929 2.19478559 58 15 8578 8.48000000 2894423958 2894423958 15.00000000
2.22158456 0.16119395 -0.59683675 4 0 8585 2.30600000 2894423979 2894423979 -15.00000000
8.11752319 0.58756781 0.14206259 15 1 8586 8.14000000 2894423981 2894423981 1.00000000
2.62008023 0.18918866 -0.60646802 5 2 8587 2.69600000 2894423983 2894423983 -13.00000000
8.14170361 0.58646119 0.42779410 21 3 8588 8.17400000 2894423985 2894423985 3.00000000
3.15854573 0.22751561 -0.61554980 4 4 8588 3.22600000 2894423988 2894423988 -11.00000000
8.12791634 0.58404219 0.71293396 79 5 8589 8.18000000 2894423990 2894423990 5.00000000
3.97610831 0.28501099 -0.63136947 6 6 8590 4.03600000 2894423992 2894423992 -9.00000000
8.13993073 0.58204955 1.00200975 92 7 8591 8.22200000 2894423995 2894423995 7.00000000
5.28874397 0.37724632 -0.65102601 9 8 8592 5.34200000 2894423997 2894423997 -7.00000000
6.61196232 0.47047168 -0.57993430 44 10 8593 6.65400000 2894424002 2894424002 -5.00000000
8.13444424 0.57594955 -0.42737541 17 12 8595 8.16600000 2894424006 2894424006 -3.00000000
8.12462044 0.57240379 -0.14216730 14 14 8597 8.14600000 2894424011 2894424011 -1.00000000
8.17079735 0.57565713 2.19478559 58 15 8597 8.48000000 2894424013 2894424013 15.00000000
2.23755193 0.15450281 -0.60097784 4 0 8605 2.32200000 2894424034 2894424034 -15.00000000
8.11752987 0.55909139 0.14202769 18 1 8606 8.13800000 2894424036 2894424036 1.00000000
2.61683631 0.17977460 -0.60556823 5 2 8607 2.69200000 2894424038 2894424038 -13.00000000
8.14370060 0.55803782 0.42779410 21 3 8608 8.17400000 2894424041 2894424041 3.00000000
3.15932059 0.21648884 -0.61554980 4 4 8608 3.22600000 2894424043 2894424043 -11.00000000
8.12791729 0.55553102 0.71275967 76 5 8609 8.17800000 2894424045 2894424045 5.00000000
3.98102045 0.27139875 -0.63199526 9 6 8610 4.04000000 2894424048 2894424048 -9.00000000
8.13795185 0.55336303 1.00152230 97 7 8611 8.21800000 2894424050 2894424050 7.00000000
5.28408718 0.35837990 -0.65029484 9 8 8612 5.33600000 2894424052 2894424052 -7.00000000
8.21853733 0.55596066 1.30466342 7 9 8613 8.34000000 2894424055 2894424055 9.00000000
6.61157656 0.44725430 -0.57976002 16 10 8613 6.65200000 2894424057 2894424057 -5.00000000
8.22696304 0.55508816 1.60279560 6 11 8614 8.40000000 2894424059 2894424059 11.00000000
8.11249256 0.54594231 -0.42611936 17 12 8615 8.14200000 2894424061 2894424061 -3.00000000
8.23633099 0.55283219 1.90578532 2 13 8616 8.47200000 2894424064 2894424064 13.00000000
8.13055992 0.54430723 -0.14223711 14 14 8617 8.15000000 2894424066 2894424066 -1.00000000
8.17670822 0.54596323 2.19582081 56 15 8618 8.48400000 2894424068 2894424068 15.00000000
2.23807764 0.14669135 -0.60097784 4 0 8625 2.32200000 2894424089 2894424089 -15.00000000
8.12940884 0.53140467 0.14220221 18 1 8626 8.14800000 2894424091 2894424091 1.00000000
2.61744785 0.17063904 -0.60556823 6 2 8627 2.69200000 2894424094 2894424094 -13.00000000
8.13762665 0.52908921 0.42737541 23 3 8628 8.16600000 2894424096 2894424096 3.00000000
3.15222073 0.20494992 -0.61402333 4 4 8628 3.21800000 2894424098 2894424098 -11.00000000
8.13378334 0.52741373 0.71310830 83 5 8629 8.18200000 2894424101 2894424101 5.00000000
3.97405863 0.25699085 -0.63074374 9 6 8630 4.03200000 2894424103 2894424103 -9.00000000
8.13587189 0.52469736 1.00103474 95 7 8631 8.21400000 2894424105 2894424105 7.00000000
5.27738190 0.33942315 -0.64931989 8 8 8632 5.32800000 2894424108 2894424108 -7.00000000
6.62105083 0.42468300 -0.58045727 24 10 8633 6.66000000 2894424112 2894424112 -5.00000000
8.12232113 0.51812965 -0.42653805 17 12 8635 8.15000000 2894424117 2894424117 -3.00000000
8.12442684 0.51541656 -0.14209749 16 14 8637 8.14200000 2894424121 2894424121 -1.00000000
8.18232918 0.51908988 2.19685602 54 15 8637 8.48800000 2894424124 2894424124 15.00000000
2.23086333 0.13839963 -0.59890729 4 0 8645 2.31400000 2894424144 2894424144 -15.00000000
8.13321018 0.50314802 0.14223711 15 1 8646 8.15000000 2894424147 2894424147 1.00000000
2.62386274 0.16186136 -0.60691792 6 2 8647 2.69800000 2894424149 2894424149 -13.00000000
8.12347603 0.49969938 0.42653805 21 3 8648 8.15000000 2894424151 2894424151 3.00000000
3.14899778 0.19370429 -0.61326009 4 4 8648 3.21400000 2894424154 2894424154 -11.00000000
8.13358593 0.49889636 0.71293396 90 5 8649 8.18000000 2894424156 2894424156 5.00000000
3.98281837 0.24359959 -0.63199526 9 6 8650 4.04000000 2894424158 2894424158 -9.00000000
8.14161682 0.49653634 1.00152230 92 7 8651 8.21800000 2894424161 2894424161 7.00000000
5.29636765 0.32208404 -0.65151352 9 8 8652 5.34600000 2894424163 2894424163 -7.00000000
6.61056042 0.40084508 -0.57941139 20 10 8653 6.64800000 2894424167 2894424167 -5.00000000
8.13205528 0.49025509 -0.42695674 17 12 8655 8.15800000 2894424172 2894424172 -3.00000000
8.12218475 0.48681459 -0.14202769 14 14 8657 8.13800000 2894424177 2894424177 -1.00000000
8.17646313 0.48863569 2.19478559 56 15 8658 8.48000000 2894424179 2894424179 15.00000000
2.23131013 0.13100107 -0.59890729 4 0 8664 2.31400000 2894424200 2894424200 -15.00000000
8.12684917 0.47570711 0.14209749 18 1 8665 8.14200000 2894424202 2894424202 1.00000000
2.63800311 0.15395416 -0.61006725 5 2 8666 2.71200000 2894424204 2894424204 -13.00000000
8.13107014 0.47310627 0.42685205 18 3 8667 8.15600000 2894424207 2894424207 3.00000000
3.14962268 0.18326078 -0.61326009 4 4 8667 3.21400000 2894424209 2894424209 -11.00000000
8.11729431 0.47088322 0.71136516 83 5 8668 8.16200000 2894424211 2894424211 5.00000000
3.98557615 0.23050481 -0.63230813 9 6 8669 4.04200000 2894424214 2894424214 -9.00000000
8.14718246 0.46976358 1.00200975 95 7 8670 8.22200000 2894424216 2894424216 7.00000000
5.28551531 0.30383536 -0.65005106 8 8 8671 5.33400000 2894424218 2894424218 -7.00000000
8.21782780 0.47239795 1.30372488 2 9 8671 8.33400000 2894424220 2894424220 9.00000000
6.61583185 0.37914947 -0.57976002 48 10 8672 6.65200000 2894424223 2894424223 -5.00000000
8.14161205 0.46373984 -0.42737541 17 12 8674 8.16600000 2894424227 2894424227 -3.00000000
8.12175751 0.45976475 -0.14199278 16 14 8676 8.13600000 2894424232 2894424232 -1.00000000
8.17410088 0.46272781 2.19375014 51 15 8676 8.47600000 2894424234 2894424234 15.00000000
2.22403812 0.12278557 -0.59683675 4 0 8684 2.30600000 2894424255 2894424255 -15.00000000
8.11248684 0.44645715 0.14181826 15 1 8685 8.12600000 2894424257 2894424257 1.00000000
2.62490368 0.14399767 -0.60691792 6 2 8686 2.69800000 2894424260 2894424260 -13.00000000
8.13466644 0.44482970 0.42695674 15 3 8687 8.15800000 2894424262 2894424262 3.00000000
3.15024328 0.17226543 -0.61326009 4 4 8687 3.21400000 2894424264 2894424264 -11.00000000
8.11888885 0.44254571 0.71136516 76 5 8688 8.16200000 2894424267 2894424267 5.00000000
3.96663189 0.21551944 -0.62917942 9 6 8689 4.02200000 2894424269 2894424269 -9.00000000
8.13291550 0.44046295 1.00005984 90 7 8690 8.20600000 2894424271 2894424271 7.00000000
5.28456163 0.28527659 -0.64980733 6 8 8691 5.33200000 2894424273 2894424273 -7.00000000
8.22739410 0.44269949 1.30497634 7 9 8692 8.34200000 2894424276 2894424276 9.00000000
6.61711502 0.35605359 -0.57976002 52 10 8692 6.65200000 2894424278 2894424278 -5.00000000
8.12922096 0.43457115 -0.42664272 17 12 8694 8.15200000 2894424283 2894424283 -3.00000000
8.12730694 0.43162385 -0.14206259 16 14 8696 8.14000000 2894424287 2894424287 -1.00000000
8.17381287 0.43266302 2.19323254 49 15 8697 8.47400000 2894424290 2894424290 15.00000000
2.23024106 0.11532076 -0.59838963 4 0 8704 2.31200000 2894424310 2894424310 -15.00000000
8.12797451 0.41885698 0.14206259 18 1 8705 8.14000000 2894424313 2894424313 1.00000000
2.61565948 0.13433442 -0.60466844 6 2 8706 2.68800000 2894424315 2894424315 -13.00000000
8.12619686 0.41592124 0.42643338 18 3 8707 8.14800000 2894424317 2894424317 3.00000000
3.15082550 0.16126798 -0.61326009 4 4 8707 3.21400000 2894424320 2894424320 -11.00000000
8.12635326 0.41450727 0.71188813 79 5 8708 8.16800000 2894424322 2894424322 5.00000000
3.97130561 0.20187257 -0.62980515 9 6 8709 4.02600000 2894424324 2894424324 -9.00000000
8.12647247 0.41166934 0.99908489 90 7 8710 8.19800000 2894424326 2894424326 7.00000000
5.28354263 0.26672822 -0.64956361 6 8 8711 5.33000000 2894424329 2894424329 -7.00000000
8.22881699 0.41541404 1.30497634 10 9 8711 8.34200000 2894424331 2894424331 9.00000000
6.61433744 0.33275315 -0.57941139 68 10 8712 6.64800000 2894424333 2894424333 -5.00000000
8.11871910 0.40559429 -0.42601469 21 12 8714 8.14000000 2894424338 2894424338 -3.00000000
8.13275814 0.40344977 -0.14213240 18 14 8716 8.14400000 2894424343 2894424343 -1.00000000
8.18292046 0.40593818 2.19530320 49 15 8716 8.48200000 2894424345 2894424345 15.00000000
2.24220753 0.10809320 -0.60149544 4 0 8724 2.32400000 2894424366 2894424366 -15.00000000
8.13138485 0.39057842 0.14209749 15 1 8725 8.14200000 2894424368 2894424368 1.00000000
2.62195206 0.12548271 -0.60601813 6 2 8726 2.69400000 2894424370 2894424370 -13.00000000
8.12360859 0.38736275 0.42622402 18 3 8727 8.14400000 2894424373 2894424373 3.00000000
3.15136909 0.15026855 -0.61326009 5 4 8727 3.21400000 2894424375 2894424375 -11.00000000
8.12377071 0.38594937 0.71153951 79 5 8728 8.16400000 2894424377 2894424377 5.00000000
3.97198606 0.18800890 -0.62980515 9 6 8729 4.02600000 2894424379 2894424379 -9.00000000
8.13182640 0.38348719 0.99957234 90 7 8730 8.20200000 2894424382 2894424382 7.00000000
5.27056122 0.24763143 -0.64785743 6 8 8731 5.31600000 2894424384 2894424384 -7.00000000
8.22232437 0.38631672 1.30372488 10 9 8731 8.33400000 2894424386 2894424386 9.00000000
6.62142944 0.30994228 -0.57993430 76 10 8732 6.65400000 2894424389 2894424389 -5.00000000
8.12208080 0.37734491 -0.42611936 17 12 8734 8.14200000 2894424393 2894424393 -3.00000000
8.12213230 0.37450606 -0.14192297 16 14 8736 8.13200000 2894424398 2894424398 -1.00000000
8.18621731 0.37746096 2.19582081 56 15 8736 8.48400000 2894424400 2894424400 15.00000000
2.22713184 0.09957548 -0.59735435 4 0 8744 2.30800000 2894424421 2894424421 -15.00000000
8.11471939 0.36139148 0.14178336 18 1 8745 8.12400000 2894424423 2894424423 1.00000000
2.62821460 0.11658872 -0.60736787 6 2 8746 2.70000000 2894424426 2894424426 -13.00000000
8.12491131 0.35900369 0.42622402 13 3 8747 8.14400000 2894424428 2894424428 3.00000000
3.14010644 0.13874733 -0.61097038 5 4 8747 3.20200000 2894424430 2894424430 -11.00000000
8.12108707 0.35741457 0.71119088 76 5 8748 8.16000000 2894424432 2894424432 5.00000000
3.98051214 0.17448898 -0.63105661 9 6 8749 4.03400000 2894424435 2894424435 -9.00000000
8.13708210 0.35527265 1.00005984 90 7 8750 8.20600000 2894424437 2894424437 7.00000000
5.27536011 0.22940472 -0.64834493 6 8 8751 5.32000000 2894424439 2894424439 -7.00000000
8.20789719 0.35549399 1.30122185 10 9 8752 8.31800000 2894424442 2894424442 9.00000000
6.60853720 0.28622380 -0.57871413 64 10 8752 6.64000000 2894424444 2894424444 -5.00000000
8.12135315 0.34890553 -0.42601469 21 12 8754 8.14000000 2894424449 2894424449 -3.00000000
8.10940456 0.34555629 -0.14167863 20 14 8756 8.11800000 2894424453 2894424453 -1.00000000
8.17590427 0.34838995 2.19271493 54 15 8756 8.47200000 2894424455 2894424455 15.00000000
2.21202421 0.09116433 -0.59321326 4 0 8764 2.29200000 2894424476 2894424476 -15.00000000
8.11393356 0.33298165 0.14174844 21 1 8765 8.12200000 2894424479 2894424479 1.00000000
2.62665844 0.10733426 -0.60691792 6 2 8766 2.69800000 2894424481 2894424481 -13.00000000
8.13409710 0.33096507 0.42664272 13 3 8767 8.15200000 2894424483 2894424483 3.00000000
3.14449477 0.12794511 -0.61173362 5 4 8767 3.20600000 2894424485 2894424485 -11.00000000
8.11432266 0.32874191 0.71049362 79 5 8768 8.15200000 2894424488 2894424488 5.00000000
3.96728063 0.16003600 -0.62886655 9 6 8769 4.02000000 2894424490 2894424490 -9.00000000
8.13827229 0.32686678 1.00005984 92 7 8770 8.20600000 2894424492 2894424492 7.00000000
5.27811193 0.21106820 -0.64858866 6 8 8771 5.32200000 2894424495 2894424495 -7.00000000
8.22093010 0.32731244 1.30309904 10 9 8772 8.33000000 2894424497 2894424497 9.00000000
6.60153294 0.26283690 -0.57801688 52 10 8772 6.63200000 2894424499 2894424499 -5.00000000
8.12252140 0.32055458 -0.42601469 25 12 8774 8.14000000 2894424504 2894424504 -3.00000000
8.11855412 0.31755972 -0.14181826 18 14 8776 8.12600000 2894424508 2894424508 -1.00000000
8.17326546 0.31827110 2.19167972 54 15 8777 8.46800000 2894424511 2894424511 15.00000000
2.22584224 0.08395205 -0.59683675 4 0 8784 2.30600000 2894424532 2894424532 -15.00000000
8.11504650 0.30465671 0.14174844 15 1 8785 8.12200000 2894424534 2894424534 1.00000000
2.61728001 0.09780101 -0.60466844 6 2 8786 2.68800000 2894424536 2894424536 -13.00000000
8.14119053 0.30279246 0.42695674 13 3 8787 8.15800000 2894424538 2894424538 3.00000000
3.14884615 0.11711393 -0.61249685 5 4 8787 3.21000000 2894424541 2894424541 -11.00000000
8.11343002 0.30034193 0.71031928 76 5 8788 8.15000000 2894424543 2894424543 5.00000000
3.96978903 0.14625935 -0.62917942 9 6 8789 4.02200000 2894424545 2894424545 -9.00000000
8.13142872 0.29816595 0.99908489 90 7 8790 8.19800000 2894424548 2894424548 7.00000000
5.29865456 0.19336681 -0.65102601 4 8 8791 5.34200000 2894424550 2894424550 -7.00000000
8.22202301 0.29861405 1.30309904 7 9 8792 8.33000000 2894424552 2894424552 9.00000000
6.59643698 0.23957470 -0.57749397 44 10 8792 6.62600000 2894424555 2894424555 -5.00000000
8.12758255 0.29234332 -0.42622402 21 12 8794 8.14400000 2894424559 2894424559 -3.00000000
8.11961269 0.28921875 -0.14181826 18 14 8796 8.12600000 2894424564 2894424564 -1.00000000
8.17813683 0.29130337 2.19271493 63 15 8796 8.47200000 2894424566 2894424566 15.00000000
2.22805262 0.07624798 -0.59735435 4 0 8804 2.30800000 2894424587 2894424587 -15.00000000
8.10806656 0.27605587 0.14160882 15 1 8805 8.11400000 2894424589 2894424589 1.00000000
2.61760545 0.08866441 -0.60466844 5 2 8806 2.68800000 2894424591 2894424591 -13.00000000
8.12822533 0.27390170 0.42622402 13 3 8807 8.14400000 2894424594 2894424594 3.00000000
3.15512228 0.10632005 -0.61364174 5 4 8807 3.21600000 2894424596 2894424596 -11.00000000
8.11641979 0.27208570 0.71049362 76 5 8808 8.15200000 2894424598 2894424598 5.00000000
3.96830106 0.13233547 -0.62886655 6 6 8809 4.02000000 2894424601 2894424601 -9.00000000
8.12249947 0.26945108 0.99786621 90 7 8810 8.18800000 2894424603 2894424603 7.00000000
5.27548885 0.17408423 -0.64810115 4 8 8811 5.31800000 2894424605 2894424605 -7.00000000
8.23091221 0.27017123 1.30435061 10 9 8812 8.33800000 2894424608 2894424608 9.00000000
6.61316347 0.21707028 -0.57888842 44 10 8812 6.64200000 2894424610 2894424610 -5.00000000
8.11258411 0.26345238 -0.42538664 21 12 8814 8.12800000 2894424614 2894424614 -3.00000000
8.12057304 0.26087424 -0.14181826 20 14 8816 8.12600000 2894424619 2894424619 -1.00000000
8.17910385 0.26275456 2.19271493 56 15 8816 8.47200000 2894424621 2894424621 15.00000000
2.23989081 0.06882615 -0.60046017 4 0 8824 2.32000000 2894424642 2894424642 -15.00000000
8.12696934 0.24830137 0.14192297 18 1 8825 8.13200000 2894424644 2894424644 1.00000000
2.62179470 0.07964506 -0.60556823 6 2 8826 2.69200000 2894424647 2894424647 -13.00000000
8.11910725 0.24664280 0.42570066 13 3 8826 8.13400000 2894424649 2894424649 3.00000000
3.15154934 0.09518743 -0.61287850 5 4 8827 3.21200000 2894424651 2894424651 -11.00000000
8.11732006 0.24375245 0.71049362 79 5 8828 8.15200000 2894424654 2894424654 5.00000000
3.96873903 0.11848271 -0.62886655 6 6 8829 4.02000000 2894424656 2894424656 -9.00000000
8.12934399 0.24127328 0.99859738 90 7 8830 8.19400000 2894424658 2894424658 7.00000000
5.26217508 0.15525848 -0.64639497 6 8 8831 5.30400000 2894424660 2894424660 -7.00000000
8.21991634 0.24252552 1.30247331 10 9 8831 8.32600000 2894424663 2894424663 9.00000000
6.61985540 0.19415995 -0.57941139 16 10 8832 6.64800000 2894424665 2894424665 -5.00000000
8.11345482 0.23513258 -0.42538664 17 12 8834 8.12800000 2894424670 2894424670 -3.00000000
8.11543751 0.23235488 -0.14171354 20 14 8836 8.12000000 2894424674 2894424674 -1.00000000
8.18383408 0.23431313 2.19375014 56 15 8836 8.47600000 2894424677 2894424677 15.00000000
2.22080588 0.06048113 -0.59528381 4 0 8844 2.30000000 2894424697 2894424697 -15.00000000
8.12978554 0.21998553 0.14195788 15 1 8845 8.13400000 2894424700 2894424700 1.00000000
2.61816072 0.07038806 -0.60466844 6 2 8846 2.68800000 2894424702 2894424702 -13.00000000
8.12395000 0.21698977 0.42591003 13 3 8847 8.13800000 2894424704 2894424704 3.00000000
3.14401221 0.08397621 -0.61135203 5 4 8847 3.20400000 2894424707 2894424707 -11.00000000
8.11214638 0.21525767 0.70997065 76 5 8848 8.14600000 2894424709 2894424709 5.00000000
3.97110295 0.10468056 -0.62917942 6 6 8849 4.02200000 2894424711 2894424711 -9.00000000
8.13410473 0.21299903 0.99908489 92 7 8850 8.19800000 2894424713 2894424713 7.00000000
5.25474691 0.13668264 -0.64542001 6 8 8851 5.29600000 2894424716 2894424716 -7.00000000
8.20100307 0.21188618 1.29934466 10 9 8852 8.30600000 2894424718 2894424718 9.00000000
6.60256767 0.17058803 -0.57784259 16 10 8852 6.63000000 2894424720 2894424720 -5.00000000
8.11622238 0.20686078 -0.42549133 17 12 8854 8.13000000 2894424725 2894424725 -3.00000000
8.10020638 0.20362328 -0.14143430 16 14 8856 8.10400000 2894424730 2894424730 -1.00000000
8.17691231 0.20412347 2.19167972 49 15 8857 8.46800000 2894424732 2894424732 15.00000000
2.22485685 0.05320872 -0.59631908 4 0 8863 2.30400000 2894424753 2894424753 -15.00000000
8.11847496 0.19274022 0.14174844 15 1 8864 8.12200000 2894424755 2894424755 1.00000000
2.62227607 0.06179736 -0.60556823 5 2 8865 2.69200000 2894424757 2894424757 -13.00000000
8.12658787 0.19151366 0.42601469 13 3 8865 8.14000000 2894424760 2894424760 3.00000000
3.14819884 0.07364165 -0.61211526 5 4 8866 3.20800000 2894424762 2894424762 -11.00000000
8.10285664 0.18812442 0.70909911 76 5 8867 8.13600000 2894424764 2894424764 5.00000000
3.96550369 0.09137481 -0.62824082 6 6 8868 4.01600000 2894424766 2894424766 -9.00000000
8.13476658 0.18602420 0.99908489 90 7 8869 8.19800000 2894424769 2894424769 7.00000000
5.25914049 0.11934660 -0.64590752 6 8 8870 5.30000000 2894424771 2894424771 -7.00000000
8.21548462 0.18500081 1.30153477 10 9 8871 8.32000000 2894424773 2894424773 9.00000000
6.60907269 0.14882675 -0.57836550 48 10 8871 6.63600000 2894424776 2894424776 -5.00000000
8.12285423 0.18007809 -0.42580533 25 12 8873 8.13600000 2894424780 2894424780 -3.00000000
8.11683083 0.17710988 -0.14171354 16 14 8875 8.12000000 2894424785 2894424785 -1.00000000
8.16206264 0.17809683 2.18753862 56 15 8875 8.45200000 2894424787 2894424787 15.00000000
2.22116613 0.04536330 -0.59528381 4 0 8883 2.30000000 2894424808 2894424808 -15.00000000
8.11110115 0.16423833 0.14160882 15 1 8884 8.11400000 2894424810 2894424810 1.00000000
2.62442422 0.05268265 -0.60601813 6 2 8885 2.69400000 2894424812 2894424812 -13.00000000
8.13519478 0.16330574 0.42643338 13 3 8885 8.14800000 2894424815 2894424815 3.00000000
3.15236235 0.06273006 -0.61287850 5 4 8886 3.21200000 2894424817 2894424817 -11.00000000
8.10545540 0.15987831 0.70927346 72 5 8887 8.13800000 2894424819 2894424819 5.00000000
3.96382356 0.07749346 -0.62792796 9 6 8888 4.01400000 2894424822 2894424822 -9.00000000
8.13536644 0.15762743 0.99908489 95 7 8889 8.19800000 2894424824 2894424824 7.00000000
5.26746416 0.10114048 -0.64688247 6 8 8890 5.30800000 2894424826 2894424826 -7.00000000
8.22002983 0.15639745 1.30216050 10 9 8891 8.32400000 2894424829 2894424829 9.00000000
6.61552811 0.12586957 -0.57888842 88 10 8891 6.64200000 2894424831 2894424831 -5.00000000
8.11344814 0.15153645 -0.42528197 17 12 8893 8.12600000 2894424836 2894424836 -3.00000000
8.11140156 0.14866585 -0.14160882 18 14 8895 8.11400000 2894424840 2894424840 -1.00000000
8.17808628 0.14988804 2.19167972 51 15 8895 8.46800000 2894424842 2894424842 15.00000000
2.22903728 0.03774052 -0.59735435 4 0 8903 2.30800000 2894424863 2894424863 -15.00000000
8.11162567 0.13592431 0.14160882 18 1 8904 8.11400000 2894424865 2894424865 1.00000000
2.61290121 0.04332751 -0.60331875 6 2 8905 2.68200000 2894424868 2894424868 -13.00000000
8.12375641 0.13329108 0.42580533 13 3 8906 8.13600000 2894424870 2894424870 3.00000000
3.14471030 0.05159704 -0.61135203 5 4 8906 3.20400000 2894424872 2894424872 -11.00000000
8.11393261 0.13171338 0.70997065 83 5 8907 8.14600000 2894424875 2894424875 5.00000000
3.96011972 0.06359322 -0.62730223 9 6 8908 4.01000000 2894424877 2894424877 -9.00000000
8.12395763 0.12903959 0.99762243 90 7 8909 8.18600000 2894424879 2894424879 7.00000000
5.26381540 0.08269062 -0.64639497 6 8 8910 5.30400000 2894424882 2894424882 -7.00000000
8.21457767 0.12904491 1.30122185 10 9 8910 8.31800000 2894424884 2894424884 9.00000000
6.60397387 0.10259062 -0.57784259 100 10 8911 6.63000000 2894424886 2894424886 -5.00000000
8.10394287 0.12306269 -0.42475861 17 12 8913 8.11600000 2894424891 2894424891 -3.00000000
8.11787033 0.12043986 -0.14171354 20 14 8915 8.12000000 2894424895 2894424895 -1.00000000
8.17664909 0.11988453 2.19116211 49 15 8916 8.46600000 2894424898 2894424898 15.00000000
2.23301888 0.03001143 -0.59838963 4 0 8923 2.31200000 2894424918 2894424918 -15.00000000
8.11604977 0.10766167 0.14167863 15 1 8924 8.11800000 2894424921 2894424921 1.00000000
2.61888242 0.03428305 -0.60466844 7 2 8925 2.68800000 2894424923 2894424923 -13.00000000
8.11616516 0.10624643 0.42538664 13 3 8925 8.12800000 2894424925 2894424925 3.00000000
3.14879727 0.04067035 -0.61211526 5 4 8926 3.20800000 2894424928 2894424928 -11.00000000
8.11832809 0.10344043 0.71031928 83 5 8927 8.15000000 2894424930 2894424930 5.00000000
3.96031761 0.04976944 -0.62730223 6 6 8928 4.01000000 2894424932 2894424932 -9.00000000
8.12237358 0.10065629 0.99737871 90 7 8929 8.18400000 2894424935 2894424935 7.00000000
5.25216246 0.06417046 -0.64493257 8 8 8930 5.29200000 2894424937 2894424937 -7.00000000
8.21697140 0.09895989 1.30153477 10 9 8931 8.32000000 2894424939 2894424939 9.00000000
6.60628414 0.07956182 -0.57801688 36 10 8931 6.63200000 2894424942 2894424942 -5.00000000
8.11231136 0.09486731 -0.42517731 17 12 8933 8.12400000 2894424946 2894424946 -3.00000000
8.10424423 0.09194367 -0.14146921 20 14 8935 8.10600000 2894424951 2894424951 -1.00000000
8.17894936 0.09136354 2.19167972 56 15 8936 8.46800000 2894424953 2894424953 15.00000000
2.22924638 0.02217812 -0.59735435 4 0 8943 2.30800000 2894424974 2894424974 -15.00000000
8.12437439 0.07940889 0.14181826 15 1 8944 8.12600000 2894424976 2894424976 1.00000000
2.62288332 0.02517865 -0.60556823 7 2 8945 2.69200000 2894424978 2894424978 -13.00000000
8.11648655 0.07791507 0.42538664 13 3 8945 8.12800000 2894424981 2894424981 3.00000000
3.13714123 0.02956773 -0.60982555 5 4 8946 3.19600000 2894424983 2894424983 -11.00000000
8.10469341 0.07497254 0.70909911 72 5 8947 8.13600000 2894424985 2894424985 5.00000000
3.96441770 0.03598090 -0.62792796 2 6 8948 4.01400000 2894424988 2894424988 -9.00000000
8.13061619 0.07237398 0.99835366 90 7 8949 8.19200000 2894424990 2894424990 7.00000000
5.26823425 0.04597519 -0.64688247 8 8 8950 5.30800000 2894424992 2894424992 -7.00000000
8.19355011 0.07150403 1.29778028 10 9 8950 8.29600000 2894424995 2894424995 9.00000000
6.59257555 0.05638183 -0.57679671 24 10 8951 6.61800000 2894424997 2894424997 -5.00000000
8.11059666 0.06653310 -0.42507264 17 12 8953 8.12200000 2894425001 2894425001 -3.00000000
8.10451508 0.06365403 -0.14146921 18 14 8955 8.10600000 2894425006 2894425006 -1.00000000
8.17535496 0.06278346 2.19064450 51 15 8956 8.46400000 2894425008 2894425008 15.00000000
2.21771955 0.01432161 -0.59424853 4 0 8963 2.29600000 2894425029 2894425029 -15.00000000
8.11660290 0.05099880 0.14167863 15 1 8964 8.11800000 2894425031 2894425031 1.00000000
2.62685275 0.01604673 -0.60646802 7 2 8965 2.69600000 2894425034 2894425034 -13.00000000
8.11670971 0.04958277 0.42538664 13 3 8965 8.12800000 2894425036 2894425036 3.00000000
3.14115167 0.01864019 -0.61058879 5 4 8966 3.20000000 2894425038 2894425038 -11.00000000
8.09693623 0.04663552 0.70840186 76 5 8967 8.12800000 2894425041 2894425041 5.00000000
3.95069170 0.02206505 -0.62573785 2 6 8968 4.00000000 2894425043 2894425043 -9.00000000
8.13478947 0.04401388 0.99884117 90 7 8969 8.19600000 2894425045 2894425045 7.00000000
5.25645256 0.02752297 -0.64542001 8 8 8970 5.29600000 2894425048 2894425048 -7.00000000
8.21547890 0.04301654 1.30122185 10 9 8970 8.31800000 2894425050 2894425050 9.00000000
6.59870911 0.03339935 -0.57731962 24 10 8971 6.62400000 2894425052 2894425052 -5.00000000
8.11677074 0.03824966 -0.42538664 25 12 8973 8.12800000 2894425057 2894425057 -3.00000000
8.10268879 0.03535487 -0.14143430 18 14 8975 8.10400000 2894425061 2894425061 -1.00000000
8.15813828 0.03417293 2.18598557 47 15 8976 8.44600000 2894425064 2894425064 15.00000000
2.22934699 0.00661462 -0.59735435 4 0 8983 2.30800000 2894425084 2894425084 -15.00000000
8.11273289 0.02265508 0.14160882 21 1 8984 8.11400000 2894425087 2894425087 1.00000000
2.62104654 0.00686190 -0.60511833 6 2 8985 2.69000000 2894425089 2894425089 -13.00000000
8.12881660 0.02128124 0.42601469 15 3 8985 8.14000000 2894425091 2894425091 3.00000000
3.14905071 0.00769460 -0.61211526 5 4 8986 3.20800000 2894425094 2894425094 -11.00000000
8.10701180 0.01839426 0.70927346 76 5 8987 8.13800000 2894425096 2894425096 5.00000000
3.95667076 0.00828684 -0.62667644 2 6 8988 4.00600000 2894425098 2894425098 -9.00000000
8.12893772 0.01560646 0.99810994 90 7 8989 8.19000000 2894425100 2894425100 7.00000000
5.24460602 0.00915357 -0.64395761 8 8 8990 5.28400000 2894425103 2894425103 -7.00000000
8.21360397 0.01433546 1.30090904 10 9 8990 8.31600000 2894425105 2894425105 9.00000000
6.58683109 0.01034658 -0.57627380 12 10 8991 6.61200000 2894425107 2894425107 -5.00000000
8.10686874 0.00990441 -0.42486328 17 12 8993 8.11800000 2894425112 2894425112 -3.00000000
8.10676193 0.00707449 -0.14150411 18 14 8995 8.10800000 2894425117 2894425117 -1.00000000
8.16593361 0.00712612 2.18805623 49 15 8995 8.45400000 2894425119 2894425119 15.00000000
2.22935653 -0.00116729 -0.59735435 4 0 9003 2.30800000 2894425140 2894425140 -15.00000000
8.11076260 -0.00566238 0.14157392 28 1 9004 8.11200000 2894425142 2894425142 1.00000000
2.60741329 -0.00227540 -0.60196900 7 2 9005 2.67600000 2894425144 2894425144 -13.00000000
8.12684441 -0.00709201 0.42591003 13 3 9005 8.13800000 2894425147 2894425147 3.00000000
3.14513183 -0.00329358 -0.61135203 5 4 9006 3.20400000 2894425149 2894425149 -11.00000000
8.10901833 -0.00990704 0.70944774 76 5 9007 8.14000000 2894425151 2894425151 5.00000000
3.92704511 -0.00548319 -0.62198341 2 6 9008 3.97600000 2894425153 2894425153 -9.00000000
8.12298775 -0.01275957 0.99737871 85 7 9009 8.18400000 2894425156 2894425156 7.00000000
5.25254631 -0.00916743 -0.64493257 6 8 9010 5.29200000 2894425158 2894425158 -7.00000000
8.21360397 -0.01433546 1.30090904 10 9 9010 8.31600000 2894425160 2894425160 9.00000000
6.59280443 -0.01265729 -0.57679671 16 10 9011 6.61800000 2894425163 2894425163 -5.00000000
8.10285950 -0.01838484 -0.42465395 17 12 9013 8.11400000 2894425167 2894425167 -3.00000000
8.12073517 -0.02126008 -0.14174844 16 14 9015 8.12200000 2894425172 2894425172 -1.00000000
8.16976833 -0.02281436 2.18909144 47 15 9016 8.45800000 2894425174 2894425174 15.00000000
2.23513436 -0.00897245 -0.59890729 4 0 9023 2.31400000 2894425195 2894425195 -15.00000000
8.12069130 -0.03401607 0.14174844 21 1 9024 8.12200000 2894425197 2894425197 1.00000000
2.61128688 -0.01139396 -0.60286885 7 2 9025 2.68000000 2894425200 2894425200 -13.00000000
8.11877441 -0.03684208 0.42549133 18 3 9026 8.13000000 2894425202 2894425202 3.00000000
3.14313793 -0.01426321 -0.61097038 6 4 9026 3.20200000 2894425204 2894425204 -11.00000000
8.11690426 -0.03825029 0.71014500 76 5 9027 8.14800000 2894425206 2894425206 5.00000000
3.94675541 -0.01928764 -0.62511212 4 6 9028 3.99600000 2894425209 2894425209 -9.00000000
8.12289333 -0.04111401 0.99737871 90 7 9029 8.18400000 2894425211 2894425211 7.00000000
5.24057198 -0.02743982 -0.64347011 6 8 9030 5.28000000 2894425213 2894425213 -7.00000000
8.20955276 -0.04298551 1.30028331 10 9 9030 8.31200000 2894425216 2894425216 9.00000000
6.59869719 -0.03570274 -0.57731962 16 10 9031 6.62400000 2894425218 2894425218 -5.00000000
8.11073494 -0.04671500 -0.42507264 17 12 9033 8.12200000 2894425223 2894425223 -3.00000000
8.10261440 -0.04949667 -0.14143430 20 14 9035 8.10400000 2894425227 2894425227 -1.00000000
8.17351151 -0.04992976 2.19012666 49 15 9035 8.46200000 2894425230 2894425230 15.00000000
2.23315763 -0.01675997 -0.59838963 4 0 9043 2.31200000 2894425250 2894425250 -15.00000000
8.11852360 -0.06234701 0.14171354 18 1 9044 8.12000000 2894425253 2894425253 1.00000000
2.62292337 -0.02060081 -0.60556823 7 2 9045 2.69200000 2894425255 2894425255 -13.00000000
8.11460209 -0.06514960 0.42528197 15 3 9046 8.12600000 2894425257 2894425257 3.00000000
3.13717937 -0.02518743 -0.60982555 6 4 9046 3.19600000 2894425259 2894425259 -11.00000000
8.10676003 -0.06650162 0.70927346 76 5 9047 8.13800000 2894425262 2894425262 5.00000000
3.93678761 -0.03298153 -0.62354779 6 6 9048 3.98600000 2894425264 2894425264 -9.00000000
8.13262558 -0.06955283 0.99859738 92 7 9049 8.19400000 2894425266 2894425266 7.00000000
5.23647404 -0.04569802 -0.64298266 6 8 9050 5.27600000 2894425269 2894425269 -7.00000000
8.20538998 -0.07303957 1.29965758 10 9 9051 8.30800000 2894425271 2894425271 9.00000000
6.63439369 -0.05905549 -0.58045727 8 10 9051 6.66000000 2894425273 2894425273 -5.00000000
8.10652733 -0.07498951 -0.42486328 17 12 9053 8.11800000 2894425278 2894425278 -3.00000000
8.10039234 -0.07776058 -0.14139940 20 14 9055 8.10200000 2894425283 2894425283 -1.00000000
8.17327404 -0.07988685 2.19012666 47 15 9056 8.46200000 2894425285 2894425285 15.00000000
2.21763158 -0.02438512 -0.59424853 4 0 9063 2.29600000 2894425306 2894425306 -15.00000000
8.11225796 -0.09061856 0.14160882 21 1 9064 8.11400000 2894425308 2894425308 1.00000000
2.62283540 -0.02975640 -0.60556823 7 2 9065 2.69200000 2894425310 2894425310 -13.00000000
8.12031651 -0.09354347 0.42559600 18 3 9066 8.13200000 2894425312 2894425312 3.00000000
3.13314605 -0.03609285 -0.60906231 8 4 9066 3.19200000 2894425315 2894425315 -11.00000000
8.10448551 -0.09477580 0.70909911 76 5 9067 8.13600000 2894425317 2894425317 5.00000000
3.93269801 -0.04667639 -0.62292206 8 6 9068 3.98200000 2894425319 2894425319 -9.00000000
8.12439346 -0.09784495 0.99762243 80 7 9069 8.18600000 2894425322 2894425322 7.00000000
5.24819231 -0.06412195 -0.64444506 8 8 9070 5.28800000 2894425324 2894425324 -7.00000000
8.20707798 -0.10027336 1.29997039 10 9 9070 8.31000000 2894425326 2894425326 9.00000000
8.06457329 -0.09993999 -0.70561290 17 10 9071 8.09600000 2894425329 2894425329 -5.00000000
8.10821342 -0.10331156 -0.42496797 17 12 9073 8.12000000 2894425333 2894425333 -3.00000000
8.10007191 -0.10603575 -0.14139940 20 14 9075 8.10200000 2894425338 2894425338 -1.00000000
8.16137409 -0.10683824 2.18702102 47 15 9075 8.45000000 2894425340 2894425340 15.00000000
2.22525954 -0.03223788 -0.59631908 4 0 9083 2.30400000 2894425361 2894425361 -15.00000000
8.09589672 -0.11870055 0.14132959 18 1 9084 8.09800000 2894425363 2894425363 1.00000000
2.61492157 -0.03879599 -0.60376865 7 2 9085 2.68400000 2894425365 2894425365 -13.00000000
8.13391972 -0.12209794 0.42632869 23 3 9086 8.14600000 2894425368 2894425368 3.00000000
3.13300109 -0.04702935 -0.60906231 8 4 9086 3.19200000 2894425370 2894425370 -11.00000000
8.09613705 -0.12294415 0.70840186 76 5 9087 8.12800000 2894425372 2894425372 5.00000000
3.93251109 -0.06040378 -0.62292206 8 6 9088 3.98200000 2894425375 2894425375 -9.00000000
8.12201786 -0.12617294 0.99737871 90 7 9089 8.18400000 2894425377 2894425377 7.00000000
5.24793673 -0.08244117 -0.64444506 8 8 9090 5.28800000 2894425379 2894425379 -7.00000000
8.20467949 -0.13032176 1.29965758 10 9 9091 8.30800000 2894425382 2894425382 9.00000000
8.07214355 -0.12821656 -0.70631015 17 10 9091 8.10400000 2894425384 2894425384 -5.00000000
8.10580635 -0.13158146 -0.42486328 17 12 9093 8.11800000 2894425388 2894425388 -3.00000000
8.10565090 -0.13440910 -0.14150411 18 14 9095 8.10800000 2894425393 2894425393 -1.00000000
8.15899563 -0.13671808 2.18650341 51 15 9096 8.44800000 2894425395 2894425395 15.00000000
2.22900343 -0.03968571 -0.59735435 4 0 9102 2.30800000 2894425416 2894425416 -15.00000000
8.10745430 -0.14576253 0.14153902 15 1 9103 8.11000000 2894425418 2894425418 1.00000000
2.60308790 -0.04725494 -0.60106921 7 2 9104 2.67200000 2894425421 2894425421 -13.00000000
8.11549759 -0.14874092 0.42538664 18 3 9105 8.12800000 2894425423 2894425423 3.00000000
3.14067960 -0.05756240 -0.61058879 8 4 9105 3.20000000 2894425425 2894425425 -11.00000000
8.10166073 -0.14990181 0.70892483 76 5 9106 8.13400000 2894425428 2894425428 5.00000000
3.93623924 -0.07351790 -0.62354779 8 6 9107 3.98600000 2894425430 2894425430 -9.00000000
8.11956978 -0.15306842 0.99713498 90 7 9108 8.18200000 2894425432 2894425432 7.00000000
5.22778702 -0.09946588 -0.64200771 8 8 9109 5.26800000 2894425435 2894425435 -7.00000000
8.21212959 -0.15624714 1.30090904 10 9 9109 8.31600000 2894425437 2894425437 9.00000000
8.07964230 -0.15513705 -0.70700741 17 10 9110 8.11200000 2894425439 2894425439 -5.00000000
8.10133171 -0.15838248 -0.42465395 17 12 9112 8.11400000 2894425444 2894425444 -3.00000000
8.10915947 -0.16136724 -0.14157392 22 14 9114 8.11200000 2894425448 2894425448 -1.00000000
8.17204666 -0.16261865 2.19012666 47 15 9114 8.46200000 2894425451 2894425451 15.00000000
2.22498870 -0.04738388 -0.59631908 4 0 9122 2.30400000 2894425471 2894425471 -15.00000000
8.10889530 -0.17410487 0.14157392 18 1 9123 8.11200000 2894425474 2894425474 1.00000000
2.61459684 -0.05659416 -0.60376865 7 2 9124 2.68400000 2894425476 2894425476 -13.00000000
8.12291622 -0.17724267 0.42580533 26 3 9125 8.13600000 2894425478 2894425478 3.00000000
3.13260841 -0.06835376 -0.60906231 8 4 9125 3.19200000 2894425481 2894425481 -11.00000000
8.11104774 -0.17840002 0.70979637 76 5 9126 8.14400000 2894425483 2894425483 5.00000000
3.94385815 -0.08743262 -0.62479925 8 6 9127 3.99400000 2894425485 2894425485 -9.00000000
8.12097073 -0.18145442 0.99737871 87 7 9128 8.18400000 2894425488 2894425488 7.00000000
5.21946955 -0.11753490 -0.64103276 6 8 9129 5.26000000 2894425490 2894425490 -7.00000000
8.20952702 -0.18630023 1.30059612 10 9 9130 8.31400000 2894425492 2894425492 9.00000000
8.09100246 -0.18361053 -0.70805323 17 10 9130 8.12400000 2894425494 2894425494 -5.00000000
8.09873295 -0.18661444 -0.42454928 17 12 9132 8.11200000 2894425499 2894425499 -3.00000000
8.10254860 -0.18953221 -0.14146921 20 14 9134 8.10600000 2894425504 2894425504 -1.00000000
8.18298340 -0.19284269 2.19323254 47 15 9135 8.47400000 2894425506 2894425506 15.00000000
2.22095680 -0.05466688 -0.59528381 4 0 9141 2.30000000 2894425527 2894425527 -15.00000000
8.11427116 -0.20114264 0.14167863 15 1 9142 8.11800000 2894425529 2894425529 1.00000000
2.61244655 -0.06521553 -0.60331875 9 2 9143 2.68200000 2894425531 2894425531 -13.00000000
8.11829090 -0.20407787 0.42559600 13 3 9144 8.13200000 2894425534 2894425534 3.00000000
3.12451386 -0.07854414 -0.60753584 8 4 9144 3.18400000 2894425536 2894425536 -11.00000000
8.10842037 -0.20524582 0.70962209 76 5 9145 8.14200000 2894425538 2894425538 5.00000000
3.93959713 -0.10040978 -0.62417352 8 6 9146 3.99000000 2894425541 2894425541 -9.00000000
8.12230873 -0.20843445 0.99762243 92 7 9147 8.18600000 2894425543 2894425543 7.00000000
5.23095751 -0.13515027 -0.64249516 8 8 9148 5.27200000 2894425545 2894425545 -7.00000000
8.19705296 -0.21178414 1.29871893 10 9 9148 8.30200000 2894425547 2894425547 9.00000000
8.08039093 -0.21018122 -0.70718169 17 10 9149 8.11400000 2894425550 2894425550 -5.00000000
8.11803532 -0.21399608 -0.42559600 17 12 9151 8.13200000 2894425554 2894425554 -3.00000000
8.08588409 -0.21597305 -0.14118996 16 14 9153 8.09000000 2894425559 2894425559 -1.00000000
8.16881943 -0.21818823 2.18960905 56 15 9153 8.46000000 2894425561 2894425561 15.00000000
2.21689010 -0.06231057 -0.59424853 4 0 9161 2.29600000 2894425582 2894425582 -15.00000000
8.10952187 -0.22935244 0.14160882 15 1 9162 8.11400000 2894425584 2894425584 1.00000000
2.61220312 -0.07433427 -0.60331875 9 2 9163 2.68200000 2894425587 2894425587 -13.00000000
8.12551498 -0.23264340 0.42601469 26 3 9164 8.14000000 2894425589 2894425589 3.00000000
3.12814569 -0.08956262 -0.60829908 8 4 9164 3.18800000 2894425591 2894425591 -11.00000000
8.09371281 -0.23314667 0.70840186 72 5 9165 8.12800000 2894425594 2894425594 5.00000000
3.92540073 -0.11376037 -0.62198341 8 6 9166 3.97600000 2894425596 2894425596 -9.00000000
8.12946892 -0.23701674 0.99859738 90 7 9167 8.19400000 2894425598 2894425598 7.00000000
5.23839092 -0.15364169 -0.64347011 6 8 9168 5.28000000 2894425600 2894425600 -7.00000000
8.20806885 -0.24217597 1.30059612 10 9 9169 8.31400000 2894425603 2894425603 9.00000000
8.07363319 -0.23820949 -0.70665878 17 10 9169 8.10800000 2894425605 2894425605 -5.00000000
8.11524296 -0.24227241 -0.42549133 17 12 9171 8.13000000 2894425610 2894425610 -3.00000000
8.08907890 -0.24431747 -0.14125977 16 14 9173 8.09400000 2894425614 2894425614 -1.00000000
8.16217136 -0.24795102 2.18805623 49 15 9174 8.45400000 2894425617 2894425617 15.00000000
2.21664691 -0.07043546 -0.59424853 4 0 9182 2.29600000 2894425637 2894425637 -15.00000000
8.09663486 -0.25869063 0.14139940 18 1 9183 8.10200000 2894425640 2894425640 1.00000000
2.61386085 -0.08397055 -0.60376865 7 2 9184 2.68400000 2894425642 2894425642 -13.00000000
8.12460709 -0.26242334 0.42601469 26 3 9185 8.14000000 2894425644 2894425644 3.00000000
3.13760757 -0.10134415 -0.61020714 5 4 9185 3.19800000 2894425647 2894425647 -11.00000000
8.09877872 -0.26300403 0.70892483 76 5 9186 8.13400000 2894425649 2894425649 5.00000000
3.91508579 -0.12782462 -0.62041909 8 6 9187 3.96600000 2894425651 2894425651 -9.00000000
8.11862564 -0.26648551 0.99737871 87 7 9188 8.18400000 2894425653 2894425653 7.00000000
5.24572897 -0.17310219 -0.64444506 6 8 9189 5.28800000 2894425656 2894425656 -7.00000000
8.20717335 -0.27082601 1.30059612 10 9 9189 8.31400000 2894425658 2894425658 9.00000000
8.07668877 -0.26793134 -0.70700741 17 10 9190 8.11200000 2894425660 2894425660 -5.00000000
8.10032749 -0.27154621 -0.42475861 17 12 9192 8.11600000 2894425665 2894425665 -3.00000000
8.09612274 -0.27423456 -0.14139940 18 14 9194 8.10200000 2894425670 2894425670 -1.00000000
8.16125679 -0.27644080 2.18805623 47 15 9194 8.45400000 2894425672 2894425672 15.00000000
2.22217941 -0.07837686 -0.59580141 4 0 9202 2.30200000 2894425693 2894425693 -15.00000000
8.10767269 -0.28737658 0.14160882 15 1 9203 8.11400000 2894425695 2894425695 1.00000000
2.59797168 -0.09253915 -0.60016942 7 2 9204 2.66800000 2894425697 2894425697 -13.00000000
8.11366177 -0.29042467 0.42549133 26 3 9205 8.13000000 2894425700 2894425700 3.00000000
3.13723469 -0.11229582 -0.61020714 6 4 9205 3.19800000 2894425702 2894425702 -11.00000000
8.10577488 -0.29155892 0.70962209 76 5 9206 8.14200000 2894425704 2894425704 5.00000000
3.93040848 -0.14206085 -0.62292206 8 6 9207 3.98200000 2894425706 2894425706 -9.00000000
8.11962986 -0.29489523 0.99762243 92 7 9208 8.18600000 2894425709 2894425709 7.00000000
5.22525501 -0.19068819 -0.64200771 8 8 9209 5.26800000 2894425711 2894425711 -7.00000000
8.20617867 -0.29947272 1.30059612 10 9 9209 8.31400000 2894425713 2894425713 9.00000000
8.09163284 -0.29670671 -0.70840186 4 10 9210 8.12800000 2894425716 2894425716 -5.00000000
8.10332203 -0.29996774 -0.42496797 17 12 9212 8.12000000 2894425720 2894425720 -3.00000000
8.10510826 -0.30286700 -0.14157392 16 14 9214 8.11200000 2894425725 2894425725 -1.00000000
8.16410255 -0.30507147 2.18909144 47 15 9214 8.45800000 2894425727 2894425727 15.00000000
2.22769856 -0.08596893 -0.59735435 4 0 9221 2.30800000 2894425748 2894425748 -15.00000000
8.11067200 -0.31441596 0.14167863 21 1 9222 8.11800000 2894425750 2894425750 1.00000000
2.60543966 -0.10145714 -0.60196900 7 2 9223 2.67600000 2894425753 2894425753 -13.00000000
8.10666752 -0.31709477 0.42517731 21 3 9224 8.12400000 2894425755 2894425755 3.00000000
3.13095975 -0.12246845 -0.60906231 6 4 9224 3.19200000 2894425757 2894425757 -11.00000000
8.10874557 -0.31859347 0.70997065 72 5 9225 8.14600000 2894425759 2894425759 5.00000000
3.92596817 -0.15493798 -0.62229627 8 6 9226 3.97800000 2894425762 2894425762 -9.00000000
8.12257385 -0.32197654 0.99810994 92 7 9227 8.19000000 2894425764 2894425764 7.00000000
5.20475864 -0.20722499 -0.63957030 8 8 9228 5.24800000 2894425766 2894425766 -7.00000000
8.21100426 -0.32835260 1.30153477 10 9 9229 8.32000000 2894425769 2894425769 9.00000000
6.58556080 -0.26335219 -0.57662237 16 10 9229 6.61600000 2894425771 2894425771 -5.00000000
8.09829140 -0.32667667 -0.42475861 17 12 9231 8.11600000 2894425776 2894425776 -3.00000000
8.09406853 -0.32933635 -0.14139940 16 14 9233 8.10200000 2894425780 2894425780 -1.00000000
8.17462730 -0.33261418 2.19219732 47 15 9233 8.47000000 2894425782 2894425782 15.00000000
2.21194386 -0.09309465 -0.59321326 4 0 9241 2.29200000 2894425803 2894425803 -15.00000000
8.10952473 -0.34272557 0.14167863 15 1 9242 8.11800000 2894425806 2894425806 1.00000000
2.61091065 -0.11079907 -0.60331875 9 2 9243 2.68200000 2894425808 2894425808 -13.00000000
8.10351562 -0.34530535 0.42507264 21 3 9244 8.12200000 2894425810 2894425810 3.00000000
3.11482143 -0.13272813 -0.60600936 6 4 9244 3.17600000 2894425812 2894425812 -11.00000000
8.11753654 -0.34732220 0.71084225 83 5 9245 8.15600000 2894425815 2894425815 5.00000000
3.91948271 -0.16838686 -0.62135768 6 6 9246 3.97200000 2894425817 2894425817 -9.00000000
8.12338352 -0.35041320 0.99835366 87 7 9247 8.19200000 2894425819 2894425819 7.00000000
5.21193647 -0.22573531 -0.64054525 8 8 9248 5.25600000 2894425822 2894425822 -7.00000000
8.20388794 -0.35675490 1.30059612 10 9 9249 8.31400000 2894425824 2894425824 9.00000000
6.60251570 -0.28711751 -0.57819122 16 10 9249 6.63400000 2894425826 2894425826 -5.00000000
8.11306381 -0.35564274 -0.42559600 17 12 9251 8.13200000 2894425831 2894425831 -3.00000000
8.09087181 -0.35749966 -0.14136449 14 14 9253 8.10000000 2894425835 2894425835 -1.00000000
8.16563416 -0.36223102 2.19012666 47 15 9254 8.46200000 2894425838 2894425838 15.00000000
2.21158767 -0.10120121 -0.59321326 4 0 9262 2.29200000 2894425859 2894425859 -15.00000000
8.10421848 -0.37226263 0.14160882 15 1 9263 8.11400000 2894425861 2894425861 1.00000000
