# .PCD v0.7 - Point Cloud Data file format
VERSION 0.7
FIELDS x y z intensity laser_id azimuth distance_m adjustedtime timestamp vertical_angle
SIZE 4 4 4 1 1 2 8 8 4 8
TYPE F F F U U U F U U F
COUNT 1 1 1 1 1 1 1 1 1 1
WIDTH 541
HEIGHT 1
VIEWPOINT 0 0 0 1 0 0 0
POINTS 541
DATA ascii
2.60818911 1.97041202 -0.63539398 6 4 5293 3.33000000 2893214608 2893214608 -11.00000000
3.31978726 2.50709391 0.36396238 7 5 5294 4.17600000 2893214610 2893214610 5.00000000
3.26349568 2.46368837 -0.64763868 9 6 5295 4.14000000 2893214612 2893214612 -9.00000000
3.34652901 2.52545547 0.51477611 7 7 5296 4.22400000 2893214615 2893214615 7.00000000
3.31369019 2.49976611 -0.50965762 8 8 5297 4.18200000 2893214617 2893214617 -7.00000000
3.33102727 2.51193261 0.66077918 8 9 5298 4.22400000 2893214619 2893214619 9.00000000
3.31517363 2.49997735 -0.36326513 9 10 5298 4.16800000 2893214622 2893214622 -5.00000000
3.34237576 2.51957536 0.81360954 8 11 5299 4.26400000 2893214624 2893214624 11.00000000
3.33053136 2.50973535 -0.21855496 7 12 5300 4.17600000 2893214626 2893214626 -3.00000000
3.34344316 2.51855016 0.96638972 8 13 5301 4.29600000 2893214628 2893214628 13.00000000
3.32748365 2.50561810 -0.07270672 7 14 5302 4.16600000 2893214631 2893214631 -1.00000000
3.33694720 2.51183176 1.11913359 8 15 5303 4.32400000 2893214633 2893214633 15.00000000
1.82425487 1.37018728 -0.61133057 4 0 5309 2.36200000 2893214654 2893214654 -15.00000000
3.33097887 2.50096965 0.07270672 7 1 5310 4.16600000 2893214656 2893214656 1.00000000
2.17422152 1.63185847 -0.62761343 4 2 5311 2.79000000 2893214658 2893214658 -13.00000000
3.34812260 2.51292777 0.21939233 7 3 5311 4.19200000 2893214661 2893214661 3.00000000
2.61470890 1.96175218 -0.63539398 5 4 5312 3.33000000 2893214663 2893214663 -11.00000000
3.35199142 2.51400304 0.36657706 7 5 5313 4.20600000 2893214665 2893214665 5.00000000
3.27164745 2.45285273 -0.64763868 9 6 5314 4.14000000 2893214668 2893214668 -9.00000000
3.35647392 2.51553464 0.51501983 7 7 5315 4.22600000 2893214670 2893214670 7.00000000
3.33784842 2.50066590 -0.51209497 8 8 5316 4.20200000 2893214672 2893214672 -7.00000000
3.35629225 2.51448369 0.66422075 8 9 5316 4.24600000 2893214675 2893214675 9.00000000
3.33620358 2.49852467 -0.36465964 9 10 5317 4.18400000 2893214677 2893214677 -5.00000000
3.35699892 2.51318431 0.81513602 8 11 5318 4.27200000 2893214679 2893214679 11.00000000
3.34363270 2.50226712 -0.21886897 8 12 5319 4.18200000 2893214681 2893214681 -3.00000000
3.36894107 2.52028990 0.97133863 9 13 5320 4.31800000 2893214684 2893214684 13.00000000
3.35178852 2.50654602 -0.07305577 7 14 5321 4.18600000 2893214686 2893214686 -1.00000000
3.35918403 2.51116252 1.12379229 8 15 5322 4.34200000 2893214688 2893214688 15.00000000
1.83677018 1.36958504 -0.61391878 3 0 5329 2.37200000 2893214709 2893214709 -15.00000000
3.35892820 2.50366807 0.07312559 7 1 5330 4.19000000 2893214711 2893214711 1.00000000
2.16271544 1.61145127 -0.62266451 3 2 5331 2.76800000 2893214714 2893214714 -13.00000000
3.36328006 2.50599885 0.21981102 7 3 5331 4.20000000 2893214716 2893214716 3.00000000
2.62468982 1.95495868 -0.63615721 6 4 5332 3.33400000 2893214718 2893214718 -11.00000000
3.37033486 2.50942612 0.36762291 7 5 5333 4.21800000 2893214721 2893214721 5.00000000
3.28018975 2.44141769 -0.64763868 9 6 5334 4.14000000 2893214723 2893214723 -9.00000000
3.37478995 2.51091266 0.51648229 7 7 5335 4.23800000 2893214725 2893214725 7.00000000
3.35611415 2.49610758 -0.51355743 8 8 5336 4.21400000 2893214728 2893214728 -7.00000000
3.39357972 2.52397251 0.66985238 8 9 5336 4.28200000 2893214730 2893214730 9.00000000
3.36089373 2.49875140 -0.36640275 9 10 5337 4.20400000 2893214732 2893214732 -5.00000000
3.37678123 2.50964832 0.81780738 8 11 5338 4.28600000 2893214734 2893214734 11.00000000
3.36196613 2.49772692 -0.21949700 8 12 5339 4.19400000 2893214737 2893214737 -3.00000000
3.38554049 2.51432419 0.97358817 8 13 5340 4.32800000 2893214739 2893214739 13.00000000
3.38299608 2.51151848 -0.07354444 7 14 5341 4.21400000 2893214741 2893214741 -1.00000000
3.39275050 2.51784182 1.13207448 8 15 5342 4.37400000 2893214744 2893214744 15.00000000
1.84643638 1.36629105 -0.61547166 4 0 5350 2.37800000 2893214764 2893214764 -15.00000000
3.39058971 2.50798869 0.07361425 7 1 5351 4.21800000 2893214767 2893214767 1.00000000
2.18114233 1.61278260 -0.62626374 3 2 5352 2.78400000 2893214769 2893214769 -13.00000000
3.38528991 2.50315452 0.22064839 7 3 5352 4.21600000 2893214771 2893214771 3.00000000
2.62394357 1.93949080 -0.63424909 8 4 5353 3.32400000 2893214774 2893214774 -11.00000000
3.40675092 2.51718450 0.37058622 7 5 5354 4.25200000 2893214776 2893214776 5.00000000
3.30023861 2.43759394 -0.64982879 9 6 5355 4.15400000 2893214778 2893214778 -9.00000000
3.40632772 2.51503396 0.51989460 7 7 5356 4.26600000 2893214780 2893214780 7.00000000
3.37162900 2.48850536 -0.51453239 8 8 5357 4.22200000 2893214783 2893214783 -7.00000000
3.40598655 2.51386356 0.67047811 8 9 5357 4.28600000 2893214785 2893214785 9.00000000
3.39407825 2.50415945 -0.36901742 9 10 5358 4.23400000 2893214787 2893214787 -5.00000000
3.40965700 2.51473475 0.82353163 8 11 5359 4.31600000 2893214790 2893214790 11.00000000
3.38395882 2.49486971 -0.22033438 8 12 5360 4.21000000 2893214792 2893214792 -3.00000000
3.41198921 2.51461625 0.97853708 8 13 5361 4.35000000 2893214794 2893214794 13.00000000
3.40183806 2.50621891 -0.07375387 7 14 5362 4.22600000 2893214797 2893214797 -1.00000000
3.42484879 2.52317142 1.13983905 8 15 5362 4.40400000 2893214799 2893214799 15.00000000
1.84496665 1.35526276 -0.61340111 4 0 5370 2.37000000 2893214820 2893214820 -15.00000000
3.41221809 2.50560641 0.07389349 7 1 5371 4.23400000 2893214822 2893214822 1.00000000
2.18990064 1.60746539 -0.62716353 3 2 5372 2.78800000 2893214824 2893214824 -13.00000000
3.41493773 2.50668645 0.22200912 7 3 5372 4.24200000 2893214827 2893214827 3.00000000
2.62436628 1.92567384 -0.63272262 5 4 5373 3.31600000 2893214829 2893214829 -11.00000000
3.42354965 2.51116920 0.37145779 7 5 5374 4.26200000 2893214831 2893214831 5.00000000
3.31828547 2.43306756 -0.65170598 9 6 5375 4.16600000 2893214833 2893214833 -9.00000000
3.43590021 2.51838422 0.52306324 7 7 5376 4.29200000 2893214836 2893214836 7.00000000
3.40111160 2.49197316 -0.51770097 8 8 5377 4.24800000 2893214838 2893214838 -7.00000000
3.42908192 2.51246667 0.67329395 8 9 5377 4.30400000 2893214840 2893214840 9.00000000
3.41083550 2.49818301 -0.36988896 9 10 5378 4.24400000 2893214843 2893214843 -5.00000000
3.44375944 2.52137399 0.82963753 8 11 5379 4.34800000 2893214845 2893214845 11.00000000
3.41037583 2.49601769 -0.22148576 8 12 5380 4.23200000 2893214847 2893214847 -3.00000000
3.43332815 2.51189613 0.98213631 9 13 5381 4.36600000 2893214850 2893214850 13.00000000
3.41540813 2.49787045 -0.07385858 7 14 5382 4.23200000 2893214852 2893214852 -1.00000000
3.44654989 2.51972294 1.14398015 8 15 5383 4.42000000 2893214854 2893214854 15.00000000
1.83985209 1.34262717 -0.61029530 4 0 5388 2.35800000 2893214875 2893214875 -15.00000000
3.43138146 2.50312376 0.07413782 7 1 5389 4.24800000 2893214877 2893214877 1.00000000
2.19493985 1.60057771 -0.62716353 3 2 5390 2.78800000 2893214880 2893214880 -13.00000000
3.44098496 2.50828958 0.22316052 7 3 5391 4.26400000 2893214882 2893214882 3.00000000
2.63674903 1.92204559 -0.63424909 5 4 5391 3.32400000 2893214884 2893214884 -11.00000000
3.43947291 2.50626826 0.37232932 7 5 5392 4.27200000 2893214886 2893214886 5.00000000
3.32271934 2.42030478 -0.65108025 9 6 5393 4.16200000 2893214889 2893214889 -9.00000000
3.45663285 2.51692557 0.52501315 7 7 5394 4.30800000 2893214891 2893214891 7.00000000
3.42978787 2.49646258 -0.52086955 8 8 5395 4.27400000 2893214893 2893214893 -7.00000000
3.45612311 2.51563144 0.67704839 8 9 5395 4.32800000 2893214896 2893214896 9.00000000
3.42350006 2.49097204 -0.37041190 9 10 5396 4.25000000 2893214898 2893214898 -5.00000000
3.46595287 2.52093601 0.83307207 8 11 5397 4.36600000 2893214900 2893214900 11.00000000
3.44243145 2.50290942 -0.22305584 8 12 5398 4.26200000 2893214903 2893214903 -3.00000000
3.45854259 2.51370049 0.98708522 8 13 5399 4.38800000 2893214905 2893214905 13.00000000
3.44103408 2.50005770 -0.07424254 7 14 5400 4.25400000 2893214907 2893214907 -1.00000000
3.45557380 2.51062131 1.14449787 8 15 5400 4.42200000 2893214910 2893214910 15.00000000
1.84452760 1.33619678 -0.61029530 4 0 5408 2.35800000 2893214930 2893214930 -15.00000000
3.44333744 2.49347663 0.07420763 7 1 5409 4.25200000 2893214933 2893214933 1.00000000
2.20051360 1.59290612 -0.62716353 3 2 5410 2.78800000 2893214935 2893214935 -13.00000000
3.46913648 2.51031327 0.22441658 7 3 5411 4.28800000 2893214937 2893214937 3.00000000
2.64662313 1.91513169 -0.63501233 5 4 5411 3.32800000 2893214939 2893214939 -11.00000000
3.46272945 2.50475645 0.37389815 7 5 5412 4.29000000 2893214942 2893214942 5.00000000
3.32154298 2.40174675 -0.64920300 9 6 5413 4.15000000 2893214944 2893214944 -9.00000000
3.48631215 2.51996183 0.52818173 7 7 5414 4.33400000 2893214946 2893214946 7.00000000
3.46100760 2.50075173 -0.52428192 8 8 5415 4.30200000 2893214949 2893214949 -7.00000000
3.47813106 2.51220036 0.67955130 8 9 5416 4.34400000 2893214951 2893214951 9.00000000
3.44671082 2.48950601 -0.37198070 9 10 5416 4.26800000 2893214953 2893214953 -5.00000000
3.48269010 2.51456833 0.83498019 8 11 5417 4.37600000 2893214956 2893214956 11.00000000
3.46086431 2.49789095 -0.22368388 8 12 5418 4.27400000 2893214958 2893214958 -3.00000000
3.49574232 2.52213645 0.99518347 8 13 5419 4.42400000 2893214960 2893214960 13.00000000
3.46920252 2.50206780 -0.07466140 7 14 5420 4.27800000 2893214963 2893214963 -1.00000000
3.48669100 2.51375604 1.15174472 8 15 5421 4.45000000 2893214965 2893214965 15.00000000
1.85545421 1.33426142 -0.61236584 4 0 5428 2.36600000 2893214986 2893214986 -15.00000000
3.47799969 2.50011683 0.07476611 7 1 5429 4.28400000 2893214988 2893214988 1.00000000
2.19023514 1.57384348 -0.62266451 3 2 5430 2.76800000 2893214990 2893214990 -13.00000000
3.49085522 2.50751019 0.22525395 7 3 5431 4.30400000 2893214992 2893214992 3.00000000
2.64850855 1.90244555 -0.63386750 5 4 5431 3.32200000 2893214995 2893214995 -11.00000000
3.49572754 2.51008511 0.37651280 7 5 5432 4.32000000 2893214997 2893214997 5.00000000
3.33311605 2.39244151 -0.64982879 9 6 5433 4.15400000 2893214999 2893214999 -9.00000000
3.49992585 2.51124859 0.52891296 7 7 5434 4.34000000 2893215002 2893215002 7.00000000
3.48423338 2.49906802 -0.52647555 8 8 5435 4.32000000 2893215004 2893215004 -7.00000000
3.51052022 2.51792240 0.68424433 8 9 5435 4.37400000 2893215006 2893215006 9.00000000
3.48452544 2.49835658 -0.37511832 9 10 5436 4.30400000 2893215009 2893215009 -5.00000000
3.50740361 2.51383305 0.83879632 8 11 5437 4.39600000 2893215011 2893215011 11.00000000
3.47280955 2.48812151 -0.22389323 8 12 5438 4.27800000 2893215013 2893215013 -3.00000000
3.51403069 2.51672673 0.99788290 8 13 5439 4.43600000 2893215016 2893215016 13.00000000
3.49254894 2.50041938 -0.07497554 7 14 5440 4.29600000 2893215018 2893215018 -1.00000000
3.50914502 2.51230097 1.15640354 8 15 5440 4.46800000 2893215020 2893215020 15.00000000
1.87110686 1.33563328 -0.61598933 4 0 5448 2.38000000 2893215041 2893215041 -15.00000000
3.50949454 2.50422239 0.07525478 7 1 5449 4.31200000 2893215043 2893215043 1.00000000
2.20523453 1.57297838 -0.62536395 3 2 5450 2.78000000 2893215045 2893215045 -13.00000000
3.50609159 2.49994755 0.22567265 7 3 5451 4.31200000 2893215048 2893215048 3.00000000
2.65353465 1.89204919 -0.63348585 5 4 5451 3.32000000 2893215050 2893215050 -11.00000000
3.51906991 2.50827527 0.37808162 7 5 5452 4.33800000 2893215052 2893215052 5.00000000
3.34788203 2.38537717 -0.65108025 9 6 5453 4.16200000 2893215055 2893215055 -9.00000000
3.52969003 2.51398730 0.53208154 7 7 5454 4.36600000 2893215057 2893215057 7.00000000
3.50425529 2.49494982 -0.52818173 8 8 5455 4.33400000 2893215059 2893215059 -7.00000000
3.53099108 2.51305676 0.68643445 8 9 5456 4.38800000 2893215062 2893215062 9.00000000
3.51919699 2.50466251 -0.37790731 10 10 5456 4.33600000 2893215064 2893215064 -5.00000000
3.54015279 2.51864648 0.84452063 8 11 5457 4.42600000 2893215066 2893215066 11.00000000
3.50588799 2.49334717 -0.22546330 8 12 5458 4.30800000 2893215068 2893215068 -3.00000000
3.53550053 2.51347828 1.00148213 8 13 5459 4.45200000 2893215071 2893215071 13.00000000
3.51103568 2.49516320 -0.07518496 7 14 5460 4.30800000 2893215073 2893215073 -1.00000000
3.54352784 2.51732349 1.16468573 8 15 5461 4.50000000 2893215075 2893215075 15.00000000
1.86157131 1.31904173 -0.61133057 4 0 5468 2.36200000 2893215096 2893215096 -15.00000000
3.53453279 2.50351501 0.07560383 7 1 5469 4.33200000 2893215098 2893215098 1.00000000
2.21389270 1.56752336 -0.62626374 3 2 5470 2.78400000 2893215101 2893215101 -13.00000000
3.53598976 2.50269389 0.22703338 7 3 5471 4.33800000 2893215103 2893215103 3.00000000
2.65691781 1.88050663 -0.63272262 5 4 5471 3.31600000 2893215105 2893215105 -11.00000000
3.53756285 2.50288057 0.37912747 7 5 5472 4.35000000 2893215108 2893215108 5.00000000
3.35457540 2.37253571 -0.65076739 9 6 5473 4.16000000 2893215110 2893215110 -9.00000000
3.56113672 2.51769471 0.53549391 7 7 5474 4.39400000 2893215112 2893215112 7.00000000
3.52915406 2.49415946 -0.53061914 8 8 5475 4.35400000 2893215115 2893215115 -7.00000000
3.54575801 2.50589395 0.68768591 8 9 5475 4.39600000 2893215117 2893215117 9.00000000
3.53768206 2.49926066 -0.37895316 10 10 5476 4.34800000 2893215119 2893215119 -5.00000000
3.57137418 2.52212882 0.84986329 9 11 5477 4.45400000 2893215121 2893215121 11.00000000
3.53741312 2.49722004 -0.22692871 8 12 5478 4.33600000 2893215124 2893215124 -3.00000000
3.56017470 2.51235771 1.00598109 7 13 5479 4.47200000 2893215126 2893215126 13.00000000
3.53116226 2.49096107 -0.07542930 7 14 5480 4.32200000 2893215128 2893215128 -1.00000000
3.56132770 2.51224041 1.16779149 8 15 5480 4.51200000 2893215131 2893215131 15.00000000
1.86142385 1.30920148 -0.60977769 4 0 5488 2.35600000 2893215151 2893215151 -15.00000000
3.55306506 2.49806261 0.07581326 7 1 5489 4.34400000 2893215154 2893215154 1.00000000
2.22253942 1.56202698 -0.62716353 3 2 5490 2.78800000 2893215156 2893215156 -13.00000000
3.56594944 2.50526166 0.22839411 7 3 5491 4.36400000 2893215158 2893215158 3.00000000
2.67310452 1.87799239 -0.63501233 5 4 5491 3.32800000 2893215161 2893215161 -11.00000000
3.55769134 2.49853253 0.38034767 7 5 5492 4.36400000 2893215163 2893215163 5.00000000
3.35475278 2.35513663 -0.64920300 9 6 5493 4.15000000 2893215165 2893215165 -9.00000000
3.58290267 2.51437116 0.53744382 7 7 5494 4.41000000 2893215168 2893215168 7.00000000
3.55571485 2.49436545 -0.53330022 8 8 5495 4.37600000 2893215170 2893215170 -7.00000000
3.57756138 2.50875950 0.69206607 8 9 5496 4.42400000 2893215172 2893215172 9.00000000
3.55943465 2.49604821 -0.38034767 10 10 5496 4.36400000 2893215174 2893215174 -5.00000000
3.58980203 2.51640868 0.85215294 9 11 5497 4.46600000 2893215177 2893215177 11.00000000
3.56900764 2.50090313 -0.22839411 8 12 5498 4.36400000 2893215179 2893215179 -3.00000000
3.58967233 2.51444960 1.01182985 8 13 5499 4.49800000 2893215181 2893215181 13.00000000
3.56604481 2.49697137 -0.07598778 7 14 5500 4.35400000 2893215184 2893215184 -1.00000000
3.58000779 2.50581741 1.17089736 8 15 5501 4.52400000 2893215186 2893215186 15.00000000
1.87707067 1.31043696 -0.61340111 4 0 5508 2.37000000 2893215207 2893215207 -15.00000000
3.57816195 2.49708891 0.07616230 7 1 5509 4.36400000 2893215209 2893215209 1.00000000
2.22158551 1.54979944 -0.62536395 3 2 5510 2.78000000 2893215211 2893215211 -13.00000000
3.59269357 2.50536561 0.22954550 7 3 5511 4.38600000 2893215214 2893215214 3.00000000
2.67642283 1.86640418 -0.63424909 5 4 5511 3.32400000 2893215216 2893215216 -11.00000000
3.59090805 2.50318909 0.38296235 7 5 5512 4.39400000 2893215218 2893215218 5.00000000
3.35647058 2.33889461 -0.64795154 9 6 5513 4.14200000 2893215221 2893215221 -9.00000000
3.60143089 2.50865698 0.53890622 7 7 5514 4.42200000 2893215223 2893215223 7.00000000
3.57743263 2.49101329 -0.53525013 8 8 5515 4.39200000 2893215225 2893215225 -7.00000000
3.61017752 2.51381397 0.69675910 8 9 5515 4.45400000 2893215227 2893215227 9.00000000
3.58938408 2.49840522 -0.38261372 10 10 5516 4.39000000 2893215230 2893215230 -5.00000000
3.60662174 2.50946903 0.85406107 9 11 5517 4.47600000 2893215232 2893215232 11.00000000
3.58919334 2.49641275 -0.22912681 8 12 5518 4.37800000 2893215234 2893215234 -3.00000000
3.61922789 2.51636577 1.01767862 8 13 5519 4.52400000 2893215237 2893215237 13.00000000
3.60265398 2.50390983 -0.07658116 7 14 5520 4.38800000 2893215239 2893215239 -1.00000000
3.60892010 2.50826478 1.17762661 8 15 5520 4.55000000 2893215241 2893215241 15.00000000
1.87845767 1.30167615 -0.61236584 4 0 5528 2.36600000 2893215262 2893215262 -15.00000000
3.60329485 2.49597025 0.07651135 7 1 5529 4.38400000 2893215264 2893215264 1.00000000
2.22057319 1.53759766 -0.62356430 3 2 5530 2.77200000 2893215267 2893215267 -13.00000000
3.61127043 2.49962997 0.23017353 7 3 5531 4.39800000 2893215269 2893215269 3.00000000
2.68292165 1.85705030 -0.63424909 5 4 5531 3.32400000 2893215271 2893215271 -11.00000000
3.61600804 2.50197577 0.38470545 7 5 5532 4.41400000 2893215274 2893215274 5.00000000
3.35811591 2.32266927 -0.64670008 9 6 5533 4.13400000 2893215276 2893215276 -9.00000000
3.61996269 2.50284386 0.54036868 7 7 5534 4.43400000 2893215278 2893215278 7.00000000
3.60243630 2.48979688 -0.53768754 8 8 5535 4.41200000 2893215280 2893215280 -7.00000000
3.62911820 2.50730205 0.69863629 8 9 5536 4.46600000 2893215283 2893215283 9.00000000
3.60955787 2.49378824 -0.38383389 10 10 5536 4.40400000 2893215285 2893215285 -5.00000000
3.63312936 2.50913668 0.85825884 9 11 5537 4.49800000 2893215287 2893215287 11.00000000
3.60774708 2.49067712 -0.22975485 8 12 5538 4.39000000 2893215290 2893215290 -3.00000000
3.63921666 2.51146507 1.02082789 9 13 5539 4.53800000 2893215292 2893215292 13.00000000
3.63277054 2.50608063 -0.07703492 7 14 5540 4.41400000 2893215294 2893215294 -1.00000000
3.64671564 2.51476145 1.18694413 8 15 5541 4.58600000 2893215297 2893215297 15.00000000
1.88572037 1.29795897 -0.61340111 4 0 5546 2.37000000 2893215317 2893215317 -15.00000000
3.63418221 2.50050688 0.07700001 7 1 5547 4.41200000 2893215320 2893215320 1.00000000
2.23181510 1.53503132 -0.62536395 3 2 5548 2.78000000 2893215322 2893215322 -13.00000000
3.63720918 2.50071955 0.23132493 7 3 5549 4.42000000 2893215324 2893215324 3.00000000
2.68388915 1.84527564 -0.63310426 5 4 5549 3.31800000 2893215327 2893215327 -11.00000000
3.65012217 2.50865936 0.38749444 7 5 5550 4.44600000 2893215329 2893215329 5.00000000
3.38330579 2.32441235 -0.65014166 6 6 5551 4.15600000 2893215331 2893215331 -9.00000000
3.64744401 2.50494480 0.54329354 7 7 5552 4.45800000 2893215333 2893215333 7.00000000
3.62496948 2.48857880 -0.53988117 8 8 5553 4.43000000 2893215336 2893215336 -7.00000000
3.65608406 2.50993943 0.70239073 8 9 5553 4.49000000 2893215338 2893215338 9.00000000
3.63708782 2.49596429 -0.38592562 10 10 5554 4.42800000 2893215340 2893215340 -5.00000000
3.66204023 2.51214814 0.86321992 9 11 5555 4.52400000 2893215343 2893215343 11.00000000
3.64190888 2.49740338 -0.23142959 8 12 5556 4.42200000 2893215345 2893215345 -3.00000000
3.65994763 2.50883412 1.02442706 9 13 5557 4.55400000 2893215347 2893215347 13.00000000
3.64722395 2.49917698 -0.07717454 7 14 5558 4.42200000 2893215350 2893215350 -1.00000000
3.67965889 2.52140212 1.19522631 8 15 5558 4.61800000 2893215352 2893215352 15.00000000
1.88385904 1.28700960 -0.61133057 4 0 5566 2.36200000 2893215373 2893215373 -15.00000000
3.65940189 2.49908352 0.07734907 7 1 5567 4.43200000 2893215375 2893215375 1.00000000
2.23394084 1.52503407 -0.62446415 3 2 5568 2.77600000 2893215377 2893215377 -13.00000000
3.66571307 2.50151753 0.23258099 7 3 5569 4.44400000 2893215380 2893215380 3.00000000
2.68382740 1.83146942 -0.63157779 5 4 5569 3.31000000 2893215382 2893215382 -11.00000000
3.68025351 2.51049876 0.38976049 8 5 5570 4.47200000 2893215384 2893215384 5.00000000
3.39139891 2.31258821 -0.65014166 6 6 5571 4.15600000 2893215386 2893215386 -9.00000000
3.68405032 2.51120472 0.54743707 7 7 5572 4.49200000 2893215389 2893215389 7.00000000
3.65660071 2.49155927 -0.54329354 8 8 5573 4.45800000 2893215391 2893215391 -7.00000000
3.67298532 2.50272369 0.70395511 8 9 5573 4.50000000 2893215393 2893215393 9.00000000
3.65730500 2.49110460 -0.38714582 10 10 5574 4.44200000 2893215396 2893215396 -5.00000000
3.69837475 2.51813364 0.86970741 9 11 5575 4.55800000 2893215398 2893215398 11.00000000
3.66051102 2.49141836 -0.23205763 8 12 5576 4.43400000 2893215400 2893215400 -3.00000000
3.69285059 2.51248622 1.03117561 9 13 5577 4.58400000 2893215403 2893215403 13.00000000
3.67080712 2.49655151 -0.07748868 7 14 5578 4.44000000 2893215405 2893215405 -1.00000000
3.70281458 2.51832008 1.19988513 8 15 5578 4.63600000 2893215407 2893215407 15.00000000
1.88194442 1.27608919 -0.60926002 4 0 5586 2.35400000 2893215428 2893215428 -15.00000000
3.68465590 2.49751425 0.07769811 8 1 5587 4.45200000 2893215430 2893215430 1.00000000
2.23602390 1.51504064 -0.62356430 3 2 5588 2.77200000 2893215433 2893215433 -13.00000000
3.70253468 2.50774717 0.23436041 7 3 5589 4.47800000 2893215435 2893215435 3.00000000
2.69345498 1.82429183 -0.63234103 5 4 5589 3.31400000 2893215437 2893215437 -11.00000000
3.69724345 2.50322199 0.39063203 8 5 5590 4.48200000 2893215439 2893215439 5.00000000
3.39290714 2.29630733 -0.64889014 6 6 5591 4.14800000 2893215442 2893215442 -9.00000000
3.72403288 2.51946425 0.55206811 8 7 5592 4.53000000 2893215444 2893215444 7.00000000
3.68829656 2.49434900 -0.54670590 8 8 5593 4.48600000 2893215446 2893215446 -7.00000000
3.70995426 2.50805235 0.70927387 8 9 5594 4.53400000 2893215449 2893215449 9.00000000
3.67258072 2.48278666 -0.38784304 10 10 5594 4.45000000 2893215451 2893215451 -5.00000000
3.72015524 2.51400280 0.87276036 9 11 5595 4.57400000 2893215453 2893215453 11.00000000
3.69070053 2.49315953 -0.23341836 8 12 5596 4.46000000 2893215456 2893215456 -3.00000000
3.73228335 2.52030134 1.03972375 9 13 5597 4.62200000 2893215458 2893215458 13.00000000
3.69938874 2.49714851 -0.07790754 7 14 5598 4.46400000 2893215460 2893215460 -1.00000000
3.72118974 2.51186466 1.20299089 8 15 5598 4.64800000 2893215462 2893215462 15.00000000
1.89279819 1.27382660 -0.61133057 4 0 5606 2.36200000 2893215483 2893215483 -15.00000000
3.70496583 2.49245048 0.07794245 8 1 5607 4.46600000 2893215486 2893215486 1.00000000
2.24129891 1.50722623 -0.62356430 3 2 5608 2.77200000 2893215488 2893215488 -13.00000000
3.72949910 2.50706434 0.23551181 7 3 5609 4.50000000 2893215490 2893215490 3.00000000
2.69817734 1.81378353 -0.63195938 5 4 5609 3.31200000 2893215492 2893215492 -11.00000000
3.72249603 2.50141358 0.39237514 8 5 5610 4.50200000 2893215495 2893215495 5.00000000
3.39270306 2.27894258 -0.64732581 9 6 5611 4.13800000 2893215497 2893215497 -9.00000000
3.73280454 2.50644970 0.55206811 8 7 5612 4.53000000 2893215499 2893215499 7.00000000
3.71840787 2.49584126 -0.54987448 8 8 5613 4.51200000 2893215502 2893215502 -7.00000000
3.73673034 2.50719357 0.71271545 8 9 5614 4.55600000 2893215504 2893215504 9.00000000
3.71596909 2.49326372 -0.39150360 10 10 5614 4.49200000 2893215506 2893215506 -5.00000000
3.74684358 2.51303101 0.87695813 9 11 5615 4.59600000 2893215509 2893215509 11.00000000
3.71762896 2.49249601 -0.23456976 8 12 5616 4.48200000 2893215511 2893215511 -3.00000000
3.76695919 2.52461672 1.04692221 9 13 5617 4.65400000 2893215513 2893215513 13.00000000
3.72968006 2.49868894 -0.07836130 7 14 5618 4.49000000 2893215515 2893215515 -1.00000000
3.75284338 2.51325822 1.21023786 8 15 5619 4.67600000 2893215518 2893215518 15.00000000
1.89745426 1.26688051 -0.61133057 4 0 5627 2.36200000 2893215539 2893215539 -15.00000000
3.73902512 2.49550581 0.07846602 8 1 5628 4.49600000 2893215541 2893215541 1.00000000
2.24032378 1.49467516 -0.62176472 3 2 5629 2.76400000 2893215543 2893215543 -13.00000000
3.74863267 2.50002718 0.23613983 7 3 5630 4.51200000 2893215545 2893215545 3.00000000
2.70807362 1.80606067 -0.63272262 5 4 5630 3.31600000 2893215548 2893215548 -11.00000000
3.74821687 2.49880481 0.39411828 8 5 5631 4.52200000 2893215550 2893215550 5.00000000
3.39774537 2.26430130 -0.64670008 9 6 5632 4.13400000 2893215552 2893215552 -9.00000000
3.75848699 2.50375700 0.55450553 8 7 5633 4.55000000 2893215555 2893215555 7.00000000
3.74074888 2.49099803 -0.55182439 8 8 5634 4.52800000 2893215557 2893215557 -7.00000000
3.77220464 2.51099443 0.71772134 8 9 5635 4.58800000 2893215559 2893215559 9.00000000
3.74000907 2.48956347 -0.39307240 10 10 5635 4.51000000 2893215562 2893215562 -5.00000000
3.78054619 2.51559496 0.88268238 9 11 5636 4.62600000 2893215564 2893215564 11.00000000
3.74004316 2.48770261 -0.23540713 8 12 5637 4.49800000 2893215566 2893215566 -3.00000000
3.78105521 2.51402998 1.04827189 7 13 5638 4.66000000 2893215568 2893215568 13.00000000
3.75879788 2.49828506 -0.07878016 7 14 5639 4.51400000 2893215571 2893215571 -1.00000000
3.78090000 2.51297522 1.21644950 8 15 5639 4.70000000 2893215573 2893215573 15.00000000
1.91152728 1.26665211 -0.61443639 4 0 5647 2.37400000 2893215594 2893215594 -15.00000000
3.77272034 2.49900341 0.07898960 8 1 5648 4.52600000 2893215596 2893215596 1.00000000
2.25527644 1.49330115 -0.62446415 3 2 5649 2.77600000 2893215598 2893215598 -13.00000000
3.76566386 2.49243855 0.23666319 7 3 5650 4.52200000 2893215601 2893215601 3.00000000
2.71108723 1.79442954 -0.63195938 5 4 5650 3.31200000 2893215603 2893215603 -11.00000000
3.78184080 2.50219655 0.39673293 6 5 5651 4.55200000 2893215605 2893215605 5.00000000
3.41551447 2.25896549 -0.64857727 9 6 5652 4.14600000 2893215608 2893215608 -9.00000000
3.78707480 2.50375962 0.55743039 8 7 5653 4.57400000 2893215610 2893215610 7.00000000
3.75935793 2.48449230 -0.55328679 8 8 5654 4.54000000 2893215612 2893215612 -7.00000000
3.79578018 2.50761127 0.72053713 8 9 5655 4.60600000 2893215615 2893215615 9.00000000
3.77527475 2.49406457 -0.39586139 10 10 5655 4.54200000 2893215617 2893215617 -5.00000000
8.63692665 5.70365906 2.01188993 21 11 5656 10.54400000 2893215619 2893215619 11.00000000
3.76703930 2.48673582 -0.23655853 8 12 5657 4.52000000 2893215621 2893215621 -3.00000000
3.78585744 2.49726105 -0.07916412 7 14 5659 4.53600000 2893215626 2893215626 -1.00000000
6.24243879 4.11769342 2.00377703 9 15 5659 7.74200000 2893215628 2893215628 15.00000000
1.90904212 1.25639248 -0.61236584 4 0 5665 2.36600000 2893215649 2893215649 -15.00000000
8.24437809 5.42378664 0.17225525 13 1 5666 9.87000000 2893215651 2893215651 1.00000000
2.25995684 1.48620856 -0.62446415 3 2 5667 2.77600000 2893215654 2893215654 -13.00000000
2.71014905 1.78158975 -0.63043290 6 4 5668 3.30400000 2893215658 2893215658 -11.00000000
8.27369690 5.43687057 0.86615378 77 5 5669 9.93800000 2893215661 2893215661 5.00000000
3.42094326 2.24713969 -0.64826441 6 6 5670 4.14400000 2893215663 2893215663 -9.00000000
3.78705907 2.48574090 -0.55621171 2 8 5672 4.56400000 2893215667 2893215667 -7.00000000
7.07809591 4.64413643 -0.74064952 8 10 5673 8.49800000 2893215672 2893215672 -5.00000000
8.67121887 5.68726492 2.01570630 34 11 5674 10.56400000 2893215674 2893215674 11.00000000
8.22445965 5.39219189 -0.51540452 12 12 5675 9.84800000 2893215677 2893215677 -3.00000000
8.29614449 5.43712044 2.29000163 67 13 5676 10.18000000 2893215679 2893215679 13.00000000
8.23135757 5.39260721 -0.17176658 14 14 5677 9.84200000 2893215681 2893215681 -1.00000000
6.28443146 4.11711788 2.01309443 6 15 5677 7.77800000 2893215684 2893215684 15.00000000
1.90856385 1.24655187 -0.61081296 4 0 5685 2.36000000 2893215704 2893215704 -15.00000000
8.24149227 5.38076401 0.17180149 13 1 5686 9.84400000 2893215707 2893215707 1.00000000
2.26839471 1.48044097 -0.62536395 3 2 5687 2.78000000 2893215709 2893215709 -13.00000000
8.26176357 5.38988638 0.51697457 89 3 5688 9.87800000 2893215711 2893215711 3.00000000
2.71470714 1.77104604 -0.63005131 9 4 5688 3.30200000 2893215714 2893215714 -11.00000000
8.24756527 5.37857151 0.86144733 73 5 5689 9.88400000 2893215716 2893215716 5.00000000
3.42214704 2.23086953 -0.64701295 6 6 5690 4.13600000 2893215718 2893215718 -9.00000000
8.34230137 5.43620300 1.22259331 2 7 5691 10.03200000 2893215720 2893215720 7.00000000
4.61240673 3.00449634 -0.67588741 4 8 5692 5.54600000 2893215723 2893215723 -7.00000000
7.07589769 4.60744190 -0.73873210 13 10 5693 8.47600000 2893215727 2893215727 -5.00000000
8.68443680 5.65267801 2.01417971 40 11 5694 10.55600000 2893215730 2893215730 11.00000000
8.22481632 5.35146856 -0.51425308 12 12 5695 9.82600000 2893215732 2893215732 -3.00000000
8.31017208 5.40494108 2.28865194 74 13 5696 10.17400000 2893215734 2893215734 13.00000000
8.24007225 5.35730171 -0.17155716 14 14 5697 9.83000000 2893215737 2893215737 -1.00000000
7.37989855 4.79622555 2.35835910 29 15 5698 9.11200000 2893215739 2893215739 15.00000000
1.91290355 1.23988211 -0.61081296 4 0 5705 2.36000000 2893215760 2893215760 -15.00000000
8.23337269 5.33456516 0.17124301 13 1 5706 9.81200000 2893215762 2893215762 1.00000000
2.25719213 1.46192014 -0.62086493 3 2 5707 2.76000000 2893215764 2893215764 -13.00000000
8.25779915 5.34834528 0.51561385 84 3 5707 9.85200000 2893215767 2893215767 3.00000000
2.72911286 1.76689398 -0.63195938 9 4 5708 3.31200000 2893215769 2893215769 -11.00000000
8.25290871 5.34108925 0.86005288 73 5 5709 9.86800000 2893215771 2893215771 5.00000000
3.41996217 2.21247268 -0.64513576 6 6 5710 4.12400000 2893215773 2893215773 -9.00000000
8.34955788 5.39950418 1.22088706 2 7 5711 10.01800000 2893215776 2893215776 7.00000000
4.62119913 2.98729992 -0.67564362 6 8 5712 5.54400000 2893215778 2893215778 -7.00000000
7.07520342 4.57190132 -0.73698896 13 10 5713 8.45600000 2893215783 2893215783 -5.00000000
8.68762398 5.61167669 2.01036358 46 11 5714 10.53600000 2893215785 2893215785 11.00000000
8.23337936 5.31622553 -0.51362509 12 12 5715 9.81400000 2893215787 2893215787 -3.00000000
8.31261539 5.36533213 2.28415298 74 13 5716 10.15400000 2893215790 2893215790 13.00000000
8.24191952 5.31766415 -0.17120811 12 14 5717 9.81000000 2893215792 2893215792 -1.00000000
7.41361952 4.78324747 2.36405325 40 15 5717 9.13400000 2893215794 2893215794 15.00000000
1.91721988 1.23319721 -0.61081296 4 0 5725 2.36000000 2893215815 2893215815 -15.00000000
8.23512363 5.29497814 0.17089397 13 1 5726 9.79200000 2893215817 2893215817 1.00000000
2.27211738 1.46035409 -0.62356430 3 2 5727 2.77200000 2893215819 2893215819 -13.00000000
8.25121593 5.30328941 0.51404375 89 3 5727 9.82200000 2893215822 2893215822 3.00000000
2.73856735 1.75947917 -0.63272262 9 4 5728 3.31600000 2893215824 2893215824 -11.00000000
8.24803162 5.29717541 0.85761249 77 5 5729 9.84000000 2893215826 2893215826 5.00000000
3.43597579 2.20585728 -0.64670008 6 6 5730 4.13400000 2893215829 2893215829 -9.00000000
8.32992935 5.34566689 1.21528113 2 7 5731 9.97200000 2893215831 2893215831 7.00000000
4.62324429 2.96579170 -0.67442495 4 8 5732 5.53400000 2893215833 2893215833 -7.00000000
7.09447336 4.54932737 -0.73733759 13 10 5733 8.46000000 2893215838 2893215838 -5.00000000
8.70385456 5.57919836 2.00960040 43 11 5734 10.53200000 2893215840 2893215840 11.00000000
8.22497940 5.27021265 -0.51195031 12 12 5735 9.78200000 2893215843 2893215843 -3.00000000
8.30667782 5.32051706 2.27740455 75 13 5736 10.12400000 2893215845 2893215845 13.00000000
8.25032711 5.28239250 -0.17099868 10 14 5737 9.79800000 2893215847 2893215847 -1.00000000
7.42539024 4.75421476 2.36250019 45 15 5737 9.12800000 2893215849 2893215849 15.00000000
1.93128324 1.23273385 -0.61391878 4 0 5745 2.37200000 2893215870 2893215870 -15.00000000
8.24344254 5.25974607 0.17068453 13 1 5746 9.78000000 2893215872 2893215872 1.00000000
2.27391529 1.45031810 -0.62266451 3 2 5747 2.76800000 2893215875 2893215875 -13.00000000
8.25207329 5.26120090 0.51289237 99 3 5748 9.80000000 2893215877 2893215877 3.00000000
2.73310447 1.74252105 -0.63005131 6 4 5748 3.30200000 2893215879 2893215879 -11.00000000
8.25303078 5.25978565 0.85621804 77 5 5749 9.82400000 2893215882 2893215882 5.00000000
3.44365454 2.19385004 -0.64670008 6 6 5750 4.13400000 2893215884 2893215884 -9.00000000
8.34853840 5.31655741 1.21528113 2 7 5751 9.97200000 2893215886 2893215886 7.00000000
4.63021946 2.94750333 -0.67393744 4 8 5752 5.53000000 2893215889 2893215889 -7.00000000
7.11703396 4.52881384 -0.73803484 13 10 5753 8.46800000 2893215893 2893215893 -5.00000000
8.71499348 5.54351330 2.00769234 37 11 5754 10.52200000 2893215896 2893215896 11.00000000
8.23321342 5.23504019 -0.51132232 17 12 5755 9.77000000 2893215898 2893215898 -3.00000000
8.29559612 5.27267265 2.26930618 75 13 5756 10.08800000 2893215900 2893215900 13.00000000
8.23495865 5.23211384 -0.17030059 14 14 5757 9.75800000 2893215902 2893215902 -1.00000000
7.44602680 4.72903919 2.36353540 45 15 5758 9.13200000 2893215905 2893215905 15.00000000
1.93231046 1.22391748 -0.61288351 4 0 5765 2.36800000 2893215925 2893215925 -15.00000000
8.24485683 5.22024202 0.17033549 13 1 5766 9.76000000 2893215928 2893215928 1.00000000
2.28225708 1.44445622 -0.62356430 3 2 5767 2.77200000 2893215930 2893215930 -13.00000000
8.25259781 5.22312593 0.51184565 99 3 5767 9.78000000 2893215932 2893215932 3.00000000
2.73917031 1.73297012 -0.63005131 5 4 5768 3.30200000 2893215935 2893215935 -11.00000000
8.25618553 5.22136116 0.85464919 81 5 5769 9.80600000 2893215937 2893215937 5.00000000
3.46130991 2.18814921 -0.64857727 6 6 5770 4.14600000 2893215939 2893215939 -9.00000000
8.35026455 5.27677870 1.21284366 2 7 5771 9.95200000 2893215942 2893215942 7.00000000
4.64383650 2.93344331 -0.67442495 4 8 5772 5.53400000 2893215944 2893215944 -7.00000000
7.12606096 4.49968815 -0.73733759 13 10 5773 8.46000000 2893215949 2893215949 -5.00000000
8.73263073 5.51201105 2.00731063 34 11 5774 10.52000000 2893215951 2893215951 11.00000000
8.23285675 5.19454575 -0.51017088 17 12 5775 9.74800000 2893215953 2893215953 -3.00000000
8.29581928 5.23224831 2.26435733 73 13 5776 10.06600000 2893215955 2893215955 13.00000000
8.22610664 5.18627310 -0.16974211 16 14 5777 9.72600000 2893215958 2893215958 -1.00000000
7.45921993 4.70095873 2.36250019 45 15 5778 9.12800000 2893215960 2893215960 15.00000000
1.92675734 1.21099687 -0.60977769 4 0 5785 2.35600000 2893215981 2893215981 -15.00000000
8.23932266 5.17653656 0.16984682 13 1 5786 9.73200000 2893215983 2893215983 1.00000000
2.29058599 1.43855369 -0.62446415 3 2 5787 2.77600000 2893215985 2893215985 -13.00000000
8.25386620 5.18366480 0.51079893 99 3 5787 9.76000000 2893215988 2893215988 3.00000000
2.74852824 1.72548580 -0.63081455 5 4 5788 3.30600000 2893215990 2893215990 -11.00000000
8.24398422 5.17344666 0.85151160 81 5 5789 9.77000000 2893215992 2893215992 5.00000000
3.46055984 2.17080522 -0.64701295 6 6 5790 4.13600000 2893215995 2893215995 -9.00000000
8.36358833 5.24443483 1.21211255 2 7 5791 9.94600000 2893215997 2893215997 7.00000000
4.65741205 2.91932392 -0.67491245 4 8 5792 5.53800000 2893215999 2893215999 -7.00000000
7.13497066 4.47055435 -0.73664033 13 10 5793 8.45200000 2893216004 2893216004 -5.00000000
8.23908901 5.15835667 -0.50943822 17 12 5795 9.73400000 2893216008 2893216008 -3.00000000
8.29916573 5.19395399 2.26030827 70 13 5796 10.04800000 2893216011 2893216011 13.00000000
8.23059750 5.14904261 -0.16946286 14 14 5797 9.71000000 2893216013 2893216013 -1.00000000
7.46575642 4.66874695 2.35939431 45 15 5798 9.11600000 2893216015 2893216015 15.00000000
1.93097270 1.20426393 -0.60977769 4 0 5805 2.35600000 2893216036 2893216036 -15.00000000
8.22849464 5.12976027 0.16925344 13 1 5806 9.69800000 2893216038 2893216038 1.00000000
2.29228568 1.42848802 -0.62356430 3 2 5807 2.77200000 2893216041 2893216041 -13.00000000
8.25834942 5.14637136 0.50996155 94 3 5807 9.74400000 2893216043 2893216043 3.00000000
2.75286818 1.71484303 -0.63043290 5 4 5808 3.30400000 2893216045 2893216045 -11.00000000
8.23662281 5.12884140 0.84889692 77 5 5809 9.74000000 2893216048 2893216048 5.00000000
3.47147036 2.16079998 -0.64763868 4 6 5810 4.14000000 2893216050 2893216050 -9.00000000
4.67094517 2.90514565 -0.67539990 4 8 5812 5.54200000 2893216055 2893216055 -7.00000000
7.15730047 4.44982958 -0.73733759 13 10 5813 8.46000000 2893216059 2893216059 -5.00000000
8.22820377 5.11164856 -0.50765878 17 12 5815 9.70000000 2893216064 2893216064 -3.00000000
8.30731201 5.15878439 2.25760889 72 13 5816 10.03600000 2893216066 2893216066 13.00000000
8.23153114 5.10973454 -0.16911381 14 14 5817 9.69000000 2893216068 2893216068 -1.00000000
7.48693228 4.64571381 2.36094737 45 15 5818 9.12200000 2893216071 2893216071 15.00000000
1.94152594 1.20192134 -0.61184824 4 0 5824 2.36400000 2893216091 2893216091 -15.00000000
8.22675514 5.09087038 0.16886948 13 1 5825 9.67600000 2893216094 2893216094 1.00000000
2.29038095 1.41677797 -0.62176472 3 2 5826 2.76400000 2893216096 2893216096 -13.00000000
8.25498772 5.10634899 0.50870550 99 3 5826 9.72000000 2893216098 2893216098 3.00000000
2.76855874 1.71189988 -0.63272262 5 4 5827 3.31600000 2893216101 2893216101 -11.00000000
8.24172211 5.09416676 0.84767675 81 5 5828 9.72600000 2893216103 2893216103 5.00000000
3.47189498 2.14512324 -0.64638722 4 6 5829 4.13200000 2893216105 2893216105 -9.00000000
4.68224239 2.89068294 -0.67564362 4 8 5831 5.54400000 2893216110 2893216110 -7.00000000
7.16862631 4.42397785 -0.73698896 13 10 5832 8.45600000 2893216114 2893216114 -5.00000000
8.21450901 5.06546497 -0.50577468 12 12 5834 9.66400000 2893216119 2893216119 -3.00000000
8.30446720 5.11893749 2.25220990 68 13 5835 10.01200000 2893216121 2893216121 13.00000000
8.24672794 5.08136082 -0.16907892 16 14 5836 9.68800000 2893216124 2893216124 -1.00000000
7.51300335 4.62926388 2.36457086 45 15 5836 9.13600000 2893216126 2893216126 15.00000000
1.94570959 1.19513679 -0.61184824 4 0 5844 2.36400000 2893216147 2893216147 -15.00000000
8.23084259 5.05375195 0.16859025 13 1 5845 9.66000000 2893216149 2893216149 1.00000000
2.29531240 1.40877438 -0.62176472 3 2 5846 2.76400000 2893216151 2893216151 -13.00000000
8.24552631 5.06078672 0.50703073 84 3 5846 9.68800000 2893216154 2893216154 3.00000000
2.76113009 1.69401193 -0.62966967 5 4 5847 3.30000000 2893216156 2893216156 -11.00000000
8.24416828 5.05599213 0.84610796 77 5 5848 9.70800000 2893216158 2893216158 5.00000000
3.47262526 2.12886119 -0.64513576 6 6 5849 4.12400000 2893216160 2893216160 -9.00000000
4.67706966 2.86498904 -0.67344999 4 8 5851 5.52600000 2893216165 2893216165 -7.00000000
7.20101690 4.40933180 -0.73873210 13 10 5852 8.47600000 2893216170 2893216170 -5.00000000
8.21851063 5.02842140 -0.50493729 12 12 5854 9.64800000 2893216174 2893216174 -3.00000000
8.29901028 5.07568359 2.24591136 72 13 5855 9.98400000 2893216177 2893216177 13.00000000
8.22858715 5.03063917 -0.16834591 14 14 5856 9.64600000 2893216179 2893216179 -1.00000000
7.53156853 4.60270357 2.36508846 45 15 5857 9.13800000 2893216181 2893216181 15.00000000
1.94986951 1.18833780 -0.61184824 4 0 5864 2.36400000 2893216202 2893216202 -15.00000000
8.24160194 5.02082872 0.16845062 13 1 5865 9.65200000 2893216204 2893216204 1.00000000
2.30687356 1.40480793 -0.62356430 3 2 5866 2.77200000 2893216207 2893216207 -13.00000000
8.24354744 5.01806927 0.50577468 76 3 5867 9.66400000 2893216209 2893216209 3.00000000
2.75864148 1.67925942 -0.62776160 5 4 5867 3.29000000 2893216211 2893216211 -11.00000000
8.24304390 5.01579142 0.84419054 73 5 5868 9.68600000 2893216213 2893216213 5.00000000
3.48341060 2.11877966 -0.64576149 6 6 5869 4.12800000 2893216216 2893216216 -9.00000000
4.69043446 2.85070753 -0.67393744 4 8 5871 5.53000000 2893216220 2893216220 -7.00000000
6.69872046 4.06968403 -0.68574136 8 10 5872 7.86800000 2893216225 2893216225 -5.00000000
8.21552563 4.98726559 -0.50368124 12 12 5874 9.62400000 2893216230 2893216230 -3.00000000
8.30334949 5.03859615 2.24231219 75 13 5875 9.96800000 2893216232 2893216232 13.00000000
8.22558022 4.98944044 -0.16792706 14 14 5876 9.62200000 2893216234 2893216234 -1.00000000
7.53687954 4.57169104 2.36198258 45 15 5876 9.12600000 2893216237 2893216237 15.00000000
1.94408691 1.17552662 -0.60874242 4 0 5884 2.35200000 2893216257 2893216257 -15.00000000
8.23169613 4.97547913 0.16789214 13 1 5885 9.62000000 2893216260 2893216260 1.00000000
2.31509924 1.39876246 -0.62446415 3 2 5886 2.77600000 2893216262 2893216262 -13.00000000
8.24733639 4.98100281 0.50493729 65 3 5887 9.64800000 2893216264 2893216264 3.00000000
2.76952815 1.67266464 -0.62890643 5 4 5887 3.29600000 2893216266 2893216266 -11.00000000
8.23662281 4.97257090 0.84175014 77 5 5888 9.65800000 2893216269 2893216269 5.00000000
3.49078536 2.10660744 -0.64576149 6 6 5889 4.12800000 2893216271 2893216271 -9.00000000
4.70375633 2.83636785 -0.67442495 4 8 5891 5.53400000 2893216276 2893216276 -7.00000000
6.68899632 4.03187656 -0.68330103 12 10 5892 7.84000000 2893216280 2893216280 -5.00000000
8.32896900 5.01840925 1.89015388 3 11 5893 9.90600000 2893216283 2893216283 11.00000000
8.22775173 4.95546627 -0.50336725 17 12 5894 9.61800000 2893216285 2893216285 -3.00000000
8.30419159 4.99952984 2.23781300 78 13 5895 9.94800000 2893216287 2893216287 13.00000000
8.22238636 4.94832420 -0.16750820 16 14 5896 9.59800000 2893216290 2893216290 -1.00000000
7.54034185 4.53606987 2.35784149 45 15 5897 9.11000000 2893216292 2893216292 15.00000000
1.95460010 1.17304981 -0.61081296 4 0 5903 2.36000000 2893216313 2893216313 -15.00000000
8.21728420 4.92963743 0.16726387 13 1 5904 9.58400000 2893216315 2893216315 1.00000000
2.32641006 1.39508641 -0.62626374 3 2 5905 2.78400000 2893216317 2893216317 -13.00000000
8.24496460 4.94233084 0.50378591 55 3 5906 9.62600000 2893216319 2893216319 3.00000000
2.77674341 1.66448069 -0.62928808 5 4 5906 3.29800000 2893216322 2893216322 -11.00000000
8.23768616 4.93601322 0.84018135 81 5 5907 9.64000000 2893216324 2893216324 5.00000000
3.49775171 2.09501982 -0.64576149 4 6 5908 4.12800000 2893216326 2893216326 -9.00000000
8.33185959 4.98849010 1.19236970 2 7 5909 9.78400000 2893216329 2893216329 7.00000000
4.71143293 2.81973457 -0.67418122 6 8 5910 5.53200000 2893216331 2893216331 -7.00000000
8.35974693 5.00320530 1.54306960 2 9 5910 9.86400000 2893216333 2893216333 9.00000000
6.68523169 3.99944425 -0.68155789 12 10 5911 7.82000000 2893216336 2893216336 -5.00000000
8.32534504 4.97867012 1.88557446 3 11 5912 9.88200000 2893216338 2893216338 11.00000000
8.22871113 4.91893196 -0.50242519 12 12 5913 9.60000000 2893216340 2893216340 -3.00000000
8.30065060 4.95996952 2.23241425 80 13 5914 9.92400000 2893216343 2893216343 13.00000000
8.23875046 4.92103052 -0.16750820 14 14 5915 9.59800000 2893216345 2893216345 -1.00000000
6.89446449 4.11808443 2.15182161 13 15 5915 8.31400000 2893216347 2893216347 15.00000000
1.96366262 1.16918480 -0.61236584 4 0 5923 2.36600000 2893216368 2893216368 -15.00000000
8.22241306 4.89376497 0.16701953 13 1 5924 9.57000000 2893216370 2893216370 1.00000000
2.31786752 1.37898624 -0.62266451 3 2 5925 2.76800000 2893216372 2893216372 -13.00000000
8.23126698 4.89514446 0.50190181 36 3 5926 9.59000000 2893216375 2893216375 3.00000000
2.79097366 1.65979540 -0.63119614 5 4 5926 3.30800000 2893216377 2893216377 -11.00000000
8.23945236 4.89806557 0.83861256 81 5 5927 9.62200000 2893216379 2893216379 5.00000000
3.50843978 2.08481598 -0.64638722 4 6 5928 4.13200000 2893216382 2893216382 -9.00000000
4.70929861 2.79617691 -0.67247504 4 8 5930 5.51800000 2893216386 2893216386 -7.00000000
6.68887186 3.96998262 -0.68051201 17 10 5931 7.80800000 2893216391 2893216391 -5.00000000
8.33591938 4.94557190 1.88404799 3 11 5932 9.87400000 2893216393 2893216393 11.00000000
8.22349834 4.87693405 -0.50106442 12 12 5933 9.57400000 2893216395 2893216395 -3.00000000
8.28941631 4.91407108 2.22476602 75 13 5934 9.89000000 2893216398 2893216398 13.00000000
8.23523331 4.88000870 -0.16708934 14 14 5935 9.57400000 2893216400 2893216400 -1.00000000
7.57935381 4.48956251 2.36042976 31 15 5936 9.12000000 2893216402 2893216402 15.00000000
1.96440518 1.16035819 -0.61133057 4 0 5943 2.36200000 2893216423 2893216423 -15.00000000
8.22739124 4.85791636 0.16677520 13 1 5944 9.55600000 2893216425 2893216425 1.00000000
2.32937980 1.37484908 -0.62446415 3 2 5945 2.77600000 2893216428 2893216428 -13.00000000
8.23282242 4.85724783 0.50095975 26 3 5946 9.57200000 2893216430 2893216430 3.00000000
2.78998685 1.64605260 -0.62966967 5 4 5946 3.30000000 2893216432 2893216432 -11.00000000
8.23933697 4.85915327 0.83686942 85 5 5947 9.60200000 2893216435 2893216435 5.00000000
3.51909924 2.07456279 -0.64701295 4 6 5948 4.13600000 2893216437 2893216437 -9.00000000
8.33569813 4.91206121 1.18798232 9 7 5949 9.74800000 2893216439 2893216439 7.00000000
4.72245121 2.78173637 -0.67296249 6 8 5950 5.52200000 2893216442 2893216442 -7.00000000
8.36383533 4.92667532 1.53743792 2 9 5950 9.82800000 2893216444 2893216444 9.00000000
8.35313225 4.91644430 1.88404799 3 11 5952 9.87400000 2893216448 2893216448 11.00000000
8.22670078 4.84009647 -0.50022709 17 12 5953 9.55800000 2893216451 2893216451 -3.00000000
8.28300190 4.87127542 2.21846724 74 13 5954 9.86200000 2893216453 2893216453 13.00000000
8.23497868 4.84109831 -0.16674030 14 14 5955 9.55400000 2893216455 2893216455 -1.00000000
7.60918856 4.47321510 2.36508846 45 15 5955 9.13800000 2893216458 2893216458 15.00000000
1.96677685 1.15251732 -0.61081296 4 0 5963 2.36000000 2893216478 2893216478 -15.00000000
8.23049450 4.82108212 0.16649596 13 1 5964 9.54000000 2893216481 2893216481 1.00000000
2.33416486 1.36670971 -0.62446415 3 2 5965 2.77600000 2893216483 2893216483 -13.00000000
8.22042370 4.81132984 0.49918035 21 3 5966 9.53800000 2893216485 2893216485 3.00000000
2.78893828 1.63233685 -0.62814319 5 4 5966 3.29200000 2893216488 2893216488 -11.00000000
8.23733234 4.81929588 0.83495200 81 5 5967 9.58000000 2893216490 2893216490 5.00000000
3.53314018 2.06625509 -0.64826441 4 6 5968 4.14400000 2893216492 2893216492 -9.00000000
8.35622120 4.88493776 1.18846989 9 7 5969 9.75200000 2893216495 2893216495 7.00000000
4.73384666 2.76623654 -0.67320627 6 8 5970 5.52400000 2893216497 2893216497 -7.00000000
8.44823170 4.93279266 1.90160251 3 11 5972 9.96600000 2893216504 2893216504 11.00000000
8.22629642 4.80128288 -0.49918035 17 12 5973 9.53800000 2893216506 2893216506 -3.00000000
8.28817272 4.83545828 2.21531796 75 13 5974 9.84800000 2893216508 2893216508 13.00000000
8.21727943 4.79217577 -0.16604219 14 14 5975 9.51400000 2893216511 2893216511 -1.00000000
7.61718750 4.44043112 2.36250019 45 15 5976 9.12800000 2893216513 2893216513 15.00000000
1.96243715 1.14079058 -0.60822475 4 0 5983 2.35000000 2893216534 2893216534 -15.00000000
8.21615219 4.77423859 0.16586767 13 1 5984 9.50400000 2893216536 2893216536 1.00000000
2.34229159 1.36051118 -0.62536395 3 2 5985 2.78000000 2893216538 2893216538 -13.00000000
8.23544121 4.78160286 0.49907568 18 3 5986 9.53600000 2893216541 2893216541 3.00000000
2.79461908 1.62259173 -0.62814319 5 4 5986 3.29200000 2893216543 2893216543 -11.00000000
8.23170280 4.77751160 0.83268595 85 5 5987 9.55400000 2893216545 2893216545 5.00000000
3.52324462 2.04399681 -0.64513576 4 6 5988 4.12400000 2893216548 2893216548 -9.00000000
4.75721312 2.75765991 -0.67515618 6 8 5990 5.54000000 2893216552 2893216552 -7.00000000
8.22226429 4.76052952 -0.49792430 17 12 5993 9.51400000 2893216561 2893216561 -3.00000000
8.29150867 4.79868889 2.21171880 70 13 5994 9.83200000 2893216564 2893216564 13.00000000
8.22010994 4.75545168 -0.16576296 14 14 5995 9.49800000 2893216566 2893216566 -1.00000000
7.62518215 4.41127777 2.36042976 45 15 5995 9.12000000 2893216568 2893216568 15.00000000
1.97644854 1.13972366 -0.61133057 4 0 6003 2.36200000 2893216589 2893216589 -15.00000000
8.21370983 4.73454475 0.16548371 13 1 6004 9.48200000 2893216591 2893216591 1.00000000
2.34364915 1.35038090 -0.62446415 3 2 6005 2.77600000 2893216594 2893216594 -13.00000000
