# .PCD v0.7 - Point Cloud Data file format
VERSION 0.7
FIELDS x y z intensity laser_id azimuth distance_m adjustedtime timestamp vertical_angle
SIZE 4 4 4 1 1 2 8 8 4 8
TYPE F F F U U U F U U F
COUNT 1 1 1 1 1 1 1 1 1 1
WIDTH 528
HEIGHT 1
VIEWPOINT 0 0 0 1 0 0 0
POINTS 528
DATA ascii
3.79638505 -2.84212613 -0.58229172 4 8 12682 4.77800000 2893435082 2893435082 -7.00000000
7.13181162 -5.33916044 1.41103888 44 9 12682 9.02000000 2893435084 2893435084 9.00000000
3.83216882 -2.86995912 -0.41887051 8 10 12683 4.80600000 2893435086 2893435086 -5.00000000
5.06089306 -3.79154515 1.22919154 28 11 12684 6.44200000 2893435089 2893435089 11.00000000
3.82295012 -2.86513877 -0.25037521 4 12 12685 4.78400000 2893435091 2893435091 -3.00000000
4.20046902 -3.14921808 1.21203625 2 13 12686 5.38800000 2893435093 2893435093 13.00000000
3.77382016 -2.83037567 -0.08234046 52 14 12687 4.71800000 2893435096 2893435096 -1.00000000
6.91138315 -5.18355656 2.31487751 45 15 12687 8.94400000 2893435098 2893435098 15.00000000
1.69206977 -1.27275252 -0.56733137 4 0 12695 2.19200000 2893435119 2893435119 -15.00000000
3.90039468 -2.93489122 0.08520265 25 1 12696 4.88200000 2893435121 2893435121 1.00000000
1.98822117 -1.49660063 -0.57452500 4 2 12697 2.55400000 2893435123 2893435123 -13.00000000
3.80098391 -2.86112785 0.24932849 6 3 12697 4.76400000 2893435126 2893435126 3.00000000
2.34466386 -1.76554799 -0.57051891 5 4 12698 2.99000000 2893435128 2893435128 -11.00000000
3.90370941 -2.94058800 0.42758608 27 5 12699 4.90600000 2893435130 2893435130 5.00000000
2.87755322 -2.16839194 -0.57067293 3 6 12700 3.64800000 2893435132 2893435132 -9.00000000
3.91850734 -2.95387936 0.60252202 23 7 12701 4.94400000 2893435135 2893435135 7.00000000
3.78961086 -2.85775113 -0.58277923 4 8 12702 4.78200000 2893435137 2893435137 -7.00000000
7.06423807 -5.32715225 1.40133989 47 9 12702 8.95800000 2893435139 2893435139 9.00000000
3.81576514 -2.87851906 -0.41817325 2 10 12703 4.79800000 2893435142 2893435142 -5.00000000
5.04606009 -3.80800509 1.22880995 28 11 12704 6.44000000 2893435144 2893435144 11.00000000
3.81133175 -2.87726259 -0.25027055 2 12 12705 4.78200000 2893435146 2893435146 -3.00000000
4.19567060 -3.16855884 1.21383584 2 13 12706 5.39600000 2893435149 2893435149 13.00000000
3.75913048 -2.83991528 -0.08223574 58 14 12707 4.71200000 2893435151 2893435151 -1.00000000
6.86459637 -5.18788767 2.30556011 45 15 12708 8.90800000 2893435153 2893435153 15.00000000
1.68453717 -1.27631783 -0.56629604 4 0 12715 2.18800000 2893435174 2893435174 -15.00000000
3.90128183 -2.95694351 0.08544698 24 1 12716 4.89600000 2893435176 2893435176 1.00000000
1.97522080 -1.49764478 -0.57227546 3 2 12717 2.54400000 2893435179 2893435179 -13.00000000
3.76341987 -2.85452104 0.24754907 8 3 12718 4.73000000 2893435181 2893435181 3.00000000
2.34005070 -1.77490819 -0.57090050 5 4 12718 2.99200000 2893435183 2893435183 -11.00000000
2.86681986 -2.17603469 -0.57004720 3 6 12720 3.64400000 2893435188 2893435188 -9.00000000
3.92872524 -2.98314548 0.60569066 21 7 12721 4.97000000 2893435190 2893435190 7.00000000
3.78751612 -2.87696576 -0.58399791 6 8 12722 4.79200000 2893435192 2893435192 -7.00000000
7.00784683 -5.32310200 1.39383113 49 9 12722 8.91000000 2893435195 2893435195 9.00000000
3.81203938 -2.89664268 -0.41887051 2 10 12723 4.80600000 2893435197 2893435197 -5.00000000
5.02648497 -3.82084370 1.22728348 28 11 12724 6.43200000 2893435199 2893435199 11.00000000
3.80126500 -2.89054894 -0.25027055 2 12 12725 4.78200000 2893435202 2893435202 -3.00000000
4.20629883 -3.19970274 1.22013450 2 13 12726 5.42400000 2893435204 2893435204 13.00000000
3.73487258 -2.84212112 -0.08192159 61 14 12727 4.69400000 2893435206 2893435206 -1.00000000
6.80584621 -5.17903614 2.29158378 42 15 12727 8.85400000 2893435209 2893435209 15.00000000
1.67392886 -1.27750218 -0.56422549 4 0 12735 2.18000000 2893435229 2893435229 -15.00000000
3.89411521 -2.97297049 0.08551679 24 1 12736 4.90000000 2893435232 2893435232 1.00000000
1.97617590 -1.50926161 -0.57407510 3 2 12737 2.55200000 2893435234 2893435234 -13.00000000
3.71058178 -2.83490205 0.24472293 12 3 12738 4.67600000 2893435236 2893435236 3.00000000
2.33072090 -1.78068185 -0.57013726 5 4 12738 2.98800000 2893435238 2893435238 -11.00000000
3.53799248 -2.70402122 0.38958618 2 5 12739 4.47000000 2893435241 2893435241 5.00000000
2.85292935 -2.18122935 -0.56879574 5 6 12740 3.63600000 2893435243 2893435243 -9.00000000
3.92144156 -2.99925327 0.60617810 21 7 12741 4.97400000 2893435245 2893435245 7.00000000
3.76168489 -2.87810659 -0.58156049 4 8 12742 4.77200000 2893435248 2893435248 -7.00000000
6.96005440 -5.32714033 1.38819945 52 9 12743 8.87400000 2893435250 2893435250 9.00000000
3.81139803 -2.91719723 -0.41991636 2 10 12743 4.81800000 2893435252 2893435252 -5.00000000
4.99129391 -3.82165694 1.22194076 43 11 12744 6.40400000 2893435255 2893435255 11.00000000
3.80066538 -2.91108704 -0.25089857 2 12 12745 4.79400000 2893435257 2893435257 -3.00000000
4.42404032 -3.38978124 1.28672004 5 13 12746 5.72000000 2893435259 2893435259 13.00000000
3.72810316 -2.85757399 -0.08199140 48 14 12747 4.69800000 2893435262 2893435262 -1.00000000
6.75922346 -5.18278694 2.28226638 45 15 12748 8.81800000 2893435264 2893435264 15.00000000
1.66923535 -1.28362882 -0.56422549 4 0 12756 2.18000000 2893435285 2893435285 -15.00000000
3.89270258 -2.99453878 0.08572622 27 1 12757 4.91200000 2893435287 2893435287 1.00000000
1.96754217 -1.51411760 -0.57317531 3 2 12758 2.54800000 2893435289 2893435289 -13.00000000
3.68592286 -2.83751798 0.24378088 7 3 12759 4.65800000 2893435291 2893435291 3.00000000
2.31795597 -1.78442204 -0.56861079 5 4 12759 2.98000000 2893435294 2893435294 -11.00000000
3.55015779 -2.73398948 0.39202654 2 5 12760 4.49800000 2893435296 2893435296 5.00000000
2.85117507 -2.19649339 -0.57004720 3 6 12761 3.64400000 2893435298 2893435298 -9.00000000
3.91985655 -3.02087617 0.60764056 21 7 12762 4.98600000 2893435301 2893435301 7.00000000
3.76054382 -2.89914656 -0.58302295 6 8 12763 4.78400000 2893435303 2893435303 -7.00000000
6.90543461 -5.32366276 1.38100350 52 9 12763 8.82800000 2893435305 2893435305 9.00000000
3.80383563 -2.93358064 -0.42026499 2 10 12764 4.82200000 2893435308 2893435308 -5.00000000
4.97414446 -3.83752680 1.22117758 50 11 12765 6.40000000 2893435310 2893435310 11.00000000
3.78048348 -2.91767597 -0.25027055 2 12 12766 4.78200000 2893435312 2893435312 -3.00000000
4.53344536 -3.50005460 1.32226229 10 13 12767 5.87800000 2893435315 2893435315 13.00000000
3.70810866 -2.86388516 -0.08178198 48 14 12768 4.68600000 2893435317 2893435317 -1.00000000
6.70592546 -5.17919016 2.27036071 45 15 12768 8.77200000 2893435319 2893435319 15.00000000
1.67696273 -1.29891157 -0.56836665 4 0 12776 2.19600000 2893435340 2893435340 -15.00000000
3.87906456 -3.00565910 0.08565641 24 1 12777 4.90800000 2893435342 2893435342 1.00000000
1.95300353 -1.51381326 -0.57047588 3 2 12778 2.53600000 2893435344 2893435344 -13.00000000
3.54183507 -2.74633884 0.23488377 5 3 12779 4.48800000 2893435347 2893435347 3.00000000
2.33033085 -1.80693853 -0.57319021 5 4 12779 3.00400000 2893435349 2893435349 -11.00000000
3.59411883 -2.78788424 0.39795312 2 5 12780 4.56600000 2893435351 2893435351 5.00000000
2.83100533 -2.19674444 -0.56754422 3 6 12781 3.62800000 2893435354 2893435354 -9.00000000
3.91242409 -3.03697515 0.60812801 21 7 12782 4.99000000 2893435356 2893435356 7.00000000
3.73158622 -2.89764571 -0.58009809 6 8 12783 4.76000000 2893435358 2893435358 -7.00000000
6.86403608 -5.33197165 1.37662327 49 9 12784 8.80000000 2893435361 2893435361 9.00000000
3.81402731 -2.96272993 -0.42253104 2 10 12784 4.84800000 2893435363 2893435363 -5.00000000
4.96226883 -3.85607100 1.22155917 34 11 12785 6.40200000 2893435365 2893435365 11.00000000
3.80181313 -2.95537043 -0.25236398 2 12 12786 4.82200000 2893435367 2893435367 -3.00000000
4.54119873 -3.53140950 1.32811105 14 13 12787 5.90400000 2893435370 2893435370 13.00000000
3.70282435 -2.88049483 -0.08188669 35 14 12788 4.69200000 2893435372 2893435372 -1.00000000
6.65335655 -5.17763186 2.25897264 45 15 12789 8.72800000 2893435374 2893435374 15.00000000
1.66937220 -1.30238068 -0.56733137 4 0 12796 2.19200000 2893435395 2893435395 -15.00000000
3.89061904 -3.03640556 0.08614508 22 1 12797 4.93600000 2893435397 2893435397 1.00000000
1.94770741 -1.52062130 -0.57047588 3 2 12798 2.53600000 2893435400 2893435400 -13.00000000
3.57472706 -2.79187822 0.23770991 7 3 12799 4.54200000 2893435402 2893435402 3.00000000
2.31008387 -1.80418611 -0.56975567 3 4 12799 2.98600000 2893435404 2893435404 -11.00000000
3.90936041 -3.05432701 0.43403560 19 5 12800 4.98000000 2893435407 2893435407 5.00000000
2.83577132 -2.21634459 -0.57004720 3 6 12801 3.64400000 2893435409 2893435409 -9.00000000
3.91274619 -3.05917239 0.60983419 22 7 12802 5.00400000 2893435411 2893435411 7.00000000
3.72457600 -2.91309953 -0.58058554 6 8 12803 4.76400000 2893435414 2893435414 -7.00000000
6.81364107 -5.32914734 1.37005305 52 9 12803 8.75800000 2893435416 2893435416 9.00000000
5.36812210 -4.20007515 -0.59631962 4 10 12804 6.84200000 2893435418 2893435418 -5.00000000
4.93795633 -3.86489868 1.21888781 31 11 12805 6.38800000 2893435420 2893435420 11.00000000
4.13114929 -3.23458028 -0.27497312 2 12 12806 5.25400000 2893435423 2893435423 -3.00000000
4.52730989 -3.54603791 1.32766116 16 13 12807 5.90200000 2893435425 2893435425 13.00000000
6.61486101 -5.18298578 2.25172567 45 15 12808 8.70000000 2893435430 2893435430 15.00000000
1.66481590 -1.30820000 -0.56733137 4 0 12816 2.19200000 2893435450 2893435450 -15.00000000
3.89257336 -3.05985427 0.08642431 22 1 12817 4.95200000 2893435453 2893435453 1.00000000
1.95157874 -1.53463829 -0.57317531 3 2 12818 2.54800000 2893435455 2893435455 -13.00000000
3.58536696 -2.82039237 0.23907065 18 3 12819 4.56800000 2893435457 2893435457 3.00000000
2.30068588 -1.80981112 -0.56899244 3 4 12819 2.98200000 2893435460 2893435460 -11.00000000
3.90650368 -3.07411528 0.43490717 28 5 12820 4.99000000 2893435462 2893435462 5.00000000
2.82491326 -2.22378612 -0.56942147 5 6 12821 3.64000000 2893435464 2893435464 -9.00000000
3.91608000 -3.08386517 0.61202782 22 7 12822 5.02200000 2893435467 2893435467 7.00000000
3.71438479 -2.92608309 -0.58058554 6 8 12823 4.76400000 2893435469 2893435469 -7.00000000
6.75372362 -5.32229567 1.36191845 52 9 12824 8.70600000 2893435471 2893435471 9.00000000
5.31587172 -4.18919086 -0.59213614 12 10 12824 6.79400000 2893435473 2893435473 -5.00000000
4.92443562 -3.88211179 1.21888781 34 11 12825 6.38800000 2893435476 2893435476 11.00000000
4.19824696 -3.31081915 -0.28020671 2 12 12826 5.35400000 2893435478 2893435478 -3.00000000
4.51337433 -3.56061268 1.32721126 18 13 12827 5.90000000 2893435480 2893435480 13.00000000
3.69989181 -2.91990209 -0.08227064 11 14 12828 4.71400000 2893435483 2893435483 -1.00000000
6.56397820 -5.18205786 2.24085522 42 15 12829 8.65800000 2893435485 2893435485 15.00000000
1.65312171 -1.30743182 -0.56474316 4 0 12834 2.18200000 2893435506 2893435506 -15.00000000
3.96292114 -3.13534570 0.08820447 47 1 12835 5.05400000 2893435508 2893435508 1.00000000
1.94674790 -1.54076171 -0.57317531 3 2 12836 2.54800000 2893435510 2893435510 -13.00000000
3.56396151 -2.82172394 0.23823327 30 3 12837 4.55200000 2893435513 2893435513 3.00000000
2.30268502 -1.82312334 -0.57090050 3 4 12837 2.99200000 2893435515 2893435515 -11.00000000
3.89370298 -3.08389878 0.43455854 28 5 12838 4.98600000 2893435517 2893435517 5.00000000
2.82100964 -2.23510313 -0.57004720 5 6 12839 3.64400000 2893435520 2893435520 -9.00000000
3.91881800 -3.10601687 0.61397773 22 7 12840 5.03800000 2893435522 2893435522 7.00000000
3.70050740 -2.93403769 -0.57985431 4 8 12841 4.75800000 2893435524 2893435524 -7.00000000
6.70539713 -5.31653786 1.35534823 49 9 12841 8.66400000 2893435526 2893435526 9.00000000
5.29956245 -4.20339441 -0.59178752 8 10 12842 6.79000000 2893435529 2893435529 -5.00000000
4.89529753 -3.88414025 1.21469009 34 11 12843 6.36600000 2893435531 2893435531 11.00000000
4.10647774 -3.25942445 -0.27476376 2 12 12844 5.25000000 2893435533 2893435533 -3.00000000
4.50674438 -3.57840967 1.32856095 20 13 12845 5.90600000 2893435536 2893435536 13.00000000
3.70166135 -2.94021749 -0.08251498 7 14 12846 4.72800000 2893435538 2893435538 -1.00000000
6.52134466 -5.17988253 2.23153782 45 15 12846 8.62200000 2893435540 2893435540 15.00000000
1.65005887 -1.31439793 -0.56526077 4 0 12854 2.18400000 2893435561 2893435561 -15.00000000
3.97541094 -3.16785288 0.08872803 49 1 12855 5.08400000 2893435563 2893435563 1.00000000
1.93526244 -1.54268885 -0.57137567 3 2 12856 2.54000000 2893435566 2893435566 -13.00000000
3.54003620 -2.82294035 0.23729123 22 3 12857 4.53400000 2893435568 2893435568 3.00000000
2.27788734 -1.81646168 -0.56632107 3 4 12857 2.96800000 2893435570 2893435570 -11.00000000
3.88914466 -3.10244131 0.43525577 26 5 12858 4.99400000 2893435573 2893435573 5.00000000
2.80083847 -2.23507977 -0.56754422 5 6 12859 3.62800000 2893435575 2893435575 -9.00000000
3.90795207 -3.11967707 0.61397773 24 7 12860 5.03800000 2893435577 2893435577 7.00000000
3.69334555 -2.94941449 -0.58034182 4 8 12861 4.76200000 2893435579 2893435579 -7.00000000
6.66117191 -5.32135201 1.35034227 47 9 12862 8.63200000 2893435582 2893435582 9.00000000
5.27240419 -4.21191931 -0.59039301 12 10 12862 6.77400000 2893435584 2893435584 -5.00000000
4.86023808 -3.88404536 1.20934737 34 11 12863 6.33800000 2893435586 2893435586 11.00000000
4.05451441 -3.24131322 -0.27204230 2 12 12864 5.19800000 2893435589 2893435589 -3.00000000
4.50335741 -3.60142207 1.33126032 21 13 12865 5.91800000 2893435591 2893435591 13.00000000
3.70386744 -2.96311426 -0.08279422 7 14 12866 4.74400000 2893435593 2893435593 -1.00000000
6.49175787 -5.19530010 2.22791433 45 15 12867 8.60800000 2893435596 2893435596 15.00000000
1.64673686 -1.32164609 -0.56577843 4 0 12875 2.18600000 2893435616 2893435616 -15.00000000
3.99028182 -3.20368481 0.08932142 47 1 12876 5.11800000 2893435619 2893435619 1.00000000
1.92047906 -1.54244983 -0.56867629 3 2 12877 2.52800000 2893435621 2893435621 -13.00000000
3.52032399 -2.82839060 0.23666319 26 3 12878 4.52200000 2893435623 2893435623 3.00000000
2.29111052 -1.84078383 -0.57128215 3 4 12878 2.99400000 2893435626 2893435626 -11.00000000
3.90259504 -3.13664556 0.43804476 28 5 12879 5.02600000 2893435628 2893435628 5.00000000
2.79262757 -2.24533033 -0.56754422 5 6 12880 3.62800000 2893435630 2893435630 -9.00000000
3.90577269 -3.14144444 0.61544019 22 7 12881 5.05000000 2893435632 2893435632 7.00000000
3.66859102 -2.95173192 -0.57814819 6 8 12882 4.74400000 2893435635 2893435635 -7.00000000
6.61793184 -5.32475805 1.34533644 47 9 12882 8.60000000 2893435637 2893435637 9.00000000
5.25072336 -4.22621822 -0.58969575 12 10 12883 6.76600000 2893435639 2893435639 -5.00000000
4.83526564 -3.89321423 1.20667613 34 11 12884 6.32400000 2893435642 2893435642 11.00000000
4.05038404 -3.26241612 -0.27256566 2 12 12885 5.20800000 2893435644 2893435644 -3.00000000
4.47950554 -3.60934472 1.32811105 21 13 12886 5.90400000 2893435646 2893435646 13.00000000
3.71944976 -2.99800348 -0.08338760 7 14 12887 4.77800000 2893435649 2893435649 -1.00000000
6.45252609 -5.20095634 2.22066736 45 15 12887 8.58000000 2893435651 2893435651 15.00000000
1.64211345 -1.32738626 -0.56577843 4 0 12895 2.18600000 2893435672 2893435672 -15.00000000
3.99928856 -3.23393989 0.08977518 54 1 12896 5.14400000 2893435674 2893435674 1.00000000
1.91205299 -1.54669297 -0.56777644 4 2 12897 2.52400000 2893435676 2893435676 -13.00000000
3.49335098 -2.82684135 0.23551181 30 3 12898 4.50000000 2893435679 2893435679 3.00000000
2.27398801 -1.84012520 -0.56861079 3 4 12898 2.98000000 2893435681 2893435681 -11.00000000
3.90710807 -3.16278481 0.43978786 26 5 12899 5.04600000 2893435683 2893435683 5.00000000
2.78784323 -2.25755095 -0.56816995 5 6 12900 3.63200000 2893435685 2893435685 -9.00000000
3.90712309 -3.16505527 0.61739010 22 7 12901 5.06600000 2893435688 2893435688 7.00000000
3.65980744 -2.96576953 -0.57839191 4 8 12902 4.74600000 2893435690 2893435690 -7.00000000
6.56554079 -5.32046556 1.33845329 50 9 12902 8.55600000 2893435692 2893435692 9.00000000
5.24367762 -4.25079441 -0.59056729 12 10 12903 6.77600000 2893435695 2893435695 -5.00000000
4.81097221 -3.90141273 1.20400476 25 11 12904 6.31000000 2893435697 2893435697 11.00000000
4.00329733 -3.24759459 -0.27015820 2 12 12905 5.16200000 2893435699 2893435699 -3.00000000
4.45779991 -3.61759114 1.32541156 23 13 12906 5.89200000 2893435702 2893435702 13.00000000
3.70275187 -3.00592709 -0.08324798 5 14 12907 4.77000000 2893435704 2893435704 -1.00000000
6.42383289 -5.21492481 2.21704388 45 15 12907 8.56600000 2893435706 2893435706 15.00000000
1.63170922 -1.32794666 -0.56370789 4 0 12914 2.17800000 2893435727 2893435727 -15.00000000
4.00094843 -3.25728416 0.09005442 52 1 12915 5.16000000 2893435729 2893435729 1.00000000
1.91900170 -1.56286991 -0.57137567 3 2 12916 2.54000000 2893435732 2893435732 -13.00000000
3.48086095 -2.83588719 0.23530246 31 3 12917 4.49600000 2893435734 2893435734 3.00000000
2.26178503 -1.84269571 -0.56708431 3 4 12917 2.97200000 2893435736 2893435736 -11.00000000
3.89659858 -3.17572403 0.43978786 26 5 12918 5.04600000 2893435738 2893435738 5.00000000
2.78187275 -2.26803160 -0.56848282 5 6 12919 3.63400000 2893435741 2893435741 -9.00000000
3.91814256 -3.19555926 0.62080246 22 7 12920 5.09400000 2893435743 2893435743 7.00000000
3.65302873 -2.98039937 -0.57887936 4 8 12921 4.75000000 2893435745 2893435745 -7.00000000
6.51785183 -5.31961966 1.33250880 50 9 12922 8.51800000 2893435748 2893435748 9.00000000
5.21411705 -4.25556183 -0.58882421 12 10 12922 6.75600000 2893435750 2893435750 -5.00000000
4.75390577 -3.88133764 1.19293785 6 11 12923 6.25200000 2893435752 2893435752 11.00000000
3.80687976 -3.10924339 -0.25759757 2 12 12924 4.92200000 2893435755 2893435755 -3.00000000
4.44125175 -3.62865496 1.32406187 16 13 12925 5.88600000 2893435757 2893435757 13.00000000
3.70050526 -3.02451682 -0.08342250 5 14 12926 4.78000000 2893435759 2893435759 -1.00000000
6.39902544 -5.23008585 2.21445584 47 15 12926 8.55600000 2893435761 2893435761 15.00000000
1.63453436 -1.33975756 -0.56629604 4 0 12934 2.18800000 2893435782 2893435782 -15.00000000
4.00192499 -3.28137374 0.09033366 54 1 12935 5.17600000 2893435785 2893435785 1.00000000
1.91654801 -1.57203078 -0.57227546 3 2 12936 2.54400000 2893435787 2893435787 -13.00000000
3.47094059 -2.84802055 0.23530246 30 3 12937 4.49600000 2893435789 2893435789 3.00000000
2.26141000 -1.85556102 -0.56861079 3 4 12937 2.98000000 2893435791 2893435791 -11.00000000
3.89164948 -3.19436264 0.44048512 26 5 12938 5.05400000 2893435794 2893435794 5.00000000
2.77546549 -2.27898192 -0.56879574 5 6 12939 3.63600000 2893435796 2893435796 -9.00000000
3.92537165 -3.22433662 0.62372732 22 7 12940 5.11800000 2893435798 2893435798 7.00000000
3.64260292 -2.99313259 -0.57887936 4 8 12941 4.75000000 2893435801 2893435801 -7.00000000
6.46872282 -5.31725168 1.32625139 50 9 12942 8.47800000 2893435803 2893435803 9.00000000
5.19153500 -4.26741076 -0.58795261 12 10 12942 6.74600000 2893435805 2893435805 -5.00000000
4.63872862 -3.81436372 1.16736948 12 11 12943 6.11800000 2893435808 2893435808 11.00000000
3.81142783 -3.13520098 -0.25864428 2 12 12944 4.94200000 2893435810 2893435810 -3.00000000
4.43006325 -3.64537406 1.32451177 10 13 12945 5.88800000 2893435812 2893435812 13.00000000
3.71153975 -3.05520797 -0.08391117 8 14 12946 4.80800000 2893435814 2893435814 -1.00000000
6.37533903 -5.24982023 2.21290278 40 15 12947 8.55000000 2893435817 2893435817 15.00000000
1.62365448 -1.34081900 -0.56422549 4 0 12955 2.18000000 2893435838 2893435838 -15.00000000
3.98987126 -3.29601932 0.09033366 52 1 12956 5.17600000 2893435840 2893435840 1.00000000
1.90326238 -1.57283771 -0.57002598 4 2 12957 2.53400000 2893435842 2893435842 -13.00000000
3.46817541 -2.86708570 0.23582582 31 3 12958 4.50600000 2893435844 2893435844 3.00000000
2.24248862 -1.85382986 -0.56555784 3 4 12958 2.96400000 2893435847 2893435847 -11.00000000
3.89526939 -3.22130203 0.44222823 23 5 12959 5.07400000 2893435849 2893435849 5.00000000
2.75948381 -2.28284335 -0.56723136 5 6 12960 3.62600000 2893435851 2893435851 -9.00000000
3.91352749 -3.23870206 0.62372732 22 7 12961 5.11800000 2893435854 2893435854 7.00000000
3.63007903 -3.00519753 -0.57863563 6 8 12962 4.74800000 2893435856 2893435856 -7.00000000
6.42484856 -5.32076550 1.32124555 50 9 12963 8.44600000 2893435858 2893435858 9.00000000
5.17279005 -4.28386831 -0.58760405 12 10 12963 6.74200000 2893435861 2893435861 -5.00000000
4.61111021 -3.82006764 1.16393483 21 11 12964 6.10000000 2893435863 2893435863 11.00000000
3.73839903 -3.09817171 -0.25445741 2 12 12965 4.86200000 2893435865 2893435865 -3.00000000
4.40617085 -3.65288043 1.32136250 10 13 12966 5.87400000 2893435867 2893435867 13.00000000
3.70801306 -3.07517362 -0.08408570 24 14 12967 4.81800000 2893435870 2893435870 -1.00000000
6.32128668 -5.24244452 2.20047951 36 15 12967 8.50200000 2893435872 2893435872 15.00000000
1.61747909 -1.34524310 -0.56370789 4 0 12975 2.17800000 2893435893 2893435893 -15.00000000
3.99986267 -3.32783198 0.09082232 61 1 12976 5.20400000 2893435895 2893435895 1.00000000
1.89326704 -1.57573187 -0.56867629 3 2 12977 2.52800000 2893435897 2893435897 -13.00000000
3.45814633 -2.87917447 0.23582582 30 3 12978 4.50600000 2893435900 2893435900 3.00000000
3.64519930 -3.03491044 -0.92198908 4 4 12978 4.83200000 2893435902 2893435902 -11.00000000
3.89931059 -3.24763036 0.44397137 25 5 12979 5.09400000 2893435904 2893435904 5.00000000
2.75453353 -2.29499078 -0.56785709 5 6 12980 3.63000000 2893435907 2893435907 -9.00000000
3.91439748 -3.26251078 0.62567723 20 7 12981 5.13400000 2893435909 2893435909 7.00000000
3.61346817 -3.01276565 -0.57766068 6 8 12982 4.74000000 2893435911 2893435911 -7.00000000
6.38348150 -5.32418156 1.31655240 50 9 12983 8.41600000 2893435914 2893435914 9.00000000
5.14097452 -4.28786087 -0.58568656 12 10 12983 6.72000000 2893435916 2893435916 -5.00000000
4.61734486 -3.85249090 1.16889596 12 11 12984 6.12600000 2893435918 2893435918 11.00000000
3.74442840 -3.12528014 -0.25560880 14 12 12985 4.88400000 2893435920 2893435920 -3.00000000
4.37693834 -3.65449977 1.31641352 11 13 12986 5.85200000 2893435923 2893435923 13.00000000
3.70646477 -3.09578967 -0.08429512 34 14 12987 4.83000000 2893435925 2893435925 -1.00000000
6.28070831 -5.24590206 2.19271493 36 15 12987 8.47200000 2893435927 2893435927 15.00000000
1.62610209 -1.36204529 -0.56836665 4 0 12995 2.19600000 2893435948 2893435948 -15.00000000
3.99741864 -3.34947968 0.09103175 57 1 12996 5.21600000 2893435950 2893435950 1.00000000
1.88775516 -1.58233106 -0.56867629 3 2 12997 2.52800000 2893435953 2893435953 -13.00000000
3.44092631 -2.88421130 0.23530246 30 3 12997 4.49600000 2893435955 2893435955 3.00000000
3.64210510 -3.05392337 -0.92389715 4 4 12998 4.84200000 2893435957 2893435957 -11.00000000
3.89710927 -3.26890421 0.44501722 25 5 12999 5.10600000 2893435960 2893435960 5.00000000
2.74499249 -2.30332232 -0.56754422 5 6 13000 3.62800000 2893435962 2893435962 -9.00000000
3.91210818 -3.28381205 0.62713963 20 7 13001 5.14600000 2893435964 2893435964 7.00000000
3.58772731 -3.01259542 -0.57522333 6 8 13002 4.72000000 2893435966 2893435966 -7.00000000
6.33402252 -5.31864452 1.30998218 50 9 13002 8.37400000 2893435969 2893435969 9.00000000
5.13360357 -4.31218767 -0.58655816 12 10 13003 6.73000000 2893435971 2893435971 -5.00000000
4.70006466 -3.94941735 1.19331944 21 11 13004 6.25400000 2893435973 2893435973 11.00000000
3.76407385 -3.16403461 -0.25770226 2 12 13005 4.92400000 2893435976 2893435976 -3.00000000
4.34625721 -3.65470552 1.31101477 11 13 13006 5.82800000 2893435978 2893435978 13.00000000
3.69716620 -3.10999584 -0.08433003 30 14 13007 4.83200000 2893435980 2893435980 -1.00000000
6.23722601 -5.24665308 2.18391514 33 15 13007 8.43800000 2893435983 2893435983 15.00000000
1.61395466 -1.36148489 -0.56577843 4 0 13015 2.18600000 2893436003 2893436003 -15.00000000
4.00098515 -3.37630939 0.09138080 59 1 13016 5.23600000 2893436006 2893436006 1.00000000
1.88519847 -1.59142506 -0.56957608 3 2 13017 2.53200000 2893436008 2893436008 -13.00000000
3.43948770 -2.90453506 0.23593049 30 3 13018 4.50800000 2893436010 2893436010 3.00000000
3.63742280 -3.07168484 -0.92542362 4 4 13018 4.85000000 2893436013 2893436013 -11.00000000
3.89480710 -3.29020214 0.44606310 27 5 13019 5.11800000 2893436015 2893436015 5.00000000
2.74146199 -2.31671500 -0.56848282 5 6 13020 3.63400000 2893436017 2893436017 -9.00000000
3.91881347 -3.31282663 0.63006449 20 7 13021 5.17000000 2893436019 2893436019 7.00000000
3.56961083 -3.01869154 -0.57400459 4 8 13022 4.71000000 2893436022 2893436022 -7.00000000
6.28734016 -5.31885958 1.30435061 50 9 13023 8.33800000 2893436024 2893436024 9.00000000
5.11091471 -4.32364702 -0.58568656 12 10 13023 6.72000000 2893436026 2893436026 -5.00000000
4.67875671 -3.95945835 1.19141138 31 11 13024 6.24400000 2893436029 2893436029 11.00000000
3.98013783 -3.36943531 -0.27329835 7 12 13025 5.22200000 2893436031 2893436031 -3.00000000
4.32752514 -3.66481709 1.30921519 11 13 13026 5.82000000 2893436033 2893436033 13.00000000
3.69086504 -3.12676024 -0.08443474 30 14 13027 4.83800000 2893436036 2893436036 -1.00000000
6.19437361 -5.24949455 2.17563295 31 15 13028 8.40600000 2893436038 2893436038 15.00000000
1.59765100 -1.35682523 -0.56163734 4 0 13034 2.17000000 2893436059 2893436059 -15.00000000
3.99586272 -3.39473724 0.09152042 57 1 13035 5.24400000 2893436061 2893436061 1.00000000
1.87694097 -1.59514380 -0.56867629 3 2 13036 2.52800000 2893436063 2893436063 -13.00000000
3.44099927 -2.92438006 0.23666319 30 3 13036 4.52200000 2893436066 2893436066 3.00000000
3.64516568 -3.09898973 -0.93000305 4 4 13037 4.87400000 2893436068 2893436068 -11.00000000
3.88539267 -3.30439043 0.44623742 27 5 13038 5.12000000 2893436070 2893436070 5.00000000
2.72323275 -2.31683326 -0.56629276 5 6 13039 3.62000000 2893436072 2893436072 -9.00000000
3.92443514 -3.33995605 0.63274562 18 7 13040 5.19200000 2893436075 2893436075 7.00000000
3.54748869 -3.02021742 -0.57205468 4 8 13041 4.69400000 2893436077 2893436077 -7.00000000
6.23658228 -5.31150246 1.29746747 50 9 13042 8.29400000 2893436079 2893436079 9.00000000
5.06772900 -4.31602669 -0.58237469 12 10 13042 6.68200000 2893436082 2893436082 -5.00000000
4.66111755 -3.97113228 1.19026649 34 11 13043 6.23800000 2893436084 2893436084 11.00000000
3.98110318 -3.39297962 -0.27413574 31 12 13044 5.23800000 2893436086 2893436086 -3.00000000
4.30348444 -3.66903305 1.30561590 12 13 13045 5.80400000 2893436089 2893436089 13.00000000
3.69112659 -3.14806581 -0.08467907 30 14 13046 4.85200000 2893436091 2893436091 -1.00000000
6.13669491 -5.23382759 2.16113901 33 15 13046 8.35000000 2893436093 2893436093 15.00000000
1.60024559 -1.36867213 -0.56422549 4 0 13054 2.18000000 2893436114 2893436114 -15.00000000
3.99158573 -3.41516495 0.09169494 19 1 13055 5.25400000 2893436116 2893436116 1.00000000
1.87728345 -1.60675454 -0.57047588 3 2 13056 2.53600000 2893436118 2893436118 -13.00000000
3.43683982 -2.94156837 0.23708189 31 3 13056 4.53000000 2893436121 2893436121 3.00000000
3.64327383 -3.11935592 -0.93229276 4 4 13057 4.88600000 2893436123 2893436123 -11.00000000
3.89047980 -3.33218956 0.44815484 27 5 13058 5.14200000 2893436125 2893436125 5.00000000
2.70762849 -2.31989861 -0.56472844 5 6 13059 3.61000000 2893436128 2893436128 -9.00000000
3.91878152 -3.35880184 0.63372058 18 7 13060 5.20000000 2893436130 2893436130 7.00000000
3.53843164 -3.03387403 -0.57229841 4 8 13061 4.69600000 2893436132 2893436132 -7.00000000
6.19401312 -5.31266308 1.29246151 52 9 13062 8.26200000 2893436135 2893436135 9.00000000
5.05868149 -4.33887863 -0.58307195 12 10 13062 6.69000000 2893436137 2893436137 -5.00000000
4.62934780 -3.97203732 1.18568707 34 11 13063 6.21400000 2893436139 2893436139 11.00000000
3.96014190 -3.39905071 -0.27350771 10 12 13064 5.22600000 2893436142 2893436142 -3.00000000
4.27882290 -3.67387676 1.30201674 12 13 13065 5.78800000 2893436144 2893436144 13.00000000
3.69376779 -3.17265749 -0.08499322 26 14 13066 4.87000000 2893436146 2893436146 -1.00000000
6.10226774 -5.24137068 2.15544510 31 15 13066 8.32800000 2893436148 2893436148 15.00000000
1.59106719 -1.37046742 -0.56267262 4 0 13074 2.17400000 2893436169 2893436169 -15.00000000
4.00236368 -3.44865727 0.09221852 23 1 13075 5.28400000 2893436171 2893436171 1.00000000
1.85395050 -1.59802985 -0.56507707 3 2 13076 2.51200000 2893436174 2893436174 -13.00000000
3.43359828 -2.96066666 0.23760524 30 3 13077 4.54000000 2893436176 2893436176 3.00000000
3.65020537 -3.14743900 -0.93687218 4 4 13077 4.91000000 2893436178 2893436178 -11.00000000
3.89994621 -3.36396837 0.45059520 27 5 13078 5.17000000 2893436181 2893436181 5.00000000
2.70400071 -2.33320737 -0.56566703 5 6 13079 3.61600000 2893436183 2893436183 -9.00000000
3.91604948 -3.38024306 0.63518304 18 7 13080 5.21200000 2893436185 2893436185 7.00000000
3.51429749 -3.03453088 -0.57010478 4 8 13081 4.67800000 2893436188 2893436188 -7.00000000
6.15842009 -5.31768179 1.28870714 52 9 13081 8.23800000 2893436190 2893436190 9.00000000
5.03445864 -4.34869576 -0.58202606 12 10 13082 6.67800000 2893436192 2893436192 -5.00000000
4.60208511 -3.97662020 1.18225253 34 11 13083 6.19600000 2893436195 2893436195 11.00000000
3.95580792 -3.41938400 -0.27403107 7 12 13084 5.23600000 2893436197 2893436197 -3.00000000
4.22764683 -3.65564966 1.29031920 26 13 13085 5.73600000 2893436199 2893436199 13.00000000
3.69930696 -3.19992232 -0.08537717 22 14 13086 4.89200000 2893436201 2893436201 -1.00000000
6.08593798 -5.26622963 2.15648031 24 15 13087 8.33200000 2893436204 2893436204 15.00000000
1.59357023 -1.38234234 -0.56526077 4 0 13094 2.18400000 2893436224 2893436224 -15.00000000
4.00238371 -3.47309184 0.09249775 47 1 13095 5.30000000 2893436227 2893436227 1.00000000
1.85719085 -1.61215639 -0.56777644 3 2 13096 2.52400000 2893436229 2893436229 -13.00000000
3.41471195 -2.96418095 0.23697720 26 3 13096 4.52800000 2893436231 2893436231 3.00000000
2.19685912 -1.90768194 -0.56555784 3 4 13097 2.96400000 2893436234 2893436234 -11.00000000
3.90472555 -3.39193392 0.45251262 30 5 13098 5.19200000 2893436236 2893436236 5.00000000
2.69733095 -2.34392762 -0.56597990 5 6 13099 3.61800000 2893436238 2893436238 -9.00000000
3.91621161 -3.40431094 0.63713294 18 7 13100 5.22800000 2893436241 2893436241 7.00000000
3.50218582 -3.04547691 -0.56986105 4 8 13101 4.67600000 2893436243 2893436243 -7.00000000
6.10908079 -5.31428814 1.28244972 50 9 13102 8.19800000 2893436245 2893436245 9.00000000
5.01022911 -4.35839701 -0.58098018 12 10 13102 6.66600000 2893436248 2893436248 -5.00000000
4.57336569 -3.97977233 1.17843640 34 11 13103 6.17600000 2893436250 2893436250 11.00000000
3.94083500 -3.43054867 -0.27382171 7 12 13104 5.23200000 2893436252 2893436252 -3.00000000
4.20457315 -3.66142631 1.28716993 51 13 13105 5.72200000 2893436254 2893436254 13.00000000
3.68359113 -3.20887542 -0.08527246 8 14 13106 4.88600000 2893436257 2893436257 -1.00000000
6.06314898 -5.28363419 2.15492725 45 15 13107 8.32600000 2893436259 2893436259 15.00000000
1.58000588 -1.38027072 -0.56215495 4 0 13114 2.17200000 2893436280 2893436280 -15.00000000
1.84568334 -1.61349905 -0.56597686 3 2 13116 2.51600000 2893436284 2893436284 -13.00000000
3.43141055 -2.99974394 0.23886131 26 3 13116 4.56400000 2893436287 2893436287 3.00000000
2.19018674 -1.91533875 -0.56555784 3 4 13117 2.96400000 2893436289 2893436289 -11.00000000
3.89885998 -3.41079068 0.45320988 30 5 13118 5.20000000 2893436291 2893436291 5.00000000
2.69210577 -2.35593057 -0.56660563 5 6 13119 3.62200000 2893436294 2893436294 -9.00000000
3.92820239 -3.43888116 0.64103276 21 7 13120 5.26000000 2893436296 2893436296 7.00000000
3.48854685 -3.05506754 -0.56937355 4 8 13121 4.67200000 2893436298 2893436298 -7.00000000
6.06467533 -5.31109190 1.27681816 52 9 13121 8.16200000 2893436301 2893436301 9.00000000
4.98899031 -4.37060785 -0.58028293 12 10 13122 6.65800000 2893436303 2893436303 -5.00000000
4.55354023 -3.99053645 1.17690992 40 11 13123 6.16800000 2893436305 2893436305 11.00000000
3.90180302 -3.42058468 -0.27193764 5 12 13124 5.19600000 2893436307 2893436307 -3.00000000
4.19323206 -3.67736554 1.28761983 37 13 13125 5.72400000 2893436310 2893436310 13.00000000
3.67988372 -3.22830772 -0.08544698 10 14 13126 4.89600000 2893436312 2893436312 -1.00000000
6.01998472 -5.28310347 2.14612746 56 15 13127 8.29200000 2893436314 2893436314 15.00000000
1.57517827 -1.38577747 -0.56215495 4 0 13134 2.17200000 2893436335 2893436335 -15.00000000
3.42111421 -3.01081610 0.07954807 6 1 13135 4.55800000 2893436337 2893436337 1.00000000
1.84589064 -1.62508261 -0.56777644 3 2 13136 2.52400000 2893436340 2893436340 -13.00000000
3.42391682 -3.01434302 0.23907065 22 3 13136 4.56800000 2893436342 2893436342 3.00000000
2.18938088 -1.92816246 -0.56708431 3 4 13137 2.97200000 2893436344 2893436344 -11.00000000
3.89590001 -3.43228173 0.45425573 30 5 13138 5.21200000 2893436347 2893436347 5.00000000
2.68534756 -2.36661959 -0.56691849 5 6 13139 3.62400000 2893436349 2893436349 -9.00000000
3.92808676 -3.46307421 0.64298266 16 7 13140 5.27600000 2893436351 2893436351 7.00000000
3.47637272 -3.06591320 -0.56912982 4 8 13141 4.67000000 2893436354 2893436354 -7.00000000
6.02091312 -5.31001663 1.27149928 52 9 13141 8.12800000 2893436356 2893436356 9.00000000
4.96473932 -4.38008738 -0.57923704 12 10 13142 6.64600000 2893436358 2893436358 -5.00000000
4.52339077 -3.99211693 1.17271209 43 11 13143 6.14600000 2893436360 2893436360 11.00000000
3.97218752 -3.50688577 -0.27769458 2 12 13144 5.30600000 2893436363 2893436363 -3.00000000
4.17014551 -3.68295026 1.28447056 13 13 13145 5.71000000 2893436365 2893436365 13.00000000
3.68357849 -3.25437331 -0.08579603 12 14 13146 4.91600000 2893436367 2893436367 -1.00000000
5.97979355 -5.28489542 2.13836288 47 15 13147 8.26200000 2893436370 2893436370 15.00000000
1.57177734 -1.39254856 -0.56267262 4 0 13154 2.17400000 2893436390 2893436390 -15.00000000
3.37167406 -2.98825479 0.07864054 8 1 13155 4.50600000 2893436393 2893436393 1.00000000
1.84020686 -1.63151610 -0.56777644 3 2 13156 2.52400000 2893436395 2893436395 -13.00000000
3.42383504 -3.03555131 0.23980336 24 3 13156 4.58200000 2893436397 2893436397 3.00000000
2.18116832 -1.93449044 -0.56670272 3 4 13157 2.97000000 2893436400 2893436400 -11.00000000
3.89730883 -3.45776057 0.45582452 27 5 13158 5.23000000 2893436402 2893436402 5.00000000
2.66820574 -2.36811113 -0.56504130 7 6 13159 3.61200000 2893436404 2893436404 -9.00000000
3.92785001 -3.48730850 0.64493257 9 7 13160 5.29200000 2893436406 2893436406 7.00000000
3.47158623 -3.08330226 -0.57010478 4 8 13161 4.67800000 2893436409 2893436409 -7.00000000
5.97723293 -5.30870152 1.26618052 52 9 13161 8.09400000 2893436411 2893436411 9.00000000
4.74238682 -4.21344948 -0.55500776 15 10 13162 6.36800000 2893436413 2893436413 -5.00000000
4.48594952 -3.98701453 1.16660619 34 11 13163 6.11400000 2893436416 2893436416 11.00000000
3.88379836 -3.45304918 -0.27235630 5 12 13164 5.20400000 2893436418 2893436418 -3.00000000
4.14561510 -3.68712378 1.28087127 7 13 13165 5.69400000 2893436420 2893436420 13.00000000
3.69161773 -3.28449130 -0.08624979 8 14 13166 4.94200000 2893436423 2893436423 -1.00000000
5.93192625 -5.27772951 2.12749267 45 15 13166 8.22000000 2893436425 2893436425 15.00000000
1.56978989 -1.40059888 -0.56370789 4 0 13174 2.17800000 2893436446 2893436446 -15.00000000
3.37464952 -3.01198983 0.07895469 8 1 13175 4.52400000 2893436448 2893436448 1.00000000
1.82868600 -1.63273811 -0.56597686 3 2 13176 2.51600000 2893436450 2893436450 -13.00000000
3.41917753 -3.05280495 0.24022204 26 3 13176 4.59000000 2893436453 2893436453 3.00000000
2.17586660 -1.94340014 -0.56708431 3 4 13177 2.97200000 2893436455 2893436455 -11.00000000
3.90007257 -3.48461843 0.45756766 31 5 13178 5.25000000 2893436457 2893436457 5.00000000
2.65992308 -2.37741065 -0.56504130 7 6 13179 3.61200000 2893436459 2893436459 -9.00000000
3.92305231 -3.50761366 0.64615124 9 7 13180 5.30200000 2893436462 2893436462 7.00000000
3.45044518 -3.08613777 -0.56839859 4 8 13181 4.66400000 2893436464 2893436464 -7.00000000
5.94541407 -5.31768131 1.26336479 52 9 13181 8.07600000 2893436466 2893436466 9.00000000
4.81228495 -4.30570269 -0.56494355 11 10 13182 6.48200000 2893436469 2893436469 -5.00000000
5.91878653 -5.29758549 1.54402637 34 11 13183 8.09200000 2893436471 2893436471 11.00000000
3.90296888 -3.49456286 -0.27455443 2 12 13184 5.24600000 2893436473 2893436473 -3.00000000
4.12110662 -3.69117069 1.27727211 9 13 13185 5.67800000 2893436476 2893436476 13.00000000
3.69353437 -3.30936718 -0.08656394 18 14 13186 4.96000000 2893436478 2893436478 -1.00000000
5.89527941 -5.28396273 2.12128091 47 15 13187 8.19600000 2893436480 2893436480 15.00000000
1.57063925 -1.41123450 -0.56577843 4 0 13194 2.18600000 2893436501 2893436501 -15.00000000
3.37155128 -3.03043509 0.07912921 4 1 13195 4.53400000 2893436503 2893436503 1.00000000
1.81717908 -1.63389969 -0.56417722 3 2 13196 2.50800000 2893436506 2893436506 -13.00000000
3.41687512 -3.07333016 0.24085008 28 3 13197 4.60200000 2893436508 2893436508 3.00000000
2.15739226 -1.94048023 -0.56403136 3 4 13197 2.95600000 2893436510 2893436510 -11.00000000
3.90269613 -3.51153755 0.45931077 28 5 13198 5.27000000 2893436512 2893436512 5.00000000
2.64867187 -2.38403797 -0.56441557 5 6 13199 3.60800000 2893436515 2893436515 -9.00000000
3.93586326 -3.54386711 0.65029484 9 7 13200 5.33600000 2893436517 2893436517 7.00000000
3.43965149 -3.09816337 -0.56839859 4 8 13201 4.66400000 2893436519 2893436519 -7.00000000
5.89599276 -5.31063938 1.25679445 52 9 13201 8.03400000 2893436522 2893436522 9.00000000
4.91267920 -4.42650223 -0.57853985 12 10 13202 6.63800000 2893436524 2893436524 -5.00000000
5.88713408 -5.30638361 1.54059184 56 11 13203 8.07400000 2893436526 2893436526 11.00000000
3.92189646 -3.53625226 -0.27675253 5 12 13204 5.28800000 2893436529 2893436529 -3.00000000
4.09227896 -3.69117618 1.27232313 9 13 13205 5.65600000 2893436531 2893436531 13.00000000
3.31821799 -2.99403477 -0.07801226 5 14 13206 4.47000000 2893436533 2893436533 -1.00000000
5.85621071 -5.28407049 2.11351633 47 15 13206 8.16600000 2893436536 2893436536 15.00000000
1.55424368 -1.40633917 -0.56163734 4 0 13214 2.17000000 2893436556 2893436556 -15.00000000
4.01475954 -3.63398242 0.09452223 67 1 13215 5.41600000 2893436559 2893436559 1.00000000
1.82013190 -1.64808083 -0.56687665 3 2 13216 2.52000000 2893436561 2893436561 -13.00000000
3.41056728 -3.08926105 0.24116409 26 3 13217 4.60800000 2893436563 2893436563 3.00000000
2.14769530 -1.94536316 -0.56326813 3 4 13217 2.95200000 2893436565 2893436565 -11.00000000
3.89336777 -3.52781463 0.45965940 26 5 13218 5.27400000 2893436568 2893436568 5.00000000
2.65350628 -2.40520883 -0.56723136 5 6 13219 3.62600000 2893436570 2893436570 -9.00000000
3.94993901 -3.58158588 0.65468210 7 7 13220 5.37200000 2893436572 2893436572 7.00000000
3.41558290 -3.09814787 -0.56620497 4 8 13221 4.64600000 2893436575 2893436575 -7.00000000
5.84576797 -5.30433798 1.25022423 50 9 13222 7.99200000 2893436577 2893436577 9.00000000
4.90309954 -4.44897890 -0.57923704 12 10 13222 6.64600000 2893436579 2893436579 -5.00000000
4.29276752 -3.89654183 1.12691796 15 11 13223 5.90600000 2893436582 2893436582 11.00000000
3.94797349 -3.58482909 -0.27947402 5 12 13224 5.34000000 2893436584 2893436584 -3.00000000
4.08802462 -3.71329999 1.27502263 10 13 13225 5.66800000 2893436586 2893436586 13.00000000
3.30774665 -3.00559926 -0.07801226 20 14 13226 4.47000000 2893436589 2893436589 -1.00000000
5.80392456 -5.27561283 2.10161066 47 15 13227 8.12000000 2893436591 2893436591 15.00000000
1.54957163 -1.41148555 -0.56163734 4 0 13233 2.17000000 2893436612 2893436612 -15.00000000
4.01303339 -3.65670395 0.09476656 67 1 13234 5.43000000 2893436614 2893436614 1.00000000
1.81753707 -1.65673316 -0.56777644 3 2 13235 2.52400000 2893436616 2893436616 -13.00000000
3.41653824 -3.11535692 0.24231547 26 3 13236 4.63000000 2893436618 2893436618 3.00000000
2.15573955 -1.96570253 -0.56708431 3 4 13236 2.97200000 2893436621 2893436621 -11.00000000
3.89489555 -3.55279040 0.46122819 26 5 13237 5.29200000 2893436623 2893436623 5.00000000
2.62946463 -2.39934850 -0.56378978 5 6 13238 3.60400000 2893436625 2893436625 -9.00000000
3.95856619 -3.61340094 0.65809447 7 7 13239 5.40000000 2893436628 2893436628 7.00000000
3.40822220 -3.11213446 -0.56669247 4 8 13240 4.65000000 2893436630 2893436630 -7.00000000
5.81594658 -5.31068897 1.24740839 50 9 13240 7.97400000 2893436632 2893436632 9.00000000
4.86478233 -4.44371414 -0.57644808 12 10 13241 6.61400000 2893436635 2893436635 -5.00000000
4.26822805 -3.90016103 1.12386501 54 11 13242 5.89000000 2893436637 2893436637 11.00000000
4.19994259 -3.83910894 -0.29821029 9 12 13243 5.69800000 2893436639 2893436639 -3.00000000
4.05986881 -3.71237040 1.27007365 11 13 13244 5.64600000 2893436642 2893436642 13.00000000
3.28743291 -3.00710368 -0.07776792 5 14 13245 4.45600000 2893436644 2893436644 -1.00000000
5.76166439 -5.27034998 2.09229326 45 15 13245 8.08400000 2893436646 2893436646 15.00000000
1.54463518 -1.41688597 -0.56163734 4 0 13253 2.17000000 2893436667 2893436667 -15.00000000
3.99287772 -3.66392970 0.09459204 95 1 13254 5.42000000 2893436669 2893436669 1.00000000
1.80312932 -1.65516067 -0.56507707 4 2 13255 2.51200000 2893436671 2893436671 -13.00000000
3.41888285 -3.13942170 0.24325752 24 3 13256 4.64800000 2893436674 2893436674 3.00000000
2.14308047 -1.96790409 -0.56555784 3 4 13256 2.96400000 2893436676 2893436676 -11.00000000
3.88980699 -3.57310367 0.46209976 26 5 13257 5.30200000 2893436678 2893436678 5.00000000
2.61816430 -2.40583920 -0.56316406 5 6 13258 3.60000000 2893436681 2893436681 -9.00000000
5.79466963 -5.32660580 0.96642387 10 7 13259 7.93000000 2893436683 2893436683 7.00000000
3.40610528 -3.13207436 -0.56815487 4 8 13260 4.66200000 2893436685 2893436685 -7.00000000
5.77608919 -5.31324673 1.24302828 52 9 13261 7.94600000 2893436688 2893436688 9.00000000
4.29495859 -3.95080066 -0.51055837 3 10 13261 5.85800000 2893436690 2893436690 -5.00000000
4.23147297 -3.89376593 1.11775911 60 11 13262 5.85800000 2893436692 2893436692 11.00000000
4.21737480 -3.88215208 -0.30040839 33 12 13263 5.74000000 2893436694 2893436694 -3.00000000
4.03111649 -3.71199894 1.26512468 8 13 13264 5.62400000 2893436697 2893436697 13.00000000
3.69903231 -3.40739679 -0.08778560 26 14 13265 5.03000000 2893436699 2893436699 -1.00000000
5.72668171 -5.27703190 2.08659911 47 15 13266 8.06200000 2893436701 2893436701 15.00000000
1.54017627 -1.42173159 -0.56163734 4 0 13271 2.17000000 2893436722 2893436722 -15.00000000
3.97547078 -3.67102909 0.09445243 72 1 13272 5.41200000 2893436724 2893436724 1.00000000
1.79648912 -1.65949488 -0.56462717 4 2 13273 2.51000000 2893436727 2893436727 -13.00000000
3.41633773 -3.15692449 0.24378088 24 3 13274 4.65800000 2893436729 2893436729 3.00000000
2.13688755 -1.97462702 -0.56555784 3 4 13274 2.96400000 2893436731 2893436731 -11.00000000
3.90782356 -3.61235499 0.46558598 28 5 13275 5.34200000 2893436734 2893436734 5.00000000
2.61639452 -2.41941714 -0.56441557 5 6 13276 3.60800000 2893436736 2893436736 -9.00000000
5.74730539 -5.31647587 0.96130538 25 7 13277 7.88800000 2893436738 2893436738 7.00000000
3.39916277 -3.14545608 -0.56864238 4 8 13278 4.66600000 2893436741 2893436741 -7.00000000
5.73710108 -5.30889511 1.23802233 52 9 13278 7.91400000 2893436743 2893436743 9.00000000
4.19772291 -3.88577366 -0.50044829 7 10 13279 5.74200000 2893436745 2893436745 -5.00000000
4.21057653 -3.89903688 1.11546934 60 11 13280 5.84600000 2893436747 2893436747 11.00000000
4.19050550 -3.88180947 -0.29936168 12 12 13281 5.72000000 2893436750 2893436750 -3.00000000
3.70444131 -3.43395472 -0.08816956 30 14 13283 5.05200000 2893436754 2893436754 -1.00000000
5.68691397 -5.27167368 2.07779932 47 15 13283 8.02800000 2893436757 2893436757 15.00000000
1.54086387 -1.43236029 -0.56370789 4 0 13291 2.17800000 2893436777 2893436777 -15.00000000
3.98313379 -3.70394802 0.09494109 60 1 13292 5.44000000 2893436780 2893436780 1.00000000
1.79211223 -1.66708291 -0.56507707 3 2 13293 2.51200000 2893436782 2893436782 -13.00000000
3.40091062 -3.16474867 0.24346687 22 3 13294 4.65200000 2893436784 2893436784 3.00000000
2.12135839 -1.97404957 -0.56326813 3 4 13294 2.95200000 2893436787 2893436787 -11.00000000
3.89664865 -3.62733126 0.46576029 26 5 13295 5.34400000 2893436789 2893436789 5.00000000
2.60215068 -2.42315054 -0.56316406 5 6 13296 3.60000000 2893436791 2893436791 -9.00000000
5.71709204 -5.32568073 0.95935547 47 7 13297 7.87200000 2893436794 2893436794 7.00000000
3.36783051 -3.13835573 -0.56523001 4 8 13298 4.63800000 2893436796 2893436796 -7.00000000
5.69882011 -5.31237650 1.23395503 22 9 13299 7.88800000 2893436798 2893436798 9.00000000
4.18121910 -3.89768553 -0.50009966 10 10 13299 5.73800000 2893436800 2893436800 -5.00000000
4.20555592 -3.92174435 1.11775911 42 11 13300 5.85800000 2893436803 2893436803 11.00000000
4.14041853 -3.86235380 -0.29674488 27 12 13301 5.67000000 2893436805 2893436805 -3.00000000
4.10899162 -3.83437896 1.29751766 21 13 13302 5.76800000 2893436807 2893436807 13.00000000
3.69535542 -3.44959378 -0.08823936 30 14 13303 5.05600000 2893436810 2893436810 -1.00000000
5.65343475 -5.27929688 2.07262301 47 15 13304 8.00800000 2893436812 2893436812 15.00000000
1.53867531 -1.44037068 -0.56474316 4 0 13311 2.18200000 2893436833 2893436833 -15.00000000
3.98769569 -3.73423147 0.09535995 85 1 13312 5.46400000 2893436835 2893436835 1.00000000
1.78628218 -1.67332840 -0.56507707 3 2 13313 2.51200000 2893436837 2893436837 -13.00000000
3.40295935 -3.18889213 0.24440892 22 3 13314 4.67000000 2893436840 2893436840 3.00000000
2.10872459 -1.97607267 -0.56174171 3 4 13314 2.94400000 2893436842 2893436842 -11.00000000
3.89559174 -3.65181208 0.46715477 26 5 13315 5.36000000 2893436844 2893436844 5.00000000
2.59655833 -2.43492150 -0.56378978 5 6 13316 3.60400000 2893436847 2893436847 -9.00000000
5.66951180 -5.31844234 0.95448071 57 7 13317 7.83200000 2893436849 2893436849 7.00000000
3.35396004 -3.14737558 -0.56474257 4 8 13318 4.63400000 2893436851 2893436851 -7.00000000
4.21046352 -3.95112324 0.91451585 54 9 13318 5.84600000 2893436853 2893436853 9.00000000
4.14725113 -3.89316607 -0.49765930 10 10 13319 5.71000000 2893436856 2893436856 -5.00000000
5.64589024 -5.30184364 1.50548303 56 11 13320 7.89000000 2893436858 2893436858 11.00000000
4.14292383 -3.89182544 -0.29789627 12 12 13321 5.69200000 2893436860 2893436860 -3.00000000
3.99901485 -3.75795269 1.26692438 13 13 13322 5.63200000 2893436863 2893436863 13.00000000
3.68911958 -3.46795058 -0.08837899 28 14 13323 5.06400000 2893436865 2893436865 -1.00000000
5.61337566 -5.27684450 2.06434059 47 15 13323 7.97600000 2893436867 2893436867 15.00000000
1.51958084 -1.43248141 -0.55956680 4 0 13331 2.16200000 2893436888 2893436888 -15.00000000
3.98336577 -3.75636005 0.09556938 100 1 13332 5.47600000 2893436890 2893436890 1.00000000
1.78751791 -1.68623960 -0.56732655 4 2 13333 2.52200000 2893436893 2893436893 -13.00000000
3.40488052 -3.21308804 0.24535096 22 3 13334 4.68800000 2893436895 2893436895 3.00000000
2.11038113 -1.99150598 -0.56403136 3 4 13334 2.95600000 2893436897 2893436897 -11.00000000
3.88716722 -3.66949105 0.46767771 26 5 13335 5.36600000 2893436900 2893436900 5.00000000
2.58086181 -2.43718910 -0.56222546 5 6 13336 3.59400000 2893436902 2893436902 -9.00000000
5.62638092 -5.31502628 0.95033711 50 7 13337 7.79800000 2893436904 2893436904 7.00000000
3.34151053 -3.15770054 -0.56449878 6 8 13338 4.63200000 2893436906 2893436906 -7.00000000
4.16867924 -3.94074583 0.90857136 52 9 13339 5.80800000 2893436909 2893436909 9.00000000
4.10612679 -3.88161397 -0.49434736 14 10 13339 5.67200000 2893436911 2893436911 -5.00000000
5.60024643 -5.29588938 1.49823225 50 11 13340 7.85200000 2893436913 2893436913 11.00000000
