# .PCD v0.7 - Point Cloud Data file format
VERSION 0.7
FIELDS x y z intensity laser_id azimuth distance_m adjustedtime timestamp vertical_angle
SIZE 4 4 4 1 1 2 8 8 4 8
TYPE F F F U U U F U U F
COUNT 1 1 1 1 1 1 1 1 1 1
WIDTH 526
HEIGHT 1
VIEWPOINT 0 0 0 1 0 0 0
POINTS 526
DATA ascii
1.02468681 -1.75283885 -0.54403764 4 0 14969 2.10200000 2889841537 2889841537 -15.00000000
2.90160084 -4.96549463 0.10038624 10 1 14970 5.75200000 2889841539 2889841539 1.00000000
1.20110321 -2.05626559 -0.54978037 3 2 14971 2.44400000 2889841541 2889841541 -13.00000000
2.89935565 -4.96563101 0.30135044 9 3 14972 5.75800000 2889841544 2889841544 3.00000000
1.41361189 -2.42104650 -0.54495049 3 4 14972 2.85600000 2889841546 2889841546 -11.00000000
2.88037443 -4.93510008 0.49992535 12 5 14973 5.73600000 2889841548 2889841548 5.00000000
1.74202204 -2.98589683 -0.54752064 3 6 14974 3.50000000 2889841551 2889841551 -9.00000000
2.90010977 -4.97290039 0.70684218 10 7 14975 5.80000000 2889841553 2889841553 7.00000000
2.24741220 -3.85524750 -0.54792458 2 8 14976 4.49600000 2889841555 2889841555 -7.00000000
2.88219905 -4.94615507 0.90669417 9 9 14977 5.79600000 2889841558 2889841558 9.00000000
2.89598751 -4.96981716 -0.50323725 14 10 14977 5.77400000 2889841560 2889841560 -5.00000000
2.88341689 -4.95023060 1.11356127 12 11 14978 5.83600000 2889841562 2889841562 11.00000000
2.89831161 -4.97779942 -0.30187380 12 12 14979 5.76800000 2889841564 2889841564 -3.00000000
2.87116742 -4.93315935 1.31776333 8 13 14980 5.85800000 2889841567 2889841567 13.00000000
2.88301229 -4.95550013 -0.10007210 9 14 14981 5.73400000 2889841569 2889841569 -1.00000000
2.86011648 -4.91811991 1.52444422 8 15 14982 5.89000000 2889841571 2889841571 15.00000000
1.02080739 -1.75956917 -0.54507291 4 0 14988 2.10600000 2889841592 2889841592 -15.00000000
2.87709332 -4.96125078 0.10010701 10 1 14989 5.73600000 2889841594 2889841594 1.00000000
1.19623244 -2.06360936 -0.55068016 3 2 14990 2.44800000 2889841597 2889841597 -13.00000000
2.87586355 -4.96312141 0.30061772 4 3 14991 5.74400000 2889841599 2889841599 3.00000000
1.40163851 -2.41892624 -0.54342401 3 4 14991 2.84800000 2889841601 2889841601 -11.00000000
2.85500574 -4.92910814 0.49835655 9 5 14992 5.71800000 2889841604 2889841604 5.00000000
1.72518241 -2.97969055 -0.54533052 1 6 14993 3.48600000 2889841606 2889841606 -9.00000000
2.86868787 -4.95671844 0.70318609 10 7 14994 5.77000000 2889841608 2889841608 7.00000000
2.23461533 -3.86267900 -0.54792458 2 8 14995 4.49600000 2889841611 2889841611 -7.00000000
2.86367846 -4.95005560 0.90575558 9 9 14995 5.79000000 2889841613 2889841613 9.00000000
2.87250924 -4.96731997 -0.50201708 14 10 14996 5.76000000 2889841615 2889841615 -5.00000000
2.85716033 -4.94276810 1.10974514 12 11 14997 5.81600000 2889841617 2889841617 11.00000000
2.87479401 -4.97527790 -0.30114108 12 12 14998 5.75400000 2889841620 2889841620 -3.00000000
2.85479259 -4.94265366 1.31776333 8 13 14999 5.85800000 2889841622 2889841622 13.00000000
2.85856462 -4.95117903 -0.09979286 6 14 15000 5.71800000 2889841624 2889841624 -1.00000000
2.84561753 -4.92875385 1.52496183 8 15 15000 5.89200000 2889841627 2889841627 15.00000000
1.01465905 -1.76312184 -0.54507291 4 0 15008 2.10600000 2889841647 2889841647 -15.00000000
2.84081244 -4.93832970 0.09944381 21 1 15009 5.69800000 2889841650 2889841650 1.00000000
1.18125045 -2.05425739 -0.54708099 3 2 15010 2.43200000 2889841652 2889841652 -13.00000000
2.84458733 -4.94888735 0.29915231 28 3 15011 5.71600000 2889841654 2889841654 3.00000000
1.39905643 -2.43401670 -0.54571372 3 4 15011 2.86000000 2889841657 2889841657 -11.00000000
2.84671569 -4.95459175 0.49992535 30 5 15012 5.73600000 2889841659 2889841659 5.00000000
1.71181941 -2.98055553 -0.54439193 1 6 15013 3.48000000 2889841661 2889841661 -9.00000000
2.84741497 -4.95981550 0.70221114 10 7 15014 5.76200000 2889841664 2889841664 7.00000000
2.20432186 -3.84118629 -0.54378098 4 8 15015 4.46200000 2889841666 2889841666 -7.00000000
2.84256768 -4.95537806 0.90481693 9 9 15016 5.78400000 2889841668 2889841668 9.00000000
2.85416126 -4.97558880 -0.50184274 14 10 15016 5.75800000 2889841670 2889841670 -5.00000000
2.83012366 -4.93567991 1.10592890 12 11 15017 5.79600000 2889841673 2889841673 11.00000000
2.82960033 -4.93676376 -0.29821029 12 12 15018 5.69800000 2889841675 2889841675 -3.00000000
2.83728909 -4.95418596 -0.09965324 22 14 15020 5.71000000 2889841680 2889841680 -1.00000000
2.83233261 -4.94753361 1.52754998 36 15 15021 5.90200000 2889841682 2889841682 15.00000000
1.00945616 -1.76833057 -0.54559052 4 0 15028 2.10800000 2889841703 2889841703 -15.00000000
2.82454824 -4.94995260 0.09947871 15 1 15029 5.70000000 2889841705 2889841705 1.00000000
1.17407250 -2.05836821 -0.54708099 3 2 15030 2.43200000 2889841707 2889841707 -13.00000000
2.83264112 -4.96816349 -1.11165321 3 4 15031 5.82600000 2889841712 2889841712 -11.00000000
2.83078575 -4.96893930 -0.90575558 4 6 15033 5.79000000 2889841717 2889841717 -9.00000000
2.82419062 -4.95937490 0.70074874 10 7 15034 5.75000000 2889841719 2889841719 7.00000000
2.19090009 -3.84885740 -0.54378098 4 8 15035 4.46200000 2889841721 2889841721 -7.00000000
2.81830168 -4.95104313 0.90231401 23 9 15035 5.76800000 2889841723 2889841723 9.00000000
2.82987833 -4.97339916 -0.50062257 14 10 15036 5.74400000 2889841726 2889841726 -5.00000000
2.81728625 -4.95529222 -0.29873365 24 12 15038 5.70800000 2889841730 2889841730 -3.00000000
2.82021713 -4.96246290 1.31776333 40 13 15039 5.85800000 2889841733 2889841733 13.00000000
2.83213210 -4.98545408 1.53634989 38 15 15040 5.93600000 2889841737 2889841737 15.00000000
1.00042176 -1.76680028 -0.54403764 4 0 15048 2.10200000 2889841758 2889841758 -15.00000000
1.17071879 -2.06923842 -0.54888058 3 2 15050 2.44000000 2889841763 2889841763 -13.00000000
2.79522061 -4.94254827 0.29758224 7 3 15051 5.68600000 2889841765 2889841765 3.00000000
1.37623119 -2.43347120 -0.54342401 3 4 15051 2.84800000 2889841767 2889841767 -11.00000000
2.79342771 -4.94139051 0.49661341 9 5 15052 5.69800000 2889841770 2889841770 5.00000000
1.70068789 -3.00963140 -0.54752064 1 6 15053 3.50000000 2889841772 2889841772 -9.00000000
2.81369591 -4.98130178 0.70245492 7 7 15054 5.76400000 2889841774 2889841774 7.00000000
2.19599581 -3.88932467 -0.54841202 2 8 15055 4.50000000 2889841776 2889841776 -7.00000000
2.80887461 -4.97682238 0.90512979 42 9 15056 5.78600000 2889841779 2889841779 9.00000000
2.80270791 -4.96589613 -0.49887946 14 10 15056 5.72400000 2889841781 2889841781 -5.00000000
2.82453728 -5.00661469 1.11737752 42 11 15057 5.85600000 2889841783 2889841783 11.00000000
2.81818867 -4.99943876 1.32496166 43 13 15059 5.89000000 2889841788 2889841788 13.00000000
2.77416539 -4.92335033 -0.09864100 6 14 15060 5.65200000 2889841790 2889841790 -1.00000000
2.82142496 -5.00926685 1.54049098 38 15 15061 5.95200000 2889841793 2889841793 15.00000000
0.99046445 -1.76354408 -0.54196709 4 0 15068 2.09400000 2889841813 2889841813 -15.00000000
2.77328086 -4.93990803 0.09888534 7 1 15069 5.66600000 2889841816 2889841816 1.00000000
1.16730332 -2.08011007 -0.55068016 3 2 15070 2.44800000 2889841818 2889841818 -13.00000000
2.80726433 -5.00453281 0.30072239 2 3 15071 5.74600000 2889841820 2889841820 3.00000000
1.36772835 -2.43826032 -0.54342401 3 4 15071 2.84800000 2889841823 2889841823 -11.00000000
2.79175305 -4.97891665 0.49940240 3 5 15072 5.73000000 2889841825 2889841825 5.00000000
1.67471898 -2.98797894 -0.54251474 1 6 15073 3.46800000 2889841827 2889841827 -9.00000000
2.80987453 -5.01533842 0.70586723 7 7 15074 5.79200000 2889841829 2889841829 7.00000000
2.17270660 -3.87964654 -0.54597467 2 8 15075 4.48000000 2889841832 2889841832 -7.00000000
2.81165957 -5.02057981 0.91138721 40 9 15075 5.82600000 2889841834 2889841834 9.00000000
2.77659774 -4.96000242 -0.49731067 14 10 15076 5.70600000 2889841836 2889841836 -5.00000000
2.81471324 -5.03014994 1.12043047 42 11 15077 5.87200000 2889841839 2889841839 11.00000000
2.77969837 -4.96961021 -0.29841962 6 12 15078 5.70200000 2889841841 2889841841 -3.00000000
2.82354450 -5.05006790 1.33575940 42 13 15079 5.93800000 2889841843 2889841843 13.00000000
2.79793692 -5.00631857 -0.10010701 2 14 15080 5.73600000 2889841846 2889841846 -1.00000000
2.82458997 -5.05400896 1.55136132 40 15 15080 5.99400000 2889841848 2889841848 15.00000000
0.98806292 -1.77374148 -0.54403764 4 0 15088 2.10200000 2889841869 2889841869 -15.00000000
2.77061296 -4.97576523 0.09940891 10 1 15089 5.69600000 2889841871 2889841871 1.00000000
1.16003537 -2.08417201 -0.55068016 3 2 15090 2.44800000 2889841873 2889841873 -13.00000000
2.78201008 -5.00033903 0.29988503 9 3 15091 5.73000000 2889841876 2889841876 3.00000000
1.36684489 -2.45674467 -0.54647696 3 4 15091 2.86400000 2889841878 2889841878 -11.00000000
2.78500819 -5.00778484 0.50131983 12 5 15092 5.75200000 2889841880 2889841880 5.00000000
1.67195714 -3.00761890 -0.54501766 1 6 15093 3.48400000 2889841882 2889841882 -9.00000000
2.80970645 -5.05634975 0.71025455 7 7 15094 5.82800000 2889841885 2889841885 7.00000000
2.16300631 -3.89414859 -0.54694963 2 8 15095 4.48800000 2889841887 2889841887 -7.00000000
2.81617880 -5.07008123 0.91858315 42 9 15095 5.87200000 2889841889 2889841889 9.00000000
2.78538013 -5.01669598 -0.50201708 10 10 15096 5.76000000 2889841892 2889841892 -5.00000000
2.81428623 -5.07084322 1.12729955 42 11 15097 5.90800000 2889841894 2889841894 11.00000000
2.76427197 -4.98277617 -0.29862896 9 12 15098 5.70600000 2889841896 2889841896 -3.00000000
2.82669067 -5.09738684 1.34565723 42 13 15099 5.98200000 2889841899 2889841899 13.00000000
2.77268863 -5.00206280 -0.09982777 13 14 15100 5.72000000 2889841901 2889841901 -1.00000000
2.82659936 -5.09931993 1.56223178 38 15 15100 6.03600000 2889841903 2889841903 15.00000000
0.98529094 -1.78411531 -0.54610819 4 0 15109 2.11000000 2889841924 2889841924 -15.00000000
2.77941680 -5.03490496 0.10038624 7 1 15110 5.75200000 2889841926 2889841926 1.00000000
1.14485669 -2.07476020 -0.54708099 3 2 15111 2.43200000 2889841929 2889841929 -13.00000000
2.79163837 -5.06121922 0.30292052 7 3 15112 5.78800000 2889841931 2889841931 3.00000000
1.35403848 -2.45486140 -0.54495049 3 4 15112 2.85600000 2889841933 2889841933 -11.00000000
2.80222821 -5.08251572 0.50776935 9 5 15113 5.82600000 2889841935 2889841935 5.00000000
1.65996897 -3.01199675 -0.54470479 1 6 15114 3.48200000 2889841938 2889841938 -9.00000000
2.80264926 -5.08747864 0.71317941 7 7 15115 5.85200000 2889841940 2889841940 7.00000000
2.13148332 -3.87075043 -0.54256231 2 8 15116 4.45200000 2889841942 2889841942 -7.00000000
2.81478882 -5.11373758 0.92452770 42 9 15117 5.91000000 2889841945 2889841945 9.00000000
2.77369952 -5.03908920 -0.50323725 10 10 15117 5.77400000 2889841947 2889841947 -5.00000000
2.81461000 -5.11552572 1.13493192 45 11 15118 5.94800000 2889841949 2889841949 11.00000000
2.76620293 -5.02962494 -0.30082709 9 12 15119 5.74800000 2889841952 2889841952 -3.00000000
2.82207108 -5.13332796 1.35240579 19 13 15120 6.01200000 2889841954 2889841954 13.00000000
2.79574800 -5.08754969 -0.10132867 6 14 15121 5.80600000 2889841956 2889841956 -1.00000000
2.82370687 -5.13842773 1.57103157 38 15 15121 6.07000000 2889841958 2889841958 15.00000000
0.98276925 -1.79432118 -0.54817873 4 0 15129 2.11800000 2889841979 2889841979 -15.00000000
2.78679276 -5.09018087 0.10129377 8 1 15130 5.80400000 2889841982 2889841982 1.00000000
1.13386536 -2.07190585 -0.54528135 3 2 15131 2.42400000 2889841984 2889841984 -13.00000000
2.78449821 -5.09020710 0.30407190 7 3 15132 5.81000000 2889841986 2889841986 3.00000000
1.33980799 -2.44923854 -0.54266077 3 4 15132 2.84400000 2889841988 2889841988 -11.00000000
2.80071974 -5.12198400 0.51073265 9 5 15133 5.86000000 2889841991 2889841991 5.00000000
1.65039241 -3.01950598 -0.54501766 1 6 15134 3.48400000 2889841993 2889841993 -9.00000000
2.80390882 -5.13207150 0.71805418 7 7 15135 5.89200000 2889841995 2889841995 7.00000000
2.07038569 -3.79105639 -0.53037536 8 8 15136 4.35200000 2889841998 2889841998 -7.00000000
2.81017256 -5.14780569 0.92890787 30 9 15137 5.93800000 2889842000 2889842000 9.00000000
2.77041268 -5.07497215 -0.50585192 10 10 15137 5.80400000 2889842002 2889842002 -5.00000000
2.81554413 -5.15978718 1.14256430 39 11 15138 5.98800000 2889842005 2889842005 11.00000000
2.78210282 -5.10061884 -0.30449060 9 12 15139 5.81800000 2889842007 2889842007 -3.00000000
2.81999350 -5.17223406 1.36005402 10 13 15140 6.04600000 2889842009 2889842009 13.00000000
2.78562737 -5.11132479 -0.10160791 6 14 15141 5.82200000 2889842011 2889842011 -1.00000000
2.82241368 -5.18097544 1.58086669 38 15 15142 6.10800000 2889842014 2889842014 15.00000000
0.96943450 -1.78399098 -0.54403764 4 0 15148 2.10200000 2889842035 2889842035 -15.00000000
2.78898740 -5.13453817 0.10199186 8 1 15149 5.84400000 2889842037 2889842037 1.00000000
1.13070786 -2.08250475 -0.54708099 3 2 15150 2.43200000 2889842039 2889842039 -13.00000000
2.79332614 -5.14680862 0.30689806 7 3 15151 5.86400000 2889842041 2889842041 3.00000000
1.33167863 -2.45366812 -0.54266077 2 4 15151 2.84400000 2889842044 2889842044 -11.00000000
2.80367064 -5.16802025 0.51439321 9 5 15152 5.90200000 2889842046 2889842046 5.00000000
1.64225364 -3.02843523 -0.54564339 1 6 15153 3.48800000 2889842048 2889842048 -9.00000000
2.81147051 -5.18671656 0.72439140 7 7 15154 5.94400000 2889842051 2889842051 7.00000000
2.07860780 -3.83629918 -0.53573763 10 8 15155 4.39600000 2889842053 2889842053 -7.00000000
2.80719757 -5.18315125 0.93360090 7 9 15156 5.96800000 2889842055 2889842055 9.00000000
2.76874995 -5.11216259 -0.50864089 10 10 15156 5.83600000 2889842058 2889842058 -5.00000000
2.82271981 -5.21398401 1.15248632 43 11 15157 6.04000000 2889842060 2889842060 11.00000000
2.78418422 -5.14494801 -0.30658403 9 12 15158 5.85800000 2889842062 2889842062 -3.00000000
2.78673339 -5.15395546 -0.10227110 9 14 15160 5.86000000 2889842067 2889842067 -1.00000000
2.81806827 -5.21190834 1.58759606 36 15 15160 6.13400000 2889842069 2889842069 15.00000000
0.95770258 -1.77716029 -0.54093182 4 0 15168 2.09000000 2889842090 2889842090 -15.00000000
2.78242755 -5.16536856 0.10241072 8 1 15169 5.86800000 2889842092 2889842092 1.00000000
1.12527943 -2.08987069 -0.54798079 3 2 15170 2.43600000 2889842094 2889842094 -13.00000000
2.79616785 -5.19521952 0.30920082 7 3 15171 5.90800000 2889842097 2889842097 3.00000000
1.32310569 -2.45830154 -0.54266077 2 4 15171 2.84400000 2889842099 2889842099 -11.00000000
2.79316545 -5.19181204 0.51578766 9 5 15172 5.91800000 2889842101 2889842101 5.00000000
1.62605882 -3.02371073 -0.54376620 1 6 15173 3.47600000 2889842104 2889842104 -9.00000000
2.81778550 -5.24195910 0.73072857 7 7 15174 5.99600000 2889842106 2889842106 7.00000000
2.08869362 -3.88724756 -0.54183108 8 8 15175 4.44600000 2889842108 2889842108 -7.00000000
2.80404282 -5.22076273 0.93860680 10 9 15176 6.00000000 2889842111 2889842111 9.00000000
2.77257109 -5.16216660 -0.51265007 11 10 15176 5.88200000 2889842113 2889842113 -5.00000000
2.81657481 -5.24629164 1.15744734 37 11 15177 6.06600000 2889842115 2889842115 11.00000000
2.78792977 -5.19511175 -0.30899149 21 12 15178 5.90400000 2889842117 2889842117 -3.00000000
2.81972694 -5.25656557 1.37715030 44 13 15179 6.12200000 2889842120 2889842120 13.00000000
2.78195524 -5.18832445 -0.10275977 11 14 15180 5.88800000 2889842122 2889842122 -1.00000000
2.81902885 -5.25746679 1.59846640 38 15 15180 6.17600000 2889842124 2889842124 15.00000000
0.95877743 -1.79412305 -0.54507291 4 0 15188 2.10600000 2889842146 2889842146 -15.00000000
2.78510809 -5.21385384 0.10317863 8 1 15189 5.91200000 2889842148 2889842148 1.00000000
1.11981332 -2.09722400 -0.54888058 3 2 15190 2.44000000 2889842151 2889842151 -13.00000000
2.79397631 -5.23265266 0.31087559 7 3 15190 5.94000000 2889842153 2889842153 3.00000000
1.31821418 -2.46983314 -0.54418725 2 4 15191 2.85200000 2889842155 2889842155 -11.00000000
2.78909302 -5.22789860 0.51840234 9 5 15192 5.94800000 2889842158 2889842158 5.00000000
1.60341060 -3.00670910 -0.53969890 1 6 15193 3.45000000 2889842160 2889842160 -9.00000000
2.80694056 -5.26577711 0.73267847 7 7 15194 6.01200000 2889842162 2889842162 7.00000000
2.13578749 -4.00838947 -0.55767411 6 8 15195 4.57600000 2889842164 2889842164 -7.00000000
2.81365299 -5.28058958 0.94768000 22 9 15195 6.05800000 2889842167 2889842167 9.00000000
2.76952052 -5.19994926 -0.51543903 11 10 15196 5.91400000 2889842169 2889842169 -5.00000000
2.81116104 -5.28035307 1.16279006 34 11 15197 6.09400000 2889842171 2889842171 11.00000000
2.76696372 -5.19952250 -0.30867746 25 12 15198 5.89800000 2889842174 2889842174 -3.00000000
2.82149482 -5.30422640 1.38704824 38 13 15199 6.16600000 2889842176 2889842176 13.00000000
2.76758265 -5.20506620 -0.10289939 24 14 15200 5.89600000 2889842178 2889842178 -1.00000000
2.82242656 -5.30821228 1.61088979 36 15 15200 6.22400000 2889842181 2889842181 15.00000000
0.95703179 -1.80599380 -0.54766113 4 0 15208 2.11600000 2889842201 2889842201 -15.00000000
2.79122806 -5.26948833 0.10408615 8 1 15209 5.96400000 2889842204 2889842204 1.00000000
1.10883832 -2.09423113 -0.54708099 3 2 15210 2.43200000 2889842206 2889842206 -13.00000000
2.79066133 -5.27286768 0.31265500 7 3 15211 5.97400000 2889842208 2889842208 3.00000000
1.31325829 -2.48136044 -0.54571372 2 4 15211 2.86000000 2889842211 2889842211 -11.00000000
2.79505110 -5.28339195 0.52293444 9 5 15212 6.00000000 2889842213 2889842213 5.00000000
2.76288295 -5.22479105 -0.93610382 2 6 15213 5.98400000 2889842215 2889842215 -9.00000000
2.80152988 -5.30011320 0.73609084 7 7 15214 6.04000000 2889842217 2889842217 7.00000000
2.07912445 -3.93508291 -0.54646212 2 8 15215 4.48400000 2889842220 2889842220 -7.00000000
2.80258226 -5.30658722 0.95049584 7 9 15216 6.07600000 2889842222 2889842222 9.00000000
2.77833557 -5.26067686 -0.52049410 11 10 15216 5.97200000 2889842224 2889842224 -5.00000000
2.81104279 -5.32485723 1.17042243 43 11 15217 6.13400000 2889842227 2889842227 11.00000000
2.74413657 -5.20031738 -0.30815411 31 12 15218 5.88800000 2889842229 2889842229 -3.00000000
2.81750917 -5.34162188 1.39424658 8 13 15219 6.19800000 2889842231 2889842231 13.00000000
2.74286842 -5.20231295 -0.10265505 24 14 15220 5.88200000 2889842234 2889842234 -1.00000000
2.82096577 -5.35270214 1.62124252 36 15 15221 6.26400000 2889842236 2889842236 15.00000000
0.94712746 -1.80248284 -0.54559052 4 0 15228 2.10800000 2889842257 2889842257 -15.00000000
2.78304553 -5.29867315 0.10447010 8 1 15229 5.98600000 2889842259 2889842259 1.00000000
1.09970963 -2.09463811 -0.54618114 3 2 15230 2.42800000 2889842261 2889842261 -13.00000000
2.78987193 -5.31392336 0.31453910 7 3 15230 6.01000000 2889842264 2889842264 3.00000000
1.29729033 -2.47202206 -0.54266077 3 4 15231 2.84400000 2889842266 2889842266 -11.00000000
2.79972982 -5.33722544 0.52729225 9 5 15232 6.05000000 2889842268 2889842268 5.00000000
2.73270297 -5.21166039 -0.93203652 2 6 15233 5.95800000 2889842270 2889842270 -9.00000000
2.80512857 -5.35205793 0.74194056 7 7 15234 6.08800000 2889842273 2889842273 7.00000000
2.05800605 -3.92824912 -0.54451221 2 8 15235 4.46800000 2889842275 2889842275 -7.00000000
2.80878472 -5.36358595 0.95894325 10 9 15236 6.13000000 2889842277 2889842277 9.00000000
2.77289557 -5.29505348 -0.52293444 11 10 15236 6.00000000 2889842280 2889842280 -5.00000000
2.81520057 -5.37812138 1.17996287 43 11 15237 6.18400000 2889842282 2889842282 11.00000000
2.72041178 -5.19924641 -0.30752608 31 12 15238 5.87600000 2889842284 2889842284 -3.00000000
2.80968404 -5.37214613 1.39964545 29 13 15239 6.22200000 2889842287 2889842287 13.00000000
2.71542764 -5.19413424 -0.10230601 24 14 15240 5.86200000 2889842289 2889842289 -1.00000000
2.82289052 -5.39969158 1.63263059 40 15 15240 6.30800000 2889842291 2889842291 15.00000000
0.94172245 -1.80749130 -0.54610819 4 0 15248 2.11000000 2889842312 2889842312 -15.00000000
2.78762436 -5.35269547 0.10534272 8 1 15249 6.03600000 2889842314 2889842314 1.00000000
1.09419096 -2.10192108 -0.54708099 3 2 15250 2.43200000 2889842316 2889842316 -13.00000000
2.79067278 -5.36083269 0.31673720 7 3 15250 6.05200000 2889842319 2889842319 3.00000000
1.28684092 -2.47305226 -0.54189754 3 4 15251 2.84000000 2889842321 2889842321 -11.00000000
2.79855037 -5.38054991 0.53060418 9 5 15252 6.08800000 2889842323 2889842323 5.00000000
2.72087264 -5.23343658 -0.93422663 2 6 15253 5.97200000 2889842326 2889842326 -9.00000000
2.81022930 -5.40761423 0.74827778 7 7 15254 6.14000000 2889842328 2889842328 7.00000000
2.05251694 -3.95126343 -0.54670590 2 8 15255 4.48600000 2889842330 2889842330 -7.00000000
2.80369949 -5.39965487 0.96363628 20 9 15256 6.16000000 2889842333 2889842333 9.00000000
2.77092195 -5.33652830 -0.52607208 11 10 15256 6.03600000 2889842335 2889842335 -5.00000000
2.81721139 -5.42799377 1.18874002 37 11 15257 6.23000000 2889842337 2889842337 11.00000000
2.70040679 -5.20516491 -0.30731672 31 12 15258 5.87200000 2889842340 2889842340 -3.00000000
2.81244540 -5.42343998 1.41044307 43 13 15259 6.27000000 2889842342 2889842342 13.00000000
2.69175863 -5.19292879 -0.10209658 24 14 15260 5.85000000 2889842344 2889842344 -1.00000000
2.81824946 -5.43695450 1.64091277 38 15 15260 6.34000000 2889842346 2889842346 15.00000000
0.93274748 -1.80561841 -0.54455525 4 0 15268 2.10400000 2889842367 2889842367 -15.00000000
2.78360248 -5.39082241 0.10590120 8 1 15269 6.06800000 2889842369 2889842369 1.00000000
1.09042227 -2.11265445 -0.54888058 3 2 15270 2.44000000 2889842372 2889842372 -13.00000000
2.79115176 -5.41007423 0.31904000 7 3 15271 6.09600000 2889842374 2889842374 3.00000000
1.27820051 -2.47752905 -0.54189754 3 4 15271 2.84000000 2889842376 2889842376 -11.00000000
2.79162312 -5.41330624 0.53287023 9 5 15272 6.11400000 2889842379 2889842379 5.00000000
2.68991685 -5.21832037 -0.92984647 2 6 15273 5.94400000 2889842381 2889842381 -9.00000000
2.81497598 -5.46327114 0.75461495 7 7 15274 6.19200000 2889842383 2889842383 7.00000000
2.03598523 -3.95310974 -0.54597467 2 8 15275 4.48000000 2889842386 2889842386 -7.00000000
2.80929446 -5.45458221 0.97177088 42 9 15275 6.21200000 2889842388 2889842388 9.00000000
2.75592494 -5.35325384 -0.52676928 11 10 15276 6.04400000 2889842390 2889842390 -5.00000000
2.80902672 -5.45874262 1.19331944 37 11 15277 6.25400000 2889842393 2889842393 11.00000000
2.67856669 -5.20745516 -0.30689806 31 12 15278 5.86400000 2889842395 2889842395 -3.00000000
2.81488252 -5.47481823 1.42124081 46 13 15279 6.31800000 2889842397 2889842397 13.00000000
2.66630316 -5.18806505 -0.10181734 24 14 15280 5.83400000 2889842399 2889842399 -1.00000000
2.81242704 -5.47474146 1.64919496 40 15 15281 6.37200000 2889842402 2889842402 15.00000000
0.92643899 -1.80886328 -0.54455525 4 0 15288 2.10400000 2889842422 2889842422 -15.00000000
2.77752566 -5.42542601 0.10638987 8 1 15289 6.09600000 2889842425 2889842425 1.00000000
1.08304119 -2.11644793 -0.54888058 3 2 15290 2.44000000 2889842427 2889842427 -13.00000000
2.79594207 -5.46374989 0.32165679 7 3 15290 6.14600000 2889842429 2889842429 3.00000000
1.27133262 -2.48547149 -0.54266077 3 4 15291 2.84400000 2889842432 2889842432 -11.00000000
2.78903627 -5.45494938 0.53600782 9 5 15292 6.15000000 2889842434 2889842434 5.00000000
2.66898823 -5.22240114 -0.92890787 2 6 15293 5.93800000 2889842436 2889842436 -9.00000000
2.80491924 -5.49074173 0.75705236 7 7 15294 6.21200000 2889842439 2889842439 7.00000000
2.01856279 -3.95312071 -0.54499972 2 8 15295 4.47200000 2889842441 2889842441 -7.00000000
2.80365205 -5.49299335 0.97677678 40 9 15296 6.24400000 2889842443 2889842443 9.00000000
2.44737697 -4.79496908 -0.47098964 3 10 15296 5.40400000 2889842446 2889842446 -5.00000000
2.80690718 -5.50174236 1.20057023 40 11 15297 6.29200000 2889842448 2889842448 11.00000000
2.65129948 -5.19898081 -0.30585134 31 12 15298 5.84400000 2889842450 2889842450 -3.00000000
2.81522489 -5.52280664 1.43113863 47 13 15299 6.36200000 2889842452 2889842452 13.00000000
2.64817715 -5.19734049 -0.10181734 24 14 15300 5.83400000 2889842455 2889842455 -1.00000000
2.81784844 -5.53272581 1.66368878 38 15 15301 6.42800000 2889842457 2889842457 15.00000000
0.92425269 -1.81865370 -0.54662585 4 0 15306 2.11200000 2889842478 2889842478 -15.00000000
2.78039217 -5.47334766 0.10715777 8 1 15307 6.14000000 2889842480 2889842480 1.00000000
1.06932855 -2.10593939 -0.54528135 3 2 15308 2.42400000 2889842482 2889842482 -13.00000000
2.79051852 -5.49565744 0.32301751 7 3 15308 6.17200000 2889842485 2889842485 3.00000000
1.26351810 -2.48945332 -0.54266077 3 4 15309 2.84400000 2889842487 2889842487 -11.00000000
2.79442096 -5.50810480 0.54036558 9 5 15310 6.20000000 2889842489 2889842489 5.00000000
2.64988828 -5.22547531 -0.92796922 2 6 15311 5.93200000 2889842492 2889842492 -9.00000000
2.80022073 -5.52431488 0.76046473 7 7 15312 6.24000000 2889842494 2889842494 7.00000000
2.00254512 -3.95235968 -0.54402477 2 8 15313 4.46400000 2889842496 2889842496 -7.00000000
2.80519795 -5.53653002 0.98303419 40 9 15313 6.28400000 2889842499 2889842499 9.00000000
2.69875598 -5.32875538 -0.52258581 11 10 15314 5.99600000 2889842501 2889842501 -5.00000000
2.80823016 -5.54731655 1.20858419 37 11 15315 6.33400000 2889842503 2889842503 11.00000000
2.61331105 -5.16451406 -0.30333921 30 12 15316 5.79600000 2889842505 2889842505 -3.00000000
4.66867161 -9.23038673 2.38808036 30 13 15317 10.61600000 2889842508 2889842508 13.00000000
2.66070795 -5.26274109 -0.10293429 24 14 15318 5.89800000 2889842510 2889842510 -1.00000000
3.60469007 -7.13297939 2.14146876 11 15 15319 8.27400000 2889842512 2889842512 15.00000000
0.91963720 -1.82531929 -0.54766113 4 0 15326 2.11600000 2889842533 2889842533 -15.00000000
2.78465509 -5.52945566 0.10806530 8 1 15327 6.19200000 2889842535 2889842535 1.00000000
1.06372333 -2.11314058 -0.54618114 3 2 15328 2.42800000 2889842538 2889842538 -13.00000000
2.77401233 -5.51071644 0.32333153 2 3 15328 6.17800000 2889842540 2889842540 3.00000000
1.25482059 -2.49384856 -0.54266077 3 4 15329 2.84400000 2889842542 2889842542 -11.00000000
2.78591967 -5.53918457 0.54245734 9 5 15330 6.22400000 2889842545 2889842545 5.00000000
1.54029417 -3.06386614 -0.54314047 1 6 15331 3.47200000 2889842547 2889842547 -9.00000000
2.79963803 -5.57130432 0.76558322 10 7 15332 6.28200000 2889842549 2889842549 7.00000000
1.98517251 -3.95223022 -0.54304981 2 8 15333 4.45600000 2889842552 2889842552 -7.00000000
2.75791454 -5.49305296 -0.53775096 11 10 15334 6.17000000 2889842556 2889842556 -5.00000000
5.20520639 -10.37193966 2.25574398 34 11 15335 11.82200000 2889842558 2889842558 11.00000000
2.75109100 -5.48423529 -0.32155213 32 12 15336 6.14400000 2889842561 2889842561 -3.00000000
4.62943506 -9.23269081 2.38448119 48 13 15337 10.60000000 2889842563 2889842563 13.00000000
2.75342607 -5.49367428 -0.10726249 24 14 15338 6.14600000 2889842565 2889842565 -1.00000000
3.57630801 -7.13860989 2.13939834 15 15 15339 8.26600000 2889842568 2889842568 15.00000000
0.91153365 -1.82506180 -0.54662585 4 0 15346 2.11200000 2889842588 2889842588 -15.00000000
2.78409386 -5.57671404 0.10879830 5 1 15347 6.23400000 2889842591 2889842591 1.00000000
1.05808091 -2.12032819 -0.54708099 3 2 15348 2.43200000 2889842593 2889842593 -13.00000000
2.77437901 -5.55968237 0.32563433 10 3 15348 6.22200000 2889842595 2889842595 3.00000000
1.24786043 -2.50172710 -0.54342401 3 4 15349 2.84800000 2889842598 2889842598 -11.00000000
1.52254117 -3.05508018 -0.54063749 1 6 15351 3.45600000 2889842602 2889842602 -9.00000000
2.73407388 -5.49090147 -0.75315255 4 8 15353 6.18000000 2889842607 2889842607 -7.00000000
2.59046841 -5.20477200 -0.50864089 14 10 15354 5.83600000 2889842611 2889842611 -5.00000000
5.18121243 -10.41465473 2.26108670 37 11 15355 11.85000000 2889842614 2889842614 11.00000000
2.74171305 -5.51347685 -0.32270351 32 12 15356 6.16600000 2889842616 2889842616 -3.00000000
4.61018991 -9.27497005 2.39122963 46 13 15357 10.63000000 2889842618 2889842618 13.00000000
2.72533512 -5.48534346 -0.10691344 24 14 15358 6.12600000 2889842621 2889842621 -1.00000000
3.54831815 -7.14177990 2.13681006 13 15 15358 8.25600000 2889842623 2889842623 15.00000000
0.89830023 -1.81438231 -0.54248470 4 0 15366 2.09600000 2889842644 2889842644 -15.00000000
2.75574112 -5.56847620 0.10844925 8 1 15367 6.21400000 2889842646 2889842646 1.00000000
1.05240119 -2.12750196 -0.54798079 3 2 15368 2.43600000 2889842648 2889842648 -13.00000000
1.23215878 -2.49198866 -0.54037106 3 4 15369 2.83200000 2889842653 2889842653 -11.00000000
1.51186764 -3.06037641 -0.54063749 1 6 15371 3.45600000 2889842657 2889842657 -9.00000000
2.72016191 -5.51109219 -0.75461495 6 8 15373 6.19200000 2889842662 2889842662 -7.00000000
2.76181197 -5.59793758 -0.54611790 15 10 15374 6.26600000 2889842667 2889842667 -5.00000000
5.15437841 -10.45204544 2.26528430 37 11 15375 11.87200000 2889842669 2889842669 11.00000000
2.71450329 -5.50689077 -0.32176146 32 12 15376 6.14800000 2889842671 2889842671 -3.00000000
4.58984423 -9.31547928 2.39752841 48 13 15377 10.65800000 2889842674 2889842674 13.00000000
2.70440412 -5.49123526 -0.10684364 24 14 15378 6.12200000 2889842676 2889842676 -1.00000000
3.51443934 -7.13913822 2.13215137 11 15 15379 8.23800000 2889842678 2889842678 15.00000000
0.89536577 -1.82444394 -0.54455525 4 0 15386 2.10400000 2889842699 2889842699 -15.00000000
1.04496837 -2.13116264 -0.54798079 3 2 15388 2.43600000 2889842704 2889842704 -13.00000000
1.22863674 -2.50685191 -0.54266077 3 4 15389 2.84400000 2889842708 2889842708 -11.00000000
1.48727596 -3.03724957 -0.53563160 1 6 15391 3.42400000 2889842713 2889842713 -9.00000000
2.70265293 -5.52412033 -0.75510246 6 8 15393 6.19600000 2889842717 2889842717 -7.00000000
2.75625920 -5.63618135 -0.54890686 31 10 15394 6.29800000 2889842722 2889842722 -5.00000000
5.12562227 -10.48584843 2.26871896 31 11 15395 11.89000000 2889842724 2889842724 11.00000000
2.68824959 -5.50197649 -0.32092407 32 12 15396 6.13200000 2889842727 2889842727 -3.00000000
4.56585121 -9.34895420 2.40202737 48 13 15397 10.67800000 2889842729 2889842729 13.00000000
2.68346524 -5.49704790 -0.10677382 24 14 15398 6.11800000 2889842731 2889842731 -1.00000000
3.48650837 -7.14207268 2.12956309 11 15 15398 8.22800000 2889842734 2889842734 15.00000000
0.89406210 -1.83798158 -0.54766113 4 0 15406 2.11600000 2889842754 2889842754 -15.00000000
1.03241193 -2.12428093 -0.54528135 3 2 15408 2.42400000 2889842759 2889842759 -13.00000000
1.22331011 -2.51818919 -0.54418725 3 4 15409 2.85200000 2889842763 2889842763 -11.00000000
1.48615277 -3.06197095 -0.53907317 1 6 15411 3.44600000 2889842768 2889842768 -9.00000000
2.67122746 -5.50851440 -0.75169009 6 8 15413 6.16800000 2889842773 2889842773 -7.00000000
2.75481820 -5.68341875 -0.55256742 23 10 15414 6.34000000 2889842777 2889842777 -5.00000000
4.51546097 -9.31991482 2.01303482 12 11 15415 10.55000000 2889842780 2889842780 11.00000000
2.66032267 -5.49335098 -0.31987736 32 12 15416 6.11200000 2889842782 2889842782 -3.00000000
4.54252911 -9.38412952 2.40697622 51 13 15417 10.70000000 2889842784 2889842784 13.00000000
2.64945436 -5.47578049 -0.10618044 29 14 15418 6.08400000 2889842787 2889842787 -1.00000000
3.45946670 -7.15306425 2.12904549 9 15 15419 8.22600000 2889842789 2889842789 15.00000000
0.88764095 -1.84109128 -0.54766113 4 0 15426 2.11600000 2889842810 2889842810 -15.00000000
1.02329910 -2.12436056 -0.54438156 3 2 15428 2.42000000 2889842814 2889842814 -13.00000000
1.21110582 -2.51536846 -0.54266077 3 4 15429 2.84400000 2889842819 2889842819 -11.00000000
1.47459912 -3.06535983 -0.53876030 1 6 15431 3.44400000 2889842823 2889842823 -9.00000000
2.63822412 -5.48917818 -0.74779028 6 8 15433 6.13600000 2889842828 2889842828 -7.00000000
2.73755074 -5.69838762 -0.55309033 19 10 15434 6.34600000 2889842833 2889842833 -5.00000000
5.07523823 -10.56916046 2.27902269 25 11 15435 11.94400000 2889842835 2889842835 11.00000000
2.62471032 -5.46839285 -0.31788859 45 12 15436 6.07400000 2889842837 2889842837 -3.00000000
4.51395941 -9.40871429 2.40922570 48 13 15437 10.71000000 2889842840 2889842840 13.00000000
2.62254214 -5.46876764 -0.10586630 33 14 15438 6.06600000 2889842842 2889842842 -1.00000000
3.42904472 -7.15056181 2.12490439 6 15 15438 8.21000000 2889842844 2889842844 15.00000000
0.87954313 -1.84069228 -0.54662585 4 0 15446 2.11200000 2889842865 2889842865 -15.00000000
1.01755667 -2.13143682 -0.54528135 3 2 15448 2.42400000 2889842869 2889842869 -13.00000000
1.46899080 -3.08118701 -0.54063749 3 6 15451 3.45600000 2889842879 2889842879 -9.00000000
2.61221790 -5.48401690 -0.74584037 6 8 15453 6.12000000 2889842883 2889842883 -7.00000000
2.71592999 -5.70431089 -0.55274171 15 10 15454 6.34200000 2889842888 2889842888 -5.00000000
5.05265617 -10.61694813 2.28551006 34 11 15455 11.97800000 2889842890 2889842890 11.00000000
2.60732198 -5.48112869 -0.31809795 35 12 15456 6.07800000 2889842892 2889842892 -3.00000000
4.49364138 -9.45081234 2.41597438 51 13 15457 10.74000000 2889842895 2889842895 13.00000000
2.60086131 -5.47247076 -0.10576158 29 14 15458 6.06000000 2889842897 2889842897 -1.00000000
3.40032673 -7.15784693 2.12335134 6 15 15459 8.20400000 2889842899 2889842899 15.00000000
0.87063211 -1.83851337 -0.54507291 4 0 15466 2.10600000 2889842920 2889842920 -15.00000000
1.01511085 -2.14554501 -0.54798079 3 2 15468 2.43600000 2889842925 2889842925 -13.00000000
1.19183719 -2.52021241 -0.54189754 3 4 15469 2.84000000 2889842929 2889842929 -11.00000000
1.44809985 -3.06486344 -0.53688306 3 6 15471 3.43200000 2889842934 2889842934 -9.00000000
2.59814382 -5.50387239 -0.74730283 9 8 15473 6.13200000 2889842939 2889842939 -7.00000000
2.68834996 -5.69753981 -0.55117291 15 10 15474 6.32400000 2889842943 2889842943 -5.00000000
2.58817339 -5.49019623 -0.31809795 35 12 15476 6.07800000 2889842948 2889842948 -3.00000000
4.48222160 -9.51227474 2.42767167 55 13 15477 10.79200000 2889842950 2889842950 13.00000000
2.58174300 -5.48151588 -0.10576158 33 14 15478 6.06000000 2889842952 2889842952 -1.00000000
3.36751699 -7.14985895 2.11765742 6 15 15478 8.18200000 2889842955 2889842955 15.00000000
0.86502993 -1.84329009 -0.54559052 4 0 15486 2.10800000 2889842975 2889842975 -15.00000000
0.99934262 -2.13143086 -0.54348177 3 2 15488 2.41600000 2889842980 2889842980 -13.00000000
1.18136644 -2.52080202 -0.54113430 3 4 15489 2.83600000 2889842985 2889842985 -11.00000000
1.44409382 -3.08421135 -0.53938603 3 6 15491 3.44800000 2889842989 2889842989 -9.00000000
2.57891583 -5.51290798 -0.74730283 6 8 15493 6.13200000 2889842994 2889842994 -7.00000000
2.66675758 -5.70327950 -0.55082428 15 10 15494 6.32000000 2889842998 2889842998 -5.00000000
2.56730270 -5.49557829 -0.31788859 35 12 15496 6.07400000 2889843003 2889843003 -3.00000000
4.45641088 -9.54375362 2.43172097 53 13 15497 10.81000000 2889843005 2889843005 13.00000000
2.56005597 -5.48505831 -0.10565687 31 14 15498 6.05400000 2889843008 2889843008 -1.00000000
3.34863949 -7.17790985 2.12231612 6 15 15499 8.20000000 2889843010 2889843010 15.00000000
0.86103415 -1.85155344 -0.54714346 4 0 15506 2.11400000 2889843031 2889843031 -15.00000000
0.99518090 -2.14197564 -0.54528135 3 2 15508 2.42400000 2889843035 2889843035 -13.00000000
1.43664467 -3.09640098 -0.54063749 1 6 15511 3.45600000 2889843045 2889843045 -9.00000000
2.55631709 -5.51467276 -0.74632788 9 8 15513 6.12400000 2889843049 2889843049 -7.00000000
2.65018368 -5.71978474 -0.55152154 15 10 15514 6.32800000 2889843054 2889843054 -5.00000000
2.54390883 -5.49544382 -0.31736523 39 12 15516 6.06400000 2889843058 2889843058 -3.00000000
4.42797947 -9.56986332 2.43442035 52 13 15517 10.82200000 2889843061 2889843061 13.00000000
2.54425168 -5.50122118 -0.10579649 33 14 15518 6.06200000 2889843063 2889843063 -1.00000000
3.58431625 -7.75006533 2.28796029 27 15 15518 8.84000000 2889843065 2889843065 15.00000000
0.85699123 -1.85981143 -0.54869640 4 0 15526 2.12000000 2889843086 2889843086 -15.00000000
0.98769796 -2.14543629 -0.54528135 3 2 15528 2.42400000 2889843091 2889843091 -13.00000000
1.16702211 -2.53612208 -0.54266077 3 4 15529 2.84400000 2889843095 2889843095 -11.00000000
1.42170179 -3.09242296 -0.53907317 1 6 15531 3.44600000 2889843100 2889843100 -9.00000000
2.53042316 -5.50913095 -0.74437797 9 8 15533 6.10800000 2889843104 2889843104 -7.00000000
2.62687659 -5.72175789 -0.55082428 11 10 15534 6.32000000 2889843109 2889843109 -5.00000000
2.52054715 -5.49521351 -0.31684187 35 12 15536 6.05400000 2889843114 2889843114 -3.00000000
4.39779615 -9.59234715 2.43621993 45 13 15537 10.83000000 2889843116 2889843116 13.00000000
2.51836872 -5.49552536 -0.10551725 33 14 15538 6.04600000 2889843118 2889843118 -1.00000000
3.56473637 -7.78247070 2.29365444 31 15 15539 8.86200000 2889843121 2889843121 15.00000000
0.84198993 -1.84331369 -0.54300237 4 0 15545 2.09800000 2889843141 2889843141 -15.00000000
0.98057801 -2.14869976 -0.54528135 3 2 15547 2.42400000 2889843146 2889843146 -13.00000000
1.41143918 -3.09712052 -0.53907317 1 6 15550 3.44600000 2889843155 2889843155 -9.00000000
2.51214027 -5.51749182 -0.74437797 9 8 15552 6.10800000 2889843160 2889843160 -7.00000000
2.60293627 -5.71955681 -0.54977840 11 10 15553 6.30800000 2889843164 2889843164 -5.00000000
2.50561714 -5.51081419 -0.31726056 35 12 15555 6.06200000 2889843169 2889843169 -3.00000000
4.37563801 -9.62816715 2.44161868 50 13 15556 10.85400000 2889843171 2889843171 13.00000000
2.50095820 -5.50566721 -0.10555215 36 14 15557 6.04800000 2889843174 2889843174 -1.00000000
3.53547549 -7.78307772 2.29054856 33 15 15557 8.85000000 2889843176 2889843176 15.00000000
0.83475387 -1.84448159 -0.54248470 4 0 15565 2.09600000 2889843197 2889843197 -15.00000000
0.97628307 -2.15921235 -0.54708099 3 2 15567 2.43200000 2889843201 2889843201 -13.00000000
1.14811528 -2.54042888 -0.54189754 3 4 15568 2.84000000 2889843206 2889843206 -11.00000000
1.39736795 -3.09482718 -0.53782171 3 6 15570 3.43800000 2889843210 2889843210 -9.00000000
2.49123287 -5.52260828 -0.74389046 9 8 15572 6.10400000 2889843215 2889843215 -7.00000000
2.57722282 -5.71589375 -0.54855824 11 10 15573 6.29400000 2889843220 2889843220 -5.00000000
2.48636556 -5.51952696 -0.31726056 35 12 15575 6.06200000 2889843224 2889843224 -3.00000000
4.35160351 -9.66470528 2.44701767 50 13 15576 10.87800000 2889843227 2889843227 13.00000000
2.47926259 -5.50889301 -0.10544744 31 14 15577 6.04200000 2889843229 2889843229 -1.00000000
3.50511479 -7.78832483 2.28847790 33 15 15577 8.84200000 2889843231 2889843231 15.00000000
0.83226222 -1.85619807 -0.54507291 4 0 15585 2.10600000 2889843252 2889843252 -15.00000000
0.96236682 -2.14837933 -0.54348177 3 2 15587 2.41600000 2889843257 2889843257 -13.00000000
1.13603139 -2.53725362 -0.54037106 3 4 15588 2.83200000 2889843261 2889843261 -11.00000000
1.37365079 -3.07083488 -0.53281581 3 6 15590 3.40600000 2889843266 2889843266 -9.00000000
2.47841978 -5.54576921 -0.74584037 9 8 15592 6.12000000 2889843270 2889843270 -7.00000000
2.55156684 -5.71212101 -0.54733807 11 10 15593 6.28000000 2889843275 2889843275 -5.00000000
2.46382785 -5.52087688 -0.31684187 35 12 15595 6.05400000 2889843280 2889843280 -3.00000000
4.33054256 -9.70831203 2.45421600 55 13 15596 10.91000000 2889843282 2889843282 13.00000000
2.46246076 -5.52299261 -0.10555215 38 14 15597 6.04800000 2889843284 2889843284 -1.00000000
3.48105383 -7.80756998 2.29054856 33 15 15597 8.85000000 2889843286 2889843286 15.00000000
0.82969886 -1.86791945 -0.54766113 4 0 15605 2.11600000 2889843307 2889843307 -15.00000000
0.95486170 -2.15172553 -0.54348177 3 2 15607 2.41600000 2889843312 2889843312 -13.00000000
1.12875986 -2.54479289 -0.54113430 3 4 15608 2.83600000 2889843316 2889843316 -11.00000000
1.36932564 -3.09005904 -0.53531873 1 6 15610 3.42200000 2889843321 2889843321 -9.00000000
2.45342088 -5.54168081 -0.74413419 9 8 15612 6.10600000 2889843326 2889843326 -7.00000000
2.54612470 -5.75378847 -0.55047566 7 10 15613 6.31600000 2889843330 2889843330 -5.00000000
2.44131112 -5.52213669 -0.31642318 35 12 15615 6.04600000 2889843335 2889843335 -3.00000000
4.14146090 -9.37222290 2.36558533 37 13 15616 10.51600000 2889843337 2889843337 13.00000000
2.44316697 -5.53155470 -0.10555215 36 14 15617 6.04800000 2889843339 2889843339 -1.00000000
3.45709538 -7.83088017 2.29365444 33 15 15618 8.86200000 2889843342 2889843342 15.00000000
0.82161748 -1.86726773 -0.54662585 4 0 15625 2.11200000 2889843363 2889843363 -15.00000000
0.95048183 -2.16218138 -0.54528135 4 2 15627 2.42400000 2889843367 2889843367 -13.00000000
1.11671102 -2.54152799 -0.53960782 3 4 15628 2.82800000 2889843372 2889843372 -11.00000000
1.36408901 -3.10748148 -0.53750885 3 6 15630 3.43600000 2889843376 2889843376 -9.00000000
2.42768383 -5.53566742 -0.74218428 9 8 15632 6.09000000 2889843381 2889843381 -7.00000000
2.51962566 -5.74804306 -0.54908121 7 10 15633 6.30000000 2889843386 2889843386 -5.00000000
2.42282152 -5.53245401 -0.31652787 39 12 15635 6.04800000 2889843390 2889843390 -3.00000000
4.26969385 -9.75437546 2.45826507 48 13 15636 10.92800000 2889843392 2889843392 13.00000000
2.41903400 -5.52905703 -0.10534272 36 14 15637 6.03600000 2889843395 2889843395 -1.00000000
3.43110824 -7.84230137 2.29365444 33 15 15637 8.86200000 2889843397 2889843397 15.00000000
0.81355077 -1.86658251 -0.54559052 4 0 15645 2.10800000 2889843418 2889843418 -15.00000000
0.93981665 -2.15833926 -0.54348177 3 2 15647 2.41600000 2889843422 2889843422 -13.00000000
1.10783267 -2.54541039 -0.53960782 3 4 15648 2.82800000 2889843427 2889843427 -11.00000000
1.35165823 -3.10860109 -0.53688306 1 6 15650 3.43200000 2889843432 2889843432 -9.00000000
2.40597320 -5.53864574 -0.74145311 9 8 15652 6.08400000 2889843436 2889843436 -7.00000000
2.49795890 -5.75314808 -0.54873258 7 10 15653 6.29600000 2889843441 2889843441 -5.00000000
2.40111041 -5.53538084 -0.31621385 35 12 15655 6.04200000 2889843445 2889843445 -3.00000000
4.25189734 -9.80676556 2.46771312 50 13 15656 10.97000000 2889843448 2889843448 13.00000000
2.39097285 -5.51728439 -0.10495877 24 14 15657 6.01400000 2889843450 2889843450 -1.00000000
3.40294456 -7.85245752 2.29313684 36 15 15657 8.86000000 2889843452 2889843452 15.00000000
0.80549884 -1.86586368 -0.54455525 4 0 15665 2.10400000 2889843473 2889843473 -15.00000000
0.93536395 -2.16876435 -0.54528135 3 2 15667 2.42400000 2889843478 2889843478 -13.00000000
1.09738636 -2.54565620 -0.53884459 3 4 15668 2.82400000 2889843482 2889843482 -11.00000000
1.33689213 -3.10422897 -0.53531873 1 6 15670 3.42200000 2889843487 2889843487 -9.00000000
2.38191772 -5.53606939 -0.73999065 4 8 15672 6.07200000 2889843491 2889843491 -7.00000000
2.47156429 -5.74719000 -0.54733807 7 10 15673 6.28000000 2889843496 2889843496 -5.00000000
4.22840500 -9.84661674 2.47401166 48 13 15676 10.99800000 2889843503 2889843503 13.00000000
3.37475157 -7.86251307 2.29261899 33 15 15677 8.85800000 2889843508 2889843508 15.00000000
0.79746187 -1.86511135 -0.54351997 4 0 15685 2.10000000 2889843528 2889843528 -15.00000000
0.92166382 -2.15767932 -0.54168212 3 2 15687 2.40800000 2889843533 2889843533 -13.00000000
1.09311903 -2.56030488 -0.54113430 3 4 15688 2.83600000 2889843538 2889843538 -11.00000000
1.32604825 -3.10887671 -0.53531873 3 6 15690 3.42200000 2889843542 2889843542 -9.00000000
1.73380280 -4.06877899 -0.54304981 2 8 15692 4.45600000 2889843547 2889843547 -7.00000000
2.45148802 -5.75578213 -0.54733807 7 10 15693 6.28000000 2889843551 2889843551 -5.00000000
3.90450287 -9.17615986 -0.52262688 4 12 15695 9.98600000 2889843556 2889843556 -3.00000000
4.20316029 -9.88283634 2.47941041 44 13 15696 11.02200000 2889843558 2889843558 13.00000000
3.34893322 -7.88194132 2.29468966 33 15 15698 8.86600000 2889843563 2889843563 15.00000000
0.79245311 -1.87144160 -0.54455525 4 0 15705 2.10400000 2889843584 2889843584 -15.00000000
0.91716349 -2.16806245 -0.54348177 4 2 15707 2.41600000 2889843588 2889843588 -13.00000000
1.31211352 -3.10620761 -0.53406727 1 6 15710 3.41400000 2889843597 2889843597 -9.00000000
1.71958959 -4.07480621 -0.54304981 2 8 15712 4.45600000 2889843602 2889843602 -7.00000000
2.42518687 -5.74961805 -0.54594356 7 10 15713 6.26400000 2889843607 2889843607 -5.00000000
3.85926366 -9.15844440 -0.52084744 8 12 15715 9.95200000 2889843611 2889843611 -3.00000000
4.17771387 -9.91899872 2.48480940 47 13 15716 11.04600000 2889843614 2889843614 13.00000000
3.32652521 -7.90190601 2.29727793 36 15 15717 8.87600000 2889843618 2889843618 15.00000000
0.79039818 -1.88488567 -0.54766113 4 0 15725 2.11600000 2889843639 2889843639 -15.00000000
0.91034293 -2.17304802 -0.54393166 4 2 15727 2.41800000 2889843643 2889843643 -13.00000000
1.30659902 -3.12352538 -0.53625733 1 6 15730 3.42800000 2889843653 2889843653 -9.00000000
1.67626941 -4.01118326 -0.53378773 2 8 15732 4.38000000 2889843657 2889843657 -7.00000000
2.40970969 -5.76907921 -0.54698944 7 10 15733 6.27600000 2889843662 2889843662 -5.00000000
3.81496477 -9.14236832 -0.51917267 4 12 15735 9.92000000 2889843667 2889843667 -3.00000000
4.15056658 -9.95150757 2.48930836 50 13 15736 11.06600000 2889843669 2889843669 13.00000000
3.30338216 -7.92416859 2.30038357 36 15 15737 8.88800000 2889843673 2889843673 15.00000000
0.78266102 -1.88392830 -0.54662585 4 0 15744 2.11200000 2889843694 2889843694 -15.00000000
0.90238482 -2.17425513 -0.54348177 3 2 15746 2.41600000 2889843699 2889843699 -13.00000000
1.30379641 -3.14608979 -0.53938603 1 6 15749 3.44800000 2889843708 2889843708 -9.00000000
1.66295862 -4.01671982 -0.53378773 2 8 15751 4.38000000 2889843713 2889843713 -7.00000000
2.37990022 -5.75126457 -0.54454911 7 10 15752 6.24800000 2889843717 2889843717 -5.00000000
3.77775931 -9.13835716 -0.51823062 4 12 15754 9.90200000 2889843722 2889843722 -3.00000000
4.12721729 -9.98863029 2.49515700 51 13 15755 11.09200000 2889843724 2889843724 13.00000000
3.27349019 -7.93029404 2.29883075 33 15 15757 8.88200000 2889843729 2889843729 15.00000000
0.77167058 -1.87592924 -0.54351997 4 0 15764 2.10000000 2889843749 2889843749 -15.00000000
0.89923406 -2.18820667 -0.54618114 3 2 15766 2.42800000 2889843754 2889843754 -13.00000000
1.05473077 -2.56786895 -0.53960782 3 4 15767 2.82800000 2889843759 2889843759 -11.00000000
1.28680754 -3.13600183 -0.53688306 1 6 15769 3.43200000 2889843763 2889843763 -9.00000000
1.65645683 -4.04086781 -0.53622514 2 8 15771 4.40000000 2889843768 2889843768 -7.00000000
2.34999013 -5.73556948 -0.54228306 7 10 15772 6.22200000 2889843773 2889843773 -5.00000000
3.74432445 -9.14779186 -0.51802129 4 12 15774 9.89800000 2889843777 2889843777 -3.00000000
4.10486937 -10.03363800 2.50280547 50 13 15775 11.12600000 2889843779 2889843779 13.00000000
3.24286485 -7.93451929 2.29676032 33 15 15777 8.87400000 2889843784 2889843784 15.00000000
0.76624650 -1.88232350 -0.54455525 4 0 15785 2.10400000 2889843805 2889843805 -15.00000000
0.88680321 -2.18065667 -0.54348177 3 2 15787 2.41600000 2889843809 2889843809 -13.00000000
1.27084577 -3.12971568 -0.53500587 1 6 15790 3.42000000 2889843819 2889843819 -9.00000000
1.65208197 -4.07266521 -0.53963745 2 8 15792 4.42800000 2889843823 2889843823 -7.00000000
2.32820368 -5.74229813 -0.54210871 7 10 15793 6.22000000 2889843828 2889843828 -5.00000000
3.69652462 -9.12628174 -0.51603252 4 12 15795 9.86000000 2889843832 2889843832 -3.00000000
4.08122969 -10.08112907 2.51090360 50 13 15796 11.16200000 2889843835 2889843835 13.00000000
3.21738315 -7.95530653 2.29934835 36 15 15798 8.88400000 2889843839 2889843839 15.00000000
0.76111555 -1.88857043 -0.54559052 4 0 15805 2.10800000 2889843860 2889843860 -15.00000000
0.87773025 -2.18012357 -0.54258192 3 2 15807 2.41200000 2889843865 2889843865 -13.00000000
1.03632867 -2.57535052 -0.53960782 3 4 15808 2.82800000 2889843869 2889843869 -11.00000000
1.25917649 -3.13229990 -0.53469300 1 6 15810 3.41800000 2889843874 2889843874 -9.00000000
1.64081478 -4.08577538 -0.54061240 2 8 15812 4.43600000 2889843879 2889843879 -7.00000000
2.31259823 -5.76148367 -0.54315460 7 10 15813 6.23200000 2889843883 2889843883 -5.00000000
3.66464543 -9.13912964 -0.51603252 4 12 15815 9.86000000 2889843888 2889843888 -3.00000000
