# .PCD v0.7 - Point Cloud Data file format
VERSION 0.7
FIELDS x y z intensity laser_id azimuth distance_m adjustedtime timestamp vertical_angle
SIZE 4 4 4 1 1 2 8 8 4 8
TYPE F F F U U U F U U F
COUNT 1 1 1 1 1 1 1 1 1 1
WIDTH 520
HEIGHT 1
VIEWPOINT 0 0 0 1 0 0 0
POINTS 520
DATA ascii
-1.13566983 -1.93183780 -0.11744189 21 12 21045 2.24400000 2892958605 2892958605 -3.00000000
-1.01950037 -1.73353446 0.46429896 60 13 21046 2.06400000 2892958607 2892958607 13.00000000
-1.11744988 -1.89932680 -0.03846510 41 14 21047 2.20400000 2892958609 2892958609 -1.00000000
-1.01910400 -1.73147714 0.53834361 59 15 21048 2.08000000 2892958612 2892958612 15.00000000
-0.99048549 -1.67882955 -0.52229685 7 0 21054 2.01800000 2892958632 2892958632 -15.00000000
-1.11196935 -1.88398778 0.03818586 24 1 21055 2.18800000 2892958635 2892958635 1.00000000
-1.10674393 -1.87438703 -0.50254065 39 2 21056 2.23400000 2892958637 2892958637 -13.00000000
-1.05813766 -1.79206717 0.10906813 53 3 21056 2.08400000 2892958639 2892958639 3.00000000
-1.12430298 -1.90336633 -0.42970186 7 4 21057 2.25200000 2892958642 2892958642 -11.00000000
-1.03388226 -1.74959290 0.17779772 48 5 21058 2.04000000 2892958644 2892958644 5.00000000
-1.13191354 -1.91472387 -0.35229042 55 6 21059 2.25200000 2892958646 2892958646 -9.00000000
-1.02767265 -1.73769951 0.24788225 54 7 21060 2.03400000 2892958648 2892958648 7.00000000
-1.13714147 -1.92203546 -0.27420601 43 8 21061 2.25000000 2892958651 2892958651 -7.00000000
-1.03501475 -1.74941754 0.32194212 67 9 21061 2.05800000 2892958653 2892958653 9.00000000
-1.12745094 -1.90489745 -0.19366007 45 10 21062 2.22200000 2892958655 2892958655 -5.00000000
-1.02726948 -1.73494399 0.39192167 56 11 21063 2.05400000 2892958658 2892958658 11.00000000
-1.02921712 -1.73685002 0.46609858 61 13 21065 2.07200000 2892958662 2892958662 13.00000000
-1.13291967 -1.91109216 -0.03877925 14 14 21066 2.22200000 2892958665 2892958665 -1.00000000
-1.02453864 -1.72826695 0.53834361 59 15 21066 2.08000000 2892958667 2892958667 15.00000000
-1.01510131 -1.70690978 -0.53213197 9 0 21074 2.05600000 2892958688 2892958688 -15.00000000
-1.07150710 -1.80104148 0.03658024 11 1 21075 2.09600000 2892958690 2892958690 1.00000000
-1.11626995 -1.87553608 -0.50389034 34 2 21076 2.24000000 2892958692 2892958692 -13.00000000
-1.05315030 -1.76948369 0.10791674 52 3 21076 2.06200000 2892958695 2892958695 3.00000000
-1.14701033 -1.92642021 -0.43580773 10 4 21077 2.28400000 2892958697 2892958697 -11.00000000
-1.03998315 -1.74597335 0.17779772 48 5 21078 2.04000000 2892958699 2892958699 5.00000000
-1.14263499 -1.91754878 -0.35354188 53 6 21079 2.26000000 2892958701 2892958701 -9.00000000
-1.03576493 -1.73751187 0.24836972 56 7 21080 2.03800000 2892958704 2892958704 7.00000000
-1.14791071 -1.92487419 -0.27518097 34 8 21081 2.25800000 2892958706 2892958706 -7.00000000
-1.04516220 -1.75258040 0.32319361 63 9 21081 2.06600000 2892958708 2892958708 9.00000000
-1.14736354 -1.92319369 -0.19592611 10 10 21082 2.24800000 2892958711 2892958711 -5.00000000
-1.03331935 -1.73134756 0.39192167 58 11 21083 2.05400000 2892958713 2892958713 11.00000000
-3.89586234 -6.52500820 -0.39827663 4 12 21084 7.61000000 2892958715 2892958715 -3.00000000
-1.03327501 -1.72990084 0.46519879 63 13 21085 2.06800000 2892958718 2892958718 13.00000000
-1.03483105 -1.73113298 0.54041415 54 15 21087 2.08800000 2892958722 2892958722 15.00000000
-1.00843465 -1.68163955 -0.52540267 7 0 21095 2.03000000 2892958743 2892958743 -15.00000000
-1.07501483 -1.79195774 0.03647553 23 1 21096 2.09000000 2892958745 2892958745 1.00000000
-1.13216186 -1.88647056 -0.50793946 20 2 21097 2.25800000 2892958748 2892958748 -13.00000000
-1.05582464 -1.75857747 0.10749806 52 3 21098 2.05400000 2892958750 2892958750 3.00000000
-1.31575334 -2.19151378 -0.49686661 3 4 21098 2.60400000 2892958752 2892958752 -11.00000000
-1.05458236 -1.75581384 0.17919220 46 5 21099 2.05600000 2892958754 2892958754 5.00000000
-1.15169024 -1.91673446 -0.35416764 45 6 21100 2.26400000 2892958757 2892958757 -9.00000000
-1.04314899 -1.73540533 0.24861346 51 7 21101 2.04000000 2892958759 2892958759 7.00000000
-1.04954278 -1.74535215 0.32256788 63 9 21102 2.06200000 2892958764 2892958764 9.00000000
-1.04269516 -1.73259509 0.39306653 61 11 21104 2.06000000 2892958768 2892958768 11.00000000
-3.91563082 -6.50384092 -0.39785793 4 12 21105 7.60200000 2892958771 2892958771 -3.00000000
-1.03558671 -1.71942472 0.46339917 67 13 21106 2.06000000 2892958773 2892958773 13.00000000
-1.09083736 -1.81044436 -0.03689439 2 14 21107 2.11400000 2892958775 2892958775 -1.00000000
-1.04684949 -1.73743844 0.54351997 58 15 21107 2.10000000 2892958778 2892958778 15.00000000
-1.00330615 -1.65992284 -0.51970863 5 0 21115 2.00800000 2892958798 2892958798 -15.00000000
-1.07195115 -1.77279365 0.03616139 38 1 21116 2.07200000 2892958801 2892958801 1.00000000
-1.14983487 -1.90084851 -0.51288843 13 2 21117 2.28000000 2892958803 2892958803 -13.00000000
-1.06195676 -1.75488114 0.10749806 52 3 21118 2.05400000 2892958805 2892958805 3.00000000
-1.33660877 -2.20874310 -0.50182766 3 4 21118 2.63000000 2892958807 2892958807 -11.00000000
-1.05657756 -1.74530435 0.17849496 48 5 21119 2.04800000 2892958810 2892958810 5.00000000
-1.05125761 -1.73514903 0.24910094 51 7 21121 2.04400000 2892958814 2892958814 7.00000000
-1.05081177 -1.73304796 0.32100353 61 9 21123 2.05200000 2892958819 2892958819 9.00000000
-1.05586398 -1.74069488 0.39573786 64 11 21124 2.07400000 2892958824 2892958824 11.00000000
-3.94038177 -6.49354839 -0.39806730 4 12 21125 7.60600000 2892958826 2892958826 -3.00000000
-1.04562736 -1.72246265 0.46519879 61 13 21126 2.06800000 2892958828 2892958828 13.00000000
-1.08261859 -1.78269672 -0.03640572 13 14 21127 2.08600000 2892958831 2892958831 -1.00000000
-1.05120432 -1.73028779 0.54248470 57 15 21128 2.09600000 2892958833 2892958833 15.00000000
-0.99703336 -1.63661277 -0.51349699 5 0 21135 1.98400000 2892958854 2892958854 -15.00000000
-1.06876671 -1.75367284 0.03584724 51 1 21136 2.05400000 2892958856 2892958856 1.00000000
-1.15950644 -1.90181494 -0.51423812 11 2 21137 2.28600000 2892958858 2892958858 -13.00000000
-1.06703591 -1.74945843 0.10739338 57 3 21138 2.05200000 2892958860 2892958860 3.00000000
-1.34431064 -2.20406389 -0.50182766 3 4 21138 2.63000000 2892958863 2892958863 -11.00000000
-1.05643690 -1.73140085 0.17744909 48 5 21139 2.03600000 2892958865 2892958865 5.00000000
-1.06144619 -1.73824573 0.25007591 49 7 21141 2.05200000 2892958870 2892958870 7.00000000
-2.01173592 -3.29316711 -0.47382802 1 8 21142 3.88800000 2892958872 2892958872 -7.00000000
-1.06273174 -1.73966813 0.32288074 59 9 21142 2.06400000 2892958874 2892958874 9.00000000
-2.73450160 -4.47456264 -0.45878783 3 10 21143 5.26400000 2892958877 2892958877 -5.00000000
-1.05988562 -1.73364866 0.39497462 56 11 21144 2.07000000 2892958879 2892958879 11.00000000
-1.05570173 -1.72545135 0.46699840 59 13 21146 2.07600000 2892958884 2892958884 13.00000000
-1.08361495 -1.77037907 -0.03623120 26 14 21147 2.07600000 2892958886 2892958886 -1.00000000
-1.04886818 -1.71361065 0.53834361 56 15 21147 2.08000000 2892958888 2892958888 15.00000000
-1.00577259 -1.63806140 -0.51504987 5 0 21155 1.99000000 2892958909 2892958909 -15.00000000
-1.06964862 -1.74141192 0.03567272 61 1 21156 2.04400000 2892958911 2892958911 1.00000000
-1.16715813 -1.89941621 -0.51468801 5 2 21157 2.28800000 2892958913 2892958913 -13.00000000
-1.07731998 -1.75252914 0.10781207 59 3 21158 2.06000000 2892958916 2892958916 3.00000000
-1.35199606 -2.19935799 -0.50182766 3 4 21158 2.63000000 2892958918 2892958918 -11.00000000
-1.06038678 -1.72430837 0.17710046 49 5 21159 2.03200000 2892958920 2892958920 5.00000000
-1.62298906 -2.63813114 -0.49057847 2 6 21160 3.13600000 2892958923 2892958923 -9.00000000
-1.06750727 -1.73452997 0.25007591 49 7 21161 2.05200000 2892958925 2892958925 7.00000000
-2.04195261 -3.31655192 -0.47821531 1 8 21162 3.92400000 2892958927 2892958927 -7.00000000
-1.07324457 -1.74248910 0.32413220 59 9 21163 2.07200000 2892958930 2892958930 9.00000000
-2.73129630 -4.43445444 -0.45565021 3 10 21163 5.22800000 2892958932 2892958932 -5.00000000
-1.06181121 -1.72325265 0.39344814 56 11 21164 2.06200000 2892958934 2892958934 11.00000000
-1.14129341 -1.85152376 -0.11398771 1 12 21165 2.17800000 2892958936 2892958936 -3.00000000
-1.06785536 -1.73170805 0.46969780 59 13 21166 2.08800000 2892958939 2892958939 13.00000000
-1.08873832 -1.76488376 -0.03619629 41 14 21167 2.07400000 2892958941 2892958941 -1.00000000
-1.06325829 -1.72290683 0.54248470 56 15 21168 2.09600000 2892958943 2892958943 15.00000000
-1.01119912 -1.63471711 -0.51504987 5 0 21174 1.99000000 2892958964 2892958964 -15.00000000
-1.07436514 -1.73615479 0.03563781 60 1 21175 2.04200000 2892958966 2892958966 1.00000000
-1.16319299 -1.87896597 -0.51018900 4 2 21176 2.26800000 2892958969 2892958969 -13.00000000
-1.07786775 -1.74045694 0.10728871 57 3 21177 2.05000000 2892958971 2892958971 3.00000000
-1.35928190 -2.19486260 -0.50182766 3 4 21177 2.63000000 2892958973 2892958973 -11.00000000
-1.07239485 -1.73094463 0.17814633 46 5 21178 2.04400000 2892958976 2892958976 5.00000000
-1.63172853 -2.63273454 -0.49057847 2 6 21179 3.13600000 2892958978 2892958978 -9.00000000
-1.06906915 -1.72423196 0.24910094 50 7 21180 2.04400000 2892958980 2892958980 7.00000000
-2.05712485 -3.31650996 -0.47919026 1 8 21181 3.93200000 2892958983 2892958983 -7.00000000
-1.08287835 -1.74582362 0.32538369 58 9 21181 2.08000000 2892958985 2892958985 9.00000000
-2.75439048 -4.43891668 -0.45704472 3 10 21182 5.24400000 2892958987 2892958987 -5.00000000
-1.07062614 -1.72472608 0.39459300 44 11 21183 2.06800000 2892958989 2892958989 11.00000000
-1.10422730 -1.77816331 -0.10969616 4 12 21184 2.09600000 2892958992 2892958992 -3.00000000
-1.07153535 -1.72484684 0.46879801 60 13 21185 2.08400000 2892958994 2892958994 13.00000000
-1.09141827 -1.75616848 -0.03609158 49 14 21186 2.06800000 2892958996 2892958996 -1.00000000
-1.06866574 -1.71955800 0.54248470 53 15 21186 2.09600000 2892958999 2892958999 15.00000000
-1.02303123 -1.64101362 -0.51815575 4 0 21194 2.00200000 2892959019 2892959019 -15.00000000
-1.08359349 -1.73748422 0.03574253 64 1 21195 2.04800000 2892959022 2892959022 1.00000000
-1.17387080 -1.88150764 -0.51198858 4 2 21196 2.27600000 2892959024 2892959024 -13.00000000
-1.07864904 -1.72821224 0.10676535 59 3 21197 2.04000000 2892959026 2892959026 3.00000000
-1.36485612 -2.18677354 -0.50106442 3 4 21197 2.62600000 2892959029 2892959029 -11.00000000
-1.07843041 -1.72719073 0.17814633 49 5 21198 2.04400000 2892959031 2892959031 5.00000000
-1.64090848 -2.62702274 -0.49057847 2 6 21199 3.13600000 2892959033 2892959033 -9.00000000
-1.07823718 -1.72554004 0.24983215 54 7 21200 2.05000000 2892959036 2892959036 7.00000000
-2.05606222 -3.28910971 -0.47626540 1 8 21201 3.90800000 2892959038 2892959038 -7.00000000
-1.08717513 -1.73849320 0.32475796 57 9 21202 2.07600000 2892959040 2892959040 9.00000000
-2.75930452 -4.41238213 -0.45530161 3 10 21202 5.22400000 2892959042 2892959042 -5.00000000
-1.08496988 -1.73429346 0.39764595 42 11 21203 2.08400000 2892959045 2892959045 11.00000000
-1.07548141 -1.71779251 0.46789819 59 13 21205 2.08000000 2892959049 2892959049 13.00000000
-1.08692729 -1.73540068 -0.03574253 48 14 21206 2.04800000 2892959052 2892959052 -1.00000000
-1.08214116 -1.72708905 0.54610819 45 15 21207 2.11000000 2892959054 2892959054 15.00000000
-1.02698290 -1.63398182 -0.51712048 5 0 21215 1.99800000 2892959075 2892959075 -15.00000000
-1.09208322 -1.73688674 0.03581234 64 1 21216 2.05200000 2892959077 2892959077 1.00000000
-1.18075895 -1.87719250 -0.51198858 4 2 21217 2.27600000 2892959079 2892959079 -13.00000000
-1.08497596 -1.72424710 0.10676535 62 3 21218 2.04000000 2892959082 2892959082 3.00000000
-1.36658835 -2.17178631 -0.49877471 3 4 21218 2.61400000 2892959084 2892959084 -11.00000000
-1.08050799 -1.71648192 0.17744909 51 5 21219 2.03600000 2892959086 2892959086 5.00000000
-1.65368390 -2.62600541 -0.49151710 2 6 21220 3.14200000 2892959089 2892959089 -9.00000000
-1.08772862 -1.72661531 0.25056338 53 7 21221 2.05600000 2892959091 2892959091 7.00000000
-2.06386995 -3.27483439 -0.47529045 3 8 21222 3.90000000 2892959093 2892959093 -7.00000000
-1.08902407 -1.72800291 0.32350647 56 9 21222 2.06800000 2892959095 2892959095 9.00000000
-1.09865046 -1.74192917 0.40031728 46 11 21224 2.09800000 2892959100 2892959100 11.00000000
-1.10946286 -1.75839221 -0.10896346 37 12 21225 2.08200000 2892959102 2892959102 -3.00000000
-1.08385050 -1.71713495 0.46879801 60 13 21226 2.08400000 2892959105 2892959105 13.00000000
-1.08473933 -1.71787870 -0.03546329 46 14 21227 2.03200000 2892959107 2892959107 -1.00000000
-1.08610034 -1.72003412 0.54507291 42 15 21227 2.10600000 2892959109 2892959109 15.00000000
-1.02957916 -1.62549090 -0.51556754 5 0 21235 1.99200000 2892959130 2892959130 -15.00000000
-1.09171760 -1.72292924 0.03560291 64 1 21236 2.04000000 2892959132 2892959132 1.00000000
-1.19356441 -1.88293505 -0.51468801 4 2 21237 2.28800000 2892959135 2892959135 -13.00000000
-1.09205770 -1.72213614 0.10687003 68 3 21238 2.04200000 2892959137 2892959137 3.00000000
-1.37836659 -2.17363477 -0.50030118 3 4 21238 2.62200000 2892959139 2892959139 -11.00000000
-1.08649313 -1.71269977 0.17744909 51 5 21239 2.03600000 2892959142 2892959142 5.00000000
-1.65966487 -2.61521339 -0.49057847 2 6 21240 3.13600000 2892959144 2892959144 -9.00000000
-1.10119665 -1.73453915 0.25226954 54 7 21241 2.07000000 2892959146 2892959146 7.00000000
-2.06996751 -3.25923157 -0.47407174 1 8 21242 3.89000000 2892959148 2892959148 -7.00000000
-1.10170627 -1.73400366 0.32538369 58 9 21243 2.08000000 2892959151 2892959151 9.00000000
-1.12615287 -1.77248096 -0.18372430 1 10 21243 2.10800000 2892959153 2892959153 -5.00000000
-1.10788357 -1.74305427 0.40146214 49 11 21244 2.10400000 2892959155 2892959155 11.00000000
-1.11452234 -1.75282335 -0.10885879 46 12 21245 2.08000000 2892959158 2892959158 -3.00000000
-1.09402144 -1.71991825 0.47059759 48 13 21246 2.09200000 2892959160 2892959160 13.00000000
-1.09072924 -1.71408176 -0.03546329 54 14 21247 2.03200000 2892959162 2892959162 -1.00000000
-1.09654701 -1.72256052 0.54714346 42 15 21248 2.11400000 2892959165 2892959165 15.00000000
-1.03212869 -1.61700189 -0.51401460 4 0 21255 1.98600000 2892959185 2892959185 -15.00000000
-1.09557271 -1.71573710 0.03553310 68 1 21256 2.03600000 2892959188 2892959188 1.00000000
-1.19173729 -1.86561906 -0.51108879 4 2 21257 2.27200000 2892959190 2892959190 -13.00000000
-1.09913790 -1.71999657 0.10697469 62 3 21258 2.04400000 2892959192 2892959192 3.00000000
-1.38383126 -2.16550159 -0.49953794 3 4 21258 2.61800000 2892959195 2892959195 -11.00000000
-1.09353805 -1.71057546 0.17762341 53 5 21259 2.03800000 2892959197 2892959197 5.00000000
-1.66239798 -2.59941912 -0.48870125 2 6 21260 3.12400000 2892959199 2892959199 -9.00000000
-1.10510504 -1.72734034 0.25178206 56 7 21261 2.06600000 2892959201 2892959201 7.00000000
-2.10273361 -3.28542566 -0.47894651 1 8 21262 3.93000000 2892959204 2892959204 -7.00000000
-1.10532057 -1.72701323 0.32475796 58 9 21262 2.07600000 2892959206 2892959206 9.00000000
-1.12373865 -1.75511575 -0.18232982 4 10 21263 2.09200000 2892959208 2892959208 -5.00000000
-1.10972559 -1.73256361 0.39993566 51 11 21264 2.09600000 2892959211 2892959211 11.00000000
-1.11740148 -1.74387729 -0.10854477 51 12 21265 2.07400000 2892959213 2892959213 -3.00000000
-1.11158657 -1.73413575 0.47554654 51 13 21266 2.11400000 2892959215 2892959215 13.00000000
-1.09886467 -1.71363056 -0.03553310 62 14 21267 2.03600000 2892959218 2892959218 -1.00000000
-1.11059570 -1.73192453 0.55128455 44 15 21267 2.13000000 2892959220 2892959220 15.00000000
-1.04508245 -1.62476265 -0.51763809 5 0 21275 2.00000000 2892959241 2892959241 -15.00000000
-1.09939086 -1.70853913 0.03546329 66 1 21276 2.03200000 2892959243 2892959243 1.00000000
-1.19402313 -1.85489333 -0.50928921 4 2 21277 2.26400000 2892959245 2892959245 -13.00000000
-1.10513520 -1.71614933 0.10697469 59 3 21278 2.04400000 2892959248 2892959248 3.00000000
-1.39563358 -2.16726041 -0.50106442 3 4 21278 2.62600000 2892959250 2892959250 -11.00000000
-1.09842336 -1.70507300 0.17744909 51 5 21279 2.03600000 2892959252 2892959252 5.00000000
-1.67788196 -2.60356307 -0.49057847 2 6 21280 3.13600000 2892959254 2892959254 -9.00000000
-1.10467410 -1.71346176 0.25031963 57 7 21281 2.05400000 2892959257 2892959257 7.00000000
-2.09697437 -3.25137401 -0.47504669 1 8 21282 3.89800000 2892959259 2892959259 -7.00000000
-1.11776626 -1.73310483 0.32663515 58 9 21282 2.08800000 2892959261 2892959261 9.00000000
-1.12002528 -1.73527730 0.40146214 52 11 21284 2.10400000 2892959266 2892959266 11.00000000
-1.11914837 -1.73325467 -0.10812609 52 12 21285 2.06600000 2892959268 2892959268 -3.00000000
-1.11763299 -1.73024499 0.47554654 59 13 21286 2.11400000 2892959271 2892959271 13.00000000
-1.10701025 -1.71314347 -0.03560291 56 14 21287 2.04000000 2892959273 2892959273 -1.00000000
-1.12082839 -1.73452759 0.55335510 49 15 21287 2.13800000 2892959275 2892959275 15.00000000
-1.05389977 -1.62596798 -0.51919103 5 0 21295 2.00600000 2892959296 2892959296 -15.00000000
-1.10752404 -1.70804679 0.03553310 66 1 21296 2.03600000 2892959298 2892959298 1.00000000
-1.19836962 -1.84744430 -0.50838935 4 2 21297 2.26000000 2892959301 2892959301 -13.00000000
-1.10459566 -1.70222878 0.10634666 62 3 21298 2.03200000 2892959303 2892959303 3.00000000
-1.40105283 -2.15908170 -0.50030118 3 4 21298 2.62200000 2892959305 2892959305 -11.00000000
-1.10979271 -1.70958412 0.17832065 53 5 21299 2.04600000 2892959307 2892959307 5.00000000
-1.68695986 -2.59769034 -0.49057847 2 6 21300 3.13600000 2892959310 2892959310 -9.00000000
-1.11497426 -1.71625388 0.25129458 57 7 21301 2.06200000 2892959312 2892959312 7.00000000
-2.12021017 -3.26234365 -0.47772783 1 8 21302 3.92000000 2892959314 2892959314 -7.00000000
-1.12195742 -1.72568405 0.32600942 57 9 21303 2.08400000 2892959317 2892959317 9.00000000
-1.13053417 -1.73887599 -0.18145825 58 10 21303 2.08200000 2892959319 2892959319 -5.00000000
-1.13463902 -1.74452341 0.40451506 54 11 21304 2.12000000 2892959321 2892959321 11.00000000
-1.12737024 -1.73268569 -0.10833543 54 12 21305 2.07000000 2892959324 2892959324 -3.00000000
-1.12366593 -1.72633326 0.47554654 56 13 21306 2.11400000 2892959326 2892959326 13.00000000
-1.10861886 -1.70256591 -0.03546329 51 14 21307 2.03200000 2892959328 2892959328 -1.00000000
-1.13530934 -1.74355578 0.55749625 49 15 21307 2.15400000 2892959330 2892959330 15.00000000
-1.05323064 -1.61257470 -0.51608515 5 0 21315 1.99400000 2892959351 2892959351 -15.00000000
-1.11785460 -1.71086657 0.03567272 68 1 21316 2.04400000 2892959354 2892959354 1.00000000
-1.20907593 -1.84977472 -0.51018900 4 2 21317 2.26800000 2892959356 2892959356 -13.00000000
-1.11053085 -1.69836259 0.10634666 62 3 21318 2.03200000 2892959358 2892959358 3.00000000
-1.40643203 -2.15089154 -0.49953794 3 4 21318 2.61800000 2892959360 2892959360 -11.00000000
-1.11030018 -1.69736302 0.17744909 51 5 21319 2.03600000 2892959363 2892959363 5.00000000
-1.70034373 -2.59839773 -0.49182996 3 6 21320 3.14400000 2892959365 2892959365 -9.00000000
-1.12965631 -1.72563839 0.25324449 59 7 21321 2.07800000 2892959367 2892959367 7.00000000
-1.17345917 -1.79186821 -0.26299405 2 8 21322 2.15800000 2892959370 2892959370 -7.00000000
-1.12364423 -1.71514773 0.32475796 58 9 21323 2.07600000 2892959372 2892959372 9.00000000
-1.13768888 -1.73658562 -0.18163256 54 10 21323 2.08400000 2892959374 2892959374 -5.00000000
-1.15148318 -1.75697243 0.40833125 54 11 21324 2.14000000 2892959377 2892959377 11.00000000
-1.13341153 -1.72873986 -0.10833543 52 12 21325 2.07000000 2892959379 2892959379 -3.00000000
-1.13396013 -1.72891843 0.47734615 63 13 21326 2.12200000 2892959381 2892959381 13.00000000
-1.11236119 -1.69534183 -0.03539348 53 14 21327 2.02800000 2892959383 2892959383 -1.00000000
-1.13957202 -1.73615289 0.55646098 52 15 21328 2.15000000 2892959386 2892959386 15.00000000
-1.05460501 -1.60243356 -0.51401460 4 0 21335 1.98600000 2892959407 2892959407 -15.00000000
-1.11942136 -1.70027328 0.03553310 68 1 21336 2.03600000 2892959409 2892959409 1.00000000
-1.21874106 -1.85042548 -0.51153868 4 2 21337 2.27400000 2892959411 2892959411 -13.00000000
-1.11974907 -1.69947922 0.10666068 65 3 21338 2.03800000 2892959413 2892959413 3.00000000
-1.41393149 -2.14596915 -0.49953794 3 4 21338 2.61800000 2892959416 2892959416 -11.00000000
-1.11841130 -1.69680405 0.17779772 56 5 21339 2.04000000 2892959418 2892959418 5.00000000
-1.70287907 -2.58255172 -0.48995274 2 6 21340 3.13200000 2892959420 2892959420 -9.00000000
-1.14223135 -1.73162699 0.25470692 57 7 21341 2.09000000 2892959423 2892959423 7.00000000
-1.13615406 -1.72110641 0.32663515 61 9 21343 2.08800000 2892959427 2892959427 9.00000000
-1.13496256 -1.71930158 -0.18023808 57 10 21343 2.06800000 2892959430 2892959430 -5.00000000
-1.15436351 -1.74802744 0.40718639 56 11 21344 2.13400000 2892959432 2892959432 11.00000000
-1.13943911 -1.72477305 -0.10833543 49 12 21345 2.07000000 2892959434 2892959434 -3.00000000
-1.14965832 -1.73958170 0.48139524 69 13 21346 2.14000000 2892959436 2892959436 13.00000000
-1.11937511 -1.69311678 -0.03542839 59 14 21347 2.03000000 2892959439 2892959439 -1.00000000
-1.14319217 -1.72914135 0.55542564 54 15 21347 2.14600000 2892959441 2892959441 15.00000000
-1.06553042 -1.60679257 -0.51660281 5 0 21355 1.99600000 2892959462 2892959462 -15.00000000
-1.12203324 -1.69135630 0.03542839 70 1 21356 2.03000000 2892959464 2892959464 1.00000000
-1.22196019 -1.84128881 -0.51018900 4 2 21357 2.26800000 2892959466 2892959466 -13.00000000
-1.13230264 -1.70554388 0.10728871 65 3 21358 2.05000000 2892959469 2892959469 3.00000000
-1.42141366 -2.14102054 -0.49953794 4 4 21358 2.61800000 2892959471 2892959471 -11.00000000
-1.12763429 -1.69786882 0.17832065 53 5 21359 2.04600000 2892959473 2892959473 5.00000000
-1.71297669 -2.57823706 -0.49026561 1 6 21360 3.13400000 2892959476 2892959476 -9.00000000
-1.14387357 -1.72101641 0.25373197 57 7 21361 2.08200000 2892959478 2892959478 7.00000000
-1.15516508 -1.73734713 -0.25616935 51 8 21362 2.10200000 2892959480 2892959480 -7.00000000
-1.14871895 -1.72699857 0.32851237 61 9 21363 2.10000000 2892959483 2892959483 9.00000000
-1.13985372 -1.71367049 -0.18006377 63 10 21363 2.06600000 2892959485 2892959485 -5.00000000
-1.16154587 -1.74562180 0.40756801 52 11 21364 2.13600000 2892959487 2892959487 11.00000000
-1.13881242 -1.71080959 -0.10770740 51 12 21365 2.05800000 2892959489 2892959489 -3.00000000
-1.16112411 -1.74366808 0.48364475 58 13 21366 2.15000000 2892959492 2892959492 13.00000000
-1.13303888 -1.70084870 -0.03567272 62 14 21367 2.04400000 2892959494 2892959494 -1.00000000
-1.15564728 -1.73478699 0.55853152 51 15 21367 2.15800000 2892959496 2892959496 15.00000000
-1.07729089 -1.61288905 -0.51970863 5 0 21374 2.00800000 2892959517 2892959517 -15.00000000
-1.12874675 -1.68928897 0.03546329 64 1 21375 2.03200000 2892959519 2892959519 1.00000000
-1.22589350 -1.83398628 -0.50928921 4 2 21376 2.26400000 2892959522 2892959522 -13.00000000
-1.13321555 -1.69533634 0.10687003 65 3 21376 2.04200000 2892959524 2892959524 3.00000000
-1.43614483 -2.14771914 -0.50220925 4 4 21377 2.63200000 2892959526 2892959526 -11.00000000
-1.13768959 -1.70074427 0.17901790 50 5 21378 2.05400000 2892959529 2892959529 5.00000000
-1.16342473 -1.73855937 -0.33132818 5 6 21379 2.11800000 2892959531 2892959531 -9.00000000
-1.14736581 -1.71391451 0.25324449 56 7 21380 2.07800000 2892959533 2892959533 7.00000000
-1.15981531 -1.73185754 -0.25592563 36 8 21381 2.10000000 2892959535 2892959535 -7.00000000
-1.15633726 -1.72666395 0.32913810 59 9 21381 2.10400000 2892959538 2892959538 9.00000000
-1.14996600 -1.71650219 -0.18076101 63 10 21382 2.07400000 2892959540 2892959540 -5.00000000
-1.17170012 -1.74828386 0.40909448 49 11 21383 2.14400000 2892959542 2892959542 11.00000000
-1.13780606 -1.69707024 -0.10707936 52 12 21384 2.04600000 2892959545 2892959545 -3.00000000
-1.16147256 -1.73171592 0.48139524 50 13 21385 2.14000000 2892959547 2892959547 13.00000000
-1.13978708 -1.69874263 -0.03570762 65 14 21386 2.04600000 2892959549 2892959549 -1.00000000
-1.16354632 -1.73415363 0.55956680 45 15 21386 2.16200000 2892959552 2892959552 15.00000000
-1.07859993 -1.60270798 -0.51763809 5 0 21394 2.00000000 2892959572 2892959572 -15.00000000
-1.13910365 -1.69197381 0.03560291 66 1 21395 2.04000000 2892959575 2892959575 1.00000000
-1.23228788 -1.82969594 -0.50928921 4 2 21396 2.26400000 2892959577 2892959577 -13.00000000
-1.13607371 -1.68620229 0.10655601 59 3 21397 2.03600000 2892959579 2892959579 3.00000000
-1.43705106 -2.13292408 -0.49991956 4 4 21397 2.62000000 2892959582 2892959582 -11.00000000
-1.14250576 -1.69511044 0.17884359 47 5 21398 2.05200000 2892959584 2892959584 5.00000000
-1.15667164 -1.71483624 0.25397572 51 7 21400 2.08400000 2892959588 2892959588 7.00000000
-1.15030885 -1.70476115 -0.25251329 39 8 21401 2.07200000 2892959591 2892959591 -7.00000000
-1.16928911 -1.73223782 0.33101532 57 9 21402 2.11600000 2892959593 2892959593 9.00000000
-1.15595067 -1.71247756 -0.18076101 63 10 21402 2.07400000 2892959595 2892959595 -5.00000000
-1.18658519 -1.75719953 0.41214743 44 11 21403 2.16000000 2892959598 2892959598 11.00000000
-1.14372301 -1.69308817 -0.10707936 54 12 21404 2.04600000 2892959600 2892959600 -3.00000000
-1.17078364 -1.73249495 0.48274496 54 13 21405 2.14600000 2892959602 2892959602 13.00000000
-1.13787019 -1.68315709 -0.03546329 57 14 21406 2.03200000 2892959605 2892959605 -1.00000000
-1.17747021 -1.74107921 0.56319022 40 15 21407 2.17600000 2892959607 2892959607 15.00000000
-1.08418787 -1.59893322 -0.51763809 5 0 21414 2.00000000 2892959628 2892959628 -15.00000000
-1.14949310 -1.69460678 0.03574253 64 1 21415 2.04800000 2892959630 2892959630 1.00000000
-1.24523258 -1.83505845 -0.51198858 4 2 21416 2.27600000 2892959632 2892959632 -13.00000000
-1.14726651 -1.69068909 0.10707936 57 3 21416 2.04600000 2892959635 2892959635 3.00000000
-1.44338489 -2.12627029 -0.49953794 4 4 21417 2.61800000 2892959637 2892959637 -11.00000000
-1.14953518 -1.69276035 0.17901790 43 5 21418 2.05400000 2892959639 2892959639 5.00000000
-1.16332316 -1.71242094 -0.32788664 51 6 21419 2.09600000 2892959641 2892959641 -9.00000000
-1.17046094 -1.72228098 0.25568187 42 7 21420 2.09800000 2892959644 2892959644 7.00000000
-1.15290439 -1.69581056 -0.25178206 49 8 21421 2.06600000 2892959646 2892959646 -7.00000000
-1.17088509 -1.72161198 0.32976386 53 9 21422 2.10800000 2892959648 2892959648 9.00000000
-1.15743947 -1.70184219 -0.18006377 63 10 21422 2.06600000 2892959651 2892959651 -5.00000000
-1.19050300 -1.74980044 0.41138420 41 11 21423 2.15600000 2892959653 2892959653 11.00000000
-1.15187359 -1.69238782 -0.10728871 52 12 21424 2.05000000 2892959655 2892959655 -3.00000000
-1.19217873 -1.75094891 0.48904359 41 13 21425 2.17400000 2892959658 2892959658 13.00000000
-1.14373851 -1.67917502 -0.03546329 62 14 21426 2.03200000 2892959660 2892959660 -1.00000000
-1.19085002 -1.74834156 0.56681371 33 15 21426 2.19000000 2892959662 2892959662 15.00000000
-1.08431375 -1.58716321 -0.51504987 5 0 21434 1.99000000 2892959683 2892959683 -15.00000000
-1.15088809 -1.68398011 0.03560291 66 1 21435 2.04000000 2892959685 2892959685 1.00000000
-1.25163054 -1.83070064 -0.51198858 4 2 21436 2.27600000 2892959687 2892959687 -13.00000000
-1.15767002 -1.69326913 0.10749806 57 3 21436 2.05400000 2892959690 2892959690 3.00000000
-1.44082332 -2.10663462 -0.49610338 4 4 21437 2.60000000 2892959692 2892959692 -11.00000000
-1.15993726 -1.69531476 0.17971514 42 5 21438 2.06200000 2892959694 2892959694 5.00000000
-1.16817784 -1.70671964 -0.32757378 49 6 21439 2.09400000 2892959697 2892959697 -9.00000000
-1.18992388 -1.73783994 0.25860673 40 7 21440 2.12200000 2892959699 2892959699 7.00000000
-1.15881681 -1.69177580 -0.25178206 60 8 21441 2.06600000 2892959701 2892959701 -7.00000000
-1.18358696 -1.72729146 0.33164108 30 9 21442 2.12000000 2892959704 2892959704 9.00000000
-1.15548944 -1.68628681 -0.17884359 59 10 21442 2.05200000 2892959706 2892959706 -5.00000000
-1.19882369 -1.74887288 0.41214743 37 11 21443 2.16000000 2892959708 2892959708 11.00000000
-1.16003311 -1.69165099 -0.10749806 54 12 21444 2.05400000 2892959711 2892959711 -3.00000000
-1.20710242 -1.75963259 0.49264282 41 13 21445 2.19000000 2892959713 2892959713 13.00000000
-1.15751338 -1.68671393 -0.03570762 65 14 21446 2.04600000 2892959715 2892959715 -1.00000000
-1.20022500 -1.74895263 0.56836665 20 15 21446 2.19600000 2892959717 2892959717 15.00000000
-1.08683693 -1.57840502 -0.51349699 4 0 21455 1.98400000 2892959738 2892959738 -15.00000000
-1.15705240 -1.67975068 0.03560291 64 1 21456 2.04000000 2892959740 2892959740 1.00000000
-1.25390899 -1.81968224 -0.51018900 4 2 21457 2.26800000 2892959743 2892959743 -13.00000000
-1.17209804 -1.70032239 0.10823075 59 3 21458 2.06800000 2892959745 2892959745 3.00000000
-1.44407773 -2.09487391 -0.49457690 4 4 21458 2.59200000 2892959747 2892959747 -11.00000000
-1.17179847 -1.69925296 0.18058670 40 5 21459 2.07200000 2892959750 2892959750 5.00000000
-1.16320837 -1.68616652 -0.32444507 49 6 21460 2.07400000 2892959752 2892959752 -9.00000000
-1.19403040 -1.73019946 0.25811926 41 7 21461 2.11800000 2892959754 2892959754 7.00000000
-1.16952085 -1.69405162 -0.25275701 63 8 21462 2.07400000 2892959757 2892959757 -7.00000000
-1.22215509 -1.77029228 0.34071428 12 9 21462 2.17800000 2892959759 2892959759 9.00000000
-1.16845560 -1.69187689 -0.17988946 67 10 21463 2.06400000 2892959761 2892959761 -5.00000000
-1.15827668 -1.67588675 -0.10676535 56 12 21465 2.04000000 2892959766 2892959766 -3.00000000
-1.15800011 -1.67423689 -0.03553310 62 14 21467 2.03600000 2892959770 2892959770 -1.00000000
-5.97859859 -8.64063549 2.81543350 54 15 21468 10.87800000 2892959773 2892959773 15.00000000
-1.09784579 -1.58253813 -0.51608515 5 0 21475 1.99400000 2892959793 2892959793 -15.00000000
-1.16632915 -1.68063009 0.03570762 70 1 21476 2.04600000 2892959796 2892959796 1.00000000
-1.25247383 -1.80408871 -0.50703967 4 2 21477 2.25400000 2892959798 2892959798 -13.00000000
-1.17203510 -1.68822300 0.10770740 51 3 21477 2.05800000 2892959800 2892959800 3.00000000
-1.17476785 -1.69152904 -0.40031728 4 4 21478 2.09800000 2892959803 2892959803 -11.00000000
-1.18227005 -1.70169735 0.18128395 35 5 21479 2.08000000 2892959805 2892959805 5.00000000
-1.17134190 -1.68534005 -0.32507083 48 6 21480 2.07800000 2892959807 2892959807 -9.00000000
-1.20232904 -1.72928059 0.25860673 41 7 21481 2.12200000 2892959810 2892959810 7.00000000
-1.17089319 -1.68344021 -0.25178206 57 8 21482 2.06600000 2892959812 2892959812 -7.00000000
-1.17663014 -1.69105875 -0.18023808 62 10 21483 2.06800000 2892959817 2892959817 -5.00000000
-1.15955436 -1.66527724 -0.10634666 56 12 21485 2.03200000 2892959821 2892959821 -3.00000000
-1.17069674 -1.68002844 -0.03574253 62 14 21487 2.04800000 2892959826 2892959826 -1.00000000
-6.01203775 -8.62446785 2.81698656 52 15 21488 10.88400000 2892959828 2892959828 15.00000000
-1.10336316 -1.57869625 -0.51608515 5 0 21495 1.99400000 2892959849 2892959849 -15.00000000
-1.18020928 -1.68802059 0.03595196 64 1 21496 2.06000000 2892959851 2892959851 1.00000000
-1.26434827 -1.80769026 -0.50928921 4 2 21497 2.26400000 2892959853 2892959853 -13.00000000
-1.17334199 -1.67757487 0.10728871 57 3 21497 2.05000000 2892959856 2892959856 3.00000000
-1.19962788 -1.71388268 0.18302706 19 5 21499 2.10000000 2892959860 2892959860 5.00000000
-1.17721772 -1.68124104 -0.32507083 48 6 21500 2.07800000 2892959863 2892959863 -9.00000000
-1.17220569 -1.67284000 -0.25080711 57 8 21502 2.05800000 2892959867 2892959867 -7.00000000
-1.18824399 -1.69509864 -0.18110964 69 10 21503 2.07800000 2892959872 2892959872 -5.00000000
-1.16880119 -1.66612458 -0.10666068 45 12 21505 2.03800000 2892959876 2892959876 -3.00000000
-1.17195809 -1.66938508 -0.03560291 62 14 21507 2.04000000 2892959881 2892959881 -1.00000000
-6.04210615 -8.60342979 2.81698656 52 15 21508 10.88400000 2892959883 2892959883 15.00000000
-1.10775495 -1.57325566 -0.51556754 5 0 21515 1.99200000 2892959904 2892959904 -15.00000000
-1.18839753 -1.68716025 0.03602177 62 1 21516 2.06400000 2892959906 2892959906 1.00000000
-1.27177310 -1.80485880 -0.50973910 4 2 21517 2.26600000 2892959909 2892959909 -13.00000000
-1.18724370 -1.68489754 0.10802142 59 3 21517 2.06400000 2892959911 2892959911 3.00000000
-1.17071247 -1.66082132 -0.39497462 54 4 21518 2.07000000 2892959913 2892959913 -11.00000000
-1.18307912 -1.67712152 -0.32507083 49 6 21520 2.07800000 2892959918 2892959918 -9.00000000
-1.18376195 -1.67684662 -0.25202581 61 8 21522 2.06800000 2892959923 2892959923 -7.00000000
-1.18151116 -1.67303836 -0.17919220 62 10 21523 2.05600000 2892959927 2892959927 -5.00000000
-1.17922080 -1.66855884 -0.10707936 41 12 21525 2.04600000 2892959932 2892959932 -3.00000000
-6.34828329 -8.97928715 2.53879762 41 13 21526 11.28600000 2892959934 2892959934 13.00000000
-1.17315948 -1.65875351 -0.03546329 62 14 21527 2.03200000 2892959936 2892959936 -1.00000000
-6.06652164 -8.57440090 2.81439829 54 15 21528 10.87400000 2892959939 2892959939 15.00000000
-1.11547530 -1.57253063 -0.51660281 5 0 21535 1.99600000 2892959959 2892959959 -15.00000000
-1.18617880 -1.67158604 0.03577743 60 1 21536 2.05000000 2892959962 2892959962 1.00000000
-1.26791310 -1.78610694 -0.50568998 4 2 21537 2.24800000 2892959964 2892959964 -13.00000000
-1.19889855 -1.68888617 0.10854477 55 3 21537 2.07400000 2892959966 2892959966 3.00000000
-1.17195582 -1.65032184 -0.39344814 54 4 21538 2.06200000 2892959969 2892959969 -11.00000000
-1.18434894 -1.66654086 -0.32381934 51 6 21540 2.07000000 2892959973 2892959973 -9.00000000
-1.19536054 -1.68079281 -0.25324449 63 8 21542 2.07800000 2892959978 2892959978 -7.00000000
-1.19080901 -1.67377436 -0.17971514 65 10 21543 2.06200000 2892959982 2892959982 -5.00000000
-1.18967152 -1.67094040 -0.10749806 41 12 21545 2.05400000 2892959987 2892959987 -3.00000000
-1.17894244 -1.65464830 -0.03546329 60 14 21547 2.03200000 2892959992 2892959992 -1.00000000
-6.09155941 -8.54951668 2.81284547 54 15 21547 10.86800000 2892959994 2892959994 15.00000000
-1.11983442 -1.56705546 -0.51608515 5 0 21555 1.99400000 2892960015 2892960015 -15.00000000
-1.19665825 -1.67394233 0.03591705 56 1 21556 2.05800000 2892960017 2892960017 1.00000000
-1.23559844 -1.72777629 -0.49039331 9 2 21557 2.18000000 2892960019 2892960019 -13.00000000
-1.20943367 -1.69118929 0.10896346 41 3 21557 2.08200000 2892960022 2892960022 3.00000000
-1.17770946 -1.64622080 -0.39344814 60 4 21558 2.06200000 2892960024 2892960024 -11.00000000
-1.17980981 -1.64794099 -0.32100353 53 6 21560 2.05200000 2892960028 2892960028 -9.00000000
-1.20353258 -1.67983735 -0.25373197 63 8 21562 2.08200000 2892960033 2892960033 -7.00000000
-1.19780493 -1.67122686 -0.17988946 62 10 21563 2.06400000 2892960038 2892960038 -5.00000000
-1.20248139 -1.67651522 -0.10812609 43 12 21565 2.06600000 2892960042 2892960042 -3.00000000
-6.12285376 -8.52713203 2.81284547 52 15 21568 10.86800000 2892960049 2892960049 15.00000000
-1.13094103 -1.57097626 -0.51867336 6 0 21575 2.00400000 2892960070 2892960070 -15.00000000
-1.20483136 -1.67300045 0.03598686 46 1 21576 2.06200000 2892960072 2892960072 1.00000000
-1.22567463 -1.70131660 -0.48409468 4 2 21577 2.15200000 2892960075 2892960075 -13.00000000
-1.18804014 -1.64847076 -0.39497462 67 4 21578 2.07000000 2892960079 2892960079 -11.00000000
-1.19017708 -1.65022123 -0.32225499 53 6 21580 2.06000000 2892960084 2892960084 -9.00000000
-1.20474195 -1.66918743 -0.25275701 63 8 21582 2.07400000 2892960088 2892960088 -7.00000000
-1.20713019 -1.67188156 -0.18041238 69 10 21583 2.07000000 2892960093 2892960093 -5.00000000
-1.22470224 -1.69497192 -0.10959149 22 12 21585 2.09400000 2892960098 2892960098 -3.00000000
-6.15788889 -8.51617432 2.81595111 47 15 21587 10.88000000 2892960105 2892960105 15.00000000
-1.14435697 -1.57796621 -0.52229685 6 0 21595 2.01800000 2892960125 2892960125 -15.00000000
-1.22123218 -1.68335199 0.03630101 35 1 21596 2.08000000 2892960128 2892960128 1.00000000
-1.21100271 -1.66863894 -0.47599643 2 2 21597 2.11600000 2892960130 2892960130 -13.00000000
-1.18801999 -1.63637018 -0.39306653 69 4 21598 2.06000000 2892960134 2892960134 -11.00000000
-1.19128585 -1.63966429 -0.32100353 55 6 21600 2.05200000 2892960139 2892960139 -9.00000000
-1.21056116 -1.66497195 -0.25275701 63 8 21602 2.07400000 2892960144 2892960144 -7.00000000
-1.21413076 -1.66926897 -0.18058670 62 10 21603 2.07200000 2892960148 2892960148 -5.00000000
-6.19019842 -8.49510860 2.81646895 14 15 21608 10.88200000 2892960160 2892960160 15.00000000
-1.15072274 -1.57572281 -0.52281445 8 0 21614 2.02000000 2892960181 2892960181 -15.00000000
-1.20963049 -1.65517378 -0.47329703 2 2 21616 2.10400000 2892960185 2892960185 -13.00000000
-1.18880510 -1.62608206 -0.39154005 64 4 21617 2.05200000 2892960190 2892960190 -11.00000000
-1.20371497 -1.64527035 -0.32288074 55 6 21619 2.06400000 2892960194 2892960194 -9.00000000
-1.22076643 -1.66735518 -0.25373197 63 8 21621 2.08200000 2892960199 2892960199 -7.00000000
-1.21848238 -1.66362619 -0.18041238 59 10 21622 2.07000000 2892960204 2892960204 -5.00000000
-4.45720816 -6.08109045 -0.39513648 4 12 21624 7.55000000 2892960208 2892960208 -3.00000000
-5.12110806 -6.98175478 2.32005382 4 15 21626 8.96400000 2892960215 2892960215 15.00000000
-1.15163696 -1.56547189 -0.52074391 8 0 21634 2.01200000 2892960236 2892960236 -15.00000000
-1.19113886 -1.61798525 -0.46384907 3 2 21636 2.06200000 2892960240 2892960240 -13.00000000
-1.19563818 -1.62350321 -0.39192167 60 4 21637 2.05400000 2892960245 2892960245 -11.00000000
-1.20476282 -1.63469779 -0.32162926 56 6 21639 2.05600000 2892960250 2892960250 -9.00000000
-1.22540092 -1.66148615 -0.25348824 61 8 21641 2.08000000 2892960254 2892960254 -7.00000000
-1.22191632 -1.65615630 -0.18006377 52 10 21642 2.06600000 2892960259 2892960259 -5.00000000
-6.35743141 -8.61356449 2.08096290 9 11 21643 10.90600000 2892960261 2892960261 11.00000000
-4.47603559 -6.06228161 -0.39492711 4 12 21644 7.54600000 2892960263 2892960263 -3.00000000
-5.12943888 -6.93963480 2.31228924 6 15 21647 8.93400000 2892960270 2892960270 15.00000000
-1.16257143 -1.56940591 -0.52333212 9 0 21653 2.02200000 2892960291 2892960291 -15.00000000
-1.19533730 -1.61246085 -0.46339917 3 2 21655 2.06000000 2892960296 2892960296 -13.00000000
-1.20101535 -1.61952937 -0.39192167 60 4 21656 2.05400000 2892960300 2892960300 -11.00000000
-1.20546818 -1.62434864 -0.32037780 45 6 21658 2.04800000 2892960305 2892960305 -9.00000000
-1.23682165 -1.66538179 -0.25470692 54 8 21660 2.09000000 2892960310 2892960310 -7.00000000
-1.23928344 -1.66808832 -0.18180688 43 10 21661 2.08600000 2892960314 2892960314 -5.00000000
-6.38947344 -8.59716225 2.08210778 21 11 21662 10.91200000 2892960316 2892960316 11.00000000
-4.48181438 -6.02817106 -0.39367107 4 12 21663 7.52200000 2892960319 2892960319 -3.00000000
-6.74062777 -9.06303787 2.60763264 20 13 21664 11.59200000 2892960321 2892960321 13.00000000
-5.16966581 -6.94828463 2.32057166 9 15 21665 8.96600000 2892960326 2892960326 15.00000000
-1.17266405 -1.57153153 -0.52540267 10 0 21673 2.03000000 2892960346 2892960346 -15.00000000
-1.19046474 -1.59422565 -0.45935005 3 2 21675 2.04200000 2892960351 2892960351 -13.00000000
-1.20783615 -1.61690009 -0.39230329 64 4 21676 2.05600000 2892960356 2892960356 -11.00000000
-1.21467912 -1.62487733 -0.32131639 38 6 21678 2.05400000 2892960360 2892960360 -9.00000000
-1.24500561 -1.66423345 -0.25519440 51 8 21680 2.09400000 2892960365 2892960365 -7.00000000
-1.25464880 -1.67651355 -0.18320137 38 10 21681 2.10200000 2892960369 2892960369 -5.00000000
-4.48846245 -5.99330616 -0.39241499 3 12 21683 7.49800000 2892960374 2892960374 -3.00000000
-5.21248007 -6.95247555 2.32833624 11 15 21686 8.99600000 2892960381 2892960381 15.00000000
-1.17377210 -1.56104660 -0.52333212 12 0 21694 2.02200000 2892960402 2892960402 -15.00000000
-1.18926966 -1.58050871 -0.45665064 3 2 21696 2.03000000 2892960406 2892960406 -13.00000000
-1.20548940 -1.60148251 -0.38963196 57 4 21697 2.04200000 2892960411 2892960411 -11.00000000
-1.22419202 -1.62514782 -0.32225499 30 6 21699 2.06000000 2892960416 2892960416 -9.00000000
-1.25109696 -1.65965903 -0.25519440 45 8 21701 2.09400000 2892960420 2892960420 -7.00000000
-4.51039886 -5.97681522 -0.39241499 3 12 21704 7.49800000 2892960429 2892960429 -3.00000000
-5.25068808 -6.95273781 2.33454776 9 15 21706 9.02000000 2892960436 2892960436 15.00000000
-1.17454839 -1.55077994 -0.52126157 17 0 21714 2.01400000 2892960457 2892960457 -15.00000000
-1.19831085 -1.58100688 -0.45800033 4 2 21716 2.03600000 2892960462 2892960462 -13.00000000
-1.21107233 -1.59726477 -0.38963196 59 4 21717 2.04200000 2892960466 2892960466 -11.00000000
-1.23702168 -1.63030660 -0.32413220 31 6 21719 2.07200000 2892960471 2892960471 -9.00000000
-1.26528585 -1.66634858 -0.25690058 25 8 21721 2.10800000 2892960475 2892960475 -7.00000000
-4.55298996 -5.98965502 -0.39429909 4 12 21724 7.53400000 2892960485 2892960485 -3.00000000
-5.27964544 -6.93805838 2.33610082 15 15 21727 9.02600000 2892960492 2892960492 15.00000000
-1.17553639 -1.54032171 -0.51919103 18 0 21735 2.00600000 2892960512 2892960512 -15.00000000
-1.21119428 -1.58589661 -0.46069977 16 2 21737 2.04800000 2892960517 2892960517 -13.00000000
-1.22287786 -1.60061550 -0.39154005 54 4 21738 2.05200000 2892960522 2892960522 -11.00000000
-1.23938930 -1.62105393 -0.32319361 23 6 21740 2.06600000 2892960526 2892960526 -9.00000000
-3.10005188 -4.05030251 -0.44623742 3 10 21743 5.12000000 2892960535 2892960535 -5.00000000
-4.56276798 -5.95707130 -0.39325237 4 12 21745 7.51400000 2892960540 2892960540 -3.00000000
-5.30148125 -6.91652012 2.33506536 15 15 21747 9.02200000 2892960547 2892960547 15.00000000
-1.17384171 -1.52701926 -0.51608515 15 0 21755 1.99400000 2892960568 2892960568 -15.00000000
-1.20602882 -1.56775784 -0.45665064 19 2 21757 2.03000000 2892960572 2892960572 -13.00000000
-1.23444426 -1.60411656 -0.39344814 60 4 21758 2.06200000 2892960577 2892960577 -11.00000000
-3.11660409 -4.04261255 -0.44658601 3 10 21763 5.12400000 2892960591 2892960591 -5.00000000
-4.57621384 -5.93162012 -0.39262435 4 12 21765 7.50200000 2892960595 2892960595 -3.00000000
-5.34566164 -6.92396784 2.34386516 18 15 21767 9.05600000 2892960602 2892960602 15.00000000
-1.18008149 -1.52464592 -0.51660281 14 0 21774 1.99600000 2892960623 2892960623 -15.00000000
-1.19451463 -1.54218090 -0.45035201 18 2 21776 2.00200000 2892960628 2892960628 -13.00000000
-1.25057924 -1.61398137 -0.39688271 47 4 21777 2.08000000 2892960632 2892960632 -11.00000000
-2.36575246 -3.04881072 -0.47382802 1 8 21781 3.88800000 2892960641 2892960641 -7.00000000
-3.11777568 -4.01651669 -0.44484290 3 10 21782 5.10400000 2892960646 2892960646 -5.00000000
-4.56645298 -5.87855721 -0.39011222 3 12 21784 7.45400000 2892960651 2892960651 -3.00000000
-5.38519192 -6.92755604 2.35111213 20 15 21786 9.08400000 2892960657 2892960657 15.00000000
-1.18302071 -1.51747024 -0.51556754 24 0 21794 1.99200000 2892960678 2892960678 -15.00000000
-1.20108926 -1.53953838 -0.45080191 19 2 21796 2.00400000 2892960683 2892960683 -13.00000000
-1.26345277 -1.61889231 -0.39917243 36 4 21797 2.09200000 2892960687 2892960687 -11.00000000
-1.91138160 -2.44733715 -0.49182996 3 6 21799 3.14400000 2892960692 2892960692 -9.00000000
-2.35437679 -3.01238108 -0.46944070 1 8 21801 3.85200000 2892960697 2892960697 -7.00000000
-3.14895773 -4.02758312 -0.44728327 3 10 21802 5.13200000 2892960701 2892960701 -5.00000000
-4.60663700 -5.88774967 -0.39178696 3 12 21804 7.48600000 2892960706 2892960706 -3.00000000
-5.42126799 -6.92145967 2.35577106 20 15 21807 9.10200000 2892960713 2892960713 15.00000000
-1.17637968 -1.49813747 -0.51039118 38 0 21814 1.97200000 2892960734 2892960734 -15.00000000
-1.21368015 -1.54453003 -0.45350131 24 2 21816 2.01600000 2892960738 2892960738 -13.00000000
-1.90525699 -2.42201948 -0.48807552 2 6 21819 3.12000000 2892960747 2892960747 -9.00000000
-2.37961197 -3.02286172 -0.47236559 1 8 21821 3.87600000 2892960752 2892960752 -7.00000000
-3.15067077 -4.00091362 -0.44554016 3 10 21822 5.11200000 2892960757 2892960757 -5.00000000
-4.61850739 -5.86065245 -0.39105427 3 12 21824 7.47200000 2892960761 2892960761 -3.00000000
-4.35624599 -5.52388811 -0.12279513 2 14 21826 7.03600000 2892960766 2892960766 -1.00000000
-4.30774117 -5.46238232 1.86401474 13 15 21826 7.20200000 2892960768 2892960768 15.00000000
-1.17321336 -1.48341537 -0.50676769 49 0 21834 1.95800000 2892960789 2892960789 -15.00000000
-4.33265829 -5.47626448 0.12188761 11 1 21835 6.98400000 2892960791 2892960791 1.00000000
-1.21422672 -1.53417182 -0.45170173 25 2 21836 2.00800000 2892960793 2892960793 -13.00000000
-4.34416580 -5.48687220 0.36677039 20 3 21837 7.00800000 2892960796 2892960796 3.00000000
-1.59523296 -2.01484942 -0.49953794 3 4 21837 2.61800000 2892960798 2892960798 -11.00000000
-4.32710695 -5.46336699 0.60974157 13 5 21838 6.99600000 2892960800 2892960800 5.00000000
-1.91615319 -2.41845059 -0.48870125 2 6 21839 3.12400000 2892960803 2892960803 -9.00000000
-4.33781958 -5.47296619 0.85747272 7 7 21840 7.03600000 2892960805 2892960805 7.00000000
-2.39261603 -3.01764798 -0.47285306 1 8 21841 3.88000000 2892960807 2892960807 -7.00000000
-4.33935785 -5.47098303 1.10599172 45 9 21842 7.07000000 2892960810 2892960810 9.00000000
-3.18566537 -4.01642847 -0.44850346 3 10 21842 5.14600000 2892960812 2892960812 -5.00000000
-4.32588053 -5.45203590 1.35283577 50 11 21843 7.09000000 2892960814 2892960814 11.00000000
-4.36824942 -5.50346184 -0.36823580 7 12 21844 7.03600000 2892960816 2892960816 -3.00000000
-4.31032944 -5.42854404 1.60030174 49 13 21845 7.11400000 2892960819 2892960819 13.00000000
-4.34565115 -5.47106791 -0.12195741 12 14 21846 6.98800000 2892960821 2892960821 -1.00000000
-1.17838430 -1.47931099 -0.50676769 58 0 21854 1.95800000 2892960844 2892960844 -15.00000000
-4.34302378 -5.45016003 0.12164328 8 1 21855 6.97000000 2892960846 2892960846 1.00000000
-1.22078919 -1.53144789 -0.45215163 34 2 21856 2.01000000 2892960849 2892960849 -13.00000000
-4.34615231 -5.45213318 0.36540964 5 3 21856 6.98200000 2892960851 2892960851 3.00000000
-1.60470438 -2.01233864 -0.50030118 3 4 21857 2.62200000 2892960853 2892960853 -11.00000000
-4.31881714 -5.41396332 0.60590672 3 5 21858 6.95200000 2892960856 2892960856 5.00000000
-1.92704785 -2.41483545 -0.48932701 2 6 21859 3.12800000 2892960858 2892960858 -9.00000000
-4.34203577 -5.43917418 0.85454786 10 7 21860 7.01200000 2892960860 2892960860 7.00000000
-2.41304469 -3.02168703 -0.47480297 1 8 21861 3.89600000 2892960862 2892960862 -7.00000000
-4.33405590 -5.42723513 1.10004711 57 9 21861 7.03200000 2892960865 2892960865 9.00000000
-3.17355108 -3.97259402 -0.44484290 3 10 21862 5.10400000 2892960867 2892960867 -5.00000000
-4.32772636 -5.41543102 1.34749317 62 11 21863 7.06200000 2892960869 2892960869 11.00000000
-4.36498499 -5.46010017 -0.36635169 7 12 21864 7.00000000 2892960872 2892960872 -3.00000000
-4.32073259 -5.40281153 1.59715247 75 13 21865 7.10000000 2892960874 2892960874 13.00000000
-4.35347939 -5.44181204 -0.12164328 8 14 21866 6.97000000 2892960876 2892960876 -1.00000000
-4.29991102 -5.37485218 1.84434450 63 15 21866 7.12600000 2892960879 2892960879 15.00000000
-1.17870510 -1.46916139 -0.50469714 67 0 21874 1.95000000 2892960899 2892960899 -15.00000000
-4.35826731 -5.43028831 0.12153856 8 1 21875 6.96400000 2892960902 2892960902 1.00000000
-1.22246742 -1.52261841 -0.45080191 29 2 21876 2.00400000 2892960904 2892960904 -13.00000000
-4.35109806 -5.41748095 0.36415359 7 3 21877 6.95800000 2892960906 2892960906 3.00000000
-1.61417770 -2.00978613 -0.50106442 3 4 21877 2.62600000 2892960909 2892960909 -11.00000000
-4.34767199 -5.41128063 0.60730124 13 5 21878 6.96800000 2892960911 2892960911 5.00000000
