# .PCD v0.7 - Point Cloud Data file format
VERSION 0.7
FIELDS x y z intensity laser_id azimuth distance_m adjustedtime timestamp vertical_angle
SIZE 4 4 4 1 1 2 8 8 4 8
TYPE F F F U U U F U U F
COUNT 1 1 1 1 1 1 1 1 1 1
WIDTH 539
HEIGHT 1
VIEWPOINT 0 0 0 1 0 0 0
POINTS 539
DATA ascii
2.61064649 0.39622146 -0.60961735 6 2 8137 2.71000000 2894222650 2894222650 -13.00000000
8.15352917 1.23601675 0.43219033 99 3 8138 8.25800000 2894222653 2894222653 3.00000000
3.14260483 0.47639641 -0.61783952 5 4 8138 3.23800000 2894222655 2894222655 -11.00000000
8.13189411 1.23128521 0.71955782 76 5 8139 8.25600000 2894222657 2894222657 5.00000000
3.94930220 0.59727579 -0.63262099 6 6 8140 4.04400000 2894222659 2894222659 -9.00000000
8.17516422 1.23491788 1.01517165 92 7 8141 8.33000000 2894222662 2894222662 7.00000000
5.28406286 0.79725277 -0.65614456 9 8 8142 5.38400000 2894222664 2894222664 -7.00000000
7.88845444 1.18879199 -0.69794321 26 10 8143 8.00800000 2894222669 2894222669 -5.00000000
8.14120770 1.22397578 -0.43145761 17 12 8145 8.24400000 2894222673 2894222673 -3.00000000
8.13970089 1.22084391 -0.14366820 12 14 8147 8.23200000 2894222678 2894222678 -1.00000000
8.18641567 1.22785056 2.21807933 49 15 8147 8.57000000 2894222680 2894222680 15.00000000
2.22044301 0.32986671 -0.60149544 4 0 8155 2.32400000 2894222701 2894222701 -15.00000000
8.13963032 1.20776308 0.14363331 18 1 8156 8.23000000 2894222703 2894222703 1.00000000
2.60237527 0.38567775 -0.60736787 7 2 8157 2.70000000 2894222706 2894222706 -13.00000000
8.16174507 1.20813298 0.43239966 89 3 8158 8.26200000 2894222708 2894222708 3.00000000
3.15784311 0.46743611 -0.62051088 5 4 8158 3.25200000 2894222710 2894222710 -11.00000000
8.13614273 1.20289207 0.71955782 76 5 8159 8.25600000 2894222712 2894222712 5.00000000
3.93572950 0.58117801 -0.63011801 4 6 8160 4.02800000 2894222715 2894222715 -9.00000000
8.16371441 1.20405650 1.01322174 95 7 8161 8.31400000 2894222717 2894222717 7.00000000
5.28681326 0.77880311 -0.65614456 6 8 8162 5.38400000 2894222719 2894222719 -7.00000000
7.88664246 1.16037893 -0.69742024 17 10 8163 8.00200000 2894222724 2894222724 -5.00000000
8.14543056 1.19555020 -0.43145761 17 12 8165 8.24400000 2894222729 2894222729 -3.00000000
8.14193344 1.19213390 -0.14363331 14 14 8167 8.23000000 2894222733 2894222733 -1.00000000
8.19065189 1.19926715 2.21807933 47 15 8167 8.57000000 2894222735 2894222735 15.00000000
2.22540474 0.32266831 -0.60253072 4 0 8175 2.32800000 2894222756 2894222756 -15.00000000
8.13983822 1.17876983 0.14356349 15 1 8176 8.22600000 2894222759 2894222759 1.00000000
2.60563445 0.37687039 -0.60781777 9 2 8177 2.70200000 2894222761 2894222761 -13.00000000
8.15800571 1.17849362 0.43198100 89 3 8178 8.25400000 2894222763 2894222763 3.00000000
3.17111421 0.45809451 -0.62280059 5 4 8178 3.26400000 2894222765 2894222765 -11.00000000
8.14226437 1.17476881 0.71973211 76 5 8179 8.25800000 2894222768 2894222768 5.00000000
3.94164467 0.56799966 -0.63074374 6 6 8180 4.03200000 2894222770 2894222770 -9.00000000
8.15214825 1.17329025 1.01127183 95 7 8181 8.29800000 2894222772 2894222772 7.00000000
5.28164005 0.75921416 -0.65516961 9 8 8182 5.37600000 2894222775 2894222775 -7.00000000
7.88472843 1.13199294 -0.69689733 17 10 8183 7.99600000 2894222779 2894222779 -5.00000000
8.12780666 1.16399550 -0.43030623 17 12 8185 8.22200000 2894222784 2894222784 -3.00000000
8.15000439 1.16427159 -0.14370312 14 14 8187 8.23400000 2894222788 2894222788 -1.00000000
8.19307995 1.16896594 2.21756148 51 15 8188 8.56800000 2894222791 2894222791 15.00000000
2.22274661 0.31396925 -0.60149544 4 0 8196 2.32400000 2894222812 2894222812 -15.00000000
8.14410400 1.14892793 0.14356349 15 1 8197 8.22600000 2894222814 2894222814 1.00000000
2.60506845 0.36704585 -0.60736787 7 2 8198 2.70000000 2894222816 2894222816 -13.00000000
8.14644814 1.14635861 0.43114361 89 3 8199 8.23800000 2894222818 2894222818 3.00000000
3.15721893 0.44428015 -0.61974764 5 4 8199 3.24800000 2894222821 2894222821 -11.00000000
8.14256954 1.14436352 0.71938348 76 5 8200 8.25400000 2894222823 2894222823 5.00000000
3.94565630 0.55382359 -0.63105661 9 6 8201 4.03400000 2894222825 2894222825 -9.00000000
8.15639400 1.14340317 1.01127183 97 7 8202 8.29800000 2894222828 2894222828 7.00000000
5.28438711 0.73985088 -0.65516961 9 8 8203 5.37600000 2894222830 2894222830 -7.00000000
8.24598980 1.15302837 1.31874251 7 9 8204 8.43000000 2894222832 2894222832 9.00000000
7.88882446 1.10308635 -0.69689733 17 10 8204 7.99600000 2894222835 2894222835 -5.00000000
8.23058510 1.14940977 1.61538899 3 11 8205 8.46600000 2894222837 2894222837 11.00000000
8.13399601 1.13447368 -0.43041089 17 12 8206 8.22400000 2894222839 2894222839 -3.00000000
8.13837242 1.13218820 -0.14342387 14 14 8208 8.21800000 2894222844 2894222844 -1.00000000
8.20285130 1.14115822 2.21911454 49 15 8208 8.57400000 2894222846 2894222846 15.00000000
2.22382903 0.30620849 -0.60149544 4 0 8216 2.32400000 2894222867 2894222867 -15.00000000
8.15598869 1.12158239 0.14370312 15 1 8217 8.23400000 2894222869 2894222869 1.00000000
2.61019516 0.35848051 -0.60826766 7 2 8218 2.70400000 2894222871 2894222871 -13.00000000
8.15040016 1.11791515 0.43114361 81 3 8219 8.23800000 2894222874 2894222874 3.00000000
3.15486050 0.43272310 -0.61898440 5 4 8219 3.24400000 2894222876 2894222876 -11.00000000
8.14059258 1.11512244 0.71886057 76 5 8220 8.24800000 2894222878 2894222878 5.00000000
3.95539403 0.54111826 -0.63230813 9 6 8221 4.04200000 2894222881 2894222881 -9.00000000
8.15640163 1.11438763 1.01078439 97 7 8222 8.29400000 2894222883 2894222883 7.00000000
5.28693771 0.72140038 -0.65516961 9 8 8223 5.37600000 2894222885 2894222885 -7.00000000
7.89460087 1.07581151 -0.69707161 17 10 8224 7.99800000 2894222890 2894222890 -5.00000000
8.13196945 1.10526693 -0.43009689 17 12 8226 8.21800000 2894222894 2894222894 -3.00000000
8.12444019 1.10135543 -0.14310974 16 14 8228 8.20000000 2894222899 2894222899 -1.00000000
8.19338417 1.11070144 2.21549106 51 15 8228 8.56000000 2894222901 2894222901 15.00000000
2.22105503 0.29793033 -0.60046017 4 0 8236 2.32000000 2894222922 2894222922 -15.00000000
8.14399815 1.09098184 0.14342387 15 1 8237 8.21800000 2894222924 2894222924 1.00000000
2.61143041 0.34936705 -0.60826766 7 2 8238 2.70400000 2894222927 2894222927 -13.00000000
8.15010357 1.09035170 0.43093425 63 3 8238 8.23400000 2894222929 2894222929 3.00000000
3.16024375 0.42222795 -0.61974764 5 4 8239 3.24800000 2894222931 2894222931 -11.00000000
8.12666130 1.08432817 0.71729177 76 5 8240 8.23000000 2894222934 2894222934 5.00000000
3.96117496 0.52782995 -0.63293386 9 6 8241 4.04600000 2894222936 2894222936 -9.00000000
8.16811275 1.08695710 1.01175928 97 7 8242 8.30200000 2894222938 2894222938 7.00000000
5.29335928 0.70346415 -0.65565705 9 8 8243 5.38000000 2894222940 2894222940 -7.00000000
7.86473179 1.04379141 -0.69410831 25 10 8244 7.96400000 2894222945 2894222945 -5.00000000
8.13973808 1.07739842 -0.43030623 17 12 8246 8.22200000 2894222950 2894222950 -3.00000000
8.13814831 1.07429767 -0.14328426 14 14 8248 8.21000000 2894222954 2894222954 -1.00000000
8.18955040 1.08108306 2.21342039 54 15 8248 8.55200000 2894222957 2894222957 15.00000000
2.22399688 0.29042575 -0.60097784 4 0 8256 2.32200000 2894222977 2894222977 -15.00000000
8.13387680 1.06073713 0.14317954 18 1 8257 8.20400000 2894222980 2894222980 1.00000000
2.61263418 0.34024933 -0.60826766 7 2 8258 2.70400000 2894222982 2894222982 -13.00000000
8.14810276 1.05970001 0.43062025 55 3 8259 8.22800000 2894222984 2894222984 3.00000000
3.14807034 0.40942168 -0.61707628 5 4 8259 3.23400000 2894222987 2894222987 -11.00000000
8.13237286 1.05621076 0.71746606 76 5 8260 8.23200000 2894222989 2894222989 5.00000000
3.97082901 0.51501596 -0.63418531 9 6 8261 4.05400000 2894222991 2894222991 -9.00000000
8.16004562 1.05690861 1.01029682 92 7 8262 8.29000000 2894222993 2894222993 7.00000000
5.31153202 0.68701977 -0.65760696 6 8 8263 5.39600000 2894222996 2894222996 -7.00000000
7.92365503 1.02347851 -0.69898903 30 10 8264 8.02000000 2894223000 2894223000 -5.00000000
8.13156414 1.04744792 -0.42967820 17 12 8266 8.21000000 2894223005 2894223005 -3.00000000
8.14581490 1.04639328 -0.14335407 14 14 8268 8.21400000 2894223010 2894223010 -1.00000000
8.18579292 1.05007648 2.21134996 56 15 8269 8.54400000 2894223012 2894223012 15.00000000
2.23074651 0.28339118 -0.60253072 4 0 8276 2.32800000 2894223033 2894223033 -15.00000000
8.13951397 1.03258979 0.14321445 15 1 8277 8.20600000 2894223035 2894223035 1.00000000
2.60413933 0.32990289 -0.60601813 9 2 8278 2.69400000 2894223037 2894223037 -13.00000000
8.13968372 1.03116798 0.42999223 52 3 8278 8.21600000 2894223040 2894223040 3.00000000
3.15532351 0.39916956 -0.61822116 6 4 8279 3.24000000 2894223042 2894223042 -11.00000000
8.13798714 1.02806675 0.71764040 76 5 8280 8.23400000 2894223044 2894223044 5.00000000
3.96868300 0.50065756 -0.63355958 6 6 8281 4.05000000 2894223046 2894223046 -9.00000000
8.15186787 1.02692962 1.00883448 97 7 8282 8.27800000 2894223049 2894223049 7.00000000
5.29814148 0.66649270 -0.65565705 6 8 8283 5.38000000 2894223051 2894223051 -7.00000000
8.11300373 1.01915681 -0.71537435 13 10 8284 8.20800000 2894223056 2894223056 -5.00000000
8.12922478 1.01831234 -0.42936417 17 12 8286 8.20400000 2894223060 2894223060 -3.00000000
8.13949680 1.01671338 -0.14317954 14 14 8288 8.20400000 2894223065 2894223065 -1.00000000
8.19689846 1.02388334 2.21342039 56 15 8288 8.55200000 2894223067 2894223067 15.00000000
2.23555684 0.27607623 -0.60356599 4 0 8296 2.33200000 2894223088 2894223088 -15.00000000
8.14108372 1.00392663 0.14317954 12 1 8297 8.20400000 2894223090 2894223090 1.00000000
2.60914350 0.32128707 -0.60691792 9 2 8298 2.69800000 2894223092 2894223092 -13.00000000
8.13926888 1.00226068 0.42978287 49 3 8298 8.21200000 2894223095 2894223095 3.00000000
3.13721180 0.38575700 -0.61440498 6 4 8299 3.22000000 2894223097 2894223097 -11.00000000
8.14745808 1.00038207 0.71816331 76 5 8300 8.24000000 2894223099 2894223099 5.00000000
3.97236705 0.48704159 -0.63387245 6 6 8301 4.05200000 2894223102 2894223102 -9.00000000
8.15343285 0.99822676 1.00859070 99 7 8302 8.27600000 2894223104 2894223104 7.00000000
5.28467226 0.64606756 -0.65370715 6 8 8303 5.36400000 2894223106 2894223106 -7.00000000
8.10860062 0.98986524 -0.71467710 17 10 8304 8.20000000 2894223111 2894223111 -5.00000000
8.13074780 0.98968852 -0.42925951 17 12 8306 8.20200000 2894223116 2894223116 -3.00000000
8.13704109 0.98757225 -0.14307483 14 14 8308 8.19800000 2894223120 2894223120 -1.00000000
8.19275093 0.99433362 2.21134996 58 15 8308 8.54400000 2894223122 2894223122 15.00000000
2.23454189 0.26843092 -0.60304838 4 0 8315 2.33000000 2894223143 2894223143 -15.00000000
8.13444138 0.97573352 0.14300501 15 1 8316 8.19400000 2894223145 2894223145 1.00000000
2.60825968 0.31240129 -0.60646802 7 2 8317 2.69600000 2894223148 2894223148 -13.00000000
8.13676929 0.97313172 0.42946887 42 3 8318 8.20600000 2894223150 2894223150 3.00000000
3.13457513 0.37488523 -0.61364174 6 4 8318 3.21600000 2894223152 2894223152 -11.00000000
8.14281750 0.97241366 0.71746606 90 5 8319 8.23200000 2894223155 2894223155 5.00000000
3.98965216 0.47573721 -0.63637543 6 6 8320 4.06800000 2894223157 2894223157 -9.00000000
8.14881325 0.97024477 1.00761569 99 7 8321 8.26800000 2894223159 2894223159 7.00000000
5.29861259 0.62994552 -0.65516961 6 8 8322 5.37600000 2894223162 2894223162 -7.00000000
8.11183834 0.96297073 -0.71467710 17 10 8323 8.20000000 2894223166 2894223166 -5.00000000
8.14191818 0.96365958 -0.42967820 17 12 8325 8.21000000 2894223171 2894223171 -3.00000000
8.12239742 0.95847428 -0.14276068 12 14 8327 8.18000000 2894223175 2894223175 -1.00000000
8.18466091 0.96437317 2.20824409 51 15 8328 8.53200000 2894223178 2894223178 15.00000000
2.21627665 0.25839213 -0.59787202 4 0 8335 2.31000000 2894223198 2894223198 -15.00000000
8.13581085 0.94710183 0.14297011 15 1 8336 8.19200000 2894223201 2894223201 1.00000000
2.61707687 0.30419487 -0.60826766 7 2 8337 2.70400000 2894223203 2894223203 -13.00000000
8.13796711 0.94591326 0.42936417 28 3 8337 8.20400000 2894223205 2894223205 3.00000000
3.13976479 0.36439389 -0.61440498 6 4 8338 3.22000000 2894223208 2894223208 -11.00000000
8.12439156 0.94146121 0.71554863 76 5 8339 8.21000000 2894223210 2894223210 5.00000000
3.99521303 0.46226192 -0.63700116 6 6 8340 4.07200000 2894223212 2894223212 -9.00000000
8.16201019 0.94293326 1.00883448 97 7 8341 8.27800000 2894223215 2894223215 7.00000000
5.29683542 0.61099112 -0.65468210 9 8 8342 5.37200000 2894223217 2894223217 -7.00000000
8.10327435 0.93328148 -0.71363121 17 10 8343 8.18800000 2894223222 2894223222 -5.00000000
8.14324856 0.93500525 -0.42957354 17 12 8345 8.20800000 2894223226 2894223226 -3.00000000
8.13562775 0.93125308 -0.14293520 14 14 8347 8.19000000 2894223231 2894223231 -1.00000000
8.17838001 0.93470067 2.20565581 49 15 8348 8.52200000 2894223233 2894223233 15.00000000
2.22292399 0.25130534 -0.59942490 4 0 8355 2.31600000 2894223254 2894223254 -15.00000000
8.12714481 0.91735101 0.14276068 15 1 8356 8.18000000 2894223256 2894223256 1.00000000
2.61812282 0.29505771 -0.60826766 6 2 8357 2.70400000 2894223258 2894223258 -13.00000000
8.15312767 0.91884273 0.42999223 26 3 8357 8.21600000 2894223261 2894223261 3.00000000
3.15662527 0.35518804 -0.61745793 6 4 8358 3.23600000 2894223263 2894223263 -11.00000000
8.12960815 0.91331846 0.71572298 79 5 8359 8.21200000 2894223265 2894223265 5.00000000
3.97913480 0.44633147 -0.63418531 9 6 8360 4.05400000 2894223268 2894223268 -9.00000000
8.14947033 0.91266930 1.00688446 97 7 8361 8.26200000 2894223270 2894223270 7.00000000
5.30288124 0.59293920 -0.65516961 6 8 8362 5.37600000 2894223272 2894223272 -7.00000000
8.10054302 0.90432692 -0.71310830 17 10 8363 8.18200000 2894223277 2894223277 -5.00000000
8.13852215 0.90569073 -0.42915484 17 12 8365 8.20000000 2894223281 2894223281 -3.00000000
8.13087845 0.90196681 -0.14279559 14 14 8367 8.18200000 2894223286 2894223286 -1.00000000
8.18735313 0.90678507 2.20720887 56 15 8368 8.52800000 2894223288 2894223288 15.00000000
2.22954893 0.24417531 -0.60097784 4 0 8375 2.32200000 2894223309 2894223309 -15.00000000
8.13029766 0.88897640 0.14276068 18 1 8376 8.18000000 2894223311 2894223311 1.00000000
2.61332512 0.28528252 -0.60691792 6 2 8377 2.69800000 2894223314 2894223314 -13.00000000
8.13643074 0.88821000 0.42894551 23 3 8377 8.19600000 2894223316 2894223316 3.00000000
3.15199089 0.34352905 -0.61631304 5 4 8378 3.23000000 2894223318 2894223318 -11.00000000
8.13670826 0.88536632 0.71607161 76 5 8379 8.21600000 2894223321 2894223321 5.00000000
3.97281313 0.43158561 -0.63293386 9 6 8380 4.04600000 2894223323 2894223323 -9.00000000
8.14471245 0.88336062 1.00590956 97 7 8381 8.25400000 2894223325 2894223325 7.00000000
5.28913069 0.57271546 -0.65321970 6 8 8382 5.36000000 2894223328 2894223328 -7.00000000
8.07195663 0.87261897 -0.71031928 17 10 8383 8.15000000 2894223332 2894223332 -5.00000000
8.13170528 0.87620664 -0.42863148 17 12 8385 8.19000000 2894223337 2894223337 -3.00000000
8.13994217 0.87421989 -0.14290030 12 14 8387 8.18800000 2894223341 2894223341 -1.00000000
8.18278503 0.87737656 2.20513821 51 15 8388 8.52000000 2894223344 2894223344 15.00000000
2.23418832 0.23718841 -0.60201311 4 0 8394 2.32600000 2894223364 2894223364 -15.00000000
8.14115524 0.86285353 0.14290030 18 1 8395 8.18800000 2894223367 2894223367 1.00000000
2.61425686 0.27661484 -0.60691792 6 2 8396 2.69800000 2894223369 2894223369 -13.00000000
8.13933182 0.86122370 0.42894551 23 3 8396 8.19600000 2894223371 2894223371 3.00000000
3.15506506 0.33328104 -0.61669469 5 4 8397 3.23200000 2894223374 2894223374 -11.00000000
8.15148830 0.85963285 0.71711743 79 5 8398 8.22800000 2894223376 2894223376 5.00000000
3.98797417 0.41985670 -0.63512391 6 6 8399 4.06000000 2894223378 2894223378 -9.00000000
8.14759636 0.85634691 1.00590956 95 7 8400 8.25400000 2894223380 2894223380 7.00000000
5.29494905 0.55558723 -0.65370715 6 8 8401 5.36400000 2894223383 2894223383 -7.00000000
8.07678699 0.84605420 -0.71049362 17 10 8402 8.15200000 2894223387 2894223387 -5.00000000
8.13853931 0.84965086 -0.42884082 17 12 8404 8.19400000 2894223392 2894223392 -3.00000000
8.12688541 0.84556651 -0.14262107 12 14 8406 8.17200000 2894223397 2894223397 -1.00000000
8.19318676 0.85246497 2.20720887 58 15 8406 8.52800000 2894223399 2894223399 15.00000000
2.22347212 0.22820476 -0.59890729 4 0 8414 2.31400000 2894223420 2894223420 -15.00000000
8.13615990 0.83361506 0.14276068 12 1 8415 8.18000000 2894223422 2894223422 1.00000000
2.61326790 0.26728943 -0.60646802 5 2 8416 2.69600000 2894223424 2894223424 -13.00000000
8.13036633 0.83158755 0.42831746 21 3 8416 8.18400000 2894223427 2894223427 3.00000000
3.14449048 0.32106924 -0.61440498 5 4 8417 3.22000000 2894223429 2894223429 -11.00000000
8.13461781 0.82915330 0.71537435 76 5 8418 8.20800000 2894223431 2894223431 5.00000000
3.98745012 0.40573356 -0.63481104 9 6 8419 4.05800000 2894223433 2894223433 -9.00000000
8.15251160 0.82810187 1.00615335 99 7 8420 8.25600000 2894223436 2894223436 7.00000000
5.28500652 0.53589946 -0.65224475 6 8 8421 5.35200000 2894223438 2894223438 -7.00000000
8.09554958 0.81946099 -0.71188813 17 10 8422 8.16800000 2894223443 2894223443 -5.00000000
8.14543056 0.82163775 -0.42905018 17 12 8424 8.19800000 2894223447 2894223447 -3.00000000
8.12381840 0.81659323 -0.14251634 14 14 8426 8.16600000 2894223452 2894223452 -1.00000000
8.17895699 0.82069379 2.20255017 54 15 8427 8.51000000 2894223454 2894223454 15.00000000
2.22425532 0.22044200 -0.59890729 4 0 8434 2.31400000 2894223475 2894223475 -15.00000000
8.12509060 0.80383140 0.14251634 12 1 8435 8.16600000 2894223477 2894223477 1.00000000
2.62969947 0.25969794 -0.61006725 5 2 8436 2.71200000 2894223480 2894223480 -13.00000000
8.14528561 0.80295831 0.42894551 21 3 8437 8.19600000 2894223482 2894223482 3.00000000
3.14559221 0.31009096 -0.61440498 5 4 8437 3.22000000 2894223484 2894223484 -11.00000000
8.13151455 0.80016774 0.71485138 83 5 8438 8.20200000 2894223486 2894223486 5.00000000
3.97704673 0.39065364 -0.63293386 9 6 8439 4.04600000 2894223489 2894223489 -9.00000000
8.15732765 0.79983300 1.00639701 95 7 8440 8.25800000 2894223491 2894223491 7.00000000
5.29079628 0.51783484 -0.65273219 6 8 8441 5.35600000 2894223493 2894223493 -7.00000000
6.62701321 0.64744890 -0.58254898 8 10 8442 6.68400000 2894223498 2894223498 -5.00000000
8.14824867 0.79319990 -0.42905018 17 12 8444 8.19800000 2894223503 2894223503 -3.00000000
8.13856125 0.78938913 -0.14272578 12 14 8446 8.17800000 2894223507 2894223507 -1.00000000
8.18163300 0.79356688 2.20255017 56 15 8446 8.51000000 2894223510 2894223510 15.00000000
2.22885728 0.21304420 -0.59994256 4 0 8454 2.31800000 2894223530 2894223530 -15.00000000
8.11988449 0.77470493 0.14237674 12 1 8455 8.15800000 2894223533 2894223533 1.00000000
2.61895013 0.24940850 -0.60736787 5 2 8456 2.70000000 2894223535 2894223535 -13.00000000
8.14008617 0.77376509 0.42852682 15 3 8457 8.18800000 2894223537 2894223537 3.00000000
3.14860988 0.29929468 -0.61478657 5 4 8457 3.22200000 2894223539 2894223539 -11.00000000
8.12830734 0.77121401 0.71432847 79 5 8458 8.19600000 2894223542 2894223542 5.00000000
3.97445297 0.37639630 -0.63230813 9 6 8459 4.04200000 2894223544 2894223544 -9.00000000
8.14425945 0.76985919 1.00444710 92 7 8460 8.24200000 2894223546 2894223546 7.00000000
5.29257154 0.49936333 -0.65273219 6 8 8461 5.35600000 2894223549 2894223549 -7.00000000
6.61336374 0.62281787 -0.58115447 16 10 8462 6.66800000 2894223553 2894223553 -5.00000000
8.13903618 0.76363295 -0.42842212 17 12 8464 8.18600000 2894223558 2894223558 -3.00000000
8.13529396 0.76041716 -0.14262107 12 14 8466 8.17200000 2894223563 2894223563 -1.00000000
8.18064022 0.76321548 2.20151472 58 15 8467 8.50600000 2894223565 2894223565 15.00000000
2.22962332 0.20487359 -0.59994256 4 0 8475 2.31800000 2894223586 2894223586 -15.00000000
8.12067795 0.74475622 0.14234182 12 1 8476 8.15600000 2894223588 2894223588 1.00000000
2.61208415 0.23909736 -0.60556823 5 2 8477 2.69200000 2894223590 2894223590 -13.00000000
8.14286709 0.74392498 0.42852682 13 3 8478 8.18800000 2894223592 2894223592 3.00000000
3.14577556 0.28739521 -0.61402333 4 4 8478 3.21800000 2894223595 2894223595 -11.00000000
8.13703156 0.74195987 0.71485138 83 5 8479 8.20200000 2894223597 2894223597 5.00000000
3.97187138 0.36146861 -0.63168240 9 6 8480 4.03800000 2894223599 2894223599 -9.00000000
8.14109612 0.73946512 1.00371587 99 7 8481 8.23600000 2894223602 2894223602 7.00000000
5.28645802 0.47924486 -0.65175724 6 8 8482 5.34800000 2894223604 2894223604 -7.00000000
6.62552357 0.59947222 -0.58202606 16 10 8483 6.67800000 2894223609 2894223609 -5.00000000
8.12984562 0.73272109 -0.42779410 17 12 8485 8.17400000 2894223613 2894223613 -3.00000000
8.13205147 0.73005831 -0.14251634 14 14 8487 8.16600000 2894223618 2894223618 -1.00000000
8.17940617 0.73430955 2.20047951 58 15 8487 8.50200000 2894223620 2894223620 15.00000000
2.23609781 0.19759966 -0.60149544 4 0 8495 2.32400000 2894223641 2894223641 -15.00000000
8.13717175 0.71763498 0.14258616 25 1 8496 8.17000000 2894223643 2894223643 1.00000000
2.61484408 0.23014888 -0.60601813 6 2 8497 2.69400000 2894223645 2894223645 -13.00000000
8.12551785 0.71374887 0.42748010 15 3 8498 8.16800000 2894223648 2894223648 3.00000000
3.15067101 0.27675623 -0.61478657 5 4 8498 3.22200000 2894223650 2894223650 -11.00000000
8.12964821 0.71268183 0.71397984 76 5 8499 8.19200000 2894223652 2894223652 5.00000000
3.97507668 0.34777415 -0.63199526 6 6 8500 4.04000000 2894223655 2894223655 -9.00000000
8.13967228 0.71069753 1.00322843 99 7 8501 8.23200000 2894223657 2894223657 7.00000000
5.27623320 0.45975479 -0.65029484 6 8 8502 5.33600000 2894223659 2894223659 -7.00000000
6.62956047 0.57651377 -0.58220035 12 10 8503 6.68000000 2894223664 2894223664 -5.00000000
8.13036346 0.70416582 -0.42768943 17 12 8505 8.17200000 2894223668 2894223668 -3.00000000
8.12060452 0.70046473 -0.14227201 14 14 8507 8.15200000 2894223673 2894223673 -1.00000000
8.18204212 0.70432562 2.20047951 54 15 8508 8.50200000 2894223675 2894223675 15.00000000
2.22711635 0.18936506 -0.59890729 4 0 8514 2.31400000 2894223696 2894223696 -15.00000000
8.13552189 0.69030905 0.14251634 18 1 8515 8.16600000 2894223698 2894223698 1.00000000
2.61753464 0.22164090 -0.60646802 7 2 8516 2.69600000 2894223701 2894223701 -13.00000000
8.14376163 0.68814510 0.42831746 18 3 8517 8.18400000 2894223703 2894223703 3.00000000
3.14765882 0.26597610 -0.61402333 4 4 8517 3.21800000 2894223705 2894223705 -11.00000000
8.13196659 0.68571901 0.71397984 76 5 8518 8.19200000 2894223708 2894223708 5.00000000
3.98801875 0.33558425 -0.63387245 9 6 8519 4.05200000 2894223710 2894223710 -9.00000000
8.14396286 0.68386763 1.00347221 95 7 8520 8.23400000 2894223712 2894223712 7.00000000
5.27377272 0.44192412 -0.64980733 8 8 8521 5.33200000 2894223715 2894223715 -7.00000000
6.61753798 0.55336398 -0.58098018 16 10 8522 6.66600000 2894223719 2894223719 -5.00000000
8.13265419 0.67720068 -0.42768943 17 12 8524 8.17200000 2894223724 2894223724 -3.00000000
8.12886047 0.67402774 -0.14237674 12 14 8526 8.15800000 2894223728 2894223728 -1.00000000
8.18421459 0.67861754 2.20047951 56 15 8526 8.50200000 2894223731 2894223731 15.00000000
2.22391272 0.18127592 -0.59787202 4 0 8534 2.31000000 2894223751 2894223751 -15.00000000
8.12392998 0.66077179 0.14227201 15 1 8535 8.15200000 2894223754 2894223754 1.00000000
2.62606192 0.21313323 -0.60826766 7 2 8536 2.70400000 2894223756 2894223756 -13.00000000
8.14213276 0.65939146 0.42810813 18 3 8537 8.18000000 2894223758 2894223758 3.00000000
3.15639544 0.25562102 -0.61554980 4 4 8537 3.22600000 2894223761 2894223761 -11.00000000
8.12239552 0.65636611 0.71293396 76 5 8538 8.18000000 2894223763 2894223763 5.00000000
3.97932076 0.32086757 -0.63230813 9 6 8539 4.04200000 2894223765 2894223765 -9.00000000
8.15025711 0.65575415 1.00395966 97 7 8540 8.23800000 2894223768 2894223768 7.00000000
5.28517675 0.42430684 -0.65102601 9 8 8541 5.34200000 2894223770 2894223770 -7.00000000
6.61148500 0.52962476 -0.58028293 36 10 8542 6.65800000 2894223774 2894223774 -5.00000000
8.14094162 0.64928466 -0.42800346 17 12 8544 8.17800000 2894223779 2894223779 -3.00000000
8.12917042 0.64549029 -0.14234182 12 14 8546 8.15600000 2894223784 2894223784 -1.00000000
8.17509174 0.64770085 2.19737363 54 15 8547 8.49000000 2894223786 2894223786 15.00000000
2.23220563 0.17450242 -0.59994256 4 0 8553 2.31800000 2894223807 2894223807 -15.00000000
8.12607670 0.63382822 0.14227201 15 1 8554 8.15200000 2894223809 2894223809 1.00000000
2.62092566 0.20397012 -0.60691792 6 2 8555 2.69800000 2894223811 2894223811 -13.00000000
8.14626598 0.63254213 0.42821279 21 3 8556 8.18200000 2894223814 2894223814 3.00000000
3.15331101 0.24484864 -0.61478657 4 4 8556 3.22200000 2894223816 2894223816 -11.00000000
8.12055492 0.62911987 0.71258533 76 5 8557 8.17600000 2894223818 2894223818 5.00000000
3.97051549 0.30690873 -0.63074374 6 6 8558 4.03200000 2894223821 2894223821 -9.00000000
8.14249134 0.62796009 1.00274098 99 7 8559 8.22800000 2894223823 2894223823 7.00000000
5.29051304 0.40708280 -0.65151352 9 8 8560 5.34600000 2894223825 2894223825 -7.00000000
6.61320496 0.50769734 -0.58028293 56 10 8561 6.65800000 2894223830 2894223830 -5.00000000
8.13110065 0.62137163 -0.42737541 17 12 8563 8.16600000 2894223834 2894223834 -3.00000000
8.12927246 0.61837780 -0.14230692 14 14 8565 8.15400000 2894223839 2894223839 -1.00000000
8.18093967 0.62230796 2.19840908 54 15 8565 8.49400000 2894223841 2894223841 15.00000000
2.23858070 0.16714102 -0.60149544 4 0 8573 2.32400000 2894223862 2894223862 -15.00000000
8.11228657 0.60427070 0.14199278 12 1 8574 8.13600000 2894223864 2894223864 1.00000000
2.61967826 0.19467571 -0.60646802 6 2 8575 2.69600000 2894223867 2894223867 -13.00000000
8.14842415 0.60410249 0.42821279 21 3 8576 8.18200000 2894223869 2894223869 3.00000000
3.16197801 0.23442064 -0.61631304 4 4 8576 3.23000000 2894223871 2894223871 -11.00000000
8.12866211 0.60121089 0.71310830 76 5 8577 8.18200000 2894223874 2894223874 5.00000000
3.97156262 0.29304719 -0.63074374 6 6 8578 4.03200000 2894223876 2894223876 -9.00000000
8.13473511 0.59880501 1.00152230 95 7 8579 8.21800000 2894223878 2894223878 7.00000000
5.28398275 0.38803145 -0.65053856 9 8 8580 5.33800000 2894223880 2894223880 -7.00000000
6.60500145 0.48388201 -0.57941139 68 10 8581 6.64800000 2894223885 2894223885 -5.00000000
8.12724495 0.59254932 -0.42706141 17 12 8583 8.16000000 2894223890 2894223890 -3.00000000
8.13138199 0.58999759 -0.14230692 14 14 8585 8.15400000 2894223894 2894223894 -1.00000000
8.18316555 0.59231913 2.19840908 54 15 8586 8.49400000 2894223897 2894223897 15.00000000
2.24303222 0.15920864 -0.60253072 4 0 8594 2.32800000 2894223917 2894223917 -15.00000000
8.11843586 0.57481611 0.14206259 18 1 8595 8.14000000 2894223920 2894223920 1.00000000
2.62037420 0.18507281 -0.60646802 5 2 8596 2.69600000 2894223922 2894223922 -13.00000000
8.12866783 0.57268900 0.42706141 21 3 8597 8.16000000 2894223924 2894223924 3.00000000
3.14714885 0.22172605 -0.61326009 4 4 8597 3.21400000 2894223927 2894223927 -11.00000000
8.13279819 0.57155353 0.71328259 76 5 8598 8.18400000 2894223929 2894223929 5.00000000
3.96866894 0.27821243 -0.63011801 6 6 8599 4.02800000 2894223931 2894223931 -9.00000000
8.13687515 0.56898570 1.00152230 95 7 8600 8.21800000 2894223933 2894223933 7.00000000
5.28536940 0.36866209 -0.65053856 9 8 8601 5.33800000 2894223936 2894223936 -7.00000000
6.61666870 0.46036166 -0.58028293 32 10 8602 6.65800000 2894223940 2894223940 -5.00000000
8.11939907 0.56206787 -0.42653805 17 12 8604 8.15000000 2894223945 2894223945 -3.00000000
8.12152004 0.55936617 -0.14209749 14 14 8606 8.14200000 2894223950 2894223950 -1.00000000
8.18518257 0.56375098 2.19840908 58 15 8606 8.49400000 2894223952 2894223952 15.00000000
2.22237206 0.14994748 -0.59683675 4 0 8614 2.30600000 2894223973 2894223973 -15.00000000
8.13236427 0.54727960 0.14227201 18 1 8615 8.15200000 2894223975 2894223975 1.00000000
2.61905980 0.17579436 -0.60601813 6 2 8616 2.69400000 2894223977 2894223977 -13.00000000
8.13659573 0.54471135 0.42737541 21 3 8617 8.16600000 2894223980 2894223980 3.00000000
3.14790368 0.21073909 -0.61326009 4 4 8617 3.21400000 2894223982 2894223982 -11.00000000
8.12679195 0.54263031 0.71258533 76 5 8618 8.17600000 2894223984 2894223984 5.00000000
3.98144197 0.26514506 -0.63199526 9 6 8619 4.04000000 2894223986 2894223986 -9.00000000
8.14079189 0.54071081 1.00176597 99 7 8620 8.22000000 2894223989 2894223989 7.00000000
5.28860521 0.35034165 -0.65078229 9 8 8621 5.34000000 2894223991 2894223991 -7.00000000
8.21339321 0.54409313 1.30372488 7 9 8621 8.33400000 2894223993 2894223993 9.00000000
6.61624718 0.43713102 -0.58010864 20 10 8622 6.65600000 2894223996 2894223996 -5.00000000
8.13326931 0.53450829 -0.42716607 17 12 8624 8.16200000 2894224000 2894224000 -3.00000000
8.12142754 0.53088295 -0.14206259 16 14 8626 8.14000000 2894224005 2894224005 -1.00000000
8.18324566 0.53492385 2.19737363 49 15 8626 8.49000000 2894224007 2894224007 15.00000000
2.22864079 0.14294799 -0.59838963 4 0 8633 2.31200000 2894224028 2894224028 -15.00000000
8.12016487 0.51941514 0.14202769 18 1 8634 8.13800000 2894224030 2894224030 1.00000000
2.62935233 0.16772857 -0.60826766 6 2 8635 2.70400000 2894224033 2894224033 -13.00000000
8.14633083 0.51823366 0.42779410 23 3 8636 8.17400000 2894224035 2894224035 3.00000000
3.15250373 0.20054840 -0.61402333 4 4 8636 3.21800000 2894224037 2894224037 -11.00000000
8.11462784 0.51479489 0.71136516 83 5 8637 8.16200000 2894224039 2894224039 5.00000000
3.97441363 0.25144178 -0.63074374 6 6 8638 4.03200000 2894224042 2894224042 -9.00000000
8.14848423 0.51408696 1.00249720 95 7 8639 8.22600000 2894224044 2894224044 7.00000000
5.29766226 0.33330068 -0.65175724 9 8 8640 5.34800000 2894224046 2894224046 -7.00000000
6.60771799 0.41456455 -0.57923704 16 10 8641 6.64600000 2894224051 2894224051 -5.00000000
8.14097786 0.50790757 -0.42748010 17 12 8643 8.16800000 2894224056 2894224056 -3.00000000
8.12513924 0.50407219 -0.14209749 14 14 8645 8.14200000 2894224060 2894224060 -1.00000000
8.16954899 0.50682735 2.19323254 56 15 8645 8.47400000 2894224062 2894224062 15.00000000
2.22334123 0.13481691 -0.59683675 4 0 8653 2.30600000 2894224083 2894224083 -15.00000000
8.11394405 0.49058455 0.14188807 18 1 8654 8.13000000 2894224086 2894224086 1.00000000
2.62214088 0.15808032 -0.60646802 6 2 8655 2.69600000 2894224088 2894224088 -13.00000000
8.13214111 0.48883575 0.42695674 21 3 8656 8.15800000 2894224090 2894224090 3.00000000
3.16102338 0.19001409 -0.61554980 4 4 8656 3.22600000 2894224092 2894224092 -11.00000000
8.11438656 0.48634723 0.71119088 79 5 8657 8.16000000 2894224095 2894224095 5.00000000
3.97132325 0.23733126 -0.63011801 9 6 8658 4.02800000 2894224097 2894224097 -9.00000000
8.13833904 0.48493189 1.00103474 95 7 8659 8.21400000 2894224099 2894224099 7.00000000
5.29879379 0.31480634 -0.65175724 9 8 8660 5.34800000 2894224102 2894224102 -7.00000000
6.62901402 0.39267492 -0.58098018 36 10 8661 6.66600000 2894224106 2894224106 -5.00000000
8.12874413 0.47866529 -0.42674738 17 12 8663 8.15400000 2894224111 2894224111 -3.00000000
8.11886406 0.47523969 -0.14195788 16 14 8665 8.13400000 2894224115 2894224115 -1.00000000
8.18292332 0.47755638 2.19633842 51 15 8666 8.48600000 2894224118 2894224118 15.00000000
2.23344183 0.12760617 -0.59942490 4 0 8673 2.31600000 2894224139 2894224139 -15.00000000
8.12159729 0.46259975 0.14199278 18 1 8674 8.13600000 2894224141 2894224141 1.00000000
2.61683989 0.14859495 -0.60511833 6 2 8675 2.69000000 2894224143 2894224143 -13.00000000
8.13579178 0.46055919 0.42706141 15 3 8676 8.16000000 2894224145 2894224145 3.00000000
3.15382695 0.17853506 -0.61402333 4 4 8676 3.21800000 2894224148 2894224148 -11.00000000
8.12797070 0.45869333 0.71223670 79 5 8677 8.17200000 2894224150 2894224150 5.00000000
3.97212768 0.22346731 -0.63011801 6 6 8678 4.02800000 2894224152 2894224152 -9.00000000
8.13205433 0.45607620 1.00005984 97 7 8679 8.20600000 2894224155 2894224155 7.00000000
5.27805805 0.29508927 -0.64907610 8 8 8680 5.32600000 2894224157 2894224157 -7.00000000
8.23244667 0.45882389 1.30591488 5 9 8681 8.34800000 2894224159 2894224159 9.00000000
6.62835503 0.36942211 -0.58080590 48 10 8681 6.66400000 2894224162 2894224162 -5.00000000
8.12438297 0.44995645 -0.42643338 17 12 8683 8.14800000 2894224166 2894224166 -3.00000000
8.20728779 0.45311117 1.89768708 4 13 8684 8.43600000 2894224168 2894224168 13.00000000
8.12446690 0.44711646 -0.14202769 14 14 8685 8.13800000 2894224171 2894224171 -1.00000000
8.17674637 0.44999358 2.19426775 54 15 8685 8.47800000 2894224173 2894224173 15.00000000
2.23194456 0.11970576 -0.59890729 4 0 8693 2.31400000 2894224194 2894224194 -15.00000000
8.12116528 0.43414053 0.14195788 18 1 8694 8.13400000 2894224196 2894224196 1.00000000
2.61928868 0.13956325 -0.60556823 6 2 8695 2.69200000 2894224198 2894224198 -13.00000000
8.12538338 0.43152165 0.42643338 13 3 8696 8.14800000 2894224201 2894224201 3.00000000
3.16227293 0.16794153 -0.61554980 4 4 8696 3.22600000 2894224203 2894224203 -11.00000000
8.12753201 0.43021330 0.71206242 76 5 8697 8.17000000 2894224205 2894224205 5.00000000
3.97485614 0.20970470 -0.63043088 9 6 8698 4.03000000 2894224208 2894224208 -9.00000000
8.12963200 0.42747876 0.99957234 95 7 8699 8.20200000 2894224210 2894224210 7.00000000
5.26914406 0.27614415 -0.64785743 6 8 8700 5.31600000 2894224212 2894224212 -7.00000000
8.23202515 0.42998147 1.30560207 7 9 8701 8.34600000 2894224215 2894224215 9.00000000
6.62363482 0.34597078 -0.58028293 64 10 8701 6.65800000 2894224217 2894224217 -5.00000000
8.11992073 0.42128384 -0.42611936 17 12 8703 8.14200000 2894224221 2894224221 -3.00000000
8.11199856 0.41803366 -0.14178336 16 14 8705 8.12400000 2894224226 2894224226 -1.00000000
8.18598461 0.42184636 2.19633842 54 15 8705 8.48600000 2894224228 2894224228 15.00000000
2.23427820 0.11201081 -0.59942490 4 0 8713 2.31600000 2894224249 2894224249 -15.00000000
8.13261700 0.40628862 0.14213240 15 1 8714 8.14400000 2894224251 2894224251 1.00000000
2.62365246 0.13061316 -0.60646802 6 2 8715 2.69600000 2894224254 2894224254 -13.00000000
8.12876415 0.40467384 0.42653805 21 3 8715 8.15000000 2894224256 2894224256 3.00000000
3.14715314 0.15612392 -0.61249685 5 4 8716 3.21000000 2894224258 2894224258 -11.00000000
8.12301445 0.40154520 0.71153951 79 5 8717 8.16400000 2894224261 2894224261 5.00000000
3.96767187 0.19543985 -0.62917942 9 6 8718 4.02200000 2894224263 2894224263 -9.00000000
8.13504028 0.39929309 1.00005984 95 7 8719 8.20600000 2894224265 2894224265 7.00000000
5.27205896 0.25784668 -0.64810115 6 8 8720 5.31800000 2894224267 2894224267 -7.00000000
8.21762180 0.40190873 1.30309904 10 9 8720 8.33000000 2894224270 2894224270 9.00000000
6.61087227 0.32216901 -0.57906276 72 10 8721 6.64400000 2894224272 2894224272 -5.00000000
8.12932110 0.39332357 -0.42653805 21 12 8723 8.15000000 2894224277 2894224277 -3.00000000
8.10941315 0.38952306 -0.14171354 18 14 8725 8.12000000 2894224281 2894224281 -1.00000000
8.17968845 0.39289862 2.19426775 56 15 8725 8.47800000 2894224284 2894224284 15.00000000
2.23079610 0.10403106 -0.59838963 4 0 8733 2.31200000 2894224304 2894224304 -15.00000000
8.12599564 0.37752679 0.14199278 15 1 8734 8.13600000 2894224307 2894224307 1.00000000
2.62993240 0.12172440 -0.60781777 6 2 8735 2.70200000 2894224309 2894224309 -13.00000000
8.13218784 0.37496972 0.42664272 15 3 8736 8.15200000 2894224311 2894224311 3.00000000
3.14964008 0.14522779 -0.61287850 5 4 8736 3.21200000 2894224314 2894224314 -11.00000000
8.11242485 0.37263960 0.71049362 76 5 8737 8.15200000 2894224316 2894224316 5.00000000
3.97227669 0.18176949 -0.62980515 9 6 8738 4.02600000 2894224318 2894224318 -9.00000000
8.14035034 0.37107486 1.00054729 95 7 8739 8.21000000 2894224320 2894224320 7.00000000
5.29077435 0.24025264 -0.65029484 6 8 8740 5.33600000 2894224323 2894224323 -7.00000000
8.21509266 0.37160844 1.30247331 10 9 8741 8.32600000 2894224325 2894224325 9.00000000
6.60200453 0.29864064 -0.57819122 76 10 8741 6.63400000 2894224327 2894224327 -5.00000000
8.13064480 0.36494455 -0.42653805 17 12 8743 8.15000000 2894224332 2894224332 -3.00000000
8.11072350 0.36121356 -0.14171354 16 14 8745 8.12000000 2894224337 2894224337 -1.00000000
8.17335415 0.36257347 2.19219732 58 15 8746 8.47000000 2894224339 2894224339 15.00000000
2.23114562 0.09624350 -0.59838963 4 0 8753 2.31200000 2894224360 2894224360 -15.00000000
8.11128139 0.34847283 0.14171354 25 1 8754 8.12000000 2894224362 2894224362 1.00000000
2.62450051 0.11229358 -0.60646802 5 2 8755 2.69600000 2894224364 2894224364 -13.00000000
8.13737774 0.34817109 0.42685205 13 3 8755 8.15600000 2894224367 2894224367 3.00000000
3.15993524 0.13465051 -0.61478657 5 4 8756 3.22200000 2894224369 2894224369 -11.00000000
8.11367607 0.34431967 0.71049362 76 5 8757 8.15200000 2894224371 2894224371 5.00000000
3.96893954 0.16773574 -0.62917942 9 6 8758 4.02200000 2894224373 2894224373 -9.00000000
8.13762951 0.34249052 1.00005984 92 7 8759 8.20600000 2894224376 2894224376 7.00000000
5.29554749 0.22194919 -0.65078229 6 8 8760 5.34000000 2894224378 2894224378 -7.00000000
8.21634007 0.34293014 1.30247331 10 9 8761 8.32600000 2894224380 2894224380 9.00000000
6.60499763 0.27567661 -0.57836550 56 10 8761 6.63600000 2894224383 2894224383 -5.00000000
8.11390877 0.33581775 -0.42559600 25 12 8763 8.13200000 2894224387 2894224387 -3.00000000
8.12192535 0.33330962 -0.14188807 20 14 8765 8.13000000 2894224392 2894224392 -1.00000000
8.17644119 0.33554685 2.19271493 47 15 8765 8.47200000 2894224394 2894224394 15.00000000
2.23339844 0.08853128 -0.59890729 4 0 8773 2.31400000 2894224415 2894224415 -15.00000000
8.10845184 0.31999934 0.14164373 21 1 8774 8.11600000 2894224417 2894224417 1.00000000
2.61708760 0.10282565 -0.60466844 5 2 8775 2.68800000 2894224419 2894224419 -13.00000000
8.13854313 0.31976423 0.42685205 15 3 8775 8.15600000 2894224422 2894224422 3.00000000
3.15646243 0.12346599 -0.61402333 5 4 8776 3.21800000 2894224424 2894224424 -11.00000000
8.11283779 0.31591803 0.71031928 76 5 8777 8.15000000 2894224426 2894224426 5.00000000
3.96555328 0.15372749 -0.62855369 9 6 8778 4.01800000 2894224429 2894224429 -9.00000000
8.12687397 0.31362352 0.99859738 90 7 8779 8.19400000 2894224431 2894224431 7.00000000
5.27843714 0.20277710 -0.64858866 4 8 8780 5.32200000 2894224433 2894224433 -7.00000000
8.22143459 0.31439865 1.30309904 10 9 8781 8.33000000 2894224436 2894224436 9.00000000
6.61189222 0.25284758 -0.57888842 44 10 8781 6.64200000 2894224438 2894224438 -5.00000000
8.11104012 0.30734161 -0.42538664 25 12 8783 8.12800000 2894224443 2894224443 -3.00000000
8.11904240 0.30480674 -0.14181826 18 14 8785 8.12600000 2894224447 2894224447 -1.00000000
8.18335438 0.30722114 2.19426775 56 15 8785 8.47800000 2894224449 2894224449 15.00000000
2.23754072 0.08126481 -0.59994256 4 0 8792 2.31800000 2894224470 2894224470 -15.00000000
8.12545586 0.29368681 0.14192297 15 1 8793 8.13200000 2894224472 2894224472 1.00000000
2.61741400 0.09414650 -0.60466844 6 2 8794 2.68800000 2894224475 2894224475 -13.00000000
8.11765385 0.29056758 0.42570066 10 3 8795 8.13400000 2894224477 2894224477 3.00000000
3.15489268 0.11292788 -0.61364174 5 4 8795 3.21600000 2894224479 2894224479 -11.00000000
8.12180519 0.28929684 0.71101654 76 5 8796 8.15800000 2894224482 2894224482 5.00000000
3.96604109 0.14057639 -0.62855369 9 6 8797 4.01800000 2894224484 2894224484 -9.00000000
8.12588501 0.28660214 0.99835366 90 7 8798 8.19200000 2894224486 2894224486 7.00000000
5.26717710 0.18485431 -0.64712620 4 8 8799 5.31000000 2894224489 2894224489 -7.00000000
8.22238159 0.28856874 1.30309904 7 9 8799 8.33000000 2894224491 2894224491 9.00000000
6.61269426 0.23092037 -0.57888842 44 10 8800 6.64200000 2894224493 2894224493 -5.00000000
8.11600685 0.28058076 -0.42559600 21 12 8802 8.13200000 2894224498 2894224498 -3.00000000
8.11201477 0.27760777 -0.14167863 20 14 8804 8.11800000 2894224502 2894224502 -1.00000000
8.18437672 0.27865404 2.19426775 56 15 8805 8.47800000 2894224505 2894224505 15.00000000
2.22429514 0.07301020 -0.59631908 4 0 8812 2.30400000 2894224525 2894224525 -15.00000000
8.12843037 0.26538715 0.14195788 18 1 8813 8.13400000 2894224528 2894224528 1.00000000
2.61772680 0.08500946 -0.60466844 5 2 8814 2.68800000 2894224530 2894224530 -13.00000000
8.12456131 0.26384133 0.42601469 13 3 8814 8.14000000 2894224532 2894224532 3.00000000
3.14349413 0.10153428 -0.61135203 5 4 8815 3.20400000 2894224535 2894224535 -11.00000000
8.12077427 0.26088071 0.71084225 76 5 8816 8.15600000 2894224537 2894224537 5.00000000
3.96848202 0.12679455 -0.62886655 6 6 8817 4.02000000 2894224539 2894224539 -9.00000000
8.13675690 0.25855097 0.99957234 90 7 8818 8.20200000 2894224542 2894224542 7.00000000
5.27969503 0.16684350 -0.64858866 4 8 8819 5.32200000 2894224544 2894224544 -7.00000000
8.20758915 0.25793388 1.30059612 10 9 8820 8.31400000 2894224546 2894224546 9.00000000
6.60350323 0.20752345 -0.57801688 36 10 8820 6.63200000 2894224549 2894224549 -5.00000000
8.12292576 0.25243503 -0.42591003 17 12 8822 8.13800000 2894224553 2894224553 -3.00000000
8.10693836 0.24910562 -0.14157392 20 14 8824 8.11200000 2894224558 2894224558 -1.00000000
8.17757607 0.24984755 2.19219732 54 15 8825 8.47000000 2894224560 2894224560 15.00000000
2.21681237 0.06501897 -0.59424853 4 0 8832 2.29600000 2894224581 2894224581 -15.00000000
8.11931229 0.23672064 0.14178336 18 1 8833 8.12400000 2894224583 2894224583 1.00000000
2.63359094 0.07632298 -0.60826766 5 2 8834 2.70400000 2894224585 2894224585 -13.00000000
8.12742901 0.23553757 0.42611936 10 3 8834 8.14200000 2894224588 2894224588 3.00000000
3.14775419 0.09067389 -0.61211526 5 4 8835 3.20800000 2894224590 2894224590 -11.00000000
8.11366940 0.23230425 0.71014500 79 5 8836 8.14800000 2894224592 2894224592 5.00000000
3.96692586 0.11288501 -0.62855369 6 6 8837 4.01800000 2894224595 2894224595 -9.00000000
8.14157867 0.23025906 1.00005984 92 7 8838 8.20600000 2894224597 2894224597 7.00000000
5.28222942 0.14846867 -0.64883238 6 8 8839 5.32400000 2894224599 2894224599 -7.00000000
8.21234798 0.23082611 1.30122185 10 9 8839 8.31800000 2894224602 2894224602 9.00000000
6.59024620 0.18408224 -0.57679671 12 10 8840 6.61800000 2894224604 2894224604 -5.00000000
8.13373947 0.22435452 -0.42643338 17 12 8842 8.14800000 2894224608 2894224608 -3.00000000
8.10575962 0.22075117 -0.14153902 20 14 8844 8.11000000 2894224613 2894224613 -1.00000000
8.17839813 0.22130094 2.19219732 56 15 8845 8.47000000 2894224615 2894224615 15.00000000
2.21895695 0.05733035 -0.59476614 3 0 8852 2.29800000 2894224636 2894224636 -15.00000000
8.11209297 0.20817231 0.14164373 18 1 8853 8.11600000 2894224638 2894224638 1.00000000
2.62604880 0.06693096 -0.60646802 5 2 8854 2.69600000 2894224641 2894224641 -13.00000000
8.13818550 0.20742056 0.42664272 13 3 8854 8.15200000 2894224643 2894224643 3.00000000
3.14805174 0.07968562 -0.61211526 5 4 8855 3.20800000 2894224645 2894224645 -11.00000000
8.10447216 0.20373049 0.70927346 76 5 8856 8.13800000 2894224648 2894224648 5.00000000
3.96532106 0.09898786 -0.62824082 6 6 8857 4.01600000 2894224650 2894224650 -9.00000000
8.13439465 0.20164149 0.99908489 92 7 8858 8.19800000 2894224652 2894224652 7.00000000
5.27874660 0.12993166 -0.64834493 6 8 8859 5.32000000 2894224655 2894224655 -7.00000000
8.21902847 0.20230408 1.30216050 10 9 8859 8.32400000 2894224657 2894224657 9.00000000
6.60279942 0.16136894 -0.57784259 24 10 8860 6.63000000 2894224659 2894224659 -5.00000000
8.10252666 0.19519150 -0.42475861 21 12 8862 8.11600000 2894224664 2894224664 -3.00000000
8.11647606 0.19269274 -0.14171354 16 14 8864 8.12000000 2894224668 2894224668 -1.00000000
8.17525864 0.19266064 2.19116211 51 15 8865 8.46600000 2894224671 2894224671 15.00000000
2.23266315 0.04988648 -0.59838963 4 0 8872 2.31200000 2894224691 2894224691 -15.00000000
8.11676884 0.17994319 0.14171354 15 1 8873 8.12000000 2894224694 2894224694 1.00000000
2.62042165 0.05763537 -0.60511833 6 2 8874 2.69000000 2894224696 2894224696 -13.00000000
8.12687874 0.17874822 0.42601469 13 3 8874 8.14000000 2894224698 2894224698 3.00000000
3.16008735 0.06895335 -0.61440498 5 4 8875 3.22000000 2894224701 2894224701 -11.00000000
8.11509323 0.17565495 0.71014500 76 5 8876 8.14800000 2894224703 2894224703 5.00000000
3.96169257 0.08506090 -0.62761509 6 6 8877 4.01200000 2894224705 2894224705 -9.00000000
8.12711048 0.17307685 0.99810994 90 7 8878 8.19000000 2894224707 2894224707 7.00000000
5.26726007 0.11125309 -0.64688247 6 8 8879 5.30800000 2894224710 2894224710 -7.00000000
8.22560883 0.17373823 1.30309904 10 9 8879 8.33000000 2894224712 2894224712 9.00000000
6.61925793 0.13865368 -0.57923704 68 10 8880 6.64600000 2894224714 2894224714 -5.00000000
8.11114597 0.16707174 -0.42517731 21 12 8882 8.12400000 2894224719 2894224719 -3.00000000
8.12309742 0.16448124 -0.14181826 18 14 8884 8.12600000 2894224724 2894224724 -1.00000000
8.17971516 0.16562766 2.19219732 56 15 8884 8.47000000 2894224726 2894224726 15.00000000
2.23282385 0.04209272 -0.59838963 4 0 8892 2.31200000 2894224747 2894224747 -15.00000000
8.11734772 0.15160927 0.14171354 15 1 8893 8.12000000 2894224749 2894224749 1.00000000
2.61671019 0.04841594 -0.60421854 6 2 8894 2.68600000 2894224751 2894224751 -13.00000000
8.12545681 0.15034208 0.42591003 13 3 8894 8.13800000 2894224754 2894224754 3.00000000
3.15245700 0.05777826 -0.61287850 5 4 8895 3.21200000 2894224756 2894224756 -11.00000000
8.12163353 0.14743541 0.71066791 83 5 8896 8.15400000 2894224758 2894224758 5.00000000
3.96394038 0.07126700 -0.62792796 9 6 8897 4.01400000 2894224760 2894224760 -9.00000000
8.12567997 0.14467156 0.99786621 90 7 8898 8.18800000 2894224763 2894224763 7.00000000
5.27158594 0.09293623 -0.64736998 6 8 8899 5.31200000 2894224765 2894224765 -7.00000000
8.21234035 0.14478070 1.30090904 10 9 8899 8.31600000 2894224767 2894224767 9.00000000
6.61372519 0.11544301 -0.57871413 100 10 8900 6.64000000 2894224770 2894224770 -5.00000000
8.10968304 0.13872337 -0.42507264 17 12 8902 8.12200000 2894224774 2894224774 -3.00000000
8.11162567 0.13592431 -0.14160882 18 14 8904 8.11400000 2894224779 2894224779 -1.00000000
8.18026733 0.13564640 2.19219732 54 15 8905 8.47000000 2894224781 2894224781 15.00000000
2.22521853 0.03495653 -0.59631908 4 0 8910 2.30400000 2894224802 2894224802 -15.00000000
8.12378216 0.12620035 0.14181826 15 1 8911 8.12600000 2894224804 2894224804 1.00000000
2.62074637 0.04025494 -0.60511833 6 2 8912 2.69000000 2894224807 2894224807 -13.00000000
8.12391281 0.12336594 0.42580533 13 3 8913 8.13600000 2894224809 2894224809 3.00000000
3.14477086 0.04775502 -0.61135203 5 4 8913 3.20400000 2894224811 2894224811 -11.00000000
8.11209583 0.12177034 0.70979637 79 5 8914 8.14400000 2894224813 2894224813 5.00000000
3.97204542 0.05893080 -0.62917942 9 6 8915 4.02200000 2894224816 2894224816 -9.00000000
8.13006401 0.11920151 0.99835366 90 7 8916 8.19200000 2894224818 2894224818 7.00000000
5.26788235 0.07631711 -0.64688247 6 8 8917 5.30800000 2894224820 2894224820 -7.00000000
8.21472931 0.11900881 1.30122185 10 9 8917 8.31800000 2894224823 2894224823 9.00000000
6.59612560 0.09440821 -0.57714534 76 10 8918 6.62200000 2894224825 2894224825 -5.00000000
8.11207581 0.11327330 -0.42517731 17 12 8920 8.12400000 2894224830 2894224830 -3.00000000
8.09801579 0.11024971 -0.14136449 20 14 8922 8.10000000 2894224834 2894224834 -1.00000000
8.17870235 0.11134820 2.19167972 47 15 8922 8.46800000 2894224837 2894224837 15.00000000
2.21760011 0.02709445 -0.59424853 4 0 8930 2.29600000 2894224857 2894224857 -15.00000000
8.11017609 0.09767373 0.14157392 18 1 8931 8.11200000 2894224860 2894224860 1.00000000
2.62866521 0.03119909 -0.60691792 6 2 8932 2.69800000 2894224862 2894224862 -13.00000000
8.12429428 0.09500744 0.42580533 13 3 8933 8.13600000 2894224864 2894224864 3.00000000
