# .PCD v0.7 - Point Cloud Data file format
VERSION 0.7
FIELDS x y z intensity laser_id azimuth distance_m adjustedtime timestamp vertical_angle
SIZE 4 4 4 1 1 2 8 8 4 8
TYPE F F F U U U F U U F
COUNT 1 1 1 1 1 1 1 1 1 1
WIDTH 534
HEIGHT 1
VIEWPOINT 0 0 0 1 0 0 0
POINTS 534
DATA ascii
3.25470352 10.83475018 1.38906682 29 7 1672 11.39800000 2892604699 2892604699 7.00000000
1.57715404 5.24694538 -0.67271876 2 8 1673 5.52000000 2892604701 2892604701 -7.00000000
3.26017547 10.83923149 1.79273891 28 9 1674 11.46000000 2892604703 2892604703 9.00000000
2.36145949 7.85123587 -0.71729177 4 10 1674 8.23000000 2892604705 2892604705 -5.00000000
2.89408016 9.61597538 1.95197606 12 11 1675 10.23000000 2892604708 2892604708 11.00000000
3.19414330 10.60626793 -0.58051044 4 12 1676 11.09200000 2892604710 2892604710 -3.00000000
2.94517541 9.77338314 2.35658717 57 13 1677 10.47600000 2892604712 2892604712 13.00000000
3.20116878 10.61617470 -0.19354719 4 14 1678 11.09000000 2892604715 2892604715 -1.00000000
2.54802775 8.44480228 2.36353540 42 15 1679 9.13200000 2892604717 2892604717 15.00000000
0.65667504 2.16680956 -0.60667187 4 0 1686 2.34400000 2892604738 2892604738 -15.00000000
3.22132277 10.62261486 0.19375661 10 1 1687 11.10200000 2892604740 2892604740 1.00000000
0.78087592 2.57339454 -0.62086493 3 2 1688 2.76000000 2892604742 2892604742 -13.00000000
3.24141073 10.67543793 0.58469731 23 3 1689 11.17200000 2892604745 2892604745 3.00000000
0.93772852 3.08836579 -0.62737995 2 4 1689 3.28800000 2892604747 2892604747 -11.00000000
3.24637103 10.68506527 0.97701585 28 5 1690 11.21000000 2892604749 2892604749 5.00000000
1.18477619 3.89711189 -0.64513576 2 6 1691 4.12400000 2892604752 2892604752 -9.00000000
3.25552917 10.70177650 1.37346745 25 7 1692 11.27000000 2892604754 2892604754 7.00000000
3.22329116 10.58916378 -1.35908687 2 8 1693 11.15200000 2892604756 2892604756 -7.00000000
3.26331329 10.72064400 1.77490544 28 9 1693 11.34600000 2892604758 2892604758 9.00000000
3.23176980 10.61037064 -0.97039205 4 10 1694 11.13400000 2892604761 2892604761 -5.00000000
2.92762852 9.60581493 1.95197606 12 11 1695 10.23000000 2892604763 2892604763 11.00000000
3.22881627 10.58741188 -0.58009171 21 12 1696 11.08400000 2892604765 2892604765 -3.00000000
2.97813535 9.75931549 2.35568738 59 13 1697 10.47200000 2892604768 2892604768 13.00000000
3.23820686 10.60493565 -0.19354719 19 14 1698 11.09000000 2892604770 2892604770 -1.00000000
2.57601786 8.43630600 2.36353540 45 15 1698 9.13200000 2892604772 2892604772 15.00000000
0.66650164 2.17189145 -0.60874242 4 0 1706 2.35200000 2892604793 2892604793 -15.00000000
3.25544786 10.60174751 0.19358209 30 1 1707 11.09200000 2892604795 2892604795 1.00000000
0.78870928 2.56692743 -0.61996508 3 2 1708 2.75600000 2892604798 2892604798 -13.00000000
3.26809049 10.62969494 0.58281320 10 3 1709 11.13600000 2892604800 2892604800 3.00000000
0.95196491 3.09633303 -0.62966967 2 4 1709 3.30000000 2892604802 2892604802 -11.00000000
3.26783133 10.62225151 0.97230947 12 5 1710 11.15600000 2892604805 2892604805 5.00000000
1.20534647 3.91560793 -0.64889014 2 6 1711 4.14800000 2892604807 2892604807 -9.00000000
3.27416587 10.62963867 1.36566782 10 7 1712 11.20600000 2892604809 2892604809 7.00000000
1.61374593 5.23580694 -0.67271876 2 8 1713 5.52000000 2892604811 2892604811 -7.00000000
3.28046250 10.63688087 1.76301646 9 9 1714 11.27000000 2892604814 2892604814 9.00000000
2.42091084 7.84978962 -0.71868628 4 10 1714 8.24600000 2892604816 2892604816 -5.00000000
2.96924615 9.62180042 1.95731866 12 11 1715 10.25800000 2892604818 2892604818 11.00000000
3.27164626 10.59516048 -0.58113843 8 12 1716 11.10400000 2892604821 2892604821 -3.00000000
3.01103306 9.74513626 2.35478759 56 13 1717 10.46800000 2892604823 2892604823 13.00000000
3.28170252 10.61458302 -0.19393115 6 14 1718 11.11200000 2892604825 2892604825 -1.00000000
2.60463738 8.41942501 2.36146498 40 15 1719 9.12400000 2892604828 2892604828 15.00000000
0.67599171 2.17704916 -0.61081296 4 0 1725 2.36000000 2892604848 2892604848 -15.00000000
3.30126667 10.62526703 0.19421038 10 1 1726 11.12800000 2892604851 2892604851 1.00000000
0.79721719 2.56429791 -0.61996508 3 2 1727 2.75600000 2892604853 2892604853 -13.00000000
3.30569482 10.62642765 0.58323193 13 3 1728 11.14400000 2892604855 2892604855 3.00000000
0.95989484 3.08566070 -0.62814319 2 4 1728 3.29200000 2892604858 2892604858 -11.00000000
3.30718303 10.62467289 0.97352964 12 5 1729 11.17000000 2892604860 2892604860 5.00000000
1.21832442 3.91158938 -0.64889014 2 6 1730 4.14800000 2892604862 2892604862 -9.00000000
3.31589437 10.63957024 1.36834896 10 7 1731 11.22800000 2892604864 2892604864 7.00000000
1.62637174 5.21526623 -0.67076886 2 8 1732 5.50400000 2892604867 2892604867 -7.00000000
3.31562710 10.63218021 1.76395500 12 9 1732 11.27600000 2892604869 2892604869 9.00000000
2.44692826 7.84171867 -0.71868628 4 10 1733 8.24600000 2892604871 2892604871 -5.00000000
3.03097844 9.70747662 1.97678125 12 11 1734 10.36000000 2892604874 2892604874 11.00000000
3.31033659 10.59569168 -0.58176649 12 12 1735 11.11600000 2892604876 2892604876 -3.00000000
3.03984380 9.72393799 2.35208821 56 13 1736 10.45600000 2892604878 2892604878 13.00000000
3.32046556 10.61509228 -0.19414057 12 14 1737 11.12400000 2892604881 2892604881 -1.00000000
2.63568878 8.42595100 2.36560607 40 15 1737 9.14000000 2892604883 2892604883 15.00000000
0.67663521 2.15256071 -0.60460126 4 0 1745 2.33600000 2892604904 2892604904 -15.00000000
3.33833551 10.61367893 0.19421038 13 1 1746 11.12800000 2892604906 2892604906 1.00000000
0.80733347 2.56521726 -0.62086493 3 2 1747 2.76000000 2892604908 2892604908 -13.00000000
3.34336782 10.61672878 0.58333659 10 3 1748 11.14600000 2892604911 2892604911 3.00000000
0.96830112 3.07480097 -0.62661672 2 4 1748 3.28400000 2892604913 2892604913 -11.00000000
3.34963894 10.63016701 0.97509843 12 5 1749 11.18800000 2892604915 2892604915 5.00000000
1.22840691 3.89600897 -0.64701295 2 6 1750 4.13600000 2892604917 2892604917 -9.00000000
3.35301304 10.62793064 1.36834896 12 7 1751 11.22800000 2892604920 2892604920 7.00000000
1.64815211 5.22091532 -0.67223132 2 8 1752 5.51600000 2892604922 2892604922 -7.00000000
3.35688281 10.63372803 1.76614511 12 9 1752 11.29000000 2892604924 2892604924 9.00000000
3.35465908 10.62022591 -0.97440118 4 10 1753 11.18000000 2892604927 2892604927 -5.00000000
3.13111234 9.90649891 2.01952243 18 11 1754 10.58400000 2892604929 2892604929 11.00000000
3.35332489 10.60311413 -0.58281320 12 12 1755 11.13600000 2892604931 2892604931 -3.00000000
3.07376814 9.71326733 2.35208821 56 13 1756 10.45600000 2892604934 2892604934 13.00000000
3.35568786 10.59771824 -0.19403586 10 14 1757 11.11800000 2892604936 2892604936 -1.00000000
2.66158581 8.40564919 2.36250019 42 15 1757 9.12800000 2892604938 2892604938 15.00000000
0.68765932 2.16123128 -0.60770714 4 0 1765 2.34800000 2892604959 2892604959 -15.00000000
3.37900376 10.61339378 0.19441980 13 1 1766 11.14000000 2892604961 2892604961 1.00000000
0.81746584 2.56609702 -0.62176472 3 2 1767 2.76400000 2892604964 2892604964 -13.00000000
3.38707900 10.62592602 0.58448797 13 3 1768 11.16800000 2892604966 2892604966 3.00000000
0.98379821 3.08636642 -0.62966967 2 4 1768 3.30000000 2892604968 2892604968 -11.00000000
3.38551402 10.61461353 0.97474980 12 5 1769 11.18400000 2892604970 2892604970 5.00000000
1.24320018 3.89546108 -0.64763868 2 6 1770 4.14000000 2892604973 2892604973 -9.00000000
3.39733744 10.63885403 1.37127388 12 7 1771 11.25200000 2892604975 2892604975 7.00000000
1.67059577 5.22836685 -0.67393744 4 8 1772 5.53000000 2892604977 2892604977 -7.00000000
3.40124893 10.63828659 1.76896095 12 9 1773 11.30800000 2892604980 2892604980 9.00000000
2.49372602 7.79977369 -0.71642023 4 10 1773 8.22000000 2892604982 2892604982 -5.00000000
3.19199419 9.97778416 2.03631353 40 11 1774 10.67200000 2892604984 2892604984 11.00000000
3.39884067 10.61797523 -0.58427864 12 12 1775 11.16400000 2892604987 2892604987 -3.00000000
3.10884380 9.70619106 2.35298800 60 13 1776 10.46000000 2892604989 2892604989 13.00000000
3.40242529 10.61640835 -0.19459434 10 14 1777 11.15000000 2892604991 2892604991 -1.00000000
2.68914199 8.39078808 2.36094737 40 15 1777 9.12200000 2892604993 2892604993 15.00000000
0.69401491 2.15513992 -0.60667187 4 0 1785 2.34400000 2892605014 2892605014 -15.00000000
3.41787076 10.60724449 0.19452453 13 1 1786 11.14600000 2892605017 2892605017 1.00000000
0.82761419 2.56693745 -0.62266451 3 2 1787 2.76800000 2892605019 2892605019 -13.00000000
3.42966866 10.63114452 0.58543003 13 3 1788 11.18600000 2892605021 2892605021 3.00000000
0.99577117 3.08665037 -0.63043290 2 4 1788 3.30400000 2892605023 2892605023 -11.00000000
3.42621756 10.61410713 0.97579569 12 5 1789 11.19600000 2892605026 2892605026 5.00000000
1.25800467 3.89485741 -0.64826441 2 6 1790 4.14400000 2892605028 2892605028 -9.00000000
3.43933702 10.64204121 1.37322378 12 7 1791 11.26800000 2892605030 2892605030 7.00000000
1.68822527 5.22061443 -0.67369372 2 8 1792 5.52800000 2892605033 2892605033 -7.00000000
3.44201159 10.63762569 1.77083814 12 9 1793 11.32000000 2892605035 2892605035 9.00000000
3.44589400 10.64962482 -0.97928190 4 10 1793 11.23600000 2892605037 2892605037 -5.00000000
3.22438478 9.95911026 2.03478718 43 11 1794 10.66400000 2892605040 2892605040 11.00000000
3.43403697 10.60034657 -0.58396459 12 12 1795 11.15800000 2892605042 2892605042 -3.00000000
3.13068795 9.65820408 2.34399009 62 13 1796 10.42000000 2892605044 2892605044 13.00000000
3.44007969 10.60636997 -0.19462924 10 14 1797 11.15200000 2892605046 2892605046 -1.00000000
2.72047400 8.38271332 2.36146498 45 15 1798 9.12400000 2892605049 2892605049 15.00000000
0.70392787 2.16005135 -0.60874242 4 0 1805 2.35200000 2892605070 2892605070 -15.00000000
3.45921564 10.60855770 0.19476886 13 1 1806 11.16000000 2892605072 2892605072 1.00000000
0.83294266 2.55291700 -0.61996508 3 2 1807 2.75600000 2892605074 2892605074 -13.00000000
3.46737719 10.62100697 0.58553469 13 3 1808 11.18800000 2892605076 2892605076 3.00000000
0.99922812 3.06075978 -0.62585348 2 4 1808 3.28000000 2892605079 2892605079 -11.00000000
3.46695876 10.61344624 0.97684157 12 5 1809 11.20800000 2892605081 2892605081 5.00000000
1.26791036 3.87917662 -0.64638722 2 6 1810 4.13200000 2892605083 2892605083 -9.00000000
3.47646356 10.62997055 1.37322378 14 7 1811 11.26800000 2892605086 2892605086 7.00000000
1.70643830 5.21468973 -0.67369372 2 8 1812 5.52800000 2892605088 2892605088 -7.00000000
3.48465490 10.64244175 1.77365398 12 9 1813 11.33800000 2892605090 2892605090 9.00000000
2.56051707 7.82004404 -0.71990645 4 10 1813 8.26000000 2892605093 2892605093 -5.00000000
3.26035142 9.95152569 2.03555036 43 11 1814 10.66800000 2892605095 2892605095 11.00000000
3.47350693 10.59588623 -0.58438331 12 12 1815 11.16600000 2892605097 2892605097 -3.00000000
3.12186646 9.51760006 2.31249690 62 13 1816 10.28000000 2892605099 2892605099 13.00000000
3.48643541 10.62279701 -0.19515280 10 14 1817 11.18200000 2892605102 2892605102 -1.00000000
2.74705219 8.36997509 2.36042976 42 15 1817 9.12000000 2892605104 2892605104 15.00000000
0.71509349 2.16858912 -0.61184824 4 0 1825 2.36400000 2892605125 2892605125 -15.00000000
3.50061131 10.60971069 0.19501320 13 1 1826 11.17400000 2892605127 2892605127 1.00000000
0.84307081 2.55369496 -0.62086493 3 2 1827 2.76000000 2892605129 2892605129 -13.00000000
3.50693607 10.61642456 0.58595335 13 3 1828 11.19600000 2892605132 2892605132 3.00000000
1.01729560 3.07962346 -0.63043290 2 4 1828 3.30400000 2892605134 2892605134 -11.00000000
3.51524019 10.63533115 0.97997916 12 5 1829 11.24400000 2892605136 2892605136 5.00000000
1.27772200 3.86347437 -0.64450997 2 6 1830 4.12000000 2892605139 2892605139 -9.00000000
3.51728988 10.62907887 1.37468624 12 7 1831 11.28000000 2892605141 2892605141 7.00000000
3.51165724 10.60585117 -1.37176132 2 8 1832 11.25600000 2892605143 2892605143 -7.00000000
3.52240396 10.63208866 1.77396679 12 9 1833 11.34000000 2892605146 2892605146 9.00000000
2.57965302 7.78647137 -0.71764040 4 10 1833 8.23400000 2892605148 2892605148 -5.00000000
3.29630446 9.94381142 2.03631353 43 11 1834 10.67200000 2892605150 2892605150 11.00000000
3.51298738 10.59127998 -0.58480197 12 12 1835 11.17400000 2892605152 2892605152 -3.00000000
3.11946821 9.39937115 2.28640246 64 13 1836 10.16400000 2892605155 2892605155 13.00000000
3.52412486 10.61246014 -0.19518772 10 14 1837 11.18400000 2892605157 2892605157 -1.00000000
2.77746987 8.36400127 2.36146498 45 15 1837 9.12400000 2892605159 2892605159 15.00000000
0.72021335 2.15874958 -0.60977769 4 0 1845 2.35600000 2892605180 2892605180 -15.00000000
3.54332328 10.61449814 0.19532733 13 1 1846 11.19200000 2892605182 2892605182 1.00000000
0.84827542 2.53964639 -0.61816549 3 2 1847 2.74800000 2892605185 2892605185 -13.00000000
3.54718423 10.61989212 0.58679074 10 3 1847 11.21200000 2892605187 2892605187 3.00000000
1.02430546 3.06488156 -0.62814319 2 4 1848 3.29200000 2892605189 2892605189 -11.00000000
3.55107927 10.61921692 0.97963053 12 5 1849 11.24000000 2892605192 2892605192 5.00000000
1.30310929 3.89458323 -0.65045452 2 6 1850 4.15800000 2892605194 2892605194 -9.00000000
3.56319356 10.64308929 1.37809849 12 7 1851 11.30800000 2892605196 2892605196 7.00000000
3.55244040 10.60482216 -1.37322378 2 8 1852 11.26800000 2892605198 2892605198 -7.00000000
3.55952430 10.62596893 1.77490544 12 9 1852 11.34600000 2892605201 2892605201 9.00000000
2.60111833 7.76041746 -0.71607161 4 10 1853 8.21600000 2892605203 2892605203 -5.00000000
3.33099461 9.93224430 2.03631353 40 11 1854 10.67200000 2892605205 2892605205 11.00000000
3.55883193 10.60546112 -0.58626735 12 12 1855 11.20200000 2892605208 2892605208 -3.00000000
3.11504221 9.27758121 2.25940847 59 13 1856 10.04400000 2892605210 2892605210 13.00000000
3.56305838 10.60578060 -0.19529243 10 14 1857 11.19000000 2892605212 2892605212 -1.00000000
2.80480313 8.34876156 2.35991216 45 15 1857 9.11800000 2892605215 2892605215 15.00000000
0.72527331 2.14890075 -0.60770714 4 0 1865 2.34800000 2892605235 2892605235 -15.00000000
3.58355236 10.61153793 0.19550186 13 1 1866 11.20200000 2892605238 2892605238 1.00000000
0.86462122 2.55882430 -0.62356430 3 2 1867 2.77200000 2892605240 2892605240 -13.00000000
3.59120154 10.62195587 0.58762813 10 3 1868 11.22800000 2892605242 2892605242 3.00000000
1.03625524 3.06500697 -0.62890643 2 4 1868 3.29600000 2892605245 2892605245 -11.00000000
3.58876419 10.60864353 0.97980487 12 5 1869 11.24200000 2892605247 2892605247 5.00000000
1.31416273 3.88252640 -0.64920300 2 6 1870 4.15000000 2892605249 2892605249 -9.00000000
3.60414386 10.64186859 1.37956095 12 7 1871 11.32000000 2892605251 2892605251 7.00000000
3.59517050 10.60927773 -1.37541735 2 8 1872 11.28600000 2892605254 2892605254 -7.00000000
3.60732698 10.63904190 1.77928555 12 9 1873 11.37400000 2892605256 2892605256 9.00000000
2.62307334 7.73619556 -0.71467710 4 10 1873 8.20000000 2892605258 2892605258 -5.00000000
3.36564445 9.92055702 2.03631353 43 11 1874 10.67200000 2892605261 2892605261 11.00000000
3.59839821 10.60053921 -0.58668607 12 12 1875 11.21000000 2892605263 2892605263 -3.00000000
3.11607194 9.17439079 2.23691320 57 13 1876 9.94400000 2892605265 2892605265 13.00000000
3.60520530 10.60842514 -0.19557166 10 14 1877 11.20600000 2892605268 2892605268 -1.00000000
2.83351803 8.33293819 2.35835910 45 15 1878 9.11200000 2892605270 2892605270 15.00000000
0.73239529 2.14648390 -0.60770714 4 0 1884 2.34800000 2892605291 2892605291 -15.00000000
3.61807561 10.59770393 0.19546695 13 1 1885 11.20000000 2892605293 2892605293 1.00000000
0.87436169 2.55963135 -0.62446415 3 2 1886 2.77600000 2892605295 2892605295 -13.00000000
3.62842751 10.62196159 0.58825612 10 3 1886 11.24000000 2892605298 2892605298 3.00000000
1.04641354 3.06155372 -0.62890643 2 4 1887 3.29600000 2892605300 2892605300 -11.00000000
3.63294983 10.62307739 0.98224521 12 5 1888 11.27000000 2892605302 2892605302 5.00000000
1.32255363 3.86506438 -0.64701295 4 6 1889 4.13600000 2892605304 2892605304 -9.00000000
3.64069986 10.63361359 1.38004839 12 7 1890 11.32400000 2892605307 2892605307 7.00000000
3.63740897 10.61795521 -1.37809849 2 8 1891 11.30800000 2892605309 2892605309 -7.00000000
3.64450884 10.63262653 1.78022420 12 9 1892 11.38000000 2892605311 2892605311 9.00000000
2.65646529 7.75007153 -0.71676880 4 10 1892 8.22400000 2892605314 2892605314 -5.00000000
3.39342833 9.89448452 2.03326058 43 11 1893 10.65600000 2892605316 2892605316 11.00000000
3.63482761 10.59232616 -0.58689541 12 12 1894 11.21400000 2892605318 2892605318 -3.00000000
3.11167192 9.06263542 2.21216869 54 13 1895 9.83400000 2892605321 2892605321 13.00000000
3.64296317 10.60397625 -0.19571128 10 14 1896 11.21400000 2892605323 2892605323 -1.00000000
2.86282110 8.33313084 2.36094737 36 15 1896 9.12200000 2892605325 2892605325 15.00000000
0.73925328 2.14208817 -0.60718948 4 0 1904 2.34600000 2892605346 2892605346 -15.00000000
3.66092062 10.60202122 0.19578110 13 1 1905 11.21800000 2892605348 2892605348 1.00000000
0.87820011 2.54182839 -0.62086493 3 2 1906 2.76000000 2892605350 2892605350 -13.00000000
3.66939640 10.62055779 0.58888417 13 3 1906 11.25200000 2892605353 2892605353 3.00000000
1.05965972 3.06530452 -0.63043290 2 4 1907 3.30400000 2892605355 2892605355 -11.00000000
3.67587090 10.62727737 0.98381400 12 5 1908 11.28800000 2892605357 2892605357 5.00000000
1.33797538 3.86602449 -0.64795154 4 6 1909 4.14200000 2892605360 2892605360 -9.00000000
3.67909503 10.62459278 1.38053596 12 7 1910 11.32800000 2892605362 2892605362 7.00000000
3.67315078 10.60144138 -1.37761104 2 8 1911 11.30400000 2892605364 2892605364 -7.00000000
3.69001293 10.64410400 1.78429151 12 9 1912 11.40600000 2892605367 2892605367 9.00000000
2.68676496 7.75016403 -0.71764040 4 10 1912 8.23400000 2892605369 2892605369 -5.00000000
3.43116283 9.89185333 2.03516865 50 11 1913 10.66600000 2892605371 2892605371 11.00000000
3.67439890 10.58712101 -0.58731413 12 12 1914 11.22200000 2892605374 2892605374 -3.00000000
3.10684919 8.94678688 2.18652415 60 13 1915 9.72000000 2892605376 2892605376 13.00000000
3.68651891 10.61008453 -0.19606033 10 14 1916 11.23400000 2892605378 2892605378 -1.00000000
2.39860272 6.90336275 1.95822489 9 15 1916 7.56600000 2892605380 2892605380 15.00000000
0.74990904 2.14861441 -0.60977769 4 0 1924 2.35600000 2892605401 2892605401 -15.00000000
3.70252132 10.60239315 0.19602543 13 1 1925 11.23200000 2892605403 2892605403 1.00000000
0.88706744 2.53874731 -0.62086493 3 2 1926 2.76000000 2892605406 2892605406 -13.00000000
3.70895696 10.60892296 0.58898884 10 3 1927 11.25400000 2892605408 2892605408 3.00000000
1.06257820 3.03934789 -0.62585348 2 4 1927 3.28000000 2892605410 2892605410 -11.00000000
3.71623397 10.62378502 0.98468560 12 5 1928 11.29800000 2892605413 2892605413 5.00000000
1.34819937 3.85200810 -0.64638722 2 6 1929 4.13200000 2892605415 2892605415 -9.00000000
3.72403264 10.63416767 1.38346076 10 7 1930 11.35200000 2892605417 2892605417 7.00000000
3.71275997 10.59604931 -1.37858605 2 8 1931 11.31200000 2892605420 2892605420 -7.00000000
3.72724938 10.63740158 1.78523016 12 9 1931 11.41200000 2892605422 2892605422 9.00000000
2.71577930 7.74637890 -0.71816331 4 10 1932 8.24000000 2892605424 2892605424 -5.00000000
3.46632075 9.88166904 2.03555036 46 11 1933 10.66800000 2892605427 2892605427 11.00000000
3.71265531 10.57800007 -0.58752346 12 12 1934 11.22600000 2892605429 2892605429 -3.00000000
3.10706711 8.84763241 2.16492891 57 13 1935 9.62400000 2892605431 2892605431 13.00000000
3.72286963 10.59526539 -0.19602543 10 14 1936 11.23200000 2892605433 2892605433 -1.00000000
2.42709231 6.90363741 1.96081305 9 15 1937 7.57600000 2892605436 2892605436 15.00000000
0.75483268 2.13869667 -0.60770714 4 0 1944 2.34800000 2892605456 2892605456 -15.00000000
3.74749851 10.61203098 0.19644429 13 1 1945 11.25600000 2892605459 2892605459 1.00000000
0.89852077 2.54298520 -0.62266451 3 2 1946 2.76800000 2892605461 2892605461 -13.00000000
3.74944019 10.61163044 0.58982623 10 3 1946 11.27000000 2892605463 2892605463 3.00000000
1.07318103 3.03562021 -0.62585348 2 4 1947 3.28000000 2892605466 2892605466 -11.00000000
3.75595284 10.61826134 0.98538285 12 5 1948 11.30600000 2892605468 2892605468 5.00000000
1.36888695 3.86776257 -0.64982879 4 6 1949 4.15400000 2892605470 2892605470 -9.00000000
3.76510596 10.63233089 1.38492322 10 7 1950 11.36400000 2892605473 2892605473 7.00000000
3.75370216 10.59425163 -1.38004839 2 8 1951 11.32400000 2892605475 2892605475 -7.00000000
3.76555228 10.62180710 1.78491724 12 9 1952 11.41000000 2892605477 2892605477 9.00000000
2.74013972 7.72934008 -0.71746606 4 10 1952 8.23200000 2892605480 2892605480 -5.00000000
3.50670004 9.88616180 2.03898501 50 11 1953 10.68600000 2892605482 2892605482 11.00000000
3.75824118 10.58944511 -0.58888417 12 12 1954 11.25200000 2892605484 2892605484 -3.00000000
3.08641601 8.69165707 2.12938666 15 13 1955 9.46600000 2892605486 2892605486 13.00000000
3.76317883 10.59162712 -0.19619995 10 14 1956 11.24200000 2892605489 2892605489 -1.00000000
2.45441103 6.90422440 1.96340132 6 15 1957 7.58600000 2892605491 2892605491 15.00000000
0.75802672 2.12526441 -0.60460126 4 0 1963 2.33600000 2892605512 2892605512 -15.00000000
3.78266859 10.59954548 0.19644429 13 1 1964 11.25600000 2892605514 2892605514 1.00000000
0.90694869 2.53999162 -0.62266451 3 2 1965 2.76800000 2892605516 2892605516 -13.00000000
3.79199696 10.61982918 0.59097761 10 3 1965 11.29200000 2892605519 2892605519 3.00000000
1.08852577 3.04683518 -0.62890643 2 4 1966 3.29600000 2892605521 2892605521 -11.00000000
3.79382610 10.61325264 0.98608005 12 5 1967 11.31400000 2892605523 2892605523 5.00000000
1.37771392 3.85204196 -0.64795154 2 6 1968 4.14200000 2892605526 2892605526 -9.00000000
3.80703163 10.63847733 1.38736057 10 7 1969 11.38400000 2892605528 2892605528 7.00000000
3.79015160 10.58548355 -1.38053596 2 8 1970 11.32800000 2892605530 2892605530 -7.00000000
3.80489612 10.62666225 1.78773308 12 9 1970 11.42800000 2892605533 2892605533 9.00000000
2.76239634 7.71083307 -0.71659452 8 10 1971 8.22200000 2892605535 2892605535 -5.00000000
3.53482723 9.86154175 2.03631353 43 11 1972 10.67200000 2892605537 2892605537 11.00000000
3.79873037 10.59196377 -0.58972156 12 12 1973 11.26800000 2892605539 2892605539 -3.00000000
3.00003791 8.36038589 2.05065370 7 13 1974 9.11600000 2892605542 2892605542 13.00000000
3.80368710 10.59414577 -0.19647919 10 14 1975 11.25800000 2892605544 2892605544 -1.00000000
2.47533345 6.89059305 1.96184838 9 15 1976 7.58000000 2892605546 2892605546 15.00000000
0.76937270 2.13350916 -0.60770714 4 0 1983 2.34800000 2892605567 2892605567 -15.00000000
3.82235956 10.59380054 0.19658391 13 1 1984 11.26400000 2892605569 2892605569 1.00000000
0.91448599 2.53314424 -0.62176472 3 2 1985 2.76400000 2892605572 2892605572 -13.00000000
3.83446932 10.62155628 0.59181499 10 3 1985 11.30800000 2892605574 2892605574 3.00000000
1.09782064 3.03932405 -0.62814319 4 4 1986 3.29200000 2892605576 2892605576 -11.00000000
3.83423615 10.60931396 0.98695165 12 5 1987 11.32400000 2892605579 2892605579 5.00000000
1.38779294 3.83792114 -0.64638722 4 6 1988 4.13200000 2892605581 2892605581 -9.00000000
3.84549427 10.62885666 1.38784814 10 7 1989 11.38800000 2892605583 2892605583 7.00000000
3.83788991 10.60205364 -1.38443577 2 8 1990 11.36000000 2892605586 2892605586 -7.00000000
3.84801841 10.63003349 1.79054892 12 9 1990 11.44600000 2892605588 2892605588 9.00000000
2.79336619 7.71238327 -0.71764040 8 10 1991 8.23400000 2892605590 2892605590 -5.00000000
3.56655335 9.84175968 2.03478718 43 11 1992 10.66400000 2892605592 2892605592 11.00000000
3.83363748 10.57300663 -0.58940756 12 12 1993 11.26200000 2892605595 2892605595 -3.00000000
3.05512190 8.42130756 2.06820011 13 13 1994 9.19400000 2892605597 2892605597 13.00000000
3.84746718 10.59960079 -0.19682825 10 14 1995 11.27800000 2892605599 2892605599 -1.00000000
2.50662518 6.90188456 1.96754241 13 15 1996 7.60200000 2892605602 2892605602 15.00000000
0.77813876 2.13444066 -0.60874242 4 0 2003 2.35200000 2892605622 2892605622 -15.00000000
3.86548281 10.59730148 0.19689804 13 1 2004 11.28200000 2892605625 2892605625 1.00000000
0.92065030 2.52261424 -0.61996508 3 2 2005 2.75600000 2892605627 2892605627 -13.00000000
3.87494588 10.61748791 0.59233832 10 3 2005 11.31800000 2892605629 2892605629 3.00000000
1.11381042 3.05022645 -0.63119614 2 4 2006 3.30800000 2892605632 2892605632 -11.00000000
3.87739968 10.61270714 0.98852044 12 5 2007 11.34200000 2892605634 2892605634 5.00000000
1.40660703 3.84789586 -0.64889014 4 6 2008 4.14800000 2892605636 2892605636 -9.00000000
3.88802743 10.63028336 1.38979805 10 7 2009 11.40400000 2892605638 2892605638 7.00000000
1.88695478 5.15634632 -0.67418122 2 8 2010 5.53200000 2892605641 2892605641 -7.00000000
3.89256811 10.63694191 1.79399049 12 9 2010 11.46800000 2892605643 2892605643 9.00000000
2.82643580 7.71942377 -0.71920919 8 10 2011 8.25200000 2892605645 2892605645 -5.00000000
3.59818435 9.82187653 2.03326058 46 11 2012 10.65600000 2892605648 2892605648 11.00000000
3.87189555 10.56331062 -0.58961689 12 12 2013 11.26600000 2892605650 2892605650 -3.00000000
3.08517003 8.41242123 2.06865001 17 13 2014 9.19600000 2892605652 2892605652 13.00000000
3.89270949 10.60863400 -0.19724710 10 14 2015 11.30200000 2892605655 2892605655 -1.00000000
2.53016448 6.89534807 1.96806002 15 15 2015 7.60400000 2892605657 2892605657 15.00000000
0.78558457 2.13171148 -0.60874242 4 0 2023 2.35200000 2892605678 2892605678 -15.00000000
3.90867686 10.60062981 0.19721219 13 1 2024 11.30000000 2892605680 2892605680 1.00000000
0.92675227 2.51207209 -0.61816549 3 2 2025 2.74800000 2892605682 2892605682 -13.00000000
3.90991044 10.59827614 0.59202433 10 3 2025 11.31200000 2892605685 2892605685 3.00000000
1.12445092 3.04631996 -0.63119614 2 4 2026 3.30800000 2892605687 2892605687 -11.00000000
3.92063355 10.61592960 0.99008924 12 5 2027 11.36000000 2892605689 2892605689 5.00000000
1.41729140 3.83555079 -0.64763868 4 6 2028 4.14000000 2892605691 2892605691 -9.00000000
3.92786407 10.62409401 1.39077294 12 7 2029 11.41200000 2892605694 2892605694 7.00000000
1.90218747 5.14228106 -0.67320627 2 8 2030 5.52400000 2892605696 2892605696 -7.00000000
3.93310070 10.63255310 1.79555476 12 9 2030 11.47800000 2892605698 2892605698 9.00000000
2.85198116 7.70577335 -0.71886057 4 10 2031 8.24800000 2892605701 2892605701 -5.00000000
3.63653779 9.82030296 2.03555036 43 11 2032 10.66800000 2892605703 2892605703 11.00000000
3.92123508 10.58344173 -0.59150100 12 12 2033 11.30200000 2892605705 2892605705 -3.00000000
3.11112928 8.39246464 2.06640029 49 13 2034 9.18600000 2892605708 2892605708 13.00000000
3.93319392 10.60435581 -0.19742163 12 14 2035 11.31200000 2892605710 2892605710 -1.00000000
2.56079698 6.90051746 1.97220111 18 15 2036 7.62000000 2892605712 2892605712 15.00000000
0.79093027 2.12561178 -0.60770714 4 0 2041 2.34800000 2892605733 2892605733 -15.00000000
3.94754195 10.60329056 0.19749144 13 1 2042 11.31600000 2892605735 2892605735 1.00000000
0.94144195 2.52740979 -0.62266451 3 2 2043 2.76800000 2892605738 2892605738 -13.00000000
3.95200896 10.60396671 0.59307104 13 3 2044 11.33200000 2892605740 2892605740 3.00000000
1.12990189 3.03173447 -0.62890643 2 4 2044 3.29600000 2892605742 2892605742 -11.00000000
3.95814180 10.61476040 0.99113512 12 5 2045 11.37200000 2892605744 2892605744 5.00000000
1.43071508 3.83478069 -0.64826441 4 6 2046 4.14400000 2892605747 2892605747 -9.00000000
3.96955180 10.63401890 1.39369786 12 7 2047 11.43600000 2892605749 2892605749 7.00000000
1.92527843 5.15487576 -0.67564362 2 8 2048 5.54400000 2892605751 2892605751 -7.00000000
3.96717572 10.62199497 1.79586768 12 9 2048 11.48000000 2892605754 2892605754 9.00000000
2.87129354 7.68371153 -0.71764040 4 10 2049 8.23400000 2892605756 2892605756 -5.00000000
3.66874647 9.81250763 2.03631353 43 11 2050 10.67200000 2892605758 2892605758 11.00000000
3.96006274 10.58603573 -0.59233832 12 12 2051 11.31800000 2892605761 2892605761 -3.00000000
3.13884592 8.38629913 2.06730008 55 13 2052 9.19000000 2892605763 2892605763 13.00000000
3.96789169 10.59569168 -0.19749144 12 14 2053 11.31600000 2892605765 2892605765 -1.00000000
2.58261514 6.89650726 1.97323644 18 15 2053 7.62400000 2892605768 2892605768 15.00000000
0.79562515 2.11560512 -0.60563654 4 0 2061 2.34000000 2892605788 2892605788 -15.00000000
3.98664308 10.59506130 0.19759615 13 1 2062 11.32200000 2892605791 2892605791 1.00000000
0.95437813 2.53505087 -0.62536395 3 2 2063 2.78000000 2892605793 2892605793 -13.00000000
3.99533582 10.60692883 0.59401309 10 3 2064 11.35000000 2892605795 2892605795 3.00000000
1.13632548 3.01674867 -0.62661672 2 4 2064 3.28400000 2892605797 2892605797 -11.00000000
3.99657536 10.60460854 0.99148375 12 5 2065 11.37600000 2892605800 2892605800 5.00000000
1.44688010 3.83715653 -0.64951593 4 6 2066 4.15200000 2892605802 2892605802 -9.00000000
4.01225281 10.63495636 1.39564776 12 7 2067 11.45200000 2892605804 2892605804 7.00000000
1.94396162 5.14998102 -0.67588741 4 8 2068 5.54600000 2892605807 2892605807 -7.00000000
4.01096582 10.62031937 1.79805779 12 9 2069 11.49400000 2892605809 2892605809 9.00000000
2.91076803 7.70719194 -0.72077799 4 10 2069 8.27000000 2892605811 2892605811 -5.00000000
3.70020032 9.79229546 2.03478718 46 11 2070 10.66400000 2892605814 2892605814 11.00000000
4.00829172 10.60203934 -0.59401309 4 12 2071 11.35000000 2892605816 2892605816 -3.00000000
3.17016888 8.38076019 2.06865001 60 13 2072 9.19600000 2892605818 2892605818 13.00000000
4.01122379 10.59860897 -0.19780557 6 14 2073 11.33400000 2892605821 2892605821 -1.00000000
2.60855865 6.88880205 1.97375405 18 15 2074 7.62600000 2892605823 2892605823 15.00000000
0.80886704 2.12712049 -0.60977769 4 0 2082 2.35600000 2892605844 2892605844 -15.00000000
0.95811689 2.51696587 -0.62176472 3 2 2084 2.76400000 2892605848 2892605848 -13.00000000
4.05977678 10.65940666 0.59778130 2 3 2085 11.42200000 2892605850 2892605850 3.00000000
1.15156746 3.02357149 -0.62890643 2 4 2085 3.29600000 2892605853 2892605853 -11.00000000
1.45248961 3.80967855 -0.64576149 4 6 2087 4.12800000 2892605857 2892605857 -9.00000000
1.96494770 5.14838552 -0.67661858 2 8 2089 5.55200000 2892605862 2892605862 -7.00000000
2.93899679 7.69647169 -0.72077799 4 10 2090 8.27000000 2892605867 2892605867 -5.00000000
3.73186183 9.76766396 2.03249741 43 11 2091 10.65200000 2892605869 2892605869 11.00000000
3.20225692 8.37272453 2.06954980 59 13 2093 9.20000000 2892605874 2892605874 13.00000000
2.63535094 6.88687134 1.97582459 20 15 2094 7.63400000 2892605878 2892605878 15.00000000
0.81767303 2.12789059 -0.61081296 4 0 2102 2.36000000 2892605899 2892605899 -15.00000000
0.96689689 2.51360607 -0.62176472 3 2 2104 2.76400000 2892605903 2892605903 -13.00000000
1.16493535 3.02686238 -0.63043290 4 4 2105 3.30400000 2892605908 2892605908 -11.00000000
1.46719933 3.80827165 -0.64638722 2 6 2107 4.13200000 2892605913 2892605913 -9.00000000
1.98147833 5.13779068 -0.67613113 2 8 2109 5.54800000 2892605917 2892605917 -7.00000000
2.97086525 7.69917727 -0.72199816 4 10 2110 8.28400000 2892605922 2892605922 -5.00000000
3.76876283 9.76190376 2.03402400 46 11 2111 10.66000000 2892605924 2892605924 11.00000000
3.22865367 8.35422421 2.06774998 59 13 2113 9.19200000 2892605929 2892605929 13.00000000
2.66754532 6.89518356 1.98100102 15 15 2115 7.65400000 2892605933 2892605933 15.00000000
0.82509577 2.12502337 -0.61081296 4 0 2122 2.36000000 2892605954 2892605954 -15.00000000
0.97495914 2.50839925 -0.62131482 3 2 2124 2.76200000 2892605959 2892605959 -13.00000000
1.16980147 3.00813937 -0.62737995 4 4 2125 3.28800000 2892605963 2892605963 -11.00000000
1.48406672 3.81233120 -0.64795154 4 6 2127 4.14200000 2892605968 2892605968 -9.00000000
1.99651742 5.12344456 -0.67515618 2 8 2129 5.54000000 2892605973 2892605973 -7.00000000
2.98397136 7.65349054 -0.71868628 4 10 2130 8.24600000 2892605977 2892605977 -5.00000000
3.79996157 9.74137306 2.03249741 43 11 2131 10.65200000 2892605979 2892605979 11.00000000
3.25637794 8.33927345 2.06685019 59 13 2133 9.18800000 2892605984 2892605984 13.00000000
2.69250488 6.89169788 1.98255384 15 15 2134 7.66000000 2892605989 2892605989 15.00000000
0.82827532 2.11133981 -0.60770714 4 0 2142 2.34800000 2892606009 2892606009 -15.00000000
0.98442143 2.50679469 -0.62176472 3 2 2144 2.76400000 2892606014 2892606014 -13.00000000
1.18316650 3.01134682 -0.62890643 2 4 2145 3.29600000 2892606019 2892606019 -11.00000000
1.50170326 3.81815743 -0.64982879 2 6 2147 4.15400000 2892606023 2892606023 -9.00000000
2.01438951 5.11644411 -0.67515618 2 8 2149 5.54000000 2892606028 2892606028 -7.00000000
3.01870108 7.66341925 -0.72060370 4 10 2150 8.26800000 2892606032 2892606032 -5.00000000
3.83538175 9.73170280 2.03326058 46 11 2151 10.65600000 2892606035 2892606035 11.00000000
3.28546762 8.32785511 2.06685019 62 13 2153 9.18800000 2892606039 2892606039 13.00000000
2.72271323 6.89436054 1.98617733 15 15 2155 7.67400000 2892606044 2892606044 15.00000000
0.83706385 2.11202765 -0.60874242 4 0 2162 2.35200000 2892606065 2892606065 -15.00000000
0.99460310 2.50696588 -0.62266451 3 2 2164 2.76800000 2892606069 2892606069 -13.00000000
1.19656801 3.01449752 -0.63043290 4 4 2165 3.30400000 2892606074 2892606074 -11.00000000
1.51064539 3.80187750 -0.64795154 4 6 2167 4.14200000 2892606079 2892606079 -9.00000000
2.03810620 5.12413788 -0.67710608 2 8 2169 5.55600000 2892606083 2892606083 -7.00000000
3.04027629 7.63987732 -0.71938348 4 10 2170 8.25400000 2892606088 2892606088 -5.00000000
3.86932826 9.71825504 2.03326058 46 11 2171 10.65600000 2892606090 2892606090 11.00000000
3.31884623 8.32719803 2.06954980 60 13 2173 9.20000000 2892606095 2892606095 13.00000000
2.74699187 6.88888264 1.98721266 11 15 2174 7.67800000 2892606099 2892606099 15.00000000
0.84730327 2.11626673 -0.61081296 4 0 2182 2.36000000 2892606120 2892606120 -15.00000000
1.00334799 2.50347877 -0.62266451 3 2 2184 2.76800000 2892606125 2892606125 -13.00000000
1.20708334 3.01030231 -0.63043290 2 4 2185 3.30400000 2892606129 2892606129 -11.00000000
1.52537894 3.80024767 -0.64857727 2 6 2187 4.14600000 2892606134 2892606134 -9.00000000
2.05894065 5.12436008 -0.67808104 2 8 2189 5.56400000 2892606138 2892606138 -7.00000000
3.06321025 7.61997509 -0.71851194 4 10 2190 8.24400000 2892606143 2892606143 -5.00000000
3.89883232 9.69376087 2.03097105 46 11 2191 10.64400000 2892606145 2892606145 11.00000000
3.35080457 8.32279301 2.07134938 57 13 2193 9.20800000 2892606150 2892606150 13.00000000
2.77944374 6.89668655 1.99238896 9 15 2195 7.69800000 2892606155 2892606155 15.00000000
0.85394758 2.11359429 -0.61081296 4 0 2200 2.36000000 2892606175 2892606175 -15.00000000
1.00974667 2.49670100 -0.62176472 3 2 2202 2.76400000 2892606180 2892606180 -13.00000000
1.21506166 3.00285554 -0.62966967 2 4 2203 3.30000000 2892606185 2892606185 -11.00000000
1.53731024 3.79543686 -0.64857727 4 6 2205 4.14600000 2892606189 2892606189 -9.00000000
2.07502913 5.11786652 -0.67808104 2 8 2207 5.56400000 2892606194 2892606194 -7.00000000
3.09911704 7.63985443 -0.72130090 4 10 2208 8.27600000 2892606198 2892606198 -5.00000000
3.92926693 9.68146420 2.03097105 43 11 2209 10.64400000 2892606201 2892606201 11.00000000
3.37106681 8.29778194 2.06774998 57 13 2211 9.19200000 2892606205 2892606205 13.00000000
3.02467155 7.44141483 2.15233922 27 15 2212 8.31600000 2892606210 2892606210 15.00000000
0.86278003 2.11417794 -0.61184824 4 0 2220 2.36400000 2892606231 2892606231 -15.00000000
1.01550782 2.48594522 -0.61996508 3 2 2222 2.75600000 2892606235 2892606235 -13.00000000
1.22702169 3.00223041 -0.63043290 4 4 2223 3.30400000 2892606240 2892606240 -11.00000000
1.56251693 3.81930017 -0.65358317 4 6 2225 4.17800000 2892606244 2892606244 -9.00000000
2.08987212 5.10324383 -0.67710608 2 8 2227 5.55600000 2892606249 2892606249 -7.00000000
3.12803245 7.63452101 -0.72182387 4 10 2228 8.28200000 2892606254 2892606254 -5.00000000
3.96303749 9.66769028 2.03097105 46 11 2229 10.64400000 2892606256 2892606256 11.00000000
3.39409280 8.27154064 2.06415081 62 13 2231 9.17600000 2892606261 2892606261 13.00000000
3.06676936 7.47012806 2.16372728 33 15 2232 8.36000000 2892606265 2892606265 15.00000000
0.86720997 2.10400915 -0.60977769 4 0 2240 2.35600000 2892606286 2892606286 -15.00000000
1.02715218 2.48959088 -0.62176472 3 2 2242 2.76400000 2892606291 2892606291 -13.00000000
1.23299944 2.98704076 -0.62814319 4 4 2243 3.29200000 2892606295 2892606295 -11.00000000
1.56301534 3.78278637 -0.64826441 2 6 2245 4.14400000 2892606300 2892606300 -9.00000000
2.10691428 5.09408331 -0.67686236 2 8 2247 5.55400000 2892606304 2892606304 -7.00000000
3.16456628 7.64748812 -0.72408992 4 10 2248 8.30800000 2892606309 2892606309 -5.00000000
3.99826193 9.65742493 2.03173423 46 11 2249 10.64800000 2892606311 2892606311 11.00000000
3.42443728 8.26324368 2.06505060 59 13 2251 9.18000000 2892606316 2892606316 13.00000000
3.00329709 7.24344778 2.10109305 6 15 2252 8.11800000 2892606320 2892606320 15.00000000
0.87157941 2.09383512 -0.60770714 4 0 2260 2.34800000 2892606341 2892606341 -15.00000000
1.03883421 2.49318576 -0.62356430 3 2 2262 2.77200000 2892606346 2892606346 -13.00000000
1.24795115 2.99359107 -0.63043290 4 4 2263 3.30400000 2892606350 2892606350 -11.00000000
1.57925308 3.78459954 -0.64951593 2 6 2265 4.15200000 2892606355 2892606355 -9.00000000
2.11932731 5.07387590 -0.67515618 2 8 2267 5.54000000 2892606360 2892606360 -7.00000000
3.18125486 7.61249733 -0.72182387 4 10 2268 8.28200000 2892606364 2892606364 -5.00000000
4.02588987 9.62891960 2.02868128 12 11 2269 10.63200000 2892606367 2892606367 11.00000000
3.45777464 8.26202583 2.06774998 62 13 2271 9.19200000 2892606371 2892606371 13.00000000
2.97160268 7.09341002 2.06071734 9 15 2273 7.96200000 2892606376 2892606376 15.00000000
0.88038021 2.09434175 -0.60874242 4 0 2280 2.35200000 2892606397 2892606397 -15.00000000
1.04904234 2.49313664 -0.62446415 3 2 2282 2.77600000 2892606401 2892606401 -13.00000000
1.25229919 2.97474122 -0.62737995 4 4 2283 3.28800000 2892606406 2892606406 -11.00000000
1.59091997 3.77542305 -0.64889014 2 6 2285 4.14800000 2892606410 2892606410 -9.00000000
2.14628339 5.08839560 -0.67808104 2 8 2287 5.56400000 2892606415 2892606415 -7.00000000
3.21013188 7.60685301 -0.72234678 4 10 2288 8.28800000 2892606420 2892606420 -5.00000000
4.41151142 10.44859791 2.20460725 56 11 2289 11.55400000 2892606422 2892606422 11.00000000
3.48659348 8.24990559 2.06774998 59 13 2291 9.19200000 2892606426 2892606426 13.00000000
3.04401183 7.19917345 2.09436369 18 15 2292 8.09200000 2892606431 2892606431 15.00000000
0.89070481 2.09836912 -0.61081296 4 0 2300 2.36000000 2892606452 2892606452 -15.00000000
1.05164218 2.47511125 -0.62086493 3 2 2302 2.76000000 2892606456 2892606456 -13.00000000
1.27189195 2.99203300 -0.63195938 2 4 2303 3.31200000 2892606461 2892606461 -11.00000000
1.59790158 3.75530529 -0.64638722 2 6 2305 4.13200000 2892606466 2892606466 -9.00000000
2.16247654 5.07721996 -0.67759353 2 8 2307 5.56000000 2892606470 2892606470 -7.00000000
3.23510313 7.59193516 -0.72199816 4 10 2308 8.28400000 2892606475 2892606475 -5.00000000
4.44872713 10.43494034 2.20498872 53 11 2309 11.55600000 2892606477 2892606477 11.00000000
3.50925064 8.22334576 2.06415081 60 13 2311 9.17600000 2892606482 2892606482 13.00000000
3.03195357 7.10144615 2.06899953 9 15 2312 7.99400000 2892606486 2892606486 15.00000000
0.89917982 2.09895539 -0.61184824 4 0 2319 2.36400000 2892606507 2892606507 -15.00000000
1.06291616 2.47877431 -0.62266451 3 2 2321 2.76800000 2892606512 2892606512 -13.00000000
1.27716267 2.97697353 -0.62966967 4 4 2322 3.30000000 2892606516 2892606516 -11.00000000
1.61891973 3.76995182 -0.64982879 2 6 2324 4.15400000 2892606521 2892606521 -9.00000000
2.18400478 5.08096361 -0.67905599 2 8 2326 5.57200000 2892606525 2892606525 -7.00000000
3.25868678 7.57750511 -0.72164953 4 10 2327 8.28000000 2892606530 2892606530 -5.00000000
4.49804878 10.45439529 2.21223950 56 11 2328 11.59400000 2892606532 2892606532 11.00000000
3.53341770 8.20450401 2.06235123 60 13 2330 9.16800000 2892606537 2892606537 13.00000000
3.08147740 7.15167427 2.08659911 40 15 2331 8.06200000 2892606542 2892606542 15.00000000
0.90036565 2.08161902 -0.60770714 4 0 2339 2.34800000 2892606562 2892606562 -15.00000000
1.07156217 2.47504902 -0.62266451 3 2 2341 2.76800000 2892606567 2892606567 -13.00000000
1.28286457 2.96168828 -0.62737995 4 4 2342 3.28800000 2892606572 2892606572 -11.00000000
1.63128376 3.76246548 -0.64951593 2 6 2344 4.15200000 2892606576 2892606576 -9.00000000
2.19698572 5.06238317 -0.67759353 2 8 2346 5.56000000 2892606581 2892606581 -7.00000000
3.28353047 7.56242895 -0.72130090 4 10 2347 8.27600000 2892606585 2892606585 -5.00000000
4.54233599 10.45663834 2.21605563 53 11 2348 11.61400000 2892606588 2892606588 11.00000000
3.56203532 8.19212055 2.06235123 60 13 2350 9.16800000 2892606592 2892606592 13.00000000
3.09610462 7.11376190 2.07883453 40 15 2352 8.03200000 2892606597 2892606597 15.00000000
0.90917259 2.08200431 -0.60874242 4 0 2359 2.35200000 2892606618 2892606618 -15.00000000
1.08175623 2.47486472 -0.62356430 3 2 2361 2.77200000 2892606622 2892606622 -13.00000000
1.29948783 2.97158241 -0.63043290 4 4 2362 3.30400000 2892606627 2892606627 -11.00000000
1.64282298 3.75312901 -0.64889014 2 6 2364 4.14800000 2892606631 2892606631 -9.00000000
2.21145678 5.04741049 -0.67661858 2 8 2366 5.55200000 2892606636 2892606636 -7.00000000
3.31150794 7.55457067 -0.72164953 4 10 2367 8.28000000 2892606641 2892606641 -5.00000000
4.58353996 10.45150661 2.21834540 56 11 2368 11.62600000 2892606643 2892606643 11.00000000
3.59217596 8.18320560 2.06325102 59 13 2370 9.17200000 2892606648 2892606648 13.00000000
3.11967778 7.10345554 2.07883453 40 15 2371 8.03200000 2892606652 2892606652 15.00000000
0.91799319 2.08235335 -0.60977769 4 0 2379 2.35600000 2892606673 2892606673 -15.00000000
1.09038854 2.47107363 -0.62356430 3 2 2381 2.77200000 2892606677 2892606677 -13.00000000
1.30985272 2.96702814 -0.63043290 4 4 2382 3.30400000 2892606682 2892606682 -11.00000000
1.65112340 3.73653078 -0.64701295 2 6 2384 4.13600000 2892606687 2892606687 -9.00000000
2.23307681 5.04873753 -0.67783731 2 8 2386 5.56200000 2892606691 2892606691 -7.00000000
3.34188938 7.55207491 -0.72252113 4 10 2387 8.29000000 2892606696 2892606696 -5.00000000
4.62158394 10.43903351 2.21910858 56 11 2388 11.63000000 2892606698 2892606698 11.00000000
3.62229800 8.17418003 2.06415081 62 13 2390 9.17600000 2892606703 2892606703 13.00000000
3.14680338 7.09782076 2.08038759 42 15 2391 8.03800000 2892606707 2892606707 15.00000000
0.92332321 2.07576752 -0.60874242 4 0 2398 2.35200000 2892606728 2892606728 -15.00000000
1.09382117 2.45676255 -0.62086493 3 2 2400 2.76000000 2892606733 2892606733 -13.00000000
1.32927060 2.98418880 -0.63501233 4 4 2401 3.32800000 2892606737 2892606737 -11.00000000
1.67315793 3.75268507 -0.65076739 2 6 2403 4.16000000 2892606742 2892606742 -9.00000000
2.24576187 5.03224039 -0.67661858 2 8 2405 5.55200000 2892606747 2892606747 -7.00000000
3.36935139 7.54640913 -0.72304404 8 10 2406 8.29600000 2892606751 2892606751 -5.00000000
4.66418314 10.44157600 2.22292471 56 11 2407 11.65000000 2892606754 2892606754 11.00000000
3.64938450 8.16212273 2.06415081 57 13 2409 9.17600000 2892606758 2892606758 13.00000000
3.17234945 7.08855629 2.08090520 40 15 2411 8.04000000 2892606763 2892606763 15.00000000
0.93689370 2.08663082 -0.61288351 4 0 2418 2.36800000 2892606783 2892606783 -15.00000000
1.10558558 2.46003938 -0.62266451 3 2 2420 2.76800000 2892606788 2892606788 -13.00000000
1.33243346 2.96341538 -0.63157779 4 4 2421 3.31000000 2892606793 2892606793 -11.00000000
2.26005268 5.01713085 -0.67564362 2 8 2425 5.54400000 2892606802 2892606802 -7.00000000
3.39731002 7.53823519 -0.72339267 4 10 2426 8.30000000 2892606807 2892606807 -5.00000000
4.70867205 10.44312859 2.22674108 59 11 2427 11.67000000 2892606809 2892606809 11.00000000
3.67304373 8.13867664 2.06145144 60 13 2429 9.16400000 2892606813 2892606813 13.00000000
3.19945955 7.08272123 2.08245802 42 15 2431 8.04600000 2892606818 2892606818 15.00000000
0.93974882 2.07262611 -0.60977769 4 0 2439 2.35600000 2892606839 2892606839 -15.00000000
1.11781597 2.46306872 -0.62446415 3 2 2441 2.77600000 2892606843 2892606843 -13.00000000
1.34003925 2.95136142 -0.63005131 4 4 2442 3.30200000 2892606848 2892606848 -11.00000000
2.28664565 5.02688313 -0.67808104 2 8 2446 5.56400000 2892606857 2892606857 -7.00000000
3.42491627 7.52573252 -0.72339267 4 10 2447 8.30000000 2892606862 2892606862 -5.00000000
4.75667858 10.44724178 2.23132038 59 11 2448 11.69400000 2892606864 2892606864 11.00000000
3.69961619 8.11806679 2.05965185 57 13 2450 9.15600000 2892606869 2892606869 13.00000000
3.22299242 7.06567430 2.08090520 40 15 2452 8.04000000 2892606873 2892606873 15.00000000
0.94376236 2.06230664 -0.60770714 4 0 2459 2.34800000 2892606894 2892606894 -15.00000000
1.12802994 2.46269536 -0.62536395 3 2 2461 2.78000000 2892606899 2892606899 -13.00000000
1.35360491 2.95380497 -0.63157779 4 4 2462 3.31000000 2892606903 2892606903 -11.00000000
1.71301532 3.73465943 -0.65076739 2 6 2464 4.16000000 2892606908 2892606908 -9.00000000
2.30335069 5.01706648 -0.67783731 2 8 2466 5.56200000 2892606913 2892606913 -7.00000000
3.45615482 7.52459478 -0.72443855 4 10 2467 8.31200000 2892606917 2892606917 -5.00000000
4.80049515 10.44662952 2.23475504 59 11 2468 11.71200000 2892606919 2892606919 11.00000000
3.72955966 8.10864449 2.06055164 59 13 2470 9.16000000 2892606924 2892606924 13.00000000
3.24521303 7.04911661 2.07935214 42 15 2472 8.03400000 2892606929 2892606929 15.00000000
0.95383483 2.06618166 -0.60977769 4 0 2478 2.35600000 2892606949 2892606949 -15.00000000
1.13292074 2.45186496 -0.62356430 3 2 2480 2.77200000 2892606954 2892606954 -13.00000000
1.36256874 2.94751787 -0.63119614 4 4 2481 3.30800000 2892606959 2892606959 -11.00000000
1.73036754 3.73971486 -0.65264457 2 6 2483 4.17200000 2892606963 2892606963 -9.00000000
2.31413555 4.99679184 -0.67613113 2 8 2485 5.54800000 2892606968 2892606968 -7.00000000
3.46768641 7.48416805 -0.72164953 4 10 2486 8.28000000 2892606972 2892606972 -5.00000000
3.75970912 8.10330296 2.06235123 60 13 2489 9.16800000 2892606979 2892606979 13.00000000
3.26896906 7.04239130 2.08038759 45 15 2490 8.03800000 2892606984 2892606984 15.00000000
0.96512049 2.07159519 -0.61236584 4 0 2498 2.36600000 2892607005 2892607005 -15.00000000
1.13982522 2.44436312 -0.62266451 3 2 2500 2.76800000 2892607009 2892607009 -13.00000000
1.38944960 2.97832704 -0.63882852 4 4 2501 3.34800000 2892607014 2892607014 -11.00000000
1.73839653 3.72291279 -0.65076739 2 6 2503 4.16000000 2892607018 2892607018 -9.00000000
2.32820153 4.98149014 -0.67515618 2 8 2505 5.54000000 2892607023 2892607023 -7.00000000
3.50813651 7.50270033 -0.72461283 4 10 2506 8.31400000 2892607028 2892607028 -5.00000000
4.87897825 10.42971611 2.23818946 46 11 2507 11.73000000 2892607030 2892607030 11.00000000
3.78797197 8.09012985 2.06235123 60 13 2509 9.16800000 2892607035 2892607035 13.00000000
3.29475880 7.03036261 2.08038759 42 15 2511 8.03800000 2892607039 2892607039 15.00000000
0.97070193 2.06471705 -0.61133057 4 0 2518 2.36200000 2892607060 2892607060 -15.00000000
1.14503181 2.43331647 -0.62086493 3 2 2520 2.76000000 2892607065 2892607065 -13.00000000
1.38144052 2.93438101 -0.63043290 2 4 2521 3.30400000 2892607069 2892607069 -11.00000000
1.74632919 3.70610046 -0.64889014 2 6 2523 4.14800000 2892607074 2892607074 -9.00000000
2.34896302 4.98051453 -0.67613113 2 8 2525 5.54800000 2892607078 2892607078 -7.00000000
3.53005338 7.48139954 -0.72374129 8 10 2526 8.30400000 2892607083 2892607083 -5.00000000
4.92624998 10.43570137 2.24315047 53 11 2527 11.75600000 2892607085 2892607085 11.00000000
3.80952883 8.06276226 2.05875206 60 13 2529 9.15200000 2892607090 2892607090 13.00000000
3.32053089 7.02463770 2.08194041 40 15 2530 8.04400000 2892607095 2892607095 15.00000000
