# .PCD v0.7 - Point Cloud Data file format
VERSION 0.7
FIELDS x y z intensity laser_id azimuth distance_m adjustedtime timestamp vertical_angle
SIZE 4 4 4 1 1 2 8 8 4 8
TYPE F F F U U U F U U F
COUNT 1 1 1 1 1 1 1 1 1 1
WIDTH 539
HEIGHT 1
VIEWPOINT 0 0 0 1 0 0 0
POINTS 539
DATA ascii
8.19953442 1.28254676 2.22377324 49 15 8111 8.59200000 2892122479 2892122479 15.00000000
2.20681238 0.34242144 -0.59838963 4 0 8118 2.31200000 2892122500 2892122500 -15.00000000
8.14549351 1.26244485 0.14387764 12 1 8119 8.24400000 2892122502 2892122502 1.00000000
2.60753369 0.40366754 -0.60916746 7 2 8120 2.70800000 2892122505 2892122505 -13.00000000
8.15157986 1.26193118 0.43229499 94 3 8120 8.26000000 2892122507 2892122507 3.00000000
3.14699793 0.48661864 -0.61898440 5 4 8121 3.24400000 2892122509 2892122509 -11.00000000
8.13805103 1.25692821 0.72042936 76 5 8122 8.26600000 2892122512 2892122512 5.00000000
3.94556046 0.60868979 -0.63230813 6 6 8123 4.04200000 2892122514 2892122514 -9.00000000
8.17538738 1.25977325 1.01565909 92 7 8124 8.33400000 2892122516 2892122516 7.00000000
5.27775002 0.81232339 -0.65565705 6 8 8125 5.38000000 2892122519 2892122519 -7.00000000
7.88292313 1.21188951 -0.69776887 30 10 8126 8.00600000 2892122523 2892122523 -5.00000000
8.14938545 1.24994266 -0.43208566 17 12 8128 8.25600000 2892122528 2892122528 -3.00000000
8.13604259 1.24498940 -0.14366820 12 14 8130 8.23200000 2892122532 2892122532 -1.00000000
8.18868446 1.25158215 2.21963215 49 15 8131 8.57600000 2892122535 2892122535 15.00000000
2.21748567 0.33655092 -0.60097784 4 0 8137 2.32200000 2892122555 2892122555 -15.00000000
8.13381863 1.23302877 0.14359841 15 1 8138 8.22800000 2892122558 2892122558 1.00000000
2.60885787 0.39501843 -0.60916746 7 2 8139 2.70800000 2892122560 2892122560 -13.00000000
8.15966892 1.23549068 0.43250436 97 3 8139 8.26400000 2892122562 2892122562 3.00000000
3.16024160 0.47794160 -0.62127411 5 4 8140 3.25600000 2892122565 2892122565 -11.00000000
8.14020443 1.22963691 0.72025508 76 5 8141 8.26400000 2892122567 2892122567 5.00000000
3.94365072 0.59501308 -0.63168240 6 6 8142 4.03800000 2892122569 2892122569 -9.00000000
8.15989113 1.22969759 1.01322174 95 7 8143 8.31400000 2892122571 2892122571 7.00000000
5.28826666 0.79599917 -0.65663201 9 8 8144 5.38800000 2892122574 2892122574 -7.00000000
7.89280939 1.18663085 -0.69829184 26 10 8145 8.01200000 2892122578 2892122578 -5.00000000
8.13175869 1.21965265 -0.43093425 17 12 8147 8.23400000 2892122583 2892122583 -3.00000000
8.14605904 1.21889019 -0.14377293 14 14 8149 8.23800000 2892122588 2892122588 -1.00000000
8.19257545 1.22585046 2.21963215 47 15 8149 8.57600000 2892122590 2892122590 15.00000000
2.21482515 0.32824197 -0.59994256 4 0 8157 2.31800000 2892122611 2892122611 -15.00000000
8.13609505 1.20433605 0.14356349 18 1 8158 8.22600000 2892122613 2892122613 1.00000000
2.60250974 0.38476935 -0.60736787 7 2 8159 2.70000000 2892122615 2892122615 -13.00000000
8.15010166 1.20495582 0.43177164 91 3 8159 8.25000000 2892122618 2892122618 3.00000000
3.15800619 0.46633378 -0.62051088 5 4 8160 3.25200000 2892122620 2892122620 -11.00000000
8.14838886 1.20179629 0.72060370 76 5 8161 8.26800000 2892122622 2892122622 5.00000000
3.93788648 0.58009201 -0.63043088 4 6 8162 4.03000000 2892122624 2892122624 -9.00000000
8.14842224 1.19889510 1.01127183 97 7 8163 8.29800000 2892122627 2892122627 7.00000000
5.27530098 0.77522588 -0.65468210 9 8 8164 5.37200000 2892122629 2892122629 -7.00000000
7.89690351 1.15907252 -0.69829184 17 10 8165 8.01200000 2892122634 2892122634 -5.00000000
8.12806129 1.19010270 -0.43051559 17 12 8167 8.22600000 2892122638 2892122638 -3.00000000
8.14630699 1.18986976 -0.14370312 14 14 8169 8.23400000 2892122643 2892122643 -1.00000000
8.19319057 1.19525719 2.21859694 49 15 8170 8.57200000 2892122645 2892122645 15.00000000
2.22557330 0.32150304 -0.60253072 4 0 8178 2.32800000 2892122666 2892122666 -15.00000000
8.14441299 1.17507887 0.14363331 18 1 8179 8.23000000 2892122668 2892122668 1.00000000
2.60583138 0.37550601 -0.60781777 9 2 8180 2.70200000 2892122671 2892122671 -13.00000000
8.14873791 1.17279923 0.43145761 94 3 8181 8.24400000 2892122673 2892122673 3.00000000
3.15192127 0.45363727 -0.61898440 5 4 8181 3.24400000 2892122675 2892122675 -11.00000000
8.14090633 1.17022192 0.71955782 76 5 8182 8.25600000 2892122677 2892122677 5.00000000
3.94780755 0.56677794 -0.63168240 6 6 8183 4.03800000 2892122680 2892122680 -9.00000000
8.15276146 1.16902161 1.01127183 95 7 8184 8.29800000 2892122682 2892122682 7.00000000
5.27810669 0.75588572 -0.65468210 9 8 8185 5.37200000 2892122684 2892122684 -7.00000000
7.90307093 1.13040328 -0.69846612 17 10 8186 8.01400000 2892122689 2892122689 -5.00000000
8.14225483 1.16171443 -0.43103895 17 12 8188 8.23600000 2892122694 2892122694 -3.00000000
8.13477516 1.15775001 -0.14342387 14 14 8190 8.21800000 2892122698 2892122698 -1.00000000
8.20113850 1.16719484 2.21963215 49 15 8190 8.57600000 2892122701 2892122701 15.00000000
2.21903014 0.31265429 -0.60046017 4 0 8198 2.32000000 2892122721 2892122721 -15.00000000
8.14252472 1.14580643 0.14352860 15 1 8199 8.22400000 2892122724 2892122724 1.00000000
2.61098576 0.36695012 -0.60871756 9 2 8200 2.70600000 2892122726 2892122726 -13.00000000
8.15475941 1.14462531 0.43156230 89 3 8201 8.24600000 2892122728 2892122728 3.00000000
3.15154123 0.44235936 -0.61860275 5 4 8201 3.24200000 2892122730 2892122730 -11.00000000
8.13704872 1.14069128 0.71886057 76 5 8202 8.24800000 2892122733 2892122733 5.00000000
3.94389296 0.55217236 -0.63074374 9 6 8203 4.03200000 2892122735 2892122735 -9.00000000
8.16072464 1.14110577 1.01175928 95 7 8204 8.30200000 2892122737 2892122737 7.00000000
5.29250956 0.73910445 -0.65614456 9 8 8205 5.38400000 2892122740 2892122740 -7.00000000
8.23269653 1.14823973 1.31655240 7 9 8206 8.41600000 2892122742 2892122742 9.00000000
7.88920879 1.10033250 -0.69689733 17 10 8206 7.99600000 2892122744 2892122744 -5.00000000
8.24654198 1.14870358 1.61844194 3 11 8207 8.48200000 2892122747 2892122747 11.00000000
8.14230442 1.13273513 -0.43082958 17 12 8208 8.23200000 2892122749 2892122749 -3.00000000
8.13084412 1.12824786 -0.14328426 14 14 8210 8.21000000 2892122754 2892122754 -1.00000000
8.19196606 1.13527191 2.21600866 56 15 8211 8.56200000 2892122756 2892122756 15.00000000
2.21617389 0.30515441 -0.59942490 4 0 8216 2.31600000 2892122777 2892122777 -15.00000000
8.14608383 1.12022030 0.14352860 15 1 8217 8.22400000 2892122779 2892122779 1.00000000
2.61791754 0.35954112 -0.61006725 7 2 8218 2.71200000 2892122781 2892122781 -13.00000000
8.15040016 1.11791515 0.43114361 81 3 8219 8.23800000 2892122783 2892122783 3.00000000
3.15097046 0.43218955 -0.61822116 5 4 8219 3.24000000 2892122786 2892122786 -11.00000000
8.13467026 1.11431122 0.71833766 76 5 8220 8.24200000 2892122788 2892122788 5.00000000
3.94560814 0.53977954 -0.63074374 9 6 8221 4.03200000 2892122790 2892122790 -9.00000000
8.16820240 1.11599994 1.01224673 95 7 8222 8.30600000 2892122793 2892122793 7.00000000
5.29087162 0.72193718 -0.65565705 9 8 8223 5.38000000 2892122795 2892122795 -7.00000000
7.89065266 1.07527339 -0.69672298 17 10 8224 7.99400000 2892122800 2892122800 -5.00000000
8.13988590 1.10634291 -0.43051559 17 12 8226 8.22600000 2892122804 2892122804 -3.00000000
8.13038540 1.10216129 -0.14321445 16 14 8228 8.20600000 2892122809 2892122809 -1.00000000
8.18381214 1.10940385 2.21290278 56 15 8228 8.55000000 2892122811 2892122811 15.00000000
2.22488427 0.29844400 -0.60149544 4 0 8236 2.32400000 2892122832 2892122832 -15.00000000
8.13408852 1.08965421 0.14324935 15 1 8237 8.20800000 2892122834 2892122834 1.00000000
2.61529350 0.34988385 -0.60916746 7 2 8238 2.70800000 2892122836 2892122836 -13.00000000
8.15227318 1.08919370 0.43103895 65 3 8239 8.23600000 2892122839 2892122839 3.00000000
3.15829778 0.42196795 -0.61936599 5 4 8239 3.24600000 2892122841 2892122841 -11.00000000
8.13653564 1.08564568 0.71816331 76 5 8240 8.24000000 2892122843 2892122843 5.00000000
3.96117496 0.52782995 -0.63293386 9 6 8241 4.04600000 2892122846 2892122846 -9.00000000
8.15630627 1.08538604 1.01029682 95 7 8242 8.29000000 2892122848 2892122848 7.00000000
5.29729462 0.70398718 -0.65614456 9 8 8243 5.38400000 2892122850 2892122850 -7.00000000
7.88053274 1.04588842 -0.69550282 29 10 8244 7.98000000 2892122855 2892122855 -5.00000000
8.14369774 1.07792258 -0.43051559 17 12 8246 8.22600000 2892122859 2892122859 -3.00000000
8.13814831 1.07429767 -0.14328426 14 14 8248 8.21000000 2892122864 2892122864 -1.00000000
8.19548512 1.08041120 2.21497345 54 15 8249 8.55800000 2892122866 2892122866 15.00000000
2.22591257 0.29067591 -0.60149544 4 0 8256 2.32400000 2892122887 2892122887 -15.00000000
8.12991142 1.06022000 0.14310974 21 1 8257 8.20000000 2892122889 2892122889 1.00000000
2.60297203 0.33899102 -0.60601813 9 2 8258 2.69400000 2892122892 2892122892 -13.00000000
8.14216137 1.05892718 0.43030623 60 3 8259 8.22200000 2892122894 2892122894 3.00000000
3.15780473 0.41068766 -0.61898440 5 4 8259 3.24400000 2892122896 2892122896 -11.00000000
8.14027596 1.05723727 0.71816331 76 5 8260 8.24000000 2892122899 2892122899 5.00000000
3.97278810 0.51526999 -0.63449818 9 6 8261 4.05600000 2892122901 2892122901 -9.00000000
8.14429665 1.05486870 1.00834692 95 7 8262 8.27400000 2892122903 2892122903 7.00000000
5.28790760 0.68396407 -0.65468210 6 8 8263 5.37200000 2892122906 2892122906 -7.00000000
7.92760658 1.02398896 -0.69933766 26 10 8264 8.02400000 2892122910 2892122910 -5.00000000
8.13948727 1.04846859 -0.43009689 17 12 8266 8.21800000 2892122915 2892122915 -3.00000000
8.14581490 1.04639328 -0.14335407 16 14 8268 8.21400000 2892122919 2892122919 -1.00000000
8.18752575 1.05175126 2.21186757 60 15 8268 8.54600000 2892122922 2892122922 15.00000000
2.23841238 0.28436503 -0.60460126 4 0 8276 2.33600000 2892122942 2892122942 -15.00000000
8.13951397 1.03258979 0.14321445 12 1 8277 8.20600000 2892122945 2892122945 1.00000000
2.60607266 0.33014780 -0.60646802 7 2 8278 2.69600000 2892122947 2892122947 -13.00000000
8.13590050 1.02924597 0.42978287 52 3 8279 8.21200000 2892122949 2892122949 3.00000000
3.14558482 0.39793757 -0.61631304 6 4 8279 3.23000000 2892122952 2892122952 -11.00000000
8.14984703 1.02956510 0.71868628 76 5 8280 8.24600000 2892122954 2892122954 5.00000000
3.97260261 0.50115204 -0.63418531 6 6 8281 4.05400000 2892122956 2892122956 -9.00000000
8.14398956 1.02593720 1.00785947 97 7 8282 8.27000000 2892122959 2892122959 7.00000000
5.28238487 0.66451055 -0.65370715 9 8 8283 5.36400000 2892122961 2892122961 -7.00000000
8.11695671 1.01965356 -0.71572298 17 10 8284 8.21200000 2892122965 2892122965 -5.00000000
8.13120651 1.01856065 -0.42946887 17 12 8286 8.20600000 2892122970 2892122970 -3.00000000
8.12759113 1.01522624 -0.14297011 14 14 8288 8.19200000 2892122975 2892122975 -1.00000000
8.20282745 1.02317011 2.21497345 54 15 8289 8.55800000 2892122977 2892122977 15.00000000
2.23167396 0.27599218 -0.60253072 4 0 8295 2.32800000 2892122998 2892122998 -15.00000000
8.14686203 1.00608277 0.14328426 12 1 8296 8.21000000 2892123000 2892123000 1.00000000
2.60908723 0.32174245 -0.60691792 9 2 8297 2.69800000 2892123002 2892123002 -13.00000000
8.14323425 1.00274885 0.42999223 49 3 8298 8.21600000 2892123005 2892123005 3.00000000
3.12935042 0.38534477 -0.61287850 6 4 8298 3.21200000 2892123007 2892123007 -11.00000000
8.13937378 1.00083148 0.71746606 76 5 8299 8.23200000 2892123009 2892123009 5.00000000
3.98992777 0.48990154 -0.63668829 6 6 8300 4.07000000 2892123012 2892123012 -9.00000000
8.15719891 1.00013292 1.00907815 99 7 8301 8.28000000 2892123014 2892123014 7.00000000
5.28652954 0.64723116 -0.65395087 6 8 8302 5.36600000 2892123016 2892123016 -7.00000000
8.11633873 0.99224752 -0.71537435 17 10 8303 8.20800000 2892123021 2892123021 -5.00000000
8.13057518 0.99110758 -0.42925951 17 12 8305 8.20200000 2892123025 2892123025 -3.00000000
8.12297249 0.98730344 -0.14283049 14 14 8307 8.18400000 2892123030 2892123030 -1.00000000
8.19641304 0.99622971 2.21238518 63 15 8307 8.54800000 2892123032 2892123032 15.00000000
2.21344328 0.26589638 -0.59735435 4 0 8315 2.30800000 2892123053 2892123053 -15.00000000
8.13642597 0.97597164 0.14303993 15 1 8316 8.19600000 2892123055 2892123055 1.00000000
2.62373877 0.31425533 -0.61006725 7 2 8317 2.71200000 2892123058 2892123058 -13.00000000
8.14073467 0.97360605 0.42967820 39 3 8318 8.21000000 2892123060 2892123060 3.00000000
3.14237261 0.37581778 -0.61516821 8 4 8318 3.22400000 2892123062 2892123062 -11.00000000
8.13292599 0.97123235 0.71659452 83 5 8319 8.22200000 2892123065 2892123065 5.00000000
3.98572922 0.47526944 -0.63574964 6 6 8320 4.06400000 2892123067 2892123067 -9.00000000
8.16064072 0.97165293 1.00907815 99 7 8321 8.28000000 2892123069 2892123069 7.00000000
5.28678560 0.62853938 -0.65370715 6 8 8322 5.36400000 2892123071 2892123071 -7.00000000
8.10788155 0.96250099 -0.71432847 17 10 8323 8.19600000 2892123076 2892123076 -5.00000000
8.14588547 0.96412909 -0.42988753 17 12 8325 8.21400000 2892123081 2892123081 -3.00000000
8.13232708 0.95964599 -0.14293520 14 14 8327 8.19000000 2892123085 2892123085 -1.00000000
8.18082333 0.96392101 2.20720887 58 15 8328 8.52800000 2892123088 2892123088 15.00000000
2.22212362 0.25828761 -0.59942490 4 0 8337 2.31600000 2892123108 2892123108 -15.00000000
8.12223625 0.94264811 0.14272578 15 1 8338 8.17800000 2892123111 2892123111 1.00000000
2.61331153 0.30283266 -0.60736787 7 2 8339 2.70000000 2892123113 2892123113 -13.00000000
8.15631771 0.94371814 0.43030623 31 3 8340 8.22200000 2892123115 2892123115 3.00000000
3.15159345 0.36465180 -0.61669469 8 4 8340 3.23200000 2892123118 2892123118 -11.00000000
8.13857460 0.94022578 0.71676880 76 5 8341 8.22400000 2892123120 2892123120 5.00000000
3.97378826 0.45837736 -0.63355958 6 6 8342 4.05000000 2892123122 2892123122 -9.00000000
8.14261818 0.93781281 1.00639701 95 7 8343 8.25800000 2892123124 2892123124 7.00000000
5.29704857 0.60914218 -0.65468210 9 8 8344 5.37200000 2892123127 2892123127 -7.00000000
8.10755825 0.93090737 -0.71397984 17 10 8345 8.19200000 2892123131 2892123131 -5.00000000
8.13960552 0.93170840 -0.42936417 17 12 8347 8.20400000 2892123136 2892123136 -3.00000000
8.12800503 0.92750627 -0.14279559 14 14 8349 8.18200000 2892123141 2892123141 -1.00000000
8.18046284 0.93349230 2.20617366 58 15 8349 8.52400000 2892123143 2892123143 15.00000000
2.22301173 0.25052938 -0.59942490 4 0 8357 2.31600000 2892123164 2892123164 -15.00000000
8.11951637 0.91361970 0.14262107 15 1 8358 8.17200000 2892123166 2892123166 1.00000000
2.61047959 0.29327354 -0.60646802 6 2 8359 2.69600000 2892123168 2892123168 -13.00000000
8.13971424 0.91301519 0.42925951 26 3 8360 8.20200000 2892123171 2892123171 3.00000000
3.15674901 0.35408613 -0.61745793 6 4 8360 3.23600000 2892123173 2892123173 -11.00000000
8.13190651 0.91070241 0.71589726 76 5 8361 8.21400000 2892123175 2892123175 5.00000000
3.97732711 0.44472295 -0.63387245 9 6 8362 4.05200000 2892123177 2892123177 -9.00000000
8.14781570 0.90960431 1.00664079 99 7 8363 8.26000000 2892123180 2892123180 7.00000000
5.29519653 0.59020853 -0.65419465 6 8 8364 5.36800000 2892123182 2892123182 -7.00000000
8.08897686 0.90017706 -0.71206242 17 10 8365 8.17000000 2892123187 2892123187 -5.00000000
8.13486767 0.90240937 -0.42894551 17 12 8367 8.19600000 2892123191 2892123191 -3.00000000
8.13516808 0.89956814 -0.14286540 14 14 8369 8.18600000 2892123196 2892123196 -1.00000000
8.18751144 0.90535611 2.20720887 54 15 8369 8.52800000 2892123198 2892123198 15.00000000
2.23539519 0.24402598 -0.60253072 4 0 8377 2.32800000 2892123219 2892123219 -15.00000000
8.13259506 0.88635498 0.14279559 21 1 8378 8.18200000 2892123221 2892123221 1.00000000
2.61342454 0.28437027 -0.60691792 6 2 8379 2.69800000 2892123224 2892123224 -13.00000000
8.13093758 0.88330251 0.42863148 23 3 8380 8.19000000 2892123226 2892123226 3.00000000
3.14625525 0.34179270 -0.61516821 6 4 8380 3.22400000 2892123228 2892123228 -11.00000000
8.14890194 0.88381499 0.71711743 79 5 8381 8.22800000 2892123230 2892123230 5.00000000
3.99063873 0.43211272 -0.63574964 9 6 8382 4.06400000 2892123233 2892123233 -9.00000000
8.15094090 0.88115758 1.00664079 99 7 8383 8.26000000 2892123235 2892123235 7.00000000
5.29327726 0.57129520 -0.65370715 6 8 8384 5.36400000 2892123237 2892123237 -7.00000000
8.08216572 0.87086856 -0.71119088 17 10 8385 8.16000000 2892123242 2892123242 -5.00000000
8.13399696 0.87358135 -0.42873615 12 12 8387 8.19200000 2892123247 2892123247 -3.00000000
8.13627052 0.87095279 -0.14283049 12 14 8389 8.18400000 2892123251 2892123251 -1.00000000
8.19062138 0.87677085 2.20720887 58 15 8389 8.52800000 2892123253 2892123253 15.00000000
2.22854877 0.23540974 -0.60046017 4 0 8397 2.32000000 2892123274 2892123274 -15.00000000
8.13961697 0.85838097 0.14286540 18 1 8398 8.18600000 2892123277 2892123277 1.00000000
2.61827731 0.27565408 -0.60781777 6 2 8399 2.70200000 2892123279 2892123279 -13.00000000
8.13993073 0.85554117 0.42894551 21 3 8400 8.19600000 2892123281 2892123281 3.00000000
3.14352417 0.33039770 -0.61440498 5 4 8400 3.22000000 2892123283 2892123283 -11.00000000
8.13212204 0.85328549 0.71537435 79 5 8401 8.20800000 2892123286 2892123286 5.00000000
3.98622894 0.41756275 -0.63481104 6 6 8402 4.05800000 2892123288 2892123288 -9.00000000
8.14804363 0.85208070 1.00590956 95 7 8403 8.25400000 2892123290 2892123290 7.00000000
5.29918814 0.55322695 -0.65419465 6 8 8404 5.36800000 2892123293 2892123293 -7.00000000
8.08119297 0.84223813 -0.71084225 17 10 8405 8.15600000 2892123297 2892123297 -5.00000000
8.14295673 0.84580207 -0.42905018 17 12 8407 8.19800000 2892123302 2892123302 -3.00000000
8.12732697 0.84131116 -0.14262107 12 14 8409 8.17200000 2892123306 2892123306 -1.00000000
8.18225098 0.84555334 2.20410299 60 15 8410 8.51600000 2892123309 2892123309 15.00000000
2.22547364 0.22762518 -0.59942490 4 0 8416 2.31600000 2892123330 2892123330 -15.00000000
8.13446140 0.83057183 0.14272578 12 1 8417 8.17800000 2892123332 2892123332 1.00000000
2.61723828 0.26677242 -0.60736787 5 2 8418 2.70000000 2892123334 2892123334 -13.00000000
8.14669704 0.82894784 0.42915484 23 3 8419 8.20000000 2892123336 2892123336 3.00000000
3.16022778 0.32156152 -0.61745793 5 4 8419 3.23600000 2892123339 2892123339 -11.00000000
8.12697792 0.82550836 0.71467710 76 5 8420 8.20000000 2892123341 2892123341 5.00000000
3.96597338 0.40214956 -0.63136947 9 6 8421 4.03600000 2892123343 2892123343 -9.00000000
8.16069984 0.82605577 1.00712824 100 7 8422 8.26400000 2892123346 2892123346 7.00000000
5.30099344 0.53565121 -0.65419465 6 8 8423 5.36800000 2892123348 2892123348 -7.00000000
8.08790588 0.81583524 -0.71119088 17 10 8424 8.16000000 2892123353 2892123353 -5.00000000
8.13379288 0.81759590 -0.42842212 17 12 8426 8.18600000 2892123357 2892123357 -3.00000000
8.13007164 0.81435537 -0.14262107 12 14 8428 8.17200000 2892123362 2892123362 -1.00000000
8.17717743 0.81907374 2.20203233 63 15 8428 8.50800000 2892123364 2892123364 15.00000000
2.22240949 0.21947572 -0.59838963 4 0 8436 2.31200000 2892123385 2892123385 -15.00000000
8.12537098 0.80099511 0.14251634 12 1 8437 8.16600000 2892123387 2892123387 1.00000000
2.61427498 0.25725326 -0.60646802 5 2 8438 2.69600000 2892123389 2892123389 -13.00000000
8.13761520 0.79933405 0.42852682 21 3 8439 8.18800000 2892123392 2892123392 3.00000000
3.15742326 0.31014445 -0.61669469 5 4 8439 3.23200000 2892123394 2892123394 -11.00000000
8.12386131 0.79655159 0.71415418 83 5 8440 8.19400000 2892123396 2892123396 5.00000000
3.97128487 0.38868812 -0.63199526 9 6 8441 4.04000000 2892123399 2892123399 -9.00000000
8.15167904 0.79640645 1.00566578 99 7 8442 8.25200000 2892123401 2892123401 7.00000000
5.30283070 0.51714402 -0.65419465 6 8 8443 5.36800000 2892123403 2892123403 -7.00000000
6.62723875 0.64513558 -0.58254898 8 10 8444 6.68400000 2892123408 2892123408 -5.00000000
8.13659763 0.78919870 -0.42842212 17 12 8446 8.18600000 2892123412 2892123412 -3.00000000
8.13485527 0.78616351 -0.14265597 12 14 8448 8.17400000 2892123417 2892123417 -1.00000000
8.18383312 0.79089677 2.20306778 56 15 8448 8.51200000 2892123419 2892123419 15.00000000
2.22697139 0.21247171 -0.59942490 4 0 8455 2.31600000 2892123441 2892123441 -15.00000000
8.11603832 0.77290857 0.14230692 12 1 8456 8.15400000 2892123443 2892123443 1.00000000
2.61123371 0.24821377 -0.60556823 5 2 8457 2.69200000 2892123446 2892123446 -13.00000000
8.14008617 0.77376509 0.42852682 18 3 8457 8.18800000 2892123448 2892123448 3.00000000
3.15257096 0.29911602 -0.61554980 5 4 8458 3.22600000 2892123450 2892123450 -11.00000000
8.13240910 0.77017105 0.71467710 90 5 8459 8.20000000 2892123453 2892123453 5.00000000
3.97451854 0.37570262 -0.63230813 6 6 8460 4.04200000 2892123455 2892123455 -9.00000000
8.13648891 0.76769191 1.00347221 95 7 8461 8.23400000 2892123457 2892123457 7.00000000
5.27684784 0.49695060 -0.65078229 6 8 8462 5.34000000 2892123459 2892123459 -7.00000000
6.60950518 0.62129068 -0.58080590 16 10 8463 6.66400000 2892123464 2892123464 -5.00000000
8.13121510 0.76146752 -0.42800346 17 12 8465 8.17800000 2892123469 2892123469 -3.00000000
8.13542652 0.75899726 -0.14262107 12 14 8467 8.17200000 2892123473 2892123473 -1.00000000
8.18256378 0.76339495 2.20203233 54 15 8467 8.50800000 2892123476 2892123476 15.00000000
2.22769952 0.20469683 -0.59942490 4 0 8475 2.31600000 2892123496 2892123496 -15.00000000
8.12466049 0.74512148 0.14241163 15 1 8476 8.16000000 2892123499 2892123499 1.00000000
2.61596537 0.23945263 -0.60646802 5 2 8477 2.69600000 2892123501 2892123501 -13.00000000
8.13491154 0.74319816 0.42810813 13 3 8478 8.18000000 2892123503 2892123503 3.00000000
3.14186525 0.28703797 -0.61326009 4 4 8478 3.21400000 2892123506 2892123506 -11.00000000
8.13504791 0.74177897 0.71467710 79 5 8479 8.20000000 2892123508 2892123508 5.00000000
3.97777295 0.36200571 -0.63262099 9 6 8480 4.04400000 2892123510 2892123510 -9.00000000
8.14307308 0.73964471 1.00395966 97 7 8481 8.23800000 2892123512 2892123512 7.00000000
5.28645802 0.47924486 -0.65175724 6 8 8482 5.34800000 2892123515 2892123515 -7.00000000
6.62353945 0.59929264 -0.58185172 16 10 8483 6.67600000 2892123519 2892123519 -5.00000000
8.12984562 0.73272109 -0.42779410 17 12 8485 8.17400000 2892123524 2892123524 -3.00000000
8.13205147 0.73005831 -0.14251634 14 14 8487 8.16600000 2892123529 2892123529 -1.00000000
8.18530655 0.73339921 2.20203233 56 15 8488 8.50800000 2892123531 2892123531 15.00000000
2.22458601 0.19619109 -0.59838963 4 0 8496 2.31200000 2892123552 2892123552 -15.00000000
8.13729763 0.71621472 0.14258616 21 1 8497 8.17000000 2892123554 2892123554 1.00000000
2.61876678 0.23003355 -0.60691792 6 2 8498 2.69800000 2892123556 2892123556 -13.00000000
8.13546658 0.71462274 0.42800346 15 3 8498 8.17800000 2892123559 2892123559 3.00000000
3.14680767 0.27586344 -0.61402333 4 4 8499 3.21800000 2892123561 2892123561 -11.00000000
8.13771152 0.71195751 0.71467710 90 5 8500 8.20000000 2892123563 2892123563 5.00000000
3.98300886 0.34776765 -0.63324672 9 6 8501 4.04800000 2892123565 2892123565 -9.00000000
8.14572906 0.70979387 1.00395966 97 7 8502 8.23800000 2892123568 2892123568 7.00000000
5.29213428 0.46020973 -0.65224475 6 8 8503 5.35200000 2892123570 2892123570 -7.00000000
6.61775160 0.57432312 -0.58115447 12 10 8504 6.66800000 2892123575 2892123575 -5.00000000
8.13446617 0.70309079 -0.42789876 17 12 8506 8.17600000 2892123579 2892123579 -3.00000000
8.12670326 0.69956195 -0.14237674 14 14 8508 8.15800000 2892123584 2892123584 -1.00000000
8.18011761 0.70415992 2.19996190 54 15 8508 8.50000000 2892123586 2892123586 15.00000000
2.22140741 0.18809865 -0.59735435 4 0 8516 2.30800000 2892123607 2892123607 -15.00000000
8.12181473 0.68629056 0.14227201 21 1 8517 8.15200000 2892123609 2892123609 1.00000000
2.62537932 0.22138217 -0.60826766 7 2 8518 2.70400000 2892123611 2892123611 -13.00000000
8.14388180 0.68672377 0.42831746 21 3 8518 8.18400000 2892123614 2892123614 3.00000000
3.14775157 0.26487735 -0.61402333 5 4 8519 3.21800000 2892123616 2892123616 -11.00000000
8.11830807 0.68171334 0.71275967 83 5 8520 8.17800000 2892123618 2892123618 5.00000000
3.97829318 0.33336738 -0.63230813 9 6 8521 4.04200000 2892123621 2892123621 -9.00000000
8.14815712 0.68135566 1.00395966 97 7 8522 8.23800000 2892123623 2892123623 7.00000000
5.27788305 0.44041336 -0.65029484 9 8 8523 5.33600000 2892123625 2892123625 -7.00000000
6.61375952 0.55072331 -0.58063155 16 10 8524 6.66200000 2892123630 2892123630 -5.00000000
8.14284229 0.67518705 -0.42821279 17 12 8526 8.18200000 2892123635 2892123635 -3.00000000
8.13108826 0.67135471 -0.14241163 12 14 8528 8.16000000 2892123639 2892123639 -1.00000000
8.17482471 0.67496586 2.19789124 60 15 8528 8.49200000 2892123641 2892123641 15.00000000
2.22782707 0.18081218 -0.59890729 4 0 8536 2.31400000 2892123662 2892123662 -15.00000000
8.12017441 0.65761310 0.14220221 15 1 8537 8.14800000 2892123664 2892123664 1.00000000
2.61836648 0.21158868 -0.60646802 7 2 8538 2.69600000 2892123667 2892123667 -13.00000000
8.14435291 0.65670979 0.42821279 21 3 8539 8.18200000 2892123669 2892123669 3.00000000
3.14865685 0.25388804 -0.61402333 4 4 8539 3.21800000 2892123671 2892123671 -11.00000000
8.12659645 0.65385038 0.71328259 76 5 8540 8.18400000 2892123674 2892123674 5.00000000
3.97352552 0.31900427 -0.63136947 9 6 8541 4.03600000 2892123676 2892123676 -9.00000000
8.14652824 0.65259212 1.00347221 97 7 8542 8.23400000 2892123678 2892123678 7.00000000
5.28928185 0.42277825 -0.65151352 9 8 8543 5.34600000 2892123681 2892123681 -7.00000000
6.61762762 0.52779204 -0.58080590 40 10 8544 6.66400000 2892123685 2892123685 -5.00000000
8.13121223 0.64565241 -0.42748010 17 12 8546 8.16800000 2892123690 2892123690 -3.00000000
8.14135647 0.64359820 -0.14255126 12 14 8548 8.16800000 2892123694 2892123694 -1.00000000
8.18109512 0.64530289 2.19892669 49 15 8549 8.49600000 2892123697 2892123697 15.00000000
2.23422265 0.17348316 -0.60046017 4 0 8556 2.32000000 2892123717 2892123717 -15.00000000
8.12640762 0.62957335 0.14227201 15 1 8557 8.15200000 2892123720 2892123720 1.00000000
2.61326027 0.20199704 -0.60511833 6 2 8558 2.69000000 2892123722 2892123722 -13.00000000
8.14648628 0.62969851 0.42821279 21 3 8558 8.18200000 2892123724 2892123724 3.00000000
3.15343881 0.24319755 -0.61478657 4 4 8559 3.22200000 2892123727 2892123727 -11.00000000
8.12485600 0.62517357 0.71293396 76 5 8560 8.18000000 2892123729 2892123729 5.00000000
3.97855401 0.30543455 -0.63199526 9 6 8561 4.04000000 2892123731 2892123731 -9.00000000
8.13292217 0.62293863 1.00152230 97 7 8562 8.21800000 2892123734 2892123734 7.00000000
5.28676701 0.40401012 -0.65102601 9 8 8563 5.34200000 2892123736 2892123736 -7.00000000
6.62340307 0.50499195 -0.58115447 60 10 8564 6.66800000 2892123741 2892123741 -5.00000000
8.12146759 0.61635840 -0.42685205 17 12 8566 8.15600000 2892123745 2892123745 -3.00000000
8.13557720 0.61457312 -0.14241163 14 14 8568 8.16000000 2892123750 2892123750 -1.00000000
8.17944527 0.61645126 2.19789124 51 15 8569 8.49200000 2892123752 2892123752 15.00000000
2.24056530 0.16650277 -0.60201311 4 0 8575 2.32600000 2892123773 2892123773 -15.00000000
8.12645626 0.60247386 0.14223711 15 1 8576 8.15000000 2892123775 2892123775 1.00000000
2.61974597 0.19376126 -0.60646802 5 2 8577 2.69600000 2892123777 2892123777 -13.00000000
8.12861156 0.60120714 0.42716607 21 3 8577 8.16200000 2892123780 2892123780 3.00000000
3.15031219 0.23245008 -0.61402333 4 4 8578 3.21800000 2892123782 2892123782 -11.00000000
8.12489700 0.59808087 0.71275967 76 5 8579 8.17800000 2892123784 2892123784 5.00000000
3.97363472 0.29180551 -0.63105661 6 6 8580 4.03400000 2892123787 2892123787 -9.00000000
8.13494301 0.59596545 1.00152230 95 7 8581 8.21800000 2892123789 2892123789 7.00000000
5.27817869 0.38575289 -0.64980733 8 8 8582 5.33200000 2892123791 2892123791 -7.00000000
6.61709261 0.48244566 -0.58045727 64 10 8583 6.66000000 2892123796 2892123796 -5.00000000
8.12745094 0.58971238 -0.42706141 17 12 8585 8.16000000 2892123800 2892123800 -3.00000000
8.12360954 0.58658308 -0.14216730 16 14 8587 8.14600000 2892123805 2892123805 -1.00000000
8.19107914 0.59001780 2.20047951 58 15 8588 8.50200000 2892123807 2892123807 15.00000000
2.23727894 0.15840784 -0.60097784 4 0 8595 2.32200000 2892123828 2892123828 -15.00000000
8.12651539 0.57396269 0.14220221 18 1 8596 8.14800000 2892123830 2892123830 1.00000000
2.62429428 0.18488938 -0.60736787 5 2 8597 2.70000000 2892123833 2892123833 -13.00000000
8.13663769 0.57325041 0.42748010 21 3 8597 8.16800000 2892123835 2892123835 3.00000000
3.14718747 0.22117676 -0.61326009 4 4 8598 3.21400000 2892123837 2892123837 -11.00000000
8.12296009 0.56943738 0.71241105 83 5 8599 8.17400000 2892123840 2892123840 5.00000000
3.97857022 0.27820873 -0.63168240 6 6 8600 4.03800000 2892123842 2892123842 -9.00000000
8.14489555 0.56811810 1.00249720 95 7 8601 8.22600000 2892123844 2892123844 7.00000000
5.28345346 0.36760181 -0.65029484 9 8 8602 5.33600000 2892123847 2892123847 -7.00000000
6.61277342 0.45893094 -0.57993430 28 10 8603 6.65400000 2892123851 2892123851 -5.00000000
8.13145256 0.56147623 -0.42716607 17 12 8605 8.16200000 2892123856 2892123856 -3.00000000
8.11762714 0.55767459 -0.14202769 16 14 8607 8.13800000 2892123860 2892123860 -1.00000000
8.18345165 0.56076169 2.19789124 56 15 8608 8.49200000 2892123863 2892123863 15.00000000
2.21854329 0.14930017 -0.59580141 4 0 8615 2.30200000 2892123883 2892123883 -15.00000000
8.12248325 0.54519063 0.14209749 18 1 8616 8.14200000 2892123886 2892123886 1.00000000
2.62881231 0.17598809 -0.60826766 5 2 8617 2.70400000 2892123888 2892123888 -13.00000000
8.14456749 0.54524499 0.42779410 21 3 8617 8.17400000 2892123890 2892123890 3.00000000
3.14794040 0.21018969 -0.61326009 4 4 8618 3.21400000 2892123893 2892123893 -11.00000000
8.11893463 0.54068232 0.71188813 79 5 8619 8.16800000 2892123895 2892123895 5.00000000
3.97163296 0.26379558 -0.63043088 9 6 8620 4.03000000 2892123897 2892123897 -9.00000000
8.15277100 0.54007727 1.00322843 99 7 8621 8.23200000 2892123899 2892123899 7.00000000
5.28866625 0.34941861 -0.65078229 9 8 8622 5.34000000 2892123902 2892123902 -7.00000000
8.22531414 0.54344100 1.30560207 7 9 8622 8.34600000 2892123904 2892123904 9.00000000
6.61234713 0.43571424 -0.57976002 24 10 8623 6.65200000 2892123906 2892123906 -5.00000000
8.14133453 0.53361124 -0.42758477 17 12 8625 8.17000000 2892123911 2892123911 -3.00000000
8.12351513 0.52959555 -0.14209749 16 14 8627 8.14200000 2892123916 2892123916 -1.00000000
8.16984463 0.53261590 2.19375014 56 15 8627 8.47600000 2892123918 2892123918 15.00000000
2.22290683 0.14180107 -0.59683675 4 0 8635 2.30600000 2892123939 2892123939 -15.00000000
8.10637665 0.51569194 0.14178336 18 1 8636 8.12400000 2892123941 2892123941 1.00000000
2.62357616 0.16644061 -0.60691792 6 2 8637 2.69800000 2892123943 2892123943 -13.00000000
8.14642048 0.51681185 0.42779410 23 3 8637 8.17400000 2892123946 2892123946 3.00000000
3.15257359 0.19944794 -0.61402333 4 4 8638 3.21800000 2892123948 2892123948 -11.00000000
8.11679554 0.51208776 0.71153951 76 5 8639 8.16400000 2892123950 2892123950 5.00000000
3.96464372 0.24943425 -0.62917942 6 6 8640 4.02200000 2892123952 2892123952 -9.00000000
8.13875675 0.51062107 1.00127852 99 7 8641 8.21600000 2892123955 2892123955 7.00000000
5.30174065 0.33169931 -0.65224475 9 8 8642 5.35200000 2892123957 2892123957 -7.00000000
6.60786247 0.41225800 -0.57923704 16 10 8643 6.64600000 2892123962 2892123962 -5.00000000
8.13916111 0.50494212 -0.42737541 17 12 8645 8.16600000 2892123966 2892123966 -3.00000000
8.12930584 0.50148225 -0.14216730 14 14 8647 8.14600000 2892123971 2892123971 -1.00000000
8.17559814 0.50290555 2.19478559 58 15 8648 8.48000000 2892123973 2892123973 15.00000000
2.23881507 0.13497084 -0.60097784 4 0 8655 2.32200000 2892123994 2892123994 -15.00000000
8.12010384 0.48811218 0.14199278 18 1 8656 8.13600000 2892123996 2892123996 1.00000000
2.61830544 0.15693183 -0.60556823 5 2 8657 2.69200000 2892123999 2892123999 -13.00000000
8.13231087 0.48599708 0.42695674 21 3 8658 8.15800000 2892124001 2892124001 3.00000000
3.14933109 0.18820797 -0.61326009 4 4 8658 3.21400000 2892124003 2892124003 -11.00000000
8.12847805 0.48434430 0.71241105 83 5 8659 8.17400000 2892124005 2892124005 5.00000000
3.96746206 0.23571068 -0.62949228 9 6 8660 4.02400000 2892124008 2892124008 -9.00000000
8.13058186 0.48162150 1.00005984 92 7 8661 8.20600000 2892124010 2892124010 7.00000000
5.29097652 0.31248856 -0.65078229 9 8 8662 5.34000000 2892124012 2892124012 -7.00000000
6.62716150 0.39024383 -0.58080590 40 10 8663 6.66400000 2892124017 2892124017 -5.00000000
8.12891102 0.47582781 -0.42674738 17 12 8665 8.15400000 2892124022 2892124022 -3.00000000
8.12501812 0.47275412 -0.14206259 16 14 8667 8.14000000 2892124026 2892124026 -1.00000000
8.18493557 0.47624040 2.19685602 58 15 8667 8.48800000 2892124029 2892124029 15.00000000
2.24312997 0.12737416 -0.60201311 4 0 8675 2.32600000 2892124049 2892124049 -15.00000000
8.12974358 0.46021685 0.14213240 15 1 8676 8.14400000 2892124052 2892124052 1.00000000
2.61494613 0.14757168 -0.60466844 5 2 8677 2.68800000 2892124054 2892124054 -13.00000000
8.12797546 0.45727050 0.42664272 15 3 8678 8.15200000 2892124056 2892124056 3.00000000
3.15780950 0.17765470 -0.61478657 4 4 8678 3.22200000 2892124058 2892124058 -11.00000000
8.12812996 0.45585608 0.71223670 79 5 8679 8.17200000 2892124061 2892124061 5.00000000
3.97615004 0.22230129 -0.63074374 9 6 8680 4.03200000 2892124063 2892124063 -9.00000000
8.13221359 0.45323753 1.00005984 92 7 8681 8.20600000 2892124065 2892124065 7.00000000
5.26825094 0.29269627 -0.64785743 8 8 8682 5.31600000 2892124068 2892124068 -7.00000000
8.22471619 0.45551324 1.30466342 7 9 8683 8.34000000 2892124070 2892124070 9.00000000
6.62848330 0.36710835 -0.58080590 48 10 8683 6.66400000 2892124072 2892124072 -5.00000000
8.11855698 0.44679120 -0.42611936 17 12 8685 8.14200000 2892124077 2892124077 -3.00000000
8.12062931 0.44406208 -0.14195788 14 14 8687 8.13400000 2892124082 2892124082 -1.00000000
8.19048405 0.44644821 2.19789124 49 15 8688 8.49200000 2892124084 2892124084 15.00000000
2.22619891 0.11861829 -0.59735435 4 0 8695 2.30800000 2892124105 2892124105 -15.00000000
8.12930393 0.43172988 0.14209749 18 1 8696 8.14200000 2892124107 2892124107 1.00000000
2.61739111 0.13854593 -0.60511833 6 2 8697 2.69000000 2892124109 2892124109 -13.00000000
8.13351059 0.42910624 0.42685205 13 3 8698 8.15600000 2892124111 2892124111 3.00000000
3.15841031 0.16663080 -0.61478657 4 4 8698 3.22200000 2892124114 2892124114 -11.00000000
8.12171364 0.42706236 0.71153951 79 5 8699 8.16400000 2892124116 2892124116 5.00000000
3.97492909 0.20831721 -0.63043088 6 6 8700 4.03000000 2892124118 2892124118 -9.00000000
8.13771057 0.42505515 1.00054729 95 7 8701 8.21000000 2892124121 2892124121 7.00000000
5.27122259 0.27440804 -0.64810115 6 8 8702 5.31800000 2892124123 2892124123 -7.00000000
8.21237278 0.42751774 1.30247331 7 9 8702 8.32600000 2892124125 2892124125 9.00000000
6.62375546 0.34365869 -0.58028293 60 10 8703 6.65800000 2892124128 2892124128 -5.00000000
8.12006664 0.41844943 -0.42611936 17 12 8705 8.14200000 2892124132 2892124132 -3.00000000
8.11014652 0.41509980 -0.14174844 16 14 8707 8.12200000 2892124137 2892124137 -1.00000000
8.17841339 0.41859388 2.19426775 49 15 8707 8.47800000 2892124139 2892124139 15.00000000
2.22466993 0.11075063 -0.59683675 4 0 8715 2.30600000 2892124160 2892124160 -15.00000000
8.12476921 0.40305346 0.14199278 15 1 8716 8.13600000 2892124162 2892124162 1.00000000
2.62564445 0.12979354 -0.60691792 6 2 8717 2.69800000 2892124164 2892124164 -13.00000000
8.13695431 0.40081063 0.42695674 23 3 8718 8.15800000 2892124167 2892124167 3.00000000
3.15309000 0.15531512 -0.61364174 5 4 8718 3.21600000 2892124169 2892124169 -11.00000000
8.11121464 0.39812365 0.71049362 79 5 8719 8.15200000 2892124171 2892124171 5.00000000
3.97760510 0.19453734 -0.63074374 9 6 8720 4.03200000 2892124174 2892124174 -9.00000000
8.14311028 0.39683992 1.00103474 97 7 8721 8.21400000 2892124176 2892124176 7.00000000
5.28404522 0.25658405 -0.64956361 6 8 8722 5.33000000 2892124178 2892124178 -7.00000000
8.21388435 0.39741501 1.30247331 10 9 8723 8.32600000 2892124181 2892124181 9.00000000
6.60302401 0.31947622 -0.57836550 72 10 8723 6.63600000 2892124183 2892124183 -5.00000000
8.12546825 0.39029422 -0.42632869 21 12 8725 8.14600000 2892124187 2892124187 -3.00000000
8.11554146 0.38697806 -0.14181826 18 14 8727 8.12600000 2892124192 2892124192 -1.00000000
8.17024422 0.38815731 2.19167972 51 15 8728 8.46800000 2892124194 2892124194 15.00000000
2.23081422 0.10364172 -0.59838963 4 0 8734 2.31200000 2892124215 2892124215 -15.00000000
8.11008072 0.37536889 0.14171354 15 1 8735 8.12000000 2892124217 2892124217 1.00000000
2.62800694 0.12117564 -0.60736787 6 2 8736 2.70000000 2892124220 2892124220 -13.00000000
8.14222908 0.37400860 0.42716607 15 3 8737 8.16200000 2892124222 2892124222 3.00000000
3.15358782 0.14485824 -0.61364174 5 4 8737 3.21600000 2892124224 2892124224 -11.00000000
8.12045097 0.37158799 0.71119088 79 5 8738 8.16000000 2892124227 2892124227 5.00000000
3.95454836 0.18026662 -0.62698936 9 6 8739 4.00800000 2892124229 2892124229 -9.00000000
8.13644886 0.36947399 1.00005984 95 7 8740 8.20600000 2892124231 2892124231 7.00000000
5.27891779 0.23879100 -0.64883238 6 8 8741 5.32400000 2892124234 2892124234 -7.00000000
8.22298622 0.37196547 1.30372488 10 9 8741 8.33400000 2892124236 2892124236 9.00000000
6.60603714 0.29766774 -0.57853985 76 10 8742 6.63800000 2892124238 2892124238 -5.00000000
8.12073135 0.36307943 -0.42601469 17 12 8744 8.14000000 2892124243 2892124243 -3.00000000
8.11478233 0.35997522 -0.14178336 16 14 8746 8.12400000 2892124247 2892124247 -1.00000000
8.17528343 0.36265907 2.19271493 56 15 8746 8.47200000 2892124250 2892124250 15.00000000
2.22923231 0.09577117 -0.59787202 4 0 8754 2.31000000 2892124270 2892124270 -15.00000000
8.12133121 0.34748453 0.14188807 25 1 8755 8.13000000 2892124273 2892124273 1.00000000
2.61283827 0.11133773 -0.60376865 6 2 8756 2.68400000 2892124275 2892124275 -13.00000000
8.12951660 0.34499186 0.42643338 13 3 8757 8.14800000 2892124277 2892124277 3.00000000
3.16584325 0.13434872 -0.61593145 5 4 8757 3.22800000 2892124280 2892124280 -11.00000000
8.12169933 0.34324008 0.71119088 76 5 8758 8.16000000 2892124282 2892124282 5.00000000
3.96304798 0.16679382 -0.62824082 9 6 8759 4.01600000 2892124284 2892124284 -9.00000000
8.12975597 0.34073773 0.99908489 95 7 8760 8.19800000 2892124287 2892124287 7.00000000
5.28368568 0.22052826 -0.64931989 6 8 8761 5.32800000 2892124289 2892124289 -7.00000000
8.22034645 0.34166017 1.30309904 10 9 8762 8.33000000 2892124291 2892124291 9.00000000
6.61300802 0.27485478 -0.57906276 56 10 8762 6.64400000 2892124293 2892124293 -5.00000000
8.10997677 0.33423710 -0.42538664 25 12 8764 8.12800000 2892124298 2892124298 -3.00000000
8.12597942 0.33205536 -0.14195788 18 14 8766 8.13400000 2892124303 2892124303 -1.00000000
8.18427944 0.33300689 2.19478559 49 15 8767 8.48000000 2892124305 2892124305 15.00000000
2.24499583 0.08859856 -0.60201311 4 0 8774 2.32600000 2892124326 2892124326 -15.00000000
8.11649990 0.31889817 0.14178336 21 1 8775 8.12400000 2892124328 2892124328 1.00000000
2.61710548 0.10236888 -0.60466844 6 2 8776 2.68800000 2892124330 2892124330 -13.00000000
8.12667942 0.31645703 0.42622402 15 3 8777 8.14400000 2892124333 2892124333 3.00000000
3.15256047 0.12276230 -0.61326009 5 4 8777 3.21400000 2892124335 2892124335 -11.00000000
8.12284756 0.31488797 0.71119088 76 5 8778 8.16000000 2892124337 2892124337 5.00000000
3.96557999 0.15303537 -0.62855369 9 6 8779 4.01800000 2892124340 2892124340 -9.00000000
8.13089561 0.31235752 0.99908489 92 7 8780 8.19800000 2892124342 2892124342 7.00000000
5.26260328 0.20124897 -0.64663875 4 8 8781 5.30600000 2892124344 2892124344 -7.00000000
8.21353912 0.31409669 1.30184758 10 9 8781 8.32200000 2892124346 2892124346 9.00000000
6.60795450 0.25154203 -0.57853985 44 10 8782 6.63800000 2892124349 2892124349 -5.00000000
8.12306881 0.30637762 -0.42601469 25 12 8784 8.14000000 2892124353 2892124353 -3.00000000
8.11709785 0.30331501 -0.14178336 18 14 8786 8.12400000 2892124358 2892124358 -1.00000000
8.18340778 0.30579287 2.19426775 58 15 8786 8.47800000 2892124360 2892124360 15.00000000
2.22791600 0.08013655 -0.59735435 4 0 8794 2.30800000 2892124381 2892124381 -15.00000000
8.12555790 0.29085049 0.14192297 15 1 8795 8.13200000 2892124383 2892124383 1.00000000
2.62913179 0.09364907 -0.60736787 6 2 8796 2.70000000 2892124386 2892124386 -13.00000000
8.12773514 0.28808770 0.42622402 13 3 8797 8.14400000 2892124388 2892124388 3.00000000
3.14512157 0.11147889 -0.61173362 5 4 8797 3.20600000 2892124390 2892124390 -11.00000000
8.11593246 0.28625110 0.71049362 79 5 8798 8.15200000 2892124393 2892124393 5.00000000
3.96608996 0.13919197 -0.62855369 9 6 8799 4.01800000 2892124395 2892124395 -9.00000000
8.13987255 0.28425059 1.00005984 90 7 8800 8.20600000 2892124397 2892124397 7.00000000
5.27120924 0.18315357 -0.64761370 4 8 8801 5.31400000 2892124399 2892124399 -7.00000000
8.19884109 0.28344446 1.29934466 10 9 8802 8.30600000 2892124402 2892124402 9.00000000
6.60480976 0.22833675 -0.57819122 44 10 8802 6.63400000 2892124404 2892124404 -5.00000000
8.12808037 0.27815759 -0.42622402 21 12 8804 8.14400000 2892124409 2892124409 -3.00000000
8.10811424 0.27464074 -0.14160882 20 14 8806 8.11400000 2892124413 2892124413 -1.00000000
8.18254280 0.27573207 2.19375014 56 15 8807 8.47600000 2892124416 2892124416 15.00000000
2.22430778 0.07262199 -0.59631908 4 0 8813 2.30400000 2892124436 2892124436 -15.00000000
8.11648464 0.26357904 0.14174844 18 1 8814 8.12200000 2892124439 2892124439 1.00000000
2.62942791 0.08493004 -0.60736787 6 2 8815 2.70000000 2892124441 2892124441 -13.00000000
8.12465286 0.26100531 0.42601469 13 3 8816 8.14000000 2892124443 2892124443 3.00000000
3.15528536 0.10136386 -0.61364174 5 4 8816 3.21600000 2892124446 2892124446 -11.00000000
8.10688019 0.25901800 0.70962209 76 5 8817 8.14200000 2892124448 2892124448 5.00000000
3.98035049 0.12647834 -0.63074374 6 6 8818 4.03200000 2892124450 2892124450 -9.00000000
8.14076996 0.25725624 1.00005984 95 7 8819 8.20600000 2892124452 2892124452 7.00000000
5.27575588 0.16579731 -0.64810115 4 8 8820 5.31800000 2892124455 2892124455 -7.00000000
8.20758915 0.25793388 1.30059612 10 9 8820 8.31400000 2892124457 2892124457 9.00000000
6.60353947 0.20637092 -0.57801688 36 10 8821 6.63200000 2892124459 2892124459 -5.00000000
8.12496567 0.25107899 -0.42601469 17 12 8823 8.14000000 2892124464 2892124464 -3.00000000
8.11297798 0.24787389 -0.14167863 20 14 8825 8.11800000 2892124469 2892124469 -1.00000000
8.17564487 0.24978854 2.19167972 56 15 8825 8.46800000 2892124471 2892124471 15.00000000
2.21682382 0.06463206 -0.59424853 4 0 8833 2.29600000 2892124492 2892124492 -15.00000000
8.11135864 0.23507182 0.14164373 18 1 8834 8.11600000 2892124494 2892124494 1.00000000
2.61802077 0.07541443 -0.60466844 5 2 8835 2.68800000 2892124496 2892124496 -13.00000000
8.13350010 0.23287204 0.42643338 13 3 8836 8.14800000 2892124499 2892124499 3.00000000
3.15561986 0.09034924 -0.61364174 5 4 8836 3.21600000 2892124501 2892124501 -11.00000000
8.11769295 0.23100150 0.71049362 90 5 8837 8.15200000 2892124503 2892124503 5.00000000
3.95114875 0.11174588 -0.62605071 6 6 8838 4.00200000 2892124505 2892124505 -9.00000000
8.13368130 0.22861500 0.99908489 95 7 8839 8.19800000 2892124508 2892124508 7.00000000
5.28225565 0.14754675 -0.64883238 6 8 8840 5.32400000 2892124510 2892124510 -7.00000000
8.22226143 0.22966856 1.30278623 10 9 8840 8.32800000 2892124512 2892124512 9.00000000
6.59426117 0.18304259 -0.57714534 12 10 8841 6.62200000 2892124515 2892124515 -5.00000000
8.12179947 0.22260658 -0.42580533 17 12 8843 8.13600000 2892124519 2892124519 -3.00000000
8.10979557 0.21944462 -0.14160882 20 14 8845 8.11400000 2892124524 2892124524 -1.00000000
8.16874218 0.22103967 2.18960905 54 15 8845 8.46000000 2892124526 2892124526 15.00000000
2.23248553 0.05728998 -0.59838963 4 0 8853 2.31200000 2892124547 2892124547 -15.00000000
8.12412357 0.20706217 0.14185315 15 1 8854 8.12800000 2892124549 2892124549 1.00000000
2.61437178 0.06617675 -0.60376865 6 2 8855 2.68400000 2892124552 2892124552 -13.00000000
8.13426399 0.20447940 0.42643338 13 3 8856 8.14800000 2892124554 2892124554 3.00000000
3.15591598 0.07933353 -0.61364174 5 4 8856 3.21600000 2892124556 2892124556 -11.00000000
8.11645794 0.20261432 0.71031928 76 5 8857 8.15000000 2892124558 2892124558 5.00000000
3.96336341 0.09824683 -0.62792796 6 6 8858 4.01400000 2892124561 2892124561 -9.00000000
8.12053776 0.19987983 0.99737871 90 7 8859 8.18400000 2892124563 2892124563 7.00000000
5.27876949 0.12901035 -0.64834493 6 8 8860 5.32000000 2892124565 2892124565 -7.00000000
8.23094749 0.19972259 1.30403769 10 9 8861 8.33600000 2892124568 2892124568 9.00000000
6.61278629 0.16045818 -0.57871413 28 10 8861 6.64000000 2892124570 2892124570 -5.00000000
8.10655403 0.19387284 -0.42496797 25 12 8863 8.12000000 2892124575 2892124575 -3.00000000
8.12050819 0.19137038 -0.14178336 16 14 8865 8.12400000 2892124579 2892124579 -1.00000000
8.17718983 0.19270615 2.19167972 54 15 8865 8.46800000 2892124581 2892124581 15.00000000
2.22880912 0.04941117 -0.59735435 4 0 8873 2.30800000 2892124602 2892124602 -15.00000000
8.12479687 0.17870243 0.14185315 15 1 8874 8.12800000 2892124605 2892124605 1.00000000
2.62043166 0.05717802 -0.60511833 6 2 8875 2.69000000 2892124607 2892124607 -13.00000000
8.12694073 0.17591140 0.42601469 13 3 8876 8.14000000 2892124609 2892124609 3.00000000
3.14439702 0.06806193 -0.61135203 5 4 8876 3.20400000 2892124611 2892124611 -11.00000000
8.12109947 0.17436691 0.71066791 76 5 8877 8.15400000 2892124614 2892124614 5.00000000
3.96565723 0.08445357 -0.62824082 6 6 8878 4.01600000 2892124616 2892124616 -9.00000000
8.13110924 0.17174225 0.99859738 92 7 8879 8.19400000 2892124618 2892124618 7.00000000
5.25934076 0.11016749 -0.64590752 6 8 8880 5.30000000 2892124621 2892124621 -7.00000000
8.21974468 0.17074387 1.30216050 10 9 8881 8.32400000 2892124623 2892124623 9.00000000
6.62127399 0.13753979 -0.57941139 72 10 8881 6.64800000 2892124625 2892124625 -5.00000000
8.11117458 0.16565607 -0.42517731 21 12 8883 8.12400000 2892124630 2892124630 -3.00000000
8.10713196 0.16274241 -0.14153902 18 14 8885 8.11000000 2892124634 2892124634 -1.00000000
8.18170357 0.16281083 2.19271493 49 15 8886 8.47200000 2892124637 2892124637 15.00000000
2.22510505 0.04155872 -0.59631908 4 0 8893 2.30400000 2892124658 2892124658 -15.00000000
8.10937691 0.15004456 0.14157392 18 1 8894 8.11200000 2892124660 2892124660 1.00000000
2.62451220 0.04810208 -0.60601813 6 2 8895 2.69400000 2892124662 2892124662 -13.00000000
8.11552334 0.14732449 0.42538664 13 3 8896 8.12800000 2892124664 2892124664 3.00000000
3.14068961 0.05701425 -0.61058879 5 4 8896 3.20000000 2892124667 2892124667 -11.00000000
8.10970688 0.14580302 0.70962209 76 5 8897 8.14200000 2892124669 2892124669 5.00000000
3.97185302 0.07071582 -0.62917942 9 6 8898 4.02200000 2892124671 2892124671 -9.00000000
8.13165951 0.14335832 0.99859738 92 7 8899 8.19400000 2892124674 2892124674 7.00000000
5.26763248 0.09194687 -0.64688247 6 8 8900 5.30800000 2892124676 2892124676 -7.00000000
8.20843983 0.14184578 1.30028331 10 9 8901 8.31200000 2892124678 2892124678 9.00000000
6.61175346 0.11425427 -0.57853985 100 10 8901 6.63800000 2892124681 2892124681 -5.00000000
8.11569786 0.13740940 -0.42538664 17 12 8903 8.12800000 2892124685 2892124685 -3.00000000
8.10764980 0.13444225 -0.14153902 18 14 8905 8.11000000 2892124690 2892124690 -1.00000000
8.17640400 0.13558234 2.19116211 49 15 8905 8.46600000 2892124692 2892124692 15.00000000
2.22523665 0.03379140 -0.59631908 4 0 8913 2.30400000 2892124713 2892124713 -15.00000000
8.12184811 0.12191672 0.14178336 15 1 8914 8.12400000 2892124715 2892124715 1.00000000
2.62076712 0.03888271 -0.60511833 6 2 8915 2.69000000 2892124717 2892124717 -13.00000000
