# .PCD v0.7 - Point Cloud Data file format
VERSION 0.7
FIELDS x y z intensity laser_id azimuth distance_m adjustedtime timestamp vertical_angle
SIZE 4 4 4 1 1 2 8 8 4 8
TYPE F F F U U U F U U F
COUNT 1 1 1 1 1 1 1 1 1 1
WIDTH 534
HEIGHT 1
VIEWPOINT 0 0 0 1 0 0 0
POINTS 534
DATA ascii
8.09342194 -0.24303482 -0.70840186 17 10 9172 8.12800000 2895125543 2895125543 -5.00000000
8.10313606 -0.24615763 -0.42486328 17 12 9174 8.11800000 2895125548 2895125548 -3.00000000
8.10094166 -0.24892136 -0.14146921 16 14 9176 8.10600000 2895125552 2895125552 -1.00000000
8.17753220 -0.25127479 2.19219732 47 15 9176 8.47000000 2895125554 2895125554 15.00000000
2.21663451 -0.07082234 -0.59424853 4 0 9183 2.29600000 2895125575 2895125575 -15.00000000
8.11257839 -0.26061741 0.14167863 15 1 9184 8.11800000 2895125577 2895125577 1.00000000
2.61384606 -0.08442675 -0.60376865 7 2 9185 2.68400000 2895125580 2895125580 -13.00000000
8.11258411 -0.26345238 0.42538664 26 3 9186 8.12800000 2895125582 2895125582 3.00000000
3.12385416 -0.10144570 -0.60753584 6 4 9186 3.18400000 2895125584 2895125584 -11.00000000
8.10271454 -0.26454759 0.70927346 76 5 9187 8.13800000 2895125587 2895125587 5.00000000
3.93085790 -0.12902637 -0.62292206 8 6 9188 3.98200000 2895125589 2895125589 -9.00000000
8.12651443 -0.26816437 0.99835366 87 7 9189 8.19200000 2895125591 2895125591 7.00000000
5.22189045 -0.17322795 -0.64152020 8 8 9190 5.26400000 2895125594 2895125594 -7.00000000
8.19922924 -0.27199644 1.29934466 10 9 9190 8.30600000 2895125596 2895125596 9.00000000
8.08261585 -0.26954022 -0.70753032 17 10 9191 8.11800000 2895125598 2895125598 -5.00000000
8.10227585 -0.27302724 -0.42486328 17 12 9193 8.11800000 2895125603 2895125603 -3.00000000
8.09607506 -0.27564761 -0.14139940 16 14 9195 8.10200000 2895125607 2895125607 -1.00000000
8.16115952 -0.27928960 2.18805623 47 15 9196 8.45400000 2895125610 2895125610 15.00000000
2.21251249 -0.07842255 -0.59321326 4 0 9203 2.29200000 2895125630 2895125630 -15.00000000
8.10362530 -0.28864929 0.14153902 15 1 9204 8.11000000 2895125633 2895125633 1.00000000
2.61743045 -0.09368968 -0.60466844 7 2 9205 2.68800000 2895125635 2895125635 -13.00000000
8.11366177 -0.29042467 0.42549133 23 3 9205 8.13000000 2895125637 2895125637 3.00000000
3.12936711 -0.11256108 -0.60868067 5 4 9206 3.19000000 2895125640 2895125640 -11.00000000
8.09576893 -0.29261380 0.70875049 76 5 9207 8.13200000 2895125642 2895125642 5.00000000
3.92248726 -0.14246005 -0.62167054 8 6 9208 3.97400000 2895125644 2895125644 -9.00000000
8.13148022 -0.29674673 0.99908489 92 7 9209 8.19800000 2895125647 2895125647 7.00000000
5.22522163 -0.19160017 -0.64200771 8 8 9210 5.26800000 2895125649 2895125649 -7.00000000
8.21199512 -0.30255541 1.30153477 10 9 9211 8.32000000 2895125651 2895125651 9.00000000
6.60825682 -0.24346870 -0.57853985 4 10 9211 6.63800000 2895125654 2895125654 -5.00000000
8.10326958 -0.30138204 -0.42496797 17 12 9213 8.12000000 2895125658 2895125658 -3.00000000
8.09306526 -0.30383149 -0.14136449 16 14 9215 8.10000000 2895125663 2895125663 -1.00000000
8.15627384 -0.30763003 2.18702102 47 15 9216 8.45000000 2895125665 2895125665 15.00000000
2.21608615 -0.08629552 -0.59424853 4 0 9223 2.29600000 2895125686 2895125686 -15.00000000
8.09857273 -0.31677812 0.14146921 21 1 9224 8.10600000 2895125688 2895125688 1.00000000
2.61124587 -0.10259613 -0.60331875 9 2 9225 2.68200000 2895125690 2895125690 -13.00000000
8.12257767 -0.31913695 0.42601469 23 3 9225 8.14000000 2895125693 2895125693 3.00000000
3.13091683 -0.12356135 -0.60906231 6 4 9226 3.19200000 2895125695 2895125695 -11.00000000
8.09668922 -0.32095045 0.70892483 72 5 9227 8.13400000 2895125697 2895125697 5.00000000
3.91407084 -0.15583688 -0.62041909 8 6 9228 3.96600000 2895125700 2895125700 -9.00000000
8.12047768 -0.32473251 0.99786621 90 7 9229 8.18800000 2895125702 2895125702 7.00000000
5.24038887 -0.21047576 -0.64395761 8 8 9230 5.28400000 2895125704 2895125704 -7.00000000
8.20699978 -0.32962716 1.30090904 10 9 9230 8.31600000 2895125707 2895125707 9.00000000
6.58546829 -0.26565096 -0.57662237 16 10 9231 6.61600000 2895125709 2895125709 -5.00000000
8.09817696 -0.32950351 -0.42475861 17 12 9233 8.11600000 2895125713 2895125713 -3.00000000
8.10993767 -0.33281764 -0.14167863 16 14 9235 8.11800000 2895125718 2895125718 -1.00000000
8.15901089 -0.33625796 2.18805623 49 15 9236 8.45400000 2895125720 2895125720 15.00000000
2.22349191 -0.09435821 -0.59631908 4 0 9243 2.30400000 2895125741 2895125741 -15.00000000
8.10540867 -0.34538603 0.14160882 18 1 9244 8.11400000 2895125743 2895125743 1.00000000
2.60113692 -0.11129393 -0.60106921 7 2 9245 2.67200000 2895125746 2895125746 -13.00000000
8.11143684 -0.34706119 0.42549133 21 3 9245 8.13000000 2895125748 2895125748 3.00000000
3.13438916 -0.13465807 -0.60982555 8 4 9246 3.19600000 2895125750 2895125750 -11.00000000
8.11144352 -0.34989813 0.71031928 79 5 9247 8.15000000 2895125753 2895125753 5.00000000
3.91942358 -0.16975501 -0.62135768 4 6 9248 3.97200000 2895125755 2895125755 -9.00000000
8.11334515 -0.35281757 0.99713498 90 7 9249 8.18200000 2895125757 2895125757 7.00000000
5.20789099 -0.22738142 -0.64005780 8 8 9250 5.25200000 2895125760 2895125760 -7.00000000
8.21566582 -0.35870373 1.30247331 10 9 9250 8.32600000 2895125762 2895125762 9.00000000
6.59445333 -0.28907320 -0.57749397 16 10 9251 6.62600000 2895125764 2895125764 -5.00000000
8.09697723 -0.35776940 -0.42475861 17 12 9253 8.11600000 2895125769 2895125769 -3.00000000
8.11272144 -0.36130252 -0.14174844 14 14 9255 8.12200000 2895125773 2895125773 -1.00000000
8.16164684 -0.36490875 2.18909144 47 15 9256 8.45800000 2895125776 2895125776 15.00000000
2.22314906 -0.10211907 -0.59631908 4 0 9263 2.30400000 2895125796 2895125796 -15.00000000
8.10814857 -0.37386128 0.14167863 15 1 9264 8.11800000 2895125799 2895125799 1.00000000
2.60267925 -0.12046301 -0.60151911 9 2 9265 2.67400000 2895125801 2895125801 -13.00000000
8.10818100 -0.37528092 0.42538664 18 3 9265 8.12800000 2895125803 2895125803 3.00000000
3.12605548 -0.14523385 -0.60829908 8 4 9266 3.18800000 2895125806 2895125806 -11.00000000
8.12609482 -0.37895271 0.71171379 79 5 9267 8.16600000 2895125808 2895125808 5.00000000
3.92670012 -0.18380478 -0.62260920 4 6 9268 3.98000000 2895125810 2895125810 -9.00000000
8.11602974 -0.38132259 0.99762243 80 7 9269 8.18600000 2895125812 2895125812 7.00000000
5.21103144 -0.24574600 -0.64054525 8 8 9270 5.25600000 2895125815 2895125815 -7.00000000
8.20647144 -0.38700736 1.30122185 10 9 9270 8.31800000 2895125817 2895125817 9.00000000
6.60136461 -0.31246719 -0.57819122 16 10 9271 6.63400000 2895125819 2895125819 -5.00000000
8.21872902 -0.39046073 1.59936094 3 11 9272 8.38200000 2895125822 2895125822 11.00000000
8.09368420 -0.38593581 -0.42465395 17 12 9273 8.11400000 2895125824 2895125824 -3.00000000
8.09543228 -0.38885146 -0.14146921 14 14 9275 8.10600000 2895125829 2895125829 -1.00000000
8.17775917 -0.39280593 2.19375014 47 15 9275 8.47600000 2895125831 2895125831 15.00000000
2.21506095 -0.10949716 -0.59424853 4 0 9283 2.29600000 2895125852 2895125852 -15.00000000
8.11877823 -0.40275621 0.14188807 15 1 9284 8.13000000 2895125854 2895125854 1.00000000
2.61002827 -0.12993491 -0.60331875 9 2 9285 2.68200000 2895125856 2895125856 -13.00000000
8.10881615 -0.40368077 0.42549133 13 3 9285 8.13000000 2895125859 2895125859 3.00000000
3.11376476 -0.15555720 -0.60600936 8 4 9286 3.17600000 2895125861 2895125861 -11.00000000
8.12074280 -0.40711626 0.71136516 90 5 9287 8.16200000 2895125863 2895125863 5.00000000
3.92800736 -0.19760965 -0.62292206 4 6 9288 3.98200000 2895125865 2895125865 -9.00000000
8.12257957 -0.41005084 0.99859738 92 7 9289 8.19400000 2895125868 2895125868 7.00000000
5.21410656 -0.26413524 -0.64103276 6 8 9290 5.26000000 2895125870 2895125870 -7.00000000
8.19520569 -0.41515124 1.29965758 10 9 9290 8.30800000 2895125872 2895125872 9.00000000
6.58431530 -0.33469915 -0.57679671 16 10 9291 6.61800000 2895125875 2895125875 -5.00000000
8.10824490 -0.41500244 -0.42549133 17 12 9293 8.13000000 2895125879 2895125879 -3.00000000
8.09801960 -0.41731328 -0.14153902 14 14 9295 8.11000000 2895125884 2895125884 -1.00000000
8.16468811 -0.42217773 2.19064450 47 15 9296 8.46400000 2895125886 2895125886 15.00000000
2.21466517 -0.11722850 -0.59424853 4 0 9303 2.29600000 2895125907 2895125907 -15.00000000
8.10933495 -0.43066940 0.14174844 15 1 9304 8.12200000 2895125909 2895125909 1.00000000
2.60372090 -0.13873374 -0.60196900 7 2 9305 2.67600000 2895125912 2895125912 -13.00000000
8.11326504 -0.43371820 0.42580533 13 3 9306 8.13600000 2895125914 2895125914 3.00000000
3.12104464 -0.16684452 -0.60753584 5 4 9306 3.18400000 2895125916 2895125916 -11.00000000
8.09141827 -0.43396661 0.70892483 72 5 9307 8.13400000 2895125918 2895125918 5.00000000
3.92926621 -0.21142589 -0.62323493 6 6 9308 3.98400000 2895125921 2895125921 -9.00000000
8.12308121 -0.43850845 0.99884117 87 7 9309 8.19600000 2895125923 2895125923 7.00000000
5.24090385 -0.28383720 -0.64444506 4 8 9310 5.28800000 2895125925 2895125925 -7.00000000
8.19567966 -0.44386214 1.29997039 10 9 9310 8.31000000 2895125928 2895125928 9.00000000
6.59504366 -0.35832924 -0.57784259 68 10 9311 6.63000000 2895125930 2895125930 -5.00000000
8.10475254 -0.44319391 -0.42538664 17 12 9313 8.12800000 2895125935 2895125935 -3.00000000
8.09651279 -0.44557810 -0.14153902 14 14 9315 8.11000000 2895125939 2895125939 -1.00000000
8.15938568 -0.44903818 2.18960905 47 15 9315 8.46000000 2895125942 2895125942 15.00000000
2.21231365 -0.12484957 -0.59373087 4 0 9323 2.29400000 2895125962 2895125962 -15.00000000
8.09580326 -0.45829549 0.14153902 15 1 9324 8.11000000 2895125965 2895125965 1.00000000
2.59738398 -0.14749014 -0.60061932 9 2 9325 2.67000000 2895125967 2895125967 -13.00000000
8.12366581 -0.46271762 0.42643338 21 3 9326 8.14800000 2895125969 2895125969 3.00000000
3.12828350 -0.17818457 -0.60906231 5 4 9326 3.19200000 2895125971 2895125971 -11.00000000
8.09781075 -0.46266288 0.70962209 76 5 9327 8.14200000 2895125974 2895125974 5.00000000
3.91075516 -0.22412309 -0.62041909 4 6 9328 3.96600000 2895125976 2895125976 -9.00000000
8.12150097 -0.46686062 0.99884117 90 7 9329 8.19600000 2895125978 2895125978 7.00000000
5.21411753 -0.30064413 -0.64127648 6 8 9330 5.26200000 2895125981 2895125981 -7.00000000
8.20583057 -0.47458217 1.30184758 10 9 9331 8.32200000 2895125983 2895125983 9.00000000
6.59176350 -0.38123301 -0.57766825 53 10 9331 6.62800000 2895125985 2895125985 -5.00000000
8.10714340 -0.47171408 -0.42559600 17 12 9333 8.13200000 2895125990 2895125990 -3.00000000
8.09291267 -0.47372061 -0.14150411 18 14 9335 8.10800000 2895125995 2895125995 -1.00000000
8.15768528 -0.47894078 2.18960905 49 15 9336 8.46000000 2895125997 2895125997 15.00000000
2.21769595 -0.13214384 -0.59528381 4 0 9341 2.30000000 2895126018 2895126018 -15.00000000
8.09831619 -0.48396549 0.14160882 15 1 9342 8.11400000 2895126020 2895126020 1.00000000
2.59690762 -0.15564933 -0.60061932 9 2 9343 2.67000000 2895126022 2895126022 -13.00000000
8.11021042 -0.48751751 0.42580533 18 3 9344 8.13600000 2895126024 2895126024 3.00000000
3.12574863 -0.18789366 -0.60868067 5 4 9344 3.19000000 2895126027 2895126027 -11.00000000
8.10427284 -0.48858017 0.71031928 76 5 9345 8.15000000 2895126029 2895126029 5.00000000
3.91594696 -0.23676562 -0.62135768 4 6 9346 3.97200000 2895126031 2895126031 -9.00000000
8.11206818 -0.49189213 0.99786621 85 7 9347 8.18800000 2895126034 2895126034 7.00000000
5.22899866 -0.31798720 -0.64322639 4 8 9348 5.27800000 2895126036 2895126036 -7.00000000
8.20241451 -0.49880731 1.30153477 10 9 9348 8.32000000 2895126038 2895126038 9.00000000
8.09366035 -0.49644741 -0.42496797 17 12 9351 8.12000000 2895126045 2895126045 -3.00000000
8.10535526 -0.50000477 -0.14174844 14 14 9353 8.12200000 2895126050 2895126050 -1.00000000
8.16394138 -0.50361878 2.19167972 47 15 9353 8.46800000 2895126052 2895126052 15.00000000
2.22107720 -0.14012752 -0.59631908 4 0 9361 2.30400000 2895126073 2895126073 -15.00000000
8.10056877 -0.51248348 0.14167863 15 1 9362 8.11800000 2895126075 2895126075 1.00000000
2.59634852 -0.16471328 -0.60061932 9 2 9363 2.67000000 2895126077 2895126077 -13.00000000
8.10048676 -0.51531726 0.42538664 18 3 9364 8.12800000 2895126080 2895126080 3.00000000
3.12115502 -0.19855413 -0.60791749 4 4 9364 3.18600000 2895126082 2895126082 -11.00000000
8.09854126 -0.51661271 0.70997065 72 5 9365 8.14600000 2895126084 2895126084 5.00000000
3.93086743 -0.25144216 -0.62386066 4 6 9366 3.98800000 2895126087 2895126087 -9.00000000
8.11426353 -0.52045965 0.99835366 90 7 9367 8.19200000 2895126089 2895126089 7.00000000
5.21597099 -0.33547342 -0.64176399 4 8 9368 5.26600000 2895126091 2895126091 -7.00000000
8.20447350 -0.52912158 1.30216050 10 9 9369 8.32400000 2895126094 2895126094 9.00000000
6.59505463 -0.42532721 -0.57819122 58 10 9369 6.63400000 2895126096 2895126096 -5.00000000
8.09586430 -0.52495497 -0.42517731 17 12 9371 8.12400000 2895126100 2895126100 -3.00000000
8.09557915 -0.52777433 -0.14160882 20 14 9373 8.11400000 2895126105 2895126105 -1.00000000
8.17553425 -0.53441983 2.19530320 51 15 9374 8.48200000 2895126107 2895126107 15.00000000
2.21669364 -0.14800982 -0.59528381 4 0 9382 2.30000000 2895126128 2895126128 -15.00000000
8.11260223 -0.54310513 0.14192297 15 1 9383 8.13200000 2895126130 2895126130 1.00000000
2.59961629 -0.17448927 -0.60151911 9 2 9384 2.67400000 2895126133 2895126133 -13.00000000
8.11847115 -0.54634458 0.42643338 26 3 9385 8.14800000 2895126135 2895126135 3.00000000
3.11844754 -0.20986058 -0.60753584 4 4 9385 3.18400000 2895126137 2895126137 -11.00000000
8.11845970 -0.54776722 0.71188813 83 5 9386 8.16800000 2895126140 2895126140 5.00000000
3.91809416 -0.26504791 -0.62198341 4 6 9387 3.97600000 2895126142 2895126142 -9.00000000
8.11626244 -0.55046505 0.99884117 90 7 9388 8.19600000 2895126144 2895126144 7.00000000
5.19688177 -0.35337663 -0.63957030 2 8 9389 5.24800000 2895126147 2895126147 -7.00000000
8.18483925 -0.55655122 1.29934466 7 9 9389 8.30600000 2895126149 2895126149 9.00000000
8.09986401 -0.55503392 -0.42549133 17 12 9392 8.13000000 2895126156 2895126156 -3.00000000
8.09159470 -0.55730516 -0.14157392 20 14 9394 8.11200000 2895126160 2895126160 -1.00000000
8.16783714 -0.56255627 2.19375014 47 15 9394 8.47600000 2895126163 2895126163 15.00000000
2.20460081 -0.15493403 -0.59217799 4 0 9402 2.28800000 2895126183 2895126183 -15.00000000
8.09469891 -0.57029575 0.14164373 15 1 9403 8.11600000 2895126186 2895126186 1.00000000
2.60093522 -0.18369986 -0.60196900 7 2 9404 2.67600000 2895126188 2895126188 -13.00000000
8.11252975 -0.57439792 0.42622402 26 3 9405 8.14400000 2895126190 2895126190 3.00000000
3.11573768 -0.22060606 -0.60715425 4 4 9405 3.18200000 2895126193 2895126193 -11.00000000
8.08668709 -0.57398665 0.70927346 76 5 9406 8.13800000 2895126195 2895126195 5.00000000
3.88955951 -0.27676013 -0.61760324 4 6 9407 3.94800000 2895126197 2895126197 -9.00000000
8.12023163 -0.57921648 0.99957234 90 7 9408 8.20200000 2895126200 2895126200 7.00000000
5.20551682 -0.37222287 -0.64078903 2 8 9409 5.25800000 2895126202 2895126202 -7.00000000
8.20244789 -0.58795875 1.30247331 7 9 9410 8.32600000 2895126204 2895126204 9.00000000
6.57991886 -0.47165444 -0.57714534 24 10 9410 6.62200000 2895126206 2895126206 -5.00000000
8.09986877 -0.58344781 -0.42559600 17 12 9412 8.13200000 2895126211 2895126211 -3.00000000
8.09757805 -0.58612412 -0.14171354 20 14 9414 8.12000000 2895126216 2895126216 -1.00000000
8.16186714 -0.59220952 2.19271493 47 15 9415 8.47200000 2895126218 2895126218 15.00000000
2.21178150 -0.16281119 -0.59424853 4 0 9421 2.29600000 2895126239 2895126239 -15.00000000
8.09076881 -0.59698850 0.14160882 15 1 9422 8.11400000 2895126241 2895126241 1.00000000
2.60031176 -0.19232386 -0.60196900 7 2 9423 2.67600000 2895126243 2895126243 -13.00000000
8.11058044 -0.60129684 0.42622402 21 3 9424 8.14400000 2895126246 2895126246 3.00000000
3.11890459 -0.23122731 -0.60791749 4 4 9424 3.18600000 2895126248 2895126248 -11.00000000
8.09864807 -0.60183352 0.71049362 76 5 9425 8.15200000 2895126250 2895126250 5.00000000
3.89453030 -0.29009709 -0.61854190 6 6 9426 3.95400000 2895126253 2895126253 -9.00000000
8.11628723 -0.60599315 0.99932861 87 7 9427 8.20000000 2895126255 2895126255 7.00000000
5.21217203 -0.39007553 -0.64176399 4 8 9428 5.26600000 2895126257 2895126257 -7.00000000
8.20843887 -0.61431426 1.30372488 10 9 9428 8.33400000 2895126259 2895126259 9.00000000
6.58626556 -0.49406779 -0.57784259 16 10 9429 6.63000000 2895126262 2895126262 -5.00000000
8.09988117 -0.61045486 -0.42570066 17 12 9431 8.13400000 2895126266 2895126266 -3.00000000
8.09957790 -0.61327541 -0.14178336 16 14 9433 8.12400000 2895126271 2895126271 -1.00000000
8.15996647 -0.61784780 2.19271493 47 15 9433 8.47200000 2895126273 2895126273 15.00000000
2.20734739 -0.17023367 -0.59321326 4 0 9441 2.29200000 2895126294 2895126294 -15.00000000
8.10259247 -0.62630564 0.14185315 12 1 9442 8.12800000 2895126296 2895126296 1.00000000
2.59185290 -0.20079739 -0.60016942 7 2 9443 2.66800000 2895126299 2895126299 -13.00000000
8.09648418 -0.62867671 0.42559600 21 3 9444 8.13200000 2895126301 2895126301 3.00000000
3.12199330 -0.24241687 -0.60868067 4 4 9444 3.19000000 2895126303 2895126303 -11.00000000
8.11040211 -0.63118154 0.71171379 76 5 9445 8.16600000 2895126306 2895126306 5.00000000
3.89349389 -0.30368975 -0.61854190 6 6 9446 3.95400000 2895126308 2895126308 -9.00000000
8.10620594 -0.63370174 0.99835366 85 7 9447 8.19200000 2895126310 2895126310 7.00000000
5.20286226 -0.40764681 -0.64078903 4 8 9448 5.25800000 2895126312 2895126312 -7.00000000
8.19825554 -0.64377695 1.30247331 10 9 9449 8.32600000 2895126315 2895126315 9.00000000
6.61230850 -0.51923877 -0.58028293 52 10 9449 6.65800000 2895126317 2895126317 -5.00000000
8.21242046 -0.64633155 1.60126913 6 11 9450 8.39200000 2895126319 2895126319 11.00000000
8.09172821 -0.63825387 -0.42538664 17 12 9451 8.12800000 2895126322 2895126322 -3.00000000
8.10336876 -0.64201832 -0.14188807 16 14 9453 8.13000000 2895126326 2895126326 -1.00000000
8.16149807 -0.64805728 2.19375014 47 15 9454 8.47600000 2895126329 2895126329 15.00000000
2.21444201 -0.17855878 -0.59528381 4 0 9461 2.30000000 2895126349 2895126349 -15.00000000
8.09238434 -0.65394092 0.14171354 12 1 9462 8.12000000 2895126352 2895126352 1.00000000
2.59113622 -0.20984341 -0.60016942 6 2 9463 2.66800000 2895126354 2895126354 -13.00000000
8.09623146 -0.65709645 0.42570066 23 3 9464 8.13400000 2895126356 2895126356 3.00000000
3.11721444 -0.25299555 -0.60791749 4 4 9464 3.18600000 2895126359 2895126359 -11.00000000
8.10814953 -0.65948826 0.71171379 76 5 9465 8.16600000 2895126361 2895126361 5.00000000
3.89634776 -0.31759971 -0.61916763 6 6 9466 3.95800000 2895126363 2895126363 -9.00000000
8.10790157 -0.66231704 0.99884117 87 7 9467 8.19600000 2895126365 2895126365 7.00000000
5.18755865 -0.42467195 -0.63908285 4 8 9468 5.24400000 2895126368 2895126368 -7.00000000
8.21182537 -0.67224920 1.30497634 7 9 9468 8.34200000 2895126370 2895126370 9.00000000
6.60449886 -0.54182816 -0.57976002 56 10 9469 6.65200000 2895126372 2895126372 -5.00000000
8.08746052 -0.66633135 -0.42528197 17 12 9471 8.12600000 2895126377 2895126377 -3.00000000
8.09111404 -0.66947597 -0.14171354 16 14 9473 8.12000000 2895126382 2895126382 -1.00000000
8.16700554 -0.67575544 2.19582081 47 15 9473 8.48400000 2895126384 2895126384 15.00000000
2.20610523 -0.18563959 -0.59321326 4 0 9481 2.29200000 2895126405 2895126405 -15.00000000
8.10400009 -0.68336076 0.14195788 12 1 9482 8.13400000 2895126407 2895126407 1.00000000
2.59427142 -0.21921507 -0.60106921 7 2 9483 2.67200000 2895126409 2895126409 -13.00000000
8.10383892 -0.68619615 0.42622402 21 3 9484 8.14400000 2895126412 2895126412 3.00000000
3.11044359 -0.26337817 -0.60677260 5 4 9484 3.18000000 2895126414 2895126414 -11.00000000
8.09984303 -0.68728161 0.71119088 76 5 9485 8.16000000 2895126416 2895126416 5.00000000
3.89915204 -0.33153328 -0.61979336 6 6 9486 3.96200000 2895126418 2895126418 -9.00000000
8.11938572 -0.69179457 1.00054729 90 7 9487 8.21000000 2895126421 2895126421 7.00000000
5.19593382 -0.44362167 -0.64030153 4 8 9488 5.25400000 2895126423 2895126423 -7.00000000
8.19368362 -0.69956541 1.30247331 7 9 9488 8.32600000 2895126425 2895126425 9.00000000
6.59264135 -0.56402969 -0.57888842 100 10 9489 6.64200000 2895126428 2895126428 -5.00000000
8.10896397 -0.69660914 -0.42653805 17 12 9491 8.15000000 2895126432 2895126432 -3.00000000
8.08075809 -0.69702774 -0.14157392 16 14 9493 8.11200000 2895126437 2895126437 -1.00000000
8.16074753 -0.70392746 2.19478559 47 15 9493 8.48000000 2895126439 2895126439 15.00000000
2.20162845 -0.19261754 -0.59217799 4 0 9500 2.28800000 2895126460 2895126460 -15.00000000
8.09172916 -0.70935768 0.14178336 15 1 9501 8.12400000 2895126462 2895126462 1.00000000
2.60711908 -0.22901042 -0.60421854 6 2 9502 2.68600000 2895126465 2895126465 -13.00000000
8.10947704 -0.71376610 0.42664272 15 3 9503 8.15200000 2895126467 2895126467 3.00000000
3.10759735 -0.27351919 -0.60639101 4 4 9503 3.17800000 2895126469 2895126469 -11.00000000
8.09354973 -0.71378779 0.71084225 76 5 9504 8.15600000 2895126471 2895126471 5.00000000
3.88425708 -0.34324431 -0.61760324 6 6 9505 3.94800000 2895126474 2895126474 -9.00000000
8.12297916 -0.71924084 1.00127852 87 7 9506 8.21600000 2895126476 2895126476 7.00000000
5.17663813 -0.45927072 -0.63810790 6 8 9507 5.23600000 2895126478 2895126478 -7.00000000
8.19119167 -0.72816241 1.30247331 7 9 9508 8.32600000 2895126481 2895126481 9.00000000
6.58875036 -0.58571213 -0.57871413 125 10 9508 6.64000000 2895126483 2895126483 -5.00000000
8.10660934 -0.72349566 -0.42653805 17 12 9510 8.15000000 2895126488 2895126488 -3.00000000
8.09035301 -0.72489136 -0.14178336 16 14 9512 8.12400000 2895126492 2895126492 -1.00000000
8.15452003 -0.73064077 2.19375014 47 15 9512 8.47600000 2895126494 2895126494 15.00000000
2.20479035 -0.20065165 -0.59321326 4 0 9520 2.29200000 2895126515 2895126515 -15.00000000
8.08721256 -0.73741722 0.14174844 15 1 9521 8.12200000 2895126518 2895126518 1.00000000
2.59077859 -0.23669119 -0.60061932 6 2 9522 2.67000000 2895126520 2895126520 -13.00000000
8.11688042 -0.74297941 0.42716607 18 3 9523 8.16200000 2895126522 2895126522 3.00000000
3.10271358 -0.28400716 -0.60562778 4 4 9523 3.17400000 2895126524 2895126524 -11.00000000
8.09696102 -0.74258113 0.71136516 76 5 9524 8.16200000 2895126527 2895126527 5.00000000
3.86729860 -0.35535482 -0.61510032 6 6 9525 3.93200000 2895126529 2895126529 -9.00000000
8.10855865 -0.74649906 0.99981612 85 7 9526 8.20400000 2895126531 2895126531 7.00000000
5.18291044 -0.47806707 -0.63908285 8 8 9527 5.24400000 2895126534 2895126534 -7.00000000
8.20827007 -0.75856841 1.30560207 7 9 9528 8.34600000 2895126536 2895126536 9.00000000
6.58468199 -0.60852426 -0.57853985 107 10 9528 6.63800000 2895126538 2895126538 -5.00000000
8.10801220 -0.75215757 -0.42674738 17 12 9530 8.15400000 2895126543 2895126543 -3.00000000
8.09175491 -0.75349838 -0.14185315 16 14 9532 8.12800000 2895126547 2895126547 -1.00000000
8.15178776 -0.76052368 2.19375014 47 15 9533 8.47600000 2895126550 2895126550 15.00000000
2.20015740 -0.20875099 -0.59217799 4 0 9542 2.28800000 2895126571 2895126571 -15.00000000
8.08830261 -0.76884282 0.14181826 12 1 9543 8.12600000 2895126573 2895126573 1.00000000
2.57627082 -0.24534407 -0.59746999 7 2 9544 2.65600000 2895126575 2895126575 -13.00000000
8.10800362 -0.77357137 0.42685205 18 3 9545 8.15600000 2895126577 2895126577 3.00000000
3.10550880 -0.29629153 -0.60639101 4 4 9545 3.17800000 2895126580 2895126580 -11.00000000
8.09801674 -0.77404481 0.71171379 76 5 9546 8.16600000 2895126582 2895126582 5.00000000
3.86787200 -0.37038982 -0.61541319 6 6 9547 3.93400000 2895126584 2895126584 -9.00000000
8.10365677 -0.77743852 0.99957234 92 7 9548 8.20200000 2895126587 2895126587 7.00000000
5.16325283 -0.49625519 -0.63688916 8 8 9549 5.22600000 2895126589 2895126589 -7.00000000
8.21316147 -0.79083753 1.30685353 7 9 9550 8.35400000 2895126591 2895126591 9.00000000
8.09711266 -0.78251594 -0.42632869 17 12 9552 8.14600000 2895126598 2895126598 -3.00000000
8.09278297 -0.78494895 -0.14192297 16 14 9554 8.13200000 2895126603 2895126603 -1.00000000
8.15279102 -0.79076934 2.19478559 47 15 9554 8.48000000 2895126605 2895126605 15.00000000
2.21095061 -0.21756482 -0.59528381 4 0 9562 2.30000000 2895126626 2895126626 -15.00000000
8.09352970 -0.79785627 0.14195788 12 1 9563 8.13400000 2895126628 2895126628 1.00000000
2.58703470 -0.25548455 -0.60016942 6 2 9564 2.66800000 2895126630 2895126630 -13.00000000
8.09332848 -0.80068910 0.42622402 13 3 9565 8.14400000 2895126633 2895126633 3.00000000
3.10445571 -0.30712998 -0.60639101 4 4 9565 3.17800000 2895126635 2895126635 -11.00000000
8.11509228 -0.80427241 0.71345693 83 5 9566 8.18600000 2895126637 2895126637 5.00000000
3.87638402 -0.38486478 -0.61697751 6 6 9567 3.94400000 2895126640 2895126640 -9.00000000
8.10286903 -0.80591732 0.99981612 87 7 9568 8.20400000 2895126642 2895126642 7.00000000
5.16346455 -0.51447213 -0.63713294 8 8 9569 5.22800000 2895126644 2895126644 -7.00000000
8.20641994 -0.81910962 1.30622780 7 9 9570 8.35000000 2895126647 2895126647 9.00000000
6.58599186 -0.65736938 -0.57906276 40 10 9570 6.64400000 2895126649 2895126649 -5.00000000
8.08836937 -0.81017822 -0.42601469 12 12 9572 8.14000000 2895126653 2895126653 -3.00000000
8.09198380 -0.81339329 -0.14195788 14 14 9574 8.13400000 2895126658 2895126658 -1.00000000
8.16728020 -0.82096201 2.19944429 56 15 9574 8.49800000 2895126660 2895126660 15.00000000
2.20256829 -0.22372873 -0.59321326 4 0 9580 2.29200000 2895126681 2895126681 -15.00000000
8.11087799 -0.82530320 0.14230692 12 1 9581 8.15400000 2895126683 2895126683 1.00000000
2.59009671 -0.26400590 -0.60106921 5 2 9582 2.67200000 2895126686 2895126686 -13.00000000
8.09886551 -0.82550901 0.42664272 15 3 9582 8.15200000 2895126688 2895126688 3.00000000
3.08394456 -0.31488717 -0.60257483 4 4 9583 3.15800000 2895126690 2895126690 -11.00000000
8.09666920 -0.82814091 0.71206242 83 5 9584 8.17000000 2895126693 2895126693 5.00000000
3.86926055 -0.39643687 -0.61603892 4 6 9585 3.93800000 2895126695 2895126695 -9.00000000
8.10819530 -0.83217990 1.00079107 90 7 9586 8.21200000 2895126697 2895126697 7.00000000
5.15787315 -0.53028500 -0.63664544 8 8 9587 5.22400000 2895126699 2895126699 -7.00000000
8.20002365 -0.84305084 1.30560207 7 9 9587 8.34600000 2895126702 2895126702 9.00000000
6.58191204 -0.67785251 -0.57888842 40 10 9588 6.64200000 2895126704 2895126704 -5.00000000
8.10366440 -0.83743227 -0.42695674 17 12 9590 8.15800000 2895126709 2895126709 -3.00000000
8.08739948 -0.83860469 -0.14192297 16 14 9592 8.13200000 2895126713 2895126713 -1.00000000
8.15505314 -0.84561992 2.19685602 56 15 9592 8.48800000 2895126716 2895126716 15.00000000
2.19793153 -0.23101191 -0.59217799 4 0 9600 2.28800000 2895126736 2895126736 -15.00000000
8.09601498 -0.85235417 0.14209749 12 1 9601 8.14200000 2895126739 2895126739 1.00000000
2.59303522 -0.27345416 -0.60196900 4 2 9602 2.67600000 2895126741 2895126741 -13.00000000
8.10373020 -0.85602653 0.42706141 15 3 9603 8.16000000 2895126743 2895126743 3.00000000
3.10235047 -0.32771260 -0.60639101 4 4 9603 3.17800000 2895126746 2895126746 -11.00000000
8.08778477 -0.85576957 0.71153951 79 5 9604 8.16400000 2895126748 2895126748 5.00000000
3.87178206 -0.41035709 -0.61666465 4 6 9605 3.94200000 2895126750 2895126750 -9.00000000
8.11511135 -0.86152554 1.00200975 90 7 9606 8.22200000 2895126752 2895126752 7.00000000
5.15599060 -0.54828608 -0.63664544 8 8 9607 5.22400000 2895126755 2895126755 -7.00000000
8.19295025 -0.87268132 1.30497634 7 9 9608 8.34200000 2895126757 2895126757 9.00000000
6.57356262 -0.70019042 -0.57836550 20 10 9608 6.63600000 2895126759 2895126759 -5.00000000
8.10664940 -0.86635095 -0.42727074 17 12 9610 8.16400000 2895126764 2895126764 -3.00000000
8.08442211 -0.86682987 -0.14192297 16 14 9612 8.13200000 2895126769 2895126769 -1.00000000
8.14229488 -0.87447256 2.19426775 47 15 9613 8.47800000 2895126771 2895126771 15.00000000
2.19707012 -0.23906618 -0.59217799 4 0 9621 2.28800000 2895126792 2895126792 -15.00000000
8.07693386 -0.88028854 0.14181826 12 1 9622 8.12600000 2895126794 2895126794 1.00000000
2.58039236 -0.28168741 -0.59926963 4 2 9623 2.66400000 2895126796 2895126796 -13.00000000
8.11856174 -0.88625932 0.42800346 15 3 9623 8.17800000 2895126799 2895126799 3.00000000
3.09722519 -0.33865428 -0.60562778 4 4 9624 3.17400000 2895126801 2895126801 -11.00000000
8.09647751 -0.88670850 0.71258533 79 5 9625 8.17600000 2895126803 2895126803 5.00000000
3.86632466 -0.42411435 -0.61603892 4 6 9626 3.93800000 2895126805 2895126805 -9.00000000
8.10203362 -0.89017910 1.00079107 87 7 9627 8.21200000 2895126808 2895126808 7.00000000
5.15000010 -0.56674576 -0.63615799 6 8 9628 5.22000000 2895126810 2895126810 -7.00000000
8.19951344 -0.90378624 1.30654061 7 9 9629 8.35200000 2895126812 2895126812 9.00000000
6.56897163 -0.72406077 -0.57819122 16 10 9629 6.63400000 2895126815 2895126815 -5.00000000
8.09349442 -0.89495993 -0.42674738 17 12 9631 8.15400000 2895126819 2895126819 -3.00000000
8.09112835 -0.89755732 -0.14209749 16 14 9633 8.14200000 2895126824 2895126824 -1.00000000
8.14687347 -0.90374112 2.19633842 47 15 9633 8.48600000 2895126826 2895126826 15.00000000
2.20006156 -0.24716528 -0.59321326 4 0 9641 2.29200000 2895126847 2895126847 -15.00000000
8.08573437 -0.90981853 0.14202769 12 1 9642 8.13800000 2895126849 2895126849 1.00000000
2.57164741 -0.28981999 -0.59746999 4 2 9643 2.65600000 2895126851 2895126851 -13.00000000
8.10350990 -0.91325092 0.42737541 10 3 9643 8.16600000 2895126854 2895126854 3.00000000
3.10187697 -0.35012418 -0.60677260 5 4 9644 3.18000000 2895126856 2895126856 -11.00000000
8.09729290 -0.91541272 0.71293396 76 5 9645 8.18000000 2895126858 2895126858 5.00000000
3.85696936 -0.43671873 -0.61478746 4 6 9646 3.93000000 2895126861 2895126861 -9.00000000
8.09887695 -0.91845506 1.00079107 87 7 9647 8.21200000 2895126863 2895126863 7.00000000
5.14404583 -0.58427113 -0.63567048 6 8 9648 5.21600000 2895126865 2895126865 -7.00000000
8.20612240 -0.93351877 1.30810499 7 9 9649 8.36200000 2895126868 2895126868 9.00000000
6.59609842 -0.75036430 -0.58080590 40 10 9649 6.66400000 2895126870 2895126870 -5.00000000
8.09627438 -0.92388535 -0.42706141 17 12 9651 8.16000000 2895126875 2895126875 -3.00000000
8.10383987 -0.92761445 -0.14237674 14 14 9653 8.15800000 2895126879 2895126879 -1.00000000
8.15518475 -0.93349171 2.19944429 47 15 9653 8.49800000 2895126881 2895126881 15.00000000
2.19922996 -0.25445959 -0.59321326 4 0 9660 2.29200000 2895126902 2895126902 -15.00000000
8.09856415 -0.93846828 0.14230692 12 1 9661 8.15400000 2895126904 2895126904 1.00000000
2.57841516 -0.29924494 -0.59926963 5 2 9662 2.66400000 2895126907 2895126907 -13.00000000
8.09828949 -0.94130129 0.42727074 13 3 9663 8.16400000 2895126909 2895126909 3.00000000
3.09484839 -0.35972843 -0.60562778 5 4 9663 3.17400000 2895126911 2895126911 -11.00000000
8.11004448 -0.94410229 0.71432847 79 5 9664 8.19600000 2895126914 2895126914 5.00000000
3.85157585 -0.44904900 -0.61416173 4 6 9665 3.92600000 2895126916 2895126916 -9.00000000
8.10367298 -0.94622779 1.00176597 87 7 9666 8.22000000 2895126918 2895126918 7.00000000
5.11644840 -0.59832877 -0.63250190 4 8 9667 5.19000000 2895126921 2895126921 -7.00000000
8.20314980 -0.95929444 1.30810499 7 9 9667 8.36200000 2895126923 2895126923 9.00000000
6.59555292 -0.77246541 -0.58098018 100 10 9668 6.66600000 2895126925 2895126925 -5.00000000
8.09118271 -0.95049548 -0.42695674 17 12 9670 8.15800000 2895126930 2895126930 -3.00000000
8.09277534 -0.95354664 -0.14223711 14 14 9672 8.15000000 2895126934 2895126934 -1.00000000
8.15955067 -0.96285850 2.20151472 49 15 9673 8.50600000 2895126937 2895126937 15.00000000
2.19065523 -0.26121983 -0.59114271 4 0 9680 2.28400000 2895126957 2895126957 -15.00000000
8.09920979 -0.96720606 0.14237674 12 1 9681 8.15800000 2895126960 2895126960 1.00000000
2.57348490 -0.30778062 -0.59836978 5 2 9682 2.66000000 2895126962 2895126962 -13.00000000
8.09115696 -0.96767670 0.42706141 13 3 9682 8.16000000 2895126964 2895126964 3.00000000
3.08382726 -0.36936188 -0.60371965 5 4 9683 3.16400000 2895126967 2895126967 -11.00000000
8.10274315 -0.97193134 0.71397984 79 5 9684 8.19200000 2895126969 2895126969 5.00000000
3.86959767 -0.46484682 -0.61729038 4 6 9685 3.94600000 2895126971 2895126971 -9.00000000
8.10820389 -0.97545755 1.00274098 87 7 9686 8.22800000 2895126974 2895126974 7.00000000
5.14389133 -0.61974663 -0.63615799 6 8 9687 5.22000000 2895126976 2895126976 -7.00000000
8.20350075 -0.98982728 1.30873072 7 9 9688 8.36600000 2895126978 2895126978 9.00000000
8.09772873 -0.97993290 -0.42748010 17 12 9690 8.16800000 2895126985 2895126985 -3.00000000
8.08145714 -0.98082620 -0.14209749 14 14 9692 8.14200000 2895126990 2895126990 -1.00000000
8.14846897 -0.99040240 2.19944429 47 15 9693 8.49800000 2895126992 2895126992 15.00000000
2.18589520 -0.26839417 -0.59010744 4 0 9700 2.28000000 2895127013 2895127013 -15.00000000
8.09181499 -0.99498355 0.14230692 12 1 9701 8.15400000 2895127015 2895127015 1.00000000
2.57626319 -0.31723821 -0.59926963 5 2 9702 2.66400000 2895127017 2895127017 -13.00000000
8.11151695 -0.99884337 0.42831746 13 3 9702 8.18400000 2895127020 2895127020 3.00000000
3.08251905 -0.38012421 -0.60371965 5 4 9703 3.16400000 2895127022 2895127022 -11.00000000
8.09336853 -0.99947667 0.71345693 76 5 9704 8.18600000 2895127024 2895127024 5.00000000
3.85226798 -0.47641182 -0.61478746 4 6 9705 3.93000000 2895127027 2895127027 -9.00000000
8.10671997 -1.00399852 1.00298464 90 7 9706 8.23000000 2895127029 2895127029 7.00000000
5.12987661 -0.63623244 -0.63469553 4 8 9707 5.20800000 2895127031 2895127031 -7.00000000
8.19233131 -1.01605308 1.30747926 7 9 9707 8.35800000 2895127034 2895127034 9.00000000
8.09822273 -1.00868702 -0.42768943 17 12 9710 8.17200000 2895127040 2895127040 -3.00000000
8.07798481 -1.00902975 -0.14209749 14 14 9712 8.14200000 2895127045 2895127045 -1.00000000
8.14112854 -1.01836026 2.19840908 47 15 9713 8.49400000 2895127047 2895127047 15.00000000
2.18877816 -0.27650699 -0.59114271 4 0 9720 2.28400000 2895127068 2895127068 -15.00000000
8.08432484 -1.02272129 0.14223711 12 1 9721 8.15000000 2895127070 2895127070 1.00000000
2.57900667 -0.32671896 -0.60016942 5 2 9722 2.66800000 2895127073 2895127073 -13.00000000
8.10798168 -1.02715170 0.42831746 13 3 9722 8.18400000 2895127075 2895127075 3.00000000
3.08312106 -0.39112896 -0.60410130 5 4 9723 3.16600000 2895127077 2895127077 -11.00000000
8.09971333 -1.02897716 0.71432847 79 5 9724 8.19600000 2895127080 2895127080 5.00000000
3.85450053 -0.49035442 -0.61541319 4 6 9725 3.93400000 2895127082 2895127082 -9.00000000
8.10316563 -1.03229010 1.00298464 92 7 9726 8.23000000 2895127084 2895127084 7.00000000
5.12762451 -0.65413517 -0.63469553 4 8 9727 5.20800000 2895127087 2895127087 -7.00000000
8.19657326 -1.04564333 1.30873072 7 9 9727 8.36600000 2895127089 2895127089 9.00000000
6.57129145 -0.83947051 -0.57958567 12 10 9728 6.65000000 2895127091 2895127091 -5.00000000
8.10257721 -1.03796411 -0.42810813 17 12 9730 8.18000000 2895127096 2895127096 -3.00000000
8.09028053 -1.03925931 -0.14237674 14 14 9732 8.15800000 2895127100 2895127100 -1.00000000
8.14710426 -1.04800427 2.20099711 51 15 9733 8.50400000 2895127103 2895127103 15.00000000
2.19163132 -0.28464320 -0.59217799 4 0 9740 2.28800000 2895127123 2895127123 -15.00000000
8.08467197 -1.05145037 0.14230692 12 1 9741 8.15400000 2895127126 2895127126 1.00000000
2.56625605 -0.33420941 -0.59746999 5 2 9742 2.65600000 2895127128 2895127128 -13.00000000
8.10236549 -1.05518973 0.42821279 13 3 9742 8.18200000 2895127130 2895127130 3.00000000
3.09147096 -0.40315807 -0.60600936 5 4 9743 3.17600000 2895127133 2895127133 -11.00000000
8.10792637 -1.05879211 0.71537435 79 5 9744 8.20800000 2895127135 2895127135 5.00000000
3.85668302 -0.50431842 -0.61603892 6 6 9745 3.93800000 2895127137 2895127137 -9.00000000
8.09360790 -1.05979598 1.00225353 87 7 9746 8.22400000 2895127139 2895127139 7.00000000
5.12530994 -0.67202991 -0.63469553 4 8 9747 5.20800000 2895127142 2895127142 -7.00000000
8.21441746 -1.07707334 1.31217229 5 9 9747 8.38800000 2895127144 2895127144 9.00000000
6.57622290 -0.86344093 -0.58028293 16 10 9748 6.65800000 2895127146 2895127146 -5.00000000
8.08306313 -1.06415546 -0.42727074 17 12 9750 8.16400000 2895127151 2895127151 -3.00000000
8.09453297 -1.06854010 -0.14251634 14 14 9752 8.16600000 2895127156 2895127156 -1.00000000
8.15316105 -1.07627940 2.20358539 47 15 9752 8.51400000 2895127158 2895127158 15.00000000
2.19445395 -0.29280269 -0.59321326 4 0 9760 2.29200000 2895127179 2895127179 -15.00000000
8.09086227 -1.08098888 0.14248145 15 1 9761 8.16400000 2895127181 2895127181 1.00000000
2.56121063 -0.34264845 -0.59657019 5 2 9762 2.65200000 2895127183 2895127183 -13.00000000
8.08675575 -1.08187675 0.42758477 10 3 9762 8.17000000 2895127186 2895127186 3.00000000
3.08226132 -0.41290417 -0.60448289 5 4 9763 3.16800000 2895127188 2895127188 -11.00000000
8.10023117 -1.08655787 0.71502572 79 5 9764 8.20400000 2895127190 2895127190 5.00000000
3.85489893 -0.51777768 -0.61603892 6 6 9765 3.93800000 2895127192 2895127192 -9.00000000
8.09772873 -1.08909988 1.00322843 90 7 9766 8.23200000 2895127195 2895127195 7.00000000
5.11703062 -0.68912166 -0.63396430 2 8 9767 5.20200000 2895127197 2895127197 -7.00000000
8.19690418 -1.10389495 1.30998218 7 9 9767 8.37400000 2895127199 2895127199 9.00000000
6.57514334 -0.88665724 -0.58045727 16 10 9768 6.66000000 2895127202 2895127202 -5.00000000
8.08721638 -1.09343457 -0.42768943 17 12 9770 8.17200000 2895127206 2895127206 -3.00000000
8.08877277 -1.09652019 -0.14248145 16 14 9772 8.16400000 2895127211 2895127211 -1.00000000
8.16064739 -1.10771406 2.20669127 47 15 9773 8.52600000 2895127213 2895127213 15.00000000
2.19347095 -0.30007815 -0.59321326 4 0 9779 2.29200000 2895127234 2895127234 -15.00000000
8.10110188 -1.10971296 0.14272578 15 1 9780 8.17800000 2895127236 2895127236 1.00000000
2.56778288 -0.35219911 -0.59836978 4 2 9781 2.66000000 2895127239 2895127239 -13.00000000
8.09875965 -1.11227214 0.42842212 13 3 9782 8.18600000 2895127241 2895127241 3.00000000
3.07698512 -0.42258880 -0.60371965 5 4 9782 3.16400000 2895127243 2895127243 -11.00000000
8.09658337 -1.11341321 0.71502572 76 5 9783 8.20400000 2895127245 2895127245 5.00000000
3.85707474 -0.53109705 -0.61666465 4 6 9784 3.94200000 2895127248 2895127248 -9.00000000
8.10783863 -1.11784482 1.00493455 90 7 9785 8.24600000 2895127250 2895127250 7.00000000
5.12454987 -0.70744389 -0.63518304 2 8 9786 5.21200000 2895127252 2895127252 -7.00000000
8.19319820 -1.13107073 1.30998218 7 9 9786 8.37400000 2895127255 2895127255 9.00000000
6.57414055 -0.90872914 -0.58063155 16 10 9787 6.66200000 2895127257 2895127257 -5.00000000
8.09343719 -1.12161756 -0.42821279 17 12 9789 8.18200000 2895127262 2895127262 -3.00000000
8.07320786 -1.12168634 -0.14227201 16 14 9791 8.15200000 2895127266 2895127266 -1.00000000
8.15330029 -1.13281429 2.20565581 49 15 9791 8.52200000 2895127269 2895127269 15.00000000
2.18093157 -0.30612180 -0.59010744 4 0 9799 2.28000000 2895127289 2895127289 -15.00000000
8.08925819 -1.13687110 0.14258616 12 1 9800 8.17000000 2895127292 2895127292 1.00000000
2.57039738 -0.36170328 -0.59926963 5 2 9801 2.66400000 2895127294 2895127294 -13.00000000
8.10076046 -1.14137137 0.42873615 13 3 9802 8.19200000 2895127296 2895127296 3.00000000
3.07160306 -0.43277910 -0.60295641 5 4 9802 3.16000000 2895127298 2895127298 -11.00000000
8.09462070 -1.14194715 0.71520001 76 5 9803 8.20600000 2895127301 2895127301 5.00000000
3.83563757 -0.54179466 -0.61353600 6 6 9804 3.92200000 2895127303 2895127303 -9.00000000
8.11174965 -1.14725161 1.00590956 90 7 9805 8.25400000 2895127305 2895127305 7.00000000
5.12991095 -0.72644091 -0.63615799 4 8 9806 5.22000000 2895127308 2895127308 -7.00000000
8.18508625 -1.16053808 1.30935645 7 9 9807 8.37000000 2895127310 2895127310 9.00000000
6.56501055 -0.93083256 -0.58010864 16 10 9807 6.65600000 2895127312 2895127312 -5.00000000
8.09738255 -1.15098631 -0.42863148 17 12 9809 8.19000000 2895127317 2895127317 -3.00000000
8.08508110 -1.15211713 -0.14255126 18 14 9811 8.16800000 2895127322 2895127322 -1.00000000
8.14144325 -1.16159856 2.20358539 47 15 9812 8.51400000 2895127324 2895127324 15.00000000
2.17990446 -0.31335235 -0.59010744 4 0 9818 2.28000000 2895127345 2895127345 -15.00000000
8.07356739 -1.16198051 0.14237674 12 1 9819 8.15800000 2895127347 2895127347 1.00000000
2.56146860 -0.36911327 -0.59746999 6 2 9820 2.65600000 2895127349 2895127349 -13.00000000
8.10879135 -1.16993940 0.42936417 13 3 9821 8.20400000 2895127351 2895127351 3.00000000
3.07403731 -0.44352323 -0.60371965 5 4 9821 3.16400000 2895127354 2895127354 -11.00000000
8.09670544 -1.16963816 0.71572298 79 5 9822 8.21200000 2895127356 2895127356 5.00000000
3.81426954 -0.55168343 -0.61040729 6 6 9823 3.90200000 2895127358 2895127358 -9.00000000
8.09807682 -1.17272222 1.00469089 90 7 9824 8.24400000 2895127361 2895127361 7.00000000
5.12158012 -0.74259377 -0.63542676 4 8 9825 5.21400000 2895127363 2895127363 -7.00000000
8.19703960 -1.18851411 1.31185937 7 9 9825 8.38600000 2895127365 2895127365 9.00000000
6.59737825 -0.95775002 -0.58324623 4 10 9826 6.69200000 2895127368 2895127368 -5.00000000
8.08363914 -1.17639375 -0.42810813 17 12 9828 8.18000000 2895127372 2895127372 -3.00000000
8.09110928 -1.18036520 -0.14272578 16 14 9830 8.17800000 2895127377 2895127377 -1.00000000
8.14157677 -1.18772757 2.20462060 47 15 9830 8.51800000 2895127379 2895127379 15.00000000
2.18261981 -0.32152280 -0.59114271 4 0 9838 2.28400000 2895127400 2895127400 -15.00000000
8.09320164 -1.19365680 0.14279559 12 1 9839 8.18200000 2895127402 2895127402 1.00000000
2.55630875 -0.37748283 -0.59657019 4 2 9840 2.65200000 2895127404 2895127404 -13.00000000
8.10861015 -1.19882143 0.42957354 15 3 9841 8.20800000 2895127407 2895127407 3.00000000
3.07635474 -0.45482519 -0.60448289 5 4 9841 3.16800000 2895127409 2895127409 -11.00000000
8.10045624 -1.19906080 0.71642023 79 5 9842 8.22000000 2895127411 2895127411 5.00000000
3.82599878 -0.56702149 -0.61259735 6 6 9843 3.91600000 2895127414 2895127414 -9.00000000
8.08607960 -1.19981730 1.00371587 87 7 9844 8.23600000 2895127416 2895127416 7.00000000
5.10324860 -0.75813329 -0.63347685 4 8 9845 5.19800000 2895127418 2895127418 -7.00000000
8.19653606 -1.21913099 1.31248522 10 9 9846 8.39000000 2895127421 2895127421 9.00000000
8.05232048 -1.19768083 -0.71223670 17 10 9846 8.17200000 2895127423 2895127423 -5.00000000
8.08145905 -1.20489836 -0.42821279 17 12 9848 8.18200000 2895127427 2895127427 -3.00000000
8.08100700 -1.20771456 -0.14262107 16 14 9850 8.17200000 2895127432 2895127432 -1.00000000
8.14481163 -1.21870351 2.20669127 47 15 9851 8.52600000 2895127434 2895127434 15.00000000
2.18924022 -0.32952830 -0.59321326 4 0 9856 2.29200000 2895127455 2895127455 -15.00000000
8.08941174 -1.21907640 0.14279559 12 1 9857 8.18200000 2895127457 2895127457 1.00000000
2.55511022 -0.38551185 -0.59657019 5 2 9858 2.65200000 2895127460 2895127460 -13.00000000
8.09295464 -1.22249961 0.42894551 13 3 9859 8.19600000 2895127462 2895127462 3.00000000
3.07102823 -0.46390110 -0.60371965 5 4 9859 3.16400000 2895127464 2895127464 -11.00000000
8.10452938 -1.22569489 0.71711743 76 5 9860 8.22800000 2895127467 2895127467 5.00000000
3.83005786 -0.57992560 -0.61353600 6 6 9861 3.92200000 2895127469 2895127469 -9.00000000
8.09600925 -1.22729719 1.00542212 92 7 9862 8.25000000 2895127471 2895127471 7.00000000
5.10672951 -0.77505547 -0.63420808 6 8 9863 5.20400000 2895127474 2895127474 -7.00000000
8.18311787 -1.24196315 1.31092083 10 9 9863 8.38000000 2895127476 2895127476 9.00000000
8.07215500 -1.22656369 -0.71432847 17 10 9864 8.19600000 2895127478 2895127478 -5.00000000
8.08355713 -1.23118317 -0.42852682 17 12 9866 8.18800000 2895127483 2895127483 -3.00000000
8.08112621 -1.23369932 -0.14269088 16 14 9868 8.17600000 2895127487 2895127487 -1.00000000
8.15261745 -1.24461353 2.20979691 49 15 9868 8.53800000 2895127490 2895127490 15.00000000
2.18807673 -0.33716816 -0.59321326 4 0 9876 2.29200000 2895127510 2895127510 -15.00000000
8.09301281 -1.24852586 0.14293520 12 1 9877 8.19000000 2895127513 2895127513 1.00000000
2.55760074 -0.39502341 -0.59746999 6 2 9878 2.65600000 2895127515 2895127515 -13.00000000
8.09653378 -1.25196266 0.42936417 18 3 9879 8.20400000 2895127517 2895127517 3.00000000
3.05774903 -0.47281811 -0.60142994 5 4 9879 3.15200000 2895127520 2895127520 -11.00000000
8.10217094 -1.25428224 0.71729177 83 5 9880 8.23000000 2895127522 2895127522 5.00000000
3.83581853 -0.59450161 -0.61478746 6 6 9881 3.93000000 2895127524 2895127524 -9.00000000
8.09756088 -1.25646317 1.00615335 90 7 9882 8.25600000 2895127527 2895127527 7.00000000
5.09614658 -0.79165769 -0.63323313 8 8 9883 5.19600000 2895127529 2895127529 -7.00000000
8.18046284 -1.27225101 1.31123364 10 9 9884 8.38200000 2895127531 2895127531 9.00000000
8.00876331 -1.24554777 -0.70909911 13 10 9884 8.13600000 2895127533 2895127533 -5.00000000
8.09302425 -1.26154590 -0.42925951 17 12 9886 8.20200000 2895127538 2895127538 -3.00000000
8.07874584 -1.26220894 -0.14272578 14 14 9888 8.17800000 2895127543 2895127543 -1.00000000
8.14418411 -1.27388895 2.20876169 47 15 9889 8.53400000 2895127545 2895127545 15.00000000
2.17162013 -0.34239691 -0.58907217 4 0 9896 2.27600000 2895127566 2895127566 -15.00000000
8.08662987 -1.27645636 0.14290030 12 1 9897 8.18800000 2895127568 2895127568 1.00000000
2.56390572 -0.40516540 -0.59926963 7 2 9898 2.66400000 2895127570 2895127570 -13.00000000
8.09211349 -1.28021717 0.42936417 13 3 9899 8.20400000 2895127573 2895127573 3.00000000
3.05995822 -0.48410234 -0.60219318 5 4 9899 3.15600000 2895127575 2895127575 -11.00000000
8.08987141 -1.28130972 0.71659452 76 5 9900 8.22200000 2895127577 2895127577 5.00000000
3.82591605 -0.60665005 -0.61353600 6 6 9901 3.92200000 2895127580 2895127580 -9.00000000
8.10684967 -1.28689981 1.00785947 92 7 9902 8.27000000 2895127582 2895127582 7.00000000
5.09531260 -0.80975330 -0.63347685 8 8 9903 5.19800000 2895127584 2895127584 -7.00000000
8.18790436 -1.30123162 1.31311095 10 9 9903 8.39400000 2895127586 2895127586 9.00000000
8.01223660 -1.27474821 -0.70979637 17 10 9904 8.14400000 2895127589 2895127589 -5.00000000
8.09251595 -1.29041708 -0.42946887 17 12 9906 8.20600000 2895127593 2895127593 -3.00000000
8.08218956 -1.29166365 -0.14286540 14 14 9908 8.18600000 2895127598 2895127598 -1.00000000
8.13991451 -1.30088902 2.20876169 47 15 9908 8.53400000 2895127600 2895127600 15.00000000
2.17422628 -0.35059026 -0.59010744 4 0 9916 2.28000000 2895127621 2895127621 -15.00000000
8.07422829 -1.30340147 0.14276068 15 1 9917 8.18000000 2895127623 2895127623 1.00000000
2.55862832 -0.41349086 -0.59836978 7 2 9918 2.66000000 2895127626 2895127626 -13.00000000
8.09745407 -1.31005108 0.42988753 10 3 9919 8.21400000 2895127628 2895127628 3.00000000
3.06212592 -0.49540773 -0.60295641 5 4 9919 3.16000000 2895127630 2895127630 -11.00000000
8.09714985 -1.31145215 0.71764040 76 5 9920 8.23400000 2895127633 2895127633 5.00000000
3.78867674 -0.61431032 -0.60790431 6 6 9921 3.88600000 2895127635 2895127635 -9.00000000
8.09838867 -1.31455398 1.00737202 90 7 9922 8.26600000 2895127637 2895127637 7.00000000
5.08657694 -0.82657909 -0.63274562 8 8 9923 5.19200000 2895127639 2895127639 -7.00000000
8.18697929 -1.33186746 1.31373668 10 9 9924 8.39800000 2895127642 2895127642 9.00000000
8.02740383 -1.30590761 -0.71153951 17 10 9924 8.16400000 2895127644 2895127644 -5.00000000
8.08796215 -1.31865740 -0.42946887 17 12 9926 8.20600000 2895127649 2895127649 -3.00000000
8.08552551 -1.32115769 -0.14300501 14 14 9928 8.19400000 2895127653 2895127653 -1.00000000
8.13890553 -1.33133829 2.20979691 47 15 9929 8.53800000 2895127656 2895127656 15.00000000
2.17673874 -0.35918590 -0.59114271 4 0 9937 2.28400000 2895127676 2895127676 -15.00000000
