# .PCD v0.7 - Point Cloud Data file format
VERSION 0.7
FIELDS x y z intensity laser_id azimuth distance_m adjustedtime timestamp vertical_angle
SIZE 4 4 4 1 1 2 8 8 4 8
TYPE F F F U U U F U U F
COUNT 1 1 1 1 1 1 1 1 1 1
WIDTH 526
HEIGHT 1
VIEWPOINT 0 0 0 1 0 0 0
POINTS 526
DATA ascii
-4.04370880 0.97080857 -0.96009111 13 2 28350 4.26800000 2891578558 2891578558 -13.00000000
-4.14615536 0.99616927 0.22347453 10 3 28351 4.27000000 2891578560 2891578560 3.00000000
-2.60187078 0.62513423 -0.52014530 3 4 28351 2.72600000 2891578562 2891578562 -11.00000000
-4.84681702 1.16540730 0.43612733 9 5 28352 5.00400000 2891578564 2891578564 5.00000000
-3.11129928 0.74868006 -0.50684768 3 6 28353 3.24000000 2891578567 2891578567 -9.00000000
-3.90406418 0.94088691 -0.49308336 4 8 28355 4.04600000 2891578571 2891578571 -7.00000000
-5.23143578 1.26175213 -0.47081533 10 10 28356 5.40200000 2891578576 2891578576 -5.00000000
-4.08669281 0.98716515 -0.22033438 16 12 28358 4.21000000 2891578581 2891578581 -3.00000000
-4.03108025 0.97522092 -0.07239258 100 14 28360 4.14800000 2891578585 2891578585 -1.00000000
-9.83906651 2.38032079 2.71242356 47 15 28360 10.48000000 2891578588 2891578588 15.00000000
-1.91646636 0.46647549 -0.52850848 4 0 28368 2.04200000 2891578608 2891578608 -15.00000000
-4.08783007 0.99574971 0.07343972 17 1 28369 4.20800000 2891578611 2891578611 1.00000000
-4.04408169 0.98584092 -0.96099091 16 2 28370 4.27200000 2891578613 2891578613 -13.00000000
-4.14459324 1.01110935 0.22357920 8 3 28371 4.27200000 2891578615 2891578615 3.00000000
-2.58059978 0.62955958 -0.51632917 3 4 28371 2.70600000 2891578617 2891578617 -11.00000000
-4.84271955 1.18231881 0.43612733 9 5 28372 5.00400000 2891578620 2891578620 5.00000000
-3.10866690 0.75953597 -0.50684768 3 6 28373 3.24000000 2891578622 2891578622 -9.00000000
-3.90846872 0.95639622 -0.49405831 4 8 28375 4.05400000 2891578627 2891578627 -7.00000000
-5.23474026 1.28190112 -0.47151256 10 10 28376 5.41000000 2891578631 2891578631 -5.00000000
-4.09874010 1.00523019 -0.22117175 16 12 28378 4.22600000 2891578636 2891578636 -3.00000000
-11.24186230 2.75918579 2.67241859 56 13 28379 11.88000000 2891578638 2891578638 13.00000000
-4.02376747 0.98833209 -0.07232277 100 14 28380 4.14400000 2891578641 2891578641 -1.00000000
-9.82089615 2.41406107 2.70983529 45 15 28381 10.47000000 2891578643 2891578643 15.00000000
-1.91107547 0.47223550 -0.52747321 4 0 28388 2.03800000 2891578664 2891578664 -15.00000000
-4.08044672 1.00905275 0.07336992 19 1 28389 4.20400000 2891578666 2891578666 1.00000000
-4.05196619 1.00276017 -0.96369034 15 2 28390 4.28400000 2891578668 2891578668 -13.00000000
-4.14491606 1.02653074 0.22378854 10 3 28391 4.27600000 2891578670 2891578670 3.00000000
-2.58982062 0.64139551 -0.51861882 3 4 28391 2.71800000 2891578673 2891578673 -11.00000000
-4.82502556 1.19586074 0.43490717 9 5 28392 4.99000000 2891578675 2891578675 5.00000000
-3.10216212 0.76943153 -0.50622195 3 6 28393 3.23600000 2891578677 2891578677 -9.00000000
-3.91666579 0.97290486 -0.49552074 4 8 28395 4.06600000 2891578682 2891578682 -7.00000000
-5.21089840 1.29535949 -0.46976945 10 10 28396 5.39000000 2891578687 2891578687 -5.00000000
-4.10489702 1.02194393 -0.22169511 6 12 28398 4.23600000 2891578691 2891578691 -3.00000000
-11.06954193 2.75789475 2.63372684 56 13 28399 11.70800000 2891578694 2891578694 13.00000000
-4.02805424 1.00430667 -0.07246239 100 14 28400 4.15200000 2891578696 2891578696 -1.00000000
-9.81283665 2.44661498 2.70983529 42 15 28400 10.47000000 2891578698 2891578698 15.00000000
-1.92065835 0.48172337 -0.53057903 4 0 28408 2.05000000 2891578719 2891578719 -15.00000000
-4.07302046 1.02231634 0.07330011 21 1 28409 4.20000000 2891578721 2891578721 1.00000000
-4.04466105 1.01594865 -0.96279049 20 2 28410 4.28000000 2891578723 2891578723 -13.00000000
-4.15680361 1.04488814 0.22462593 8 3 28411 4.29200000 2891578726 2891578726 3.00000000
-2.58756590 0.65043175 -0.51861882 3 4 28411 2.71800000 2891578728 2891578728 -11.00000000
-4.84787273 1.21950054 0.43734753 9 5 28412 5.01800000 2891578730 2891578730 5.00000000
-3.11095119 0.78314883 -0.50809914 4 6 28413 3.24800000 2891578733 2891578733 -9.00000000
-3.93249464 0.99142343 -0.49795812 4 8 28415 4.08600000 2891578737 2891578737 -7.00000000
-5.20441294 1.31305361 -0.46959513 10 10 28416 5.38800000 2891578742 2891578742 -5.00000000
-4.09355879 1.03430939 -0.22127642 6 12 28418 4.22800000 2891578746 2891578746 -3.00000000
-10.89359093 2.75447941 2.59413552 57 13 28419 11.53200000 2891578749 2891578749 13.00000000
-4.03227854 1.02032328 -0.07260201 100 14 28420 4.16000000 2891578751 2891578751 -1.00000000
-9.80942154 2.48398709 2.71138835 47 15 28421 10.47600000 2891578753 2891578753 15.00000000
-1.92832589 0.49080732 -0.53316724 4 0 28428 2.06000000 2891578774 2891578774 -15.00000000
-4.06942701 1.03652763 0.07330011 22 1 28429 4.20000000 2891578776 2891578776 1.00000000
-4.02975988 1.02717292 -0.96009111 12 2 28430 4.26800000 2891578779 2891578779 -13.00000000
-4.14151907 1.05642986 0.22399789 10 3 28431 4.28000000 2891578781 2891578781 3.00000000
-2.60430312 0.66431260 -0.52243501 3 4 28431 2.73800000 2891578783 2891578783 -11.00000000
-4.83200359 1.23345864 0.43630165 9 5 28432 5.00600000 2891578786 2891578786 5.00000000
-3.10819840 0.79400331 -0.50809914 3 6 28433 3.24800000 2891578788 2891578788 -9.00000000
-3.90785503 0.99973243 -0.49527702 4 8 28435 4.06400000 2891578793 2891578793 -7.00000000
-5.21523905 1.33516550 -0.47098964 10 10 28436 5.40400000 2891578797 2891578797 -5.00000000
-4.08798885 1.04809630 -0.22117175 6 12 28438 4.22600000 2891578802 2891578802 -3.00000000
-10.71402550 2.74890113 2.55364442 59 13 28439 11.35200000 2891578804 2891578804 13.00000000
-4.03643990 1.03638160 -0.07274163 100 14 28440 4.16800000 2891578806 2891578806 -1.00000000
-9.81235790 2.51938534 2.71449423 47 15 28440 10.48800000 2891578809 2891578809 15.00000000
-1.92847145 0.49801850 -0.53368485 4 0 28448 2.06200000 2891578829 2891578829 -15.00000000
-4.06578445 1.05072629 0.07330011 22 1 28449 4.20000000 2891578832 2891578832 1.00000000
-4.03369665 1.04318488 -0.96189070 5 2 28450 4.27600000 2891578834 2891578834 -13.00000000
-4.13393927 1.06987917 0.22378854 8 3 28451 4.27600000 2891578836 2891578836 3.00000000
-2.58676314 0.66946417 -0.51938206 3 4 28451 2.72200000 2891578839 2891578839 -11.00000000
-4.84695578 1.25531328 0.43804476 9 5 28452 5.02600000 2891578841 2891578841 5.00000000
-3.10540795 0.80484807 -0.50809914 3 6 28453 3.24800000 2891578843 2891578843 -9.00000000
-3.90434170 1.01336730 -0.49527702 4 8 28455 4.06400000 2891578848 2891578848 -7.00000000
-5.20283318 1.35135853 -0.47029239 10 10 28456 5.39600000 2891578852 2891578852 -5.00000000
-4.09590292 1.06537628 -0.22179978 6 12 28458 4.23800000 2891578857 2891578857 -3.00000000
-10.54217720 2.74406695 2.51495290 60 13 28459 11.18000000 2891578859 2891578859 13.00000000
-4.01731634 1.04643261 -0.07246239 100 14 28460 4.15200000 2891578862 2891578862 -1.00000000
-9.81053543 2.55728149 2.71656466 47 15 28461 10.49600000 2891578864 2891578864 15.00000000
-1.92298365 0.50376797 -0.53264958 4 0 28468 2.05800000 2891578885 2891578885 -15.00000000
-4.07369757 1.06795466 0.07350954 21 1 28469 4.21200000 2891578887 2891578887 1.00000000
-4.03003073 1.05725873 -0.96189070 5 2 28470 4.27600000 2891578889 2891578889 -13.00000000
-4.13404322 1.08531713 0.22399789 8 3 28471 4.28000000 2891578892 2891578892 3.00000000
-2.58061290 0.67749250 -0.51861882 3 4 28471 2.71800000 2891578894 2891578894 -11.00000000
-4.83869028 1.27121210 0.43769613 9 5 28472 5.02200000 2891578896 2891578896 5.00000000
-3.11022139 0.81769216 -0.50935060 3 6 28473 3.25600000 2891578899 2891578899 -9.00000000
-3.89694118 1.02597904 -0.49478954 4 8 28475 4.06000000 2891578903 2891578903 -7.00000000
-5.20193768 1.37052667 -0.47064102 13 10 28476 5.40000000 2891578908 2891578908 -5.00000000
-4.09215927 1.07966709 -0.22179978 6 12 28478 4.23800000 2891578912 2891578912 -3.00000000
-10.37991714 2.74055433 2.47851062 54 13 28479 11.01800000 2891578915 2891578915 13.00000000
-4.00977278 1.05942762 -0.07239258 100 14 28480 4.14800000 2891578917 2891578917 -1.00000000
-9.80573654 2.59078741 2.71759987 47 15 28480 10.50000000 2891578919 2891578919 15.00000000
-1.91187811 0.50799692 -0.53006142 4 0 28488 2.04800000 2891578940 2891578940 -15.00000000
-4.06414747 1.08062649 0.07340482 21 1 28489 4.20600000 2891578942 2891578942 1.00000000
-4.04326439 1.07582951 -0.96593982 5 2 28490 4.29400000 2891578945 2891578945 -13.00000000
-4.12829924 1.09922707 0.22389323 7 3 28491 4.27800000 2891578947 2891578947 3.00000000
-2.58961511 0.68952727 -0.52090853 3 4 28491 2.73000000 2891578949 2891578949 -11.00000000
-4.83999920 1.28963351 0.43821907 9 5 28492 5.02800000 2891578952 2891578952 5.00000000
-3.09589601 0.82549030 -0.50747341 3 6 28493 3.24400000 2891578954 2891578954 -9.00000000
-3.91443300 1.04520881 -0.49747065 8 8 28495 4.08200000 2891578958 2891578958 -7.00000000
-5.20097160 1.38970518 -0.47098964 10 10 28496 5.40400000 2891578963 2891578963 -5.00000000
-4.09415388 1.09549356 -0.22211380 6 12 28498 4.24400000 2891578968 2891578968 -3.00000000
-10.25545883 2.74602365 2.45106673 64 13 28499 10.89600000 2891578970 2891578970 13.00000000
-4.01377630 1.07548809 -0.07253220 100 14 28500 4.15600000 2891578972 2891578972 -1.00000000
-9.79244328 2.62570906 2.71656466 47 15 28501 10.49600000 2891578975 2891578975 15.00000000
-1.90654182 0.51299679 -0.52902615 4 0 28506 2.04400000 2891578995 2891578995 -15.00000000
-4.05687046 1.09234917 0.07333501 19 1 28507 4.20200000 2891578998 2891578998 1.00000000
-4.02857494 1.08548450 -0.96324039 5 2 28508 4.28200000 2891579000 2891579000 -13.00000000
-4.14410973 1.11739063 0.22493994 7 3 28509 4.29800000 2891579002 2891579002 3.00000000
-2.59122729 0.69868159 -0.52167177 3 4 28509 2.73400000 2891579005 2891579005 -11.00000000
-4.84361839 1.30690849 0.43891633 9 5 28510 5.03600000 2891579007 2891579007 5.00000000
-3.11235833 0.84036148 -0.51060212 3 6 28511 3.26400000 2891579009 2891579009 -9.00000000
-3.91879511 1.05957365 -0.49844560 4 8 28513 4.09000000 2891579014 2891579014 -7.00000000
-5.20042658 1.40707839 -0.47133824 10 10 28514 5.40800000 2891579018 2891579018 -5.00000000
-4.08490896 1.10678339 -0.22179978 6 12 28516 4.23800000 2891579023 2891579023 -3.00000000
-10.19411850 2.76394987 2.43846941 57 13 28517 10.84000000 2891579025 2891579025 13.00000000
-4.01423740 1.08913970 -0.07260201 100 14 28518 4.16000000 2891579028 2891579028 -1.00000000
-9.78833866 2.65576410 2.71759987 47 15 28518 10.50000000 2891579030 2891579030 15.00000000
-1.91778564 0.52320802 -0.53264958 4 0 28526 2.05800000 2891579051 2891579051 -15.00000000
-4.05110359 1.10597706 0.07330011 19 1 28527 4.20000000 2891579053 2891579053 1.00000000
-4.03040075 1.10108089 -0.96459013 5 2 28528 4.28800000 2891579055 2891579055 -13.00000000
-4.13825750 1.13132286 0.22483526 8 3 28529 4.29600000 2891579058 2891579058 3.00000000
-2.60392261 0.71186417 -0.52472472 3 4 28529 2.75000000 2891579060 2891579060 -11.00000000
-4.85824442 1.32906532 0.44065943 9 5 28530 5.05600000 2891579062 2891579062 5.00000000
-3.10940599 0.85122055 -0.51060212 3 6 28531 3.26400000 2891579064 2891579064 -9.00000000
-3.90550041 1.07062232 -0.49722692 6 8 28533 4.08000000 2891579069 2891579069 -7.00000000
-5.19932604 1.42627680 -0.47168687 10 10 28534 5.41200000 2891579074 2891579074 -5.00000000
-4.08102036 1.12103570 -0.22179978 6 12 28536 4.23800000 2891579078 2891579078 -3.00000000
-10.17313385 2.79641795 2.43577003 57 13 28537 10.82800000 2891579081 2891579081 13.00000000
-4.01812363 1.10526681 -0.07274163 100 14 28538 4.16800000 2891579083 2891579083 -1.00000000
-9.79949760 2.69555163 2.72329402 49 15 28538 10.52200000 2891579085 2891579085 15.00000000
-1.91594768 0.52989912 -0.53264958 4 0 28546 2.05800000 2891579106 2891579106 -15.00000000
-4.05492735 1.12224483 0.07343972 17 1 28547 4.20800000 2891579108 2891579108 1.00000000
-4.02653265 1.11514294 -0.96459013 5 2 28548 4.28800000 2891579111 2891579111 -13.00000000
-4.13043356 1.14469433 0.22462593 8 3 28549 4.29200000 2891579113 2891579113 3.00000000
-2.57493472 0.71360868 -0.51938206 3 4 28549 2.72200000 2891579115 2891579115 -11.00000000
-4.86893511 1.35027516 0.44205391 9 5 28550 5.07200000 2891579117 2891579117 5.00000000
-3.11022258 0.86312568 -0.51122785 3 6 28551 3.26800000 2891579120 2891579120 -9.00000000
-6.98713017 1.94032943 0.89037740 2 7 28552 7.30600000 2891579122 2891579122 7.00000000
-3.90747738 1.08584297 -0.49795812 4 8 28553 4.08600000 2891579124 2891579124 -7.00000000
-5.20583296 1.44761992 -0.47273275 10 10 28554 5.42400000 2891579129 2891579129 -5.00000000
-4.07323456 1.13420272 -0.22159044 6 12 28556 4.23400000 2891579134 2891579134 -3.00000000
-10.15204716 2.82877350 2.43307066 60 13 28557 10.81600000 2891579136 2891579136 13.00000000
-4.01038885 1.11821175 -0.07267182 100 14 28558 4.16400000 2891579138 2891579138 -1.00000000
-9.77142048 2.72455311 2.71811771 49 15 28558 10.50200000 2891579140 2891579140 15.00000000
-1.90664566 0.53449798 -0.53057903 4 0 28566 2.05000000 2891579161 2891579161 -15.00000000
-4.06446314 1.14017308 0.07368406 19 1 28567 4.22200000 2891579164 2891579164 1.00000000
-4.03574944 1.13287807 -0.96773946 5 2 28568 4.30200000 2891579166 2891579166 -13.00000000
-4.12448978 1.15856516 0.22452125 8 3 28569 4.29000000 2891579168 2891579168 3.00000000
-2.58754897 0.72683990 -0.52243501 3 4 28569 2.73800000 2891579170 2891579170 -11.00000000
-4.86419201 1.36726272 0.44205391 9 5 28570 5.07200000 2891579173 2891579173 5.00000000
-3.11860013 0.87718630 -0.51310503 3 6 28571 3.28000000 2891579175 2891579175 -9.00000000
-3.89793086 1.09786153 -0.49722692 6 8 28573 4.08000000 2891579180 2891579180 -7.00000000
-5.19307756 1.46362090 -0.47203550 10 10 28574 5.41600000 2891579184 2891579184 -5.00000000
-4.08847237 1.15383875 -0.22263716 6 12 28576 4.25400000 2891579189 2891579189 -3.00000000
-10.13460922 2.86207485 2.43127108 62 13 28577 10.80800000 2891579191 2891579191 13.00000000
-4.00646114 1.13220382 -0.07267182 100 14 28578 4.16400000 2891579193 2891579193 -1.00000000
-9.63867760 2.72565389 2.68395352 49 15 28579 10.37000000 2891579196 2891579196 15.00000000
-1.90662670 0.54167807 -0.53109670 4 0 28586 2.05200000 2891579217 2891579217 -15.00000000
-4.05084085 1.15161967 0.07350954 17 1 28587 4.21200000 2891579219 2891579219 1.00000000
-2.20988250 0.62866765 -0.53043461 4 2 28588 2.35800000 2891579221 2891579221 -13.00000000
-4.13194609 1.17623627 0.22514929 8 3 28589 4.30200000 2891579223 2891579223 3.00000000
-2.56989002 0.73156756 -0.51938206 3 4 28589 2.72200000 2891579226 2891579226 -11.00000000
-4.85172510 1.38205028 0.44135669 9 5 28590 5.06400000 2891579228 2891579228 5.00000000
-3.10792041 0.88590091 -0.51185358 3 6 28591 3.27200000 2891579230 2891579230 -9.00000000
-3.90552807 1.11473012 -0.49868935 6 8 28593 4.09200000 2891579235 2891579235 -7.00000000
-5.19176817 1.48283350 -0.47238412 10 10 28594 5.42000000 2891579240 2891579240 -5.00000000
-4.09786177 1.17194748 -0.22336987 6 12 28596 4.26800000 2891579244 2891579244 -3.00000000
-10.11331654 2.89421701 2.42857170 64 13 28597 10.79600000 2891579246 2891579246 13.00000000
-3.99863958 1.14508104 -0.07260201 100 14 28598 4.16000000 2891579249 2891579249 -1.00000000
-9.48843861 2.71718192 2.64461303 47 15 28598 10.21800000 2891579251 2891579251 15.00000000
-1.91029358 0.54993343 -0.53264958 4 0 28606 2.05800000 2891579272 2891579272 -15.00000000
-4.04103184 1.16409206 0.07340482 17 1 28607 4.20600000 2891579274 2891579274 1.00000000
-2.20392942 0.63529825 -0.52953476 4 2 28608 2.35400000 2891579276 2891579276 -13.00000000
-4.12589645 1.19009876 0.22504461 7 3 28609 4.30000000 2891579279 2891579279 3.00000000
-2.58241153 0.74488658 -0.52243501 3 4 28609 2.73800000 2891579281 2891579281 -11.00000000
-4.86409950 1.40395021 0.44292548 10 5 28610 5.08200000 2891579283 2891579283 5.00000000
-3.10480905 0.89674419 -0.51185358 3 6 28611 3.27200000 2891579286 2891579286 -9.00000000
-3.90924096 1.13056219 -0.49966431 6 8 28613 4.10000000 2891579290 2891579290 -7.00000000
-5.19038820 1.50205481 -0.47273275 10 10 28614 5.42400000 2891579295 2891579295 -5.00000000
-4.09374571 1.18624449 -0.22336987 6 12 28616 4.26800000 2891579299 2891579299 -3.00000000
-10.10689545 2.93058681 2.42947149 62 13 28617 10.80000000 2891579302 2891579302 13.00000000
-4.00614119 1.16237533 -0.07281144 100 14 28618 4.17200000 2891579304 2891579304 -1.00000000
-9.33974648 2.70991206 2.60579014 47 15 28618 10.06800000 2891579306 2891579306 15.00000000
-1.91021693 0.55713922 -0.53316724 4 0 28626 2.06000000 2891579327 2891579327 -15.00000000
-4.05230045 1.18267274 0.07368406 19 1 28627 4.22200000 2891579329 2891579329 1.00000000
-2.19608665 0.64134860 -0.52818507 3 2 28628 2.34800000 2891579332 2891579332 -13.00000000
-4.12000990 1.20321429 0.22493994 7 3 28628 4.29800000 2891579334 2891579334 3.00000000
-2.58356452 0.75499773 -0.52319825 3 4 28629 2.74200000 2891579336 2891579336 -11.00000000
-4.87829208 1.42651248 0.44466859 10 5 28630 5.10200000 2891579339 2891579339 5.00000000
-3.11682701 0.91201454 -0.51435649 3 6 28631 3.28800000 2891579341 2891579341 -9.00000000
-3.90146065 1.14308476 -0.49917683 6 8 28633 4.09600000 2891579345 2891579345 -7.00000000
-5.19276142 1.52240562 -0.47343001 10 10 28634 5.43200000 2891579350 2891579350 -5.00000000
-4.09532928 1.20221484 -0.22368388 6 12 28636 4.27400000 2891579355 2891579355 -3.00000000
-10.08912468 2.96365166 2.42767167 64 13 28637 10.79200000 2891579357 2891579357 13.00000000
-3.99438500 1.17409658 -0.07267182 59 14 28638 4.16400000 2891579359 2891579359 -1.00000000
-9.21531677 2.70872021 2.57369661 45 15 28638 9.94400000 2891579362 2891579362 15.00000000
-1.91381848 0.56544584 -0.53472012 4 0 28646 2.06600000 2891579382 2891579382 -15.00000000
-4.04622984 1.19624376 0.07364915 17 1 28647 4.22000000 2891579385 2891579385 1.00000000
-2.19944048 0.65066898 -0.52953476 4 2 28648 2.35400000 2891579387 2891579387 -13.00000000
-4.11365700 1.21773982 0.22483526 7 3 28649 4.29600000 2891579389 2891579389 3.00000000
-2.58467841 0.76512599 -0.52396148 3 4 28649 2.74600000 2891579392 2891579392 -11.00000000
-4.87710381 1.44466400 0.44501722 10 5 28650 5.10600000 2891579394 2891579394 5.00000000
-3.11362457 0.92288876 -0.51435649 3 6 28651 3.28800000 2891579396 2891579396 -9.00000000
-3.89744687 1.15669644 -0.49917683 6 8 28653 4.09600000 2891579401 2891579401 -7.00000000
-5.19123507 1.54165697 -0.47377861 10 10 28654 5.43600000 2891579405 2891579405 -5.00000000
-4.08727884 1.21536434 -0.22347453 6 12 28656 4.27000000 2891579410 2891579410 -3.00000000
-10.06751156 2.99551654 2.42497230 68 13 28657 10.78000000 2891579412 2891579412 13.00000000
-3.98834586 1.18746173 -0.07263692 61 14 28658 4.16200000 2891579415 2891579415 -1.00000000
-9.09609222 2.70993423 2.54315591 42 15 28659 9.82600000 2891579417 2891579417 15.00000000
-1.90443003 0.56990749 -0.53264958 4 0 28666 2.05800000 2891579438 2891579438 -15.00000000
-4.05735493 1.21494949 0.07392839 16 1 28667 4.23600000 2891579440 2891579440 1.00000000
-2.19715595 0.65834248 -0.52953476 4 2 28668 2.35400000 2891579442 2891579442 -13.00000000
-4.11150932 1.23194778 0.22493994 7 3 28668 4.29800000 2891579445 2891579445 3.00000000
-2.58199191 0.77414352 -0.52396148 3 4 28669 2.74600000 2891579447 2891579447 -11.00000000
-4.87966490 1.46396959 0.44571447 10 5 28670 5.11400000 2891579449 2891579449 5.00000000
-3.11416793 0.93488765 -0.51498228 3 6 28671 3.29200000 2891579451 2891579451 -9.00000000
-3.88768220 1.16857970 -0.49844560 6 8 28673 4.09000000 2891579456 2891579456 -7.00000000
-5.18009853 1.55804670 -0.47325569 10 10 28674 5.43000000 2891579461 2891579461 -5.00000000
-4.09831095 1.23423171 -0.22431190 6 12 28676 4.28600000 2891579465 2891579465 -3.00000000
-10.05699348 3.03064060 2.42497230 66 13 28677 10.78000000 2891579468 2891579468 13.00000000
-3.97268915 1.19791257 -0.07242749 63 14 28678 4.15000000 2891579470 2891579470 -1.00000000
-8.95758438 2.70104265 2.50692129 45 15 28678 9.68600000 2891579472 2891579472 15.00000000
-1.89503384 0.57431048 -0.53057903 4 0 28686 2.05000000 2891579493 2891579493 -15.00000000
-4.05117559 1.22852457 0.07389349 16 1 28687 4.23400000 2891579495 2891579495 1.00000000
-2.21722174 0.67279822 -0.53493363 4 2 28688 2.37800000 2891579497 2891579497 -13.00000000
-4.11865139 1.24977171 0.22556797 7 3 28688 4.31000000 2891579500 2891579500 3.00000000
-2.57927394 0.78315163 -0.52396148 3 4 28689 2.74600000 2891579502 2891579502 -11.00000000
-4.88786936 1.48504817 0.44693464 10 5 28690 5.12800000 2891579504 2891579504 5.00000000
-3.11655545 0.94747615 -0.51592088 1 6 28691 3.29800000 2891579507 2891579507 -9.00000000
-3.89307475 1.18503344 -0.49966431 6 8 28693 4.10000000 2891579511 2891579511 -7.00000000
-5.18034601 1.57786071 -0.47377861 10 10 28694 5.43600000 2891579516 2891579516 -5.00000000
-4.09779835 1.24969518 -0.22452125 6 12 28696 4.29000000 2891579521 2891579521 -3.00000000
-10.04262638 3.06458998 2.42407250 66 13 28697 10.77600000 2891579523 2891579523 13.00000000
-3.98569632 1.21702850 -0.07274163 56 14 28698 4.16800000 2891579525 2891579525 -1.00000000
-8.82615662 2.69505858 2.47275710 42 15 28698 9.55400000 2891579527 2891579527 15.00000000
-1.89855814 0.58262217 -0.53213197 4 0 28706 2.05600000 2891579548 2891579548 -15.00000000
-4.04112768 1.24089742 0.07378878 15 1 28707 4.22800000 2891579550 2891579550 1.00000000
-2.20927143 0.67881656 -0.53358388 3 2 28708 2.37200000 2891579553 2891579553 -13.00000000
-4.11977053 1.26661980 0.22588199 7 3 28709 4.31600000 2891579555 2891579555 3.00000000
-2.58027768 0.79330409 -0.52472472 3 4 28709 2.75000000 2891579557 2891579557 -11.00000000
-4.88836861 1.50385857 0.44745758 10 5 28710 5.13400000 2891579560 2891579560 5.00000000
-3.09812570 0.95369983 -0.51341790 3 6 28711 3.28200000 2891579562 2891579562 -9.00000000
-3.90409088 1.20329320 -0.50161421 6 8 28713 4.11600000 2891579567 2891579567 -7.00000000
-5.19384575 1.60180557 -0.47552174 6 10 28714 5.45600000 2891579571 2891579571 -5.00000000
-4.08577776 1.26163447 -0.22410257 6 12 28716 4.28200000 2891579576 2891579576 -3.00000000
-10.03559113 3.10077715 2.42497230 68 13 28717 10.78000000 2891579578 2891579578 13.00000000
-3.97760272 1.22975242 -0.07267182 59 14 28718 4.16400000 2891579580 2891579580 -1.00000000
-8.71840572 2.69712996 2.44532228 40 15 28719 9.44800000 2891579583 2891579583 15.00000000
-1.89466798 0.58867264 -0.53161430 4 0 28726 2.05400000 2891579603 2891579603 -15.00000000
-4.03295231 1.25380874 0.07371897 15 1 28727 4.22400000 2891579606 2891579606 1.00000000
-4.00626564 1.24627876 -0.96863925 5 2 28728 4.30600000 2891579608 2891579608 -13.00000000
-4.11745453 1.28086782 0.22598666 7 3 28728 4.31800000 2891579610 2891579610 3.00000000
-2.58499098 0.80464011 -0.52625120 3 4 28729 2.75800000 2891579613 2891579613 -11.00000000
-4.89450264 1.52446783 0.44850346 10 5 28730 5.14600000 2891579615 2891579615 5.00000000
-3.11552286 0.97097385 -0.51685947 3 6 28731 3.30400000 2891579617 2891579617 -9.00000000
-3.88470697 1.21218312 -0.49966431 6 8 28733 4.10000000 2891579622 2891579622 -7.00000000
-5.19583035 1.62230098 -0.47621897 6 10 28734 5.46400000 2891579627 2891579627 -5.00000000
-4.06991148 1.27231324 -0.22347453 6 12 28736 4.27000000 2891579631 2891579631 -3.00000000
-10.01726723 3.13346195 2.42317271 68 13 28737 10.77200000 2891579633 2891579633 13.00000000
-3.98855305 1.24840796 -0.07295106 56 14 28738 4.18000000 2891579636 2891579636 -1.00000000
-8.60938549 2.69636774 2.41736984 45 15 28739 9.34000000 2891579638 2891579638 15.00000000
-1.90918720 0.60049939 -0.53627306 4 0 28746 2.07200000 2891579659 2891579659 -15.00000000
-4.04381084 1.27268124 0.07399821 16 1 28747 4.24000000 2891579661 2891579661 1.00000000
-2.19146729 0.69012606 -0.53043461 4 2 28748 2.35800000 2891579663 2891579663 -13.00000000
-4.10343313 1.29223299 0.22546330 7 3 28748 4.30800000 2891579666 2891579666 3.00000000
-2.58591151 0.81483859 -0.52701443 3 4 28749 2.76200000 2891579668 2891579668 -11.00000000
-4.91195393 1.54873312 0.45059520 10 5 28750 5.17000000 2891579670 2891579670 5.00000000
-3.11023068 0.98124880 -0.51654661 3 6 28751 3.30200000 2891579673 2891579673 -9.00000000
-3.87666607 1.22454011 -0.49917683 6 8 28753 4.09600000 2891579677 2891579677 -7.00000000
-5.17873716 1.63682520 -0.47517312 6 10 28754 5.45200000 2891579682 2891579682 -5.00000000
-4.10352898 1.29856372 -0.22556797 6 12 28756 4.31000000 2891579686 2891579686 -3.00000000
-9.98768997 3.16252685 2.41867375 68 13 28757 10.75200000 2891579689 2891579689 13.00000000
-3.98035836 1.26111507 -0.07288125 56 14 28758 4.17600000 2891579691 2891579691 -1.00000000
-8.54467583 2.70888948 2.40184069 45 15 28759 9.28000000 2891579693 2891579693 15.00000000
-1.88867128 0.60129941 -0.53109670 4 0 28766 2.05200000 2891579714 2891579714 -15.00000000
-4.04505968 1.28860998 0.07410292 15 1 28767 4.24600000 2891579716 2891579716 1.00000000
-2.19647169 0.70013887 -0.53223419 4 2 28768 2.36600000 2891579719 2891579719 -13.00000000
-4.10460615 1.30836844 0.22577731 7 3 28768 4.31400000 2891579721 2891579721 3.00000000
-2.56808805 0.81908756 -0.52396148 3 4 28769 2.74600000 2891579723 2891579723 -11.00000000
-4.91980410 1.57010984 0.45181537 10 5 28770 5.18400000 2891579726 2891579726 5.00000000
-3.09737778 0.98909497 -0.51498228 3 6 28771 3.29200000 2891579728 2891579728 -9.00000000
-3.87425876 1.23866928 -0.49942058 6 8 28773 4.09800000 2891579733 2891579733 -7.00000000
-5.18058252 1.65732074 -0.47587034 6 10 28774 5.46000000 2891579737 2891579737 -5.00000000
-4.10657978 1.31531668 -0.22598666 6 12 28776 4.31800000 2891579742 2891579742 -3.00000000
-9.97658920 3.19737124 2.41867375 66 13 28777 10.75200000 2891579744 2891579744 13.00000000
-3.96831536 1.27255881 -0.07274163 59 14 28778 4.16800000 2891579746 2891579746 -1.00000000
-8.49102020 2.72453380 2.38941741 45 15 28779 9.23200000 2891579749 2891579749 15.00000000
-1.88839960 0.60848093 -0.53161430 4 0 28786 2.05400000 2891579769 2891579769 -15.00000000
-4.03863382 1.30210841 0.07406801 39 1 28787 4.24400000 2891579772 2891579772 1.00000000
-2.20328760 0.71079326 -0.53448373 4 2 28788 2.37600000 2891579774 2891579774 -13.00000000
-4.11331987 1.32698071 0.22651002 7 3 28788 4.32800000 2891579776 2891579776 3.00000000
-2.56521320 0.82804692 -0.52396148 3 4 28789 2.74600000 2891579779 2891579779 -11.00000000
-4.91618967 1.58788598 0.45198968 7 5 28790 5.18600000 2891579781 2891579781 5.00000000
-3.11458230 1.00658309 -0.51842380 3 6 28791 3.31400000 2891579783 2891579783 -9.00000000
-3.89446425 1.26012993 -0.50258917 6 8 28793 4.12400000 2891579788 2891579788 -7.00000000
-5.16339254 1.67171204 -0.47482449 6 10 28794 5.44800000 2891579792 2891579792 -5.00000000
-4.10196304 1.32964337 -0.22598666 6 12 28796 4.31800000 2891579797 2891579797 -3.00000000
-9.96907520 3.23337889 2.41957355 66 13 28797 10.75600000 2891579799 2891579799 13.00000000
-3.97145724 1.28887224 -0.07288125 59 14 28798 4.17600000 2891579802 2891579802 -1.00000000
-8.46356392 2.74671268 2.38424110 47 15 28798 9.21200000 2891579804 2891579804 15.00000000
-1.88993752 0.61626673 -0.53264958 4 0 28806 2.05800000 2891579825 2891579825 -15.00000000
-4.03596497 1.31681812 0.07410292 75 1 28807 4.24600000 2891579827 2891579827 1.00000000
-2.18226790 0.71243203 -0.52998471 4 2 28808 2.35600000 2891579829 2891579829 -13.00000000
-4.12195301 1.34566963 0.22724272 7 3 28808 4.34200000 2891579832 2891579832 3.00000000
-2.56230712 0.83699614 -0.52396148 3 4 28809 2.74600000 2891579834 2891579834 -11.00000000
-4.92955494 1.61122692 0.45373279 7 5 28810 5.20600000 2891579836 2891579836 5.00000000
-3.09978461 1.01376462 -0.51654661 1 6 28811 3.30200000 2891579838 2891579838 -9.00000000
-3.90136123 1.27742279 -0.50405163 6 8 28813 4.13600000 2891579843 2891579843 -7.00000000
-5.17645931 1.69592857 -0.47656760 3 10 28814 5.46800000 2891579848 2891579848 -5.00000000
-4.10109234 1.34519875 -0.22619601 6 12 28816 4.32200000 2891579852 2891579852 -3.00000000
-9.95402431 3.26694250 2.41867375 66 13 28817 10.75200000 2891579855 2891579855 13.00000000
-3.97073388 1.30397511 -0.07295106 57 14 28818 4.18000000 2891579857 2891579857 -1.00000000
-8.44609833 2.77530241 2.38217044 47 15 28819 9.20400000 2891579859 2891579859 15.00000000
-1.89144397 0.62407070 -0.53368485 4 0 28826 2.06200000 2891579880 2891579880 -15.00000000
-2.18531895 0.72187895 -0.53133440 4 2 28828 2.36200000 2891579885 2891579885 -13.00000000
-4.10751152 1.35763431 0.22671936 7 3 28829 4.33200000 2891579887 2891579887 3.00000000
-2.59292316 0.85702533 -0.53083062 3 4 28829 2.78200000 2891579889 2891579889 -11.00000000
-4.93146706 1.63092685 0.45443004 5 5 28830 5.21400000 2891579891 2891579891 5.00000000
-3.09622717 1.02457869 -0.51654661 3 6 28831 3.30200000 2891579894 2891579894 -9.00000000
-3.86295962 1.27979600 -0.49966431 6 8 28833 4.10000000 2891579898 2891579898 -7.00000000
-5.17239952 1.71461439 -0.47674191 6 10 28834 5.47000000 2891579903 2891579903 -5.00000000
-4.09826756 1.36013508 -0.22630067 6 12 28836 4.32400000 2891579908 2891579908 -3.00000000
-9.93516254 3.29921198 2.41687417 66 13 28837 10.74400000 2891579910 2891579910 13.00000000
-3.97754407 1.32161093 -0.07316048 52 14 28838 4.19200000 2891579912 2891579912 -1.00000000
-8.43684864 2.80329537 2.38217044 45 15 28838 9.20400000 2891579915 2891579915 15.00000000
-1.89658380 0.63311613 -0.53575540 4 0 28846 2.07000000 2891579935 2891579935 -15.00000000
-4.03426027 1.34749627 0.07424254 7 1 28847 4.25400000 2891579938 2891579938 1.00000000
-2.18648219 0.73073816 -0.53223419 4 2 28848 2.36600000 2891579940 2891579940 -13.00000000
-4.10653591 1.37323070 0.22692871 7 3 28849 4.33600000 2891579942 2891579942 3.00000000
-2.57129669 0.85984486 -0.52701443 3 4 28849 2.76200000 2891579944 2891579944 -11.00000000
-4.96920109 1.66267133 0.45843920 2 5 28850 5.26000000 2891579947 2891579947 5.00000000
-3.10387087 1.03914309 -0.51842380 1 6 28851 3.31400000 2891579949 2891579949 -9.00000000
-3.87729073 1.29958117 -0.50210172 6 8 28853 4.12000000 2891579954 2891579954 -7.00000000
-5.17771673 1.73646009 -0.47778779 3 10 28854 5.48200000 2891579958 2891579958 -5.00000000
-4.10106850 1.37697542 -0.22671936 6 12 28856 4.33200000 2891579963 2891579963 -3.00000000
-9.90880775 3.32890725 2.41327500 66 13 28857 10.72800000 2891579965 2891579965 13.00000000
-3.97290659 1.33548701 -0.07316048 56 14 28858 4.19200000 2891579968 2891579968 -1.00000000
-8.43017960 2.83543086 2.38320565 45 15 28859 9.20800000 2891579970 2891579970 15.00000000
-1.89070165 0.63849634 -0.53472012 4 0 28866 2.06600000 2891579991 2891579991 -15.00000000
-4.02763796 1.36093009 0.07420763 7 1 28867 4.25200000 2891579993 2891579993 1.00000000
-2.19130254 0.74086255 -0.53403378 4 2 28868 2.37400000 2891579995 2891579995 -13.00000000
-4.10739326 1.38947690 0.22724272 7 3 28869 4.34200000 2891579997 2891579997 3.00000000
-2.55340171 0.86378217 -0.52396148 3 4 28869 2.74600000 2891580000 2891580000 -11.00000000
-4.96714115 1.68128455 0.45878783 2 5 28870 5.26400000 2891580002 2891580002 5.00000000
-3.10583758 1.05187225 -0.51936245 3 6 28871 3.32000000 2891580004 2891580004 -9.00000000
-3.87649059 1.31438231 -0.50258917 6 8 28873 4.12400000 2891580009 2891580009 -7.00000000
-5.16218996 1.75132263 -0.47691622 6 10 28874 5.47200000 2891580014 2891580014 -5.00000000
-4.10758352 1.39513636 -0.22734739 6 12 28876 4.34400000 2891580018 2891580018 -3.00000000
-9.89712715 3.36347508 2.41327500 66 13 28877 10.72800000 2891580021 2891580021 13.00000000
-3.96632743 1.34870315 -0.07312559 63 14 28878 4.19000000 2891580023 2891580023 -1.00000000
-8.40609837 2.85839534 2.37906456 45 15 28878 9.19200000 2891580025 2891580025 15.00000000
-1.88480508 0.64384329 -0.53368485 4 0 28886 2.06200000 2891580046 2891580046 -15.00000000
-4.03989267 1.38080168 0.07452177 15 1 28887 4.27000000 2891580048 2891580048 1.00000000
-2.19054699 0.74913770 -0.53448373 3 2 28888 2.37600000 2891580050 2891580050 -13.00000000
-4.11007690 1.40639246 0.22766142 7 3 28889 4.35000000 2891580053 2891580053 3.00000000
-2.56337380 0.87713915 -0.52663285 3 4 28889 2.76000000 2891580055 2891580055 -11.00000000
-4.97820711 1.70442116 0.46035662 2 5 28890 5.28200000 2891580057 2891580057 5.00000000
-3.09093451 1.05886614 -0.51748520 3 6 28891 3.30800000 2891580060 2891580060 -9.00000000
-3.88314533 1.33176970 -0.50405163 6 8 28893 4.13600000 2891580064 2891580064 -7.00000000
-5.16358328 1.77191806 -0.47761348 6 10 28894 5.48000000 2891580069 2891580069 -5.00000000
-4.07246637 1.39908314 -0.22567265 4 12 28896 4.31200000 2891580073 2891580073 -3.00000000
-9.88901138 3.39926910 2.41417480 66 13 28897 10.73200000 2891580076 2891580076 13.00000000
-3.97105026 1.36579192 -0.07330011 54 14 28898 4.20000000 2891580078 2891580078 -1.00000000
-8.38643169 2.88604283 2.37647653 47 15 28899 9.18200000 2891580080 2891580080 15.00000000
-1.88619804 0.65168029 -0.53472012 4 0 28906 2.06600000 2891580101 2891580101 -15.00000000
-4.03693819 1.39554846 0.07455668 7 1 28907 4.27200000 2891580103 2891580103 1.00000000
-2.18239355 0.75486851 -0.53313398 4 2 28908 2.37000000 2891580106 2891580106 -13.00000000
-4.11457968 1.42399669 0.22818477 7 3 28909 4.36000000 2891580108 2891580108 3.00000000
-2.56957269 0.88929212 -0.52854091 3 4 28909 2.77000000 2891580110 2891580110 -11.00000000
-5.09648561 1.76481640 0.47186118 2 5 28910 5.41400000 2891580113 2891580113 5.00000000
-3.06855416 1.06318200 -0.51435649 3 6 28911 3.28800000 2891580115 2891580115 -9.00000000
-3.88222384 1.34661746 -0.50453907 6 8 28913 4.14000000 2891580120 2891580120 -7.00000000
-5.14795542 1.78666520 -0.47674191 6 10 28914 5.47000000 2891580124 2891580124 -5.00000000
-4.11283684 1.42902255 -0.22818477 6 12 28916 4.36000000 2891580129 2891580129 -3.00000000
-9.88076687 3.43504739 2.41507459 64 13 28917 10.73600000 2891580131 2891580131 13.00000000
-3.97003579 1.38095903 -0.07336992 57 14 28918 4.20400000 2891580133 2891580133 -1.00000000
-8.37864017 2.91447210 2.37699413 45 15 28918 9.18400000 2891580136 2891580136 15.00000000
-1.88755929 0.65953481 -0.53575540 4 0 28926 2.07000000 2891580156 2891580156 -15.00000000
-4.03959274 1.41227126 0.07469630 7 1 28927 4.28000000 2891580159 2891580159 1.00000000
-2.17790580 0.76183844 -0.53268409 3 2 28928 2.36800000 2891580161 2891580161 -13.00000000
-4.11146879 1.43901038 0.22828944 7 3 28929 4.36200000 2891580163 2891580163 3.00000000
-2.57386494 0.90085042 -0.53006738 3 4 28929 2.77800000 2891580166 2891580166 -11.00000000
-3.10770202 1.08891070 -0.52155250 3 6 28931 3.33400000 2891580170 2891580170 -9.00000000
-3.86626053 1.35621822 -0.50307667 6 8 28933 4.12800000 2891580175 2891580175 -7.00000000
-5.16048717 1.81122231 -0.47848502 6 10 28934 5.49000000 2891580179 2891580179 -5.00000000
-4.10217047 1.44138408 -0.22787075 6 12 28936 4.35400000 2891580184 2891580184 -3.00000000
-9.85768604 3.46563864 2.41237521 66 13 28937 10.72400000 2891580186 2891580186 13.00000000
-3.96896410 1.39613581 -0.07343972 56 14 28938 4.20800000 2891580189 2891580189 -1.00000000
-8.36061287 2.94259644 2.37492347 45 15 28939 9.17600000 2891580191 2891580191 15.00000000
-1.89264822 0.66836369 -0.53782600 4 0 28945 2.07800000 2891580212 2891580212 -15.00000000
-4.04808569 1.43032265 0.07494064 7 1 28946 4.29400000 2891580214 2891580214 1.00000000
-2.17169285 0.76775736 -0.53178430 4 2 28947 2.36400000 2891580216 2891580216 -13.00000000
-4.10855722 1.45330262 0.22839411 7 3 28948 4.36400000 2891580219 2891580219 3.00000000
-2.57271433 0.91003543 -0.53044903 3 4 28948 2.78000000 2891580221 2891580221 -11.00000000
-3.09290171 1.09525394 -0.51967531 3 6 28950 3.32200000 2891580226 2891580226 -9.00000000
-3.86922574 1.37168491 -0.50405163 6 8 28952 4.13600000 2891580230 2891580230 -7.00000000
-5.16571903 1.83232152 -0.47953090 6 10 28953 5.50200000 2891580235 2891580235 -5.00000000
-4.10301447 1.45698440 -0.22818477 6 12 28955 4.36000000 2891580239 2891580239 -3.00000000
-9.82410336 3.49047971 2.40697622 64 13 28956 10.70000000 2891580242 2891580242 13.00000000
-3.96054411 1.40795004 -0.07336992 57 14 28957 4.20400000 2891580244 2891580244 -1.00000000
-8.35860825 2.97143579 2.37699413 45 15 28957 9.18400000 2891580246 2891580246 15.00000000
-1.87938750 0.67106843 -0.53472012 4 0 28965 2.06600000 2891580267 2891580267 -15.00000000
-4.04306841 1.44444430 0.07494064 7 1 28966 4.29400000 2891580269 2891580269 1.00000000
-3.99851966 1.42931581 -0.98033667 6 2 28967 4.35800000 2891580272 2891580272 -13.00000000
-4.10345936 1.46763539 0.22839411 7 3 28968 4.36400000 2891580274 2891580274 3.00000000
-2.55843067 0.91504335 -0.52815932 3 4 28968 2.76800000 2891580276 2891580276 -11.00000000
-3.10393763 1.11137056 -0.52217823 3 6 28970 3.33800000 2891580281 2891580281 -9.00000000
-5.70541334 2.04395723 0.74413419 2 7 28971 6.10600000 2891580283 2891580283 7.00000000
-3.85693955 1.38250339 -0.50307667 6 8 28972 4.12800000 2891580285 2891580285 -7.00000000
-5.15366507 1.84832430 -0.47900796 6 10 28973 5.49600000 2891580290 2891580290 -5.00000000
-9.92867947 3.56280398 2.05043340 9 11 28974 10.74600000 2891580292 2891580292 11.00000000
-4.11670160 1.47804677 -0.22923149 6 12 28975 4.38000000 2891580295 2891580295 -3.00000000
-9.81552792 3.52606869 2.40787601 59 13 28976 10.70400000 2891580297 2891580297 13.00000000
-3.95936894 1.42311919 -0.07343972 56 14 28977 4.20800000 2891580299 2891580299 -1.00000000
-8.34402466 3.00074410 2.37595892 45 15 28978 9.18000000 2891580302 2891580302 15.00000000
-1.88066781 0.67893654 -0.53575540 4 0 28985 2.07000000 2891580322 2891580322 -15.00000000
-4.04740524 1.46194518 0.07511516 7 1 28986 4.30400000 2891580325 2891580325 1.00000000
-4.01549864 1.45121276 -0.98573554 6 2 28987 4.38200000 2891580327 2891580327 -13.00000000
-4.11709356 1.48874187 0.22944084 7 3 28988 4.38400000 2891580329 2891580329 3.00000000
-2.55337477 0.92330080 -0.52777767 3 4 28988 2.76600000 2891580332 2891580332 -11.00000000
-3.08332253 1.11614716 -0.51936245 3 6 28990 3.32000000 2891580336 2891580336 -9.00000000
-5.63478470 2.04087591 0.73584712 2 7 28991 6.03800000 2891580338 2891580338 7.00000000
-3.86328816 1.40001619 -0.50453907 6 8 28992 4.14000000 2891580341 2891580341 -7.00000000
-5.12470531 1.85815287 -0.47691622 6 10 28993 5.47200000 2891580345 2891580345 -5.00000000
-9.92356396 3.60011792 2.05195999 12 11 28994 10.75400000 2891580348 2891580348 11.00000000
-4.11714935 1.49445224 -0.22954550 6 12 28995 4.38600000 2891580350 2891580350 -3.00000000
-9.80315971 3.56030989 2.40787601 64 13 28996 10.70400000 2891580352 2891580352 13.00000000
-3.96001554 1.43898010 -0.07354444 63 14 28997 4.21400000 2891580355 2891580355 -1.00000000
-8.31587124 3.02179956 2.37078238 45 15 28997 9.16000000 2891580357 2891580357 15.00000000
-1.87828636 0.68549716 -0.53575540 4 0 29005 2.07000000 2891580378 2891580378 -15.00000000
-4.04603434 1.47743618 0.07518496 7 1 29006 4.30800000 2891580380 2891580380 1.00000000
-2.18366838 0.79781294 -0.53673321 4 2 29007 2.38600000 2891580382 2891580382 -13.00000000
-4.12500286 1.50790417 0.23017353 7 3 29008 4.39800000 2891580385 2891580385 3.00000000
-2.54644847 0.93085998 -0.52701443 3 4 29008 2.76200000 2891580387 2891580387 -11.00000000
-3.08682799 1.12961864 -0.52061391 3 6 29010 3.32800000 2891580391 2891580391 -9.00000000
-5.58102465 2.04346967 0.72975361 2 7 29011 5.98800000 2891580394 2891580394 7.00000000
-3.86024165 1.41417587 -0.50478280 6 8 29012 4.14200000 2891580396 2891580396 -7.00000000
-5.13876534 1.88357258 -0.47883365 3 10 29013 5.49400000 2891580401 2891580401 -5.00000000
-9.89987755 3.63067985 2.04967022 15 11 29014 10.74200000 2891580403 2891580403 11.00000000
-4.10065746 1.50468659 -0.22891748 6 12 29015 4.37400000 2891580405 2891580405 -3.00000000
-9.79067230 3.59450746 2.40787601 64 13 29016 10.70400000 2891580408 2891580408 13.00000000
-3.95872259 1.45417345 -0.07361425 64 14 29017 4.21800000 2891580410 2891580410 -1.00000000
-8.32159328 3.05680394 2.37544131 47 15 29017 9.17800000 2891580412 2891580412 15.00000000
-1.87588215 0.69204944 -0.53575540 4 0 29025 2.07000000 2891580433 2891580433 -15.00000000
-4.04460430 1.49293542 0.07525478 5 1 29026 4.31200000 2891580435 2891580435 1.00000000
-2.16624594 0.80002946 -0.53313398 4 2 29027 2.37000000 2891580438 2891580438 -13.00000000
-4.11409378 1.52021718 0.22985952 7 3 29028 4.39200000 2891580440 2891580440 3.00000000
-2.57080674 0.94995028 -0.53273869 3 4 29028 2.79200000 2891580442 2891580442 -11.00000000
-5.17833567 1.91449714 0.48301712 2 5 29029 5.54200000 2891580444 2891580444 5.00000000
-3.08286595 1.14038682 -0.52061391 3 6 29030 3.32800000 2891580447 2891580447 -9.00000000
-5.58688927 2.06776166 0.73145980 2 7 29031 6.00200000 2891580449 2891580449 7.00000000
-3.85342002 1.42695272 -0.50453907 6 8 29032 4.14000000 2891580451 2891580451 -7.00000000
-5.13589573 1.90288317 -0.47918227 3 10 29033 5.49800000 2891580456 2891580456 -5.00000000
-9.89450741 3.66794443 2.05119681 18 11 29034 10.75000000 2891580458 2891580458 11.00000000
-4.11036110 1.52454782 -0.22975485 6 12 29035 4.39000000 2891580461 2891580461 -3.00000000
-9.76344967 3.62323737 2.40427685 24 13 29036 10.68800000 2891580463 2891580463 13.00000000
-3.96299577 1.47146332 -0.07378878 59 14 29037 4.22800000 2891580465 2891580465 -1.00000000
-8.30362797 3.08314347 2.37337065 47 15 29037 9.17000000 2891580467 2891580467 15.00000000
-1.88431561 0.70264310 -0.53886127 4 0 29045 2.08200000 2891580488 2891580488 -15.00000000
-4.06559801 1.51683056 0.07574344 5 1 29046 4.34000000 2891580491 2891580491 1.00000000
-2.17439413 0.81167525 -0.53583342 4 2 29047 2.38200000 2891580493 2891580493 -13.00000000
-4.11437511 1.53666520 0.23017353 7 3 29048 4.39800000 2891580495 2891580495 3.00000000
-2.53988767 0.94861472 -0.52701443 3 4 29048 2.76200000 2891580497 2891580497 -11.00000000
-3.08996820 1.15529180 -0.52249110 3 6 29050 3.34000000 2891580502 2891580502 -9.00000000
-3.84841561 1.44039500 -0.50453907 6 8 29052 4.14000000 2891580507 2891580507 -7.00000000
-5.17213678 1.93686998 -0.48319143 7 10 29053 5.54400000 2891580511 2891580511 -5.00000000
-9.89818954 3.70865965 2.05463123 21 11 29054 10.76800000 2891580514 2891580514 11.00000000
-4.07696152 1.52837002 -0.22818477 4 12 29055 4.36000000 2891580516 2891580516 -3.00000000
-3.95221853 1.48318005 -0.07368406 61 14 29057 4.22200000 2891580520 2891580520 -1.00000000
-8.30493164 3.11831069 2.37699413 45 15 29058 9.18400000 2891580523 2891580523 15.00000000
-1.86377406 0.70240349 -0.53368485 4 0 29065 2.06200000 2891580544 2891580544 -15.00000000
-4.06027842 1.53101289 0.07574344 5 1 29066 4.34000000 2891580546 2891580546 1.00000000
-2.17154765 0.81926036 -0.53583342 4 2 29067 2.38200000 2891580548 2891580548 -13.00000000
-4.10898638 1.55101764 0.23017353 7 3 29068 4.39800000 2891580550 2891580550 3.00000000
-2.54390812 0.96024811 -0.52854091 3 4 29068 2.77000000 2891580553 2891580553 -11.00000000
-3.08222103 1.16467428 -0.52186537 3 6 29070 3.33600000 2891580557 2891580557 -9.00000000
-3.84336424 1.45381963 -0.50453907 6 8 29072 4.14000000 2891580562 2891580562 -7.00000000
-5.13366652 1.94292331 -0.48022816 3 10 29073 5.51000000 2891580567 2891580567 -5.00000000
-9.89987183 3.74875021 2.05768418 25 11 29074 10.78400000 2891580569 2891580569 11.00000000
-4.09774971 1.55249846 -0.22965017 6 12 29075 4.38800000 2891580571 2891580571 -3.00000000
-3.94701719 1.49696684 -0.07368406 63 14 29077 4.22200000 2891580576 2891580576 -1.00000000
-8.28732014 3.14309335 2.37492347 45 15 29077 9.17600000 2891580578 2891580578 15.00000000
-1.86131084 0.70890498 -0.53368485 4 0 29085 2.06200000 2891580599 2891580599 -15.00000000
-4.05304098 1.54446459 0.07570854 5 1 29086 4.33800000 2891580601 2891580601 1.00000000
-2.17049551 0.82752973 -0.53628331 3 2 29087 2.38400000 2891580603 2891580603 -13.00000000
-4.12407446 1.57318151 0.23132493 7 3 29088 4.42000000 2891580606 2891580606 3.00000000
-2.53687191 0.96772271 -0.52777767 3 4 29088 2.76600000 2891580608 2891580608 -11.00000000
-3.06337357 1.16978860 -0.51936245 3 6 29090 3.32000000 2891580613 2891580613 -9.00000000
-3.86051679 1.47573233 -0.50746393 6 8 29092 4.16400000 2891580617 2891580617 -7.00000000
-5.11568737 1.95656085 -0.47918227 3 10 29093 5.49800000 2891580622 2891580622 -5.00000000
-9.90139484 3.78889751 2.06073713 28 11 29094 10.80000000 2891580624 2891580624 11.00000000
-4.11655331 1.57607651 -0.23101091 6 12 29095 4.41400000 2891580626 2891580626 -3.00000000
-3.94736958 1.51288223 -0.07378878 47 14 29097 4.22800000 2891580631 2891580631 -1.00000000
-8.25104427 3.16232324 2.36767673 45 15 29097 9.14800000 2891580633 2891580633 15.00000000
-1.87144554 0.72025508 -0.53730834 4 0 29105 2.07600000 2891580654 2891580654 -15.00000000
-4.04389286 1.55716574 0.07563873 5 1 29106 4.33400000 2891580656 2891580656 1.00000000
-2.17123055 0.83650231 -0.53718311 3 2 29107 2.38800000 2891580659 2891580659 -13.00000000
-4.12069845 1.58756685 0.23142959 7 3 29107 4.42200000 2891580661 2891580661 3.00000000
-2.54813361 0.98222113 -0.53083062 3 4 29108 2.78200000 2891580663 2891580663 -11.00000000
-5.21802187 2.01242089 0.48929235 2 5 29109 5.61400000 2891580666 2891580666 5.00000000
-3.06664324 1.18331921 -0.52061391 3 6 29110 3.32800000 2891580668 2891580668 -9.00000000
-3.87015605 1.49492121 -0.50941384 6 8 29112 4.18000000 2891580672 2891580672 -7.00000000
-5.13856173 1.98589766 -0.48197126 6 10 29113 5.53000000 2891580677 2891580677 -5.00000000
-9.88078403 3.82060456 2.05921078 28 11 29114 10.79200000 2891580679 2891580679 11.00000000
-4.10543871 1.58827448 -0.23069690 6 12 29115 4.40800000 2891580682 2891580682 -3.00000000
-3.97749472 1.54037309 -0.07445197 24 14 29117 4.26600000 2891580686 2891580686 -1.00000000
-8.24535942 3.19319844 2.36922956 47 15 29117 9.15400000 2891580689 2891580689 15.00000000
-1.86891997 0.72678322 -0.53730834 4 0 29125 2.07600000 2891580709 2891580709 -15.00000000
-4.06079578 1.57997322 0.07605759 5 1 29126 4.35800000 2891580712 2891580712 1.00000000
-2.16103339 0.84124845 -0.53538352 3 2 29127 2.38000000 2891580714 2891580714 -13.00000000
-4.12229633 1.60555875 0.23184828 7 3 29128 4.43000000 2891580716 2891580716 3.00000000
-2.55566573 0.99538487 -0.53312033 3 4 29128 2.79400000 2891580719 2891580719 -11.00000000
-5.24809361 2.04509115 0.49277857 2 5 29129 5.65400000 2891580721 2891580721 5.00000000
-3.06617498 1.19545162 -0.52123964 3 6 29130 3.33200000 2891580723 2891580723 -9.00000000
-3.83902478 1.49831724 -0.50600153 6 8 29132 4.15200000 2891580728 2891580728 -7.00000000
-5.12231874 2.00019884 -0.48109969 6 10 29133 5.52000000 2891580732 2891580732 -5.00000000
-9.88384533 3.86150169 2.06264520 28 11 29134 10.81000000 2891580735 2891580735 11.00000000
-4.09800959 1.60186827 -0.23059222 6 12 29135 4.40600000 2891580737 2891580737 -3.00000000
-3.97581792 1.55570507 -0.07452177 26 14 29137 4.27000000 2891580742 2891580742 -1.00000000
-8.23180103 3.22269344 2.36871195 47 15 29138 9.15200000 2891580744 2891580744 15.00000000
-1.87356389 0.73612839 -0.53937888 4 0 29145 2.08400000 2891580765 2891580765 -15.00000000
-4.07014465 1.59999108 0.07633682 3 1 29146 4.37400000 2891580767 2891580767 1.00000000
-2.16171074 0.85021329 -0.53628331 4 2 29147 2.38400000 2891580769 2891580769 -13.00000000
-4.11694956 1.61921990 0.23184828 5 3 29147 4.43000000 2891580772 2891580772 3.00000000
-2.53756046 0.99854857 -0.53006738 3 4 29148 2.77800000 2891580774 2891580774 -11.00000000
-5.25204611 2.06777716 0.49382445 2 5 29149 5.66600000 2891580776 2891580776 5.00000000
-3.07668662 1.21193910 -0.52374262 3 6 29150 3.34800000 2891580778 2891580778 -9.00000000
-3.82453775 1.50806785 -0.50478280 4 8 29152 4.14200000 2891580783 2891580783 -7.00000000
-5.12271881 2.02099180 -0.48179695 6 10 29153 5.52800000 2891580788 2891580788 -5.00000000
