# .PCD v0.7 - Point Cloud Data file format
VERSION 0.7
FIELDS x y z intensity laser_id azimuth distance_m adjustedtime timestamp vertical_angle
SIZE 4 4 4 1 1 2 8 8 4 8
TYPE F F F U U U F U U F
COUNT 1 1 1 1 1 1 1 1 1 1
WIDTH 528
HEIGHT 1
VIEWPOINT 0 0 0 1 0 0 0
POINTS 528
DATA ascii
3.89319754 -3.20816350 0.44135669 26 5 12949 5.06400000 2891935887 2891935887 5.00000000
2.75889111 -2.27425432 -0.56629276 5 6 12950 3.62000000 2891935890 2891935890 -9.00000000
3.92376852 -3.23565555 0.62445849 22 7 12951 5.12400000 2891935892 2891935892 7.00000000
3.62919331 -2.99380445 -0.57766068 6 8 12952 4.74000000 2891935894 2891935894 -7.00000000
6.44419479 -5.31596327 1.32312274 50 9 12952 8.45800000 2891935896 2891935896 9.00000000
5.16950226 -4.26595688 -0.58638382 12 10 12953 6.72800000 2891935899 2891935899 -5.00000000
4.62079859 -3.81451368 1.16469812 18 11 12954 6.10400000 2891935901 2891935901 11.00000000
3.79000139 -3.12979507 -0.25759757 2 12 12955 4.92200000 2891935903 2891935903 -3.00000000
4.41704702 -3.64890790 1.32271218 10 13 12956 5.88000000 2891935906 2891935906 13.00000000
3.71183324 -3.06742334 -0.08405079 14 14 12957 4.81600000 2891935908 2891935908 -1.00000000
6.34234047 -5.24124908 2.20462060 36 15 12957 8.51800000 2891935910 2891935910 15.00000000
1.62279940 -1.34488344 -0.56474316 4 0 12965 2.18200000 2891935931 2891935931 -15.00000000
3.99334908 -3.31063557 0.09054308 57 1 12966 5.18800000 2891935933 2891935933 1.00000000
1.89901435 -1.57491314 -0.56957608 3 2 12967 2.53200000 2891935936 2891935936 -13.00000000
3.46009207 -2.87058401 0.23561648 30 3 12968 4.50200000 2891935938 2891935938 3.00000000
2.24831557 -1.86526215 -0.56784755 3 4 12968 2.97600000 2891935940 2891935940 -11.00000000
3.89270759 -3.23064041 0.44257686 25 5 12969 5.07800000 2891935943 2891935943 5.00000000
2.75701499 -2.28891802 -0.56754422 5 6 12970 3.62800000 2891935945 2891935945 -9.00000000
3.91703153 -3.25313735 0.62518972 20 7 12971 5.13000000 2891935947 2891935947 7.00000000
3.62177467 -3.00899148 -0.57814819 6 8 12972 4.74400000 2891935949 2891935949 -7.00000000
6.39732170 -5.31681967 1.31749105 50 9 12973 8.42200000 2891935952 2891935952 9.00000000
5.16377306 -4.29161644 -0.58742970 12 10 12973 6.74000000 2891935954 2891935954 -5.00000000
4.60443592 -3.82810974 1.16393483 21 11 12974 6.10000000 2891935956 2891935956 11.00000000
3.74066401 -3.11107731 -0.25498077 9 12 12975 4.87200000 2891935959 2891935959 -3.00000000
4.39379644 -3.65557957 1.31956291 10 13 12976 5.86600000 2891935961 2891935961 13.00000000
3.70264030 -3.08164048 -0.08408570 28 14 12977 4.81800000 2891935963 2891935963 -1.00000000
6.29487944 -5.24097443 2.19478559 36 15 12978 8.48000000 2891935966 2891935966 15.00000000
1.62254429 -1.35425353 -0.56629604 4 0 12985 2.18800000 2891935986 2891935986 -15.00000000
4.00018835 -3.33993435 0.09096194 59 1 12986 5.21200000 2891935989 2891935989 1.00000000
1.88752270 -1.57653546 -0.56777644 4 2 12987 2.52400000 2891935991 2891935991 -13.00000000
3.44391990 -2.87752199 0.23519778 30 3 12988 4.49400000 2891935993 2891935993 3.00000000
3.65044284 -3.05007958 -0.92466038 4 4 12988 4.84600000 2891935996 2891935996 -11.00000000
3.89975142 -3.25954199 0.44466859 27 5 12989 5.10200000 2891935998 2891935998 5.00000000
2.74597764 -2.29599357 -0.56691849 5 6 12990 3.62400000 2891936000 2891936000 -9.00000000
3.91174269 -3.27188492 0.62616467 20 7 12991 5.13800000 2891936002 2891936002 7.00000000
3.59602475 -3.00887680 -0.57571077 6 8 12992 4.72400000 2891936005 2891936005 -7.00000000
6.35996056 -5.32152557 1.31342375 47 9 12992 8.39600000 2891936007 2891936007 9.00000000
5.13195515 -4.29554844 -0.58551228 12 10 12993 6.71800000 2891936009 2891936009 -5.00000000
4.69791889 -3.93364596 1.19102979 15 11 12994 6.24200000 2891936012 2891936012 11.00000000
3.74509263 -3.13694048 -0.25602749 2 12 12995 4.89200000 2891936014 2891936014 -3.00000000
4.36308527 -3.65587544 1.31416404 9 13 12996 5.84200000 2891936016 2891936016 13.00000000
3.70871854 -3.10867667 -0.08446965 34 14 12997 4.84000000 2891936019 2891936019 -1.00000000
6.25229597 -5.24072313 2.18598557 33 15 12997 8.44600000 2891936021 2891936021 15.00000000
1.61189198 -1.35493684 -0.56422549 4 0 13005 2.18000000 2891936042 2891936042 -15.00000000
3.99462748 -3.35902524 0.09110156 59 1 13006 5.22000000 2891936044 2891936044 1.00000000
1.88499069 -1.58562338 -0.56867629 3 2 13007 2.52800000 2891936046 2891936046 -13.00000000
3.43996739 -2.89466977 0.23561648 30 3 13008 4.50200000 2891936049 2891936049 3.00000000
3.64878702 -3.07038784 -0.92695010 4 4 13008 4.85800000 2891936051 2891936051 -11.00000000
3.89749503 -3.28083324 0.44571447 25 5 13009 5.11400000 2891936053 2891936053 5.00000000
2.73945737 -2.30683732 -0.56723136 5 6 13010 3.62600000 2891936055 2891936055 -9.00000000
3.91851664 -3.30086637 0.62908953 20 7 13011 5.16200000 2891936058 2891936058 7.00000000
3.55665803 -2.99710655 -0.57107973 4 8 13012 4.68600000 2891936060 2891936060 -7.00000000
6.31566668 -5.32205391 1.30810499 50 9 13012 8.36200000 2891936062 2891936062 9.00000000
5.12607002 -4.32114077 -0.58655816 12 10 13013 6.73000000 2891936065 2891936065 -5.00000000
4.68115759 -3.94748950 1.19026649 31 11 13014 6.23800000 2891936067 2891936067 11.00000000
3.91426134 -3.30195642 -0.26837879 2 12 13015 5.12800000 2891936069 2891936069 -3.00000000
4.33093596 -3.65474486 1.30831528 10 13 13016 5.81600000 2891936072 2891936072 13.00000000
3.69020462 -3.11515403 -0.08429512 28 14 13017 4.83000000 2891936074 2891936074 -1.00000000
6.21624994 -5.24756193 2.17977405 33 15 13017 8.42200000 2891936076 2891936076 15.00000000
1.61305034 -1.36554790 -0.56629604 4 0 13025 2.18800000 2891936097 2891936097 -15.00000000
4.00119019 -3.38845658 0.09152042 54 1 13026 5.24400000 2891936099 2891936099 1.00000000
1.88539195 -1.59723222 -0.57047588 3 2 13027 2.53600000 2891936102 2891936102 -13.00000000
3.44050789 -2.91569877 0.23634918 30 3 13028 4.51600000 2891936104 2891936104 3.00000000
3.63804722 -3.08310580 -0.92695010 4 4 13028 4.85800000 2891936106 2891936106 -11.00000000
3.90273643 -3.30859041 0.44763190 27 5 13029 5.13600000 2891936108 2891936108 5.00000000
2.73289490 -2.31766343 -0.56754422 5 6 13030 3.62800000 2891936111 2891936111 -9.00000000
3.91756678 -3.32351375 0.63079572 20 7 13031 5.17600000 2891936113 2891936113 7.00000000
3.55071497 -3.01335669 -0.57181096 4 8 13032 4.69200000 2891936115 2891936115 -7.00000000
6.25244713 -5.30809164 1.29903185 52 9 13033 8.30400000 2891936118 2891936118 9.00000000
5.08209658 -4.31450844 -0.58324623 12 10 13033 6.69200000 2891936120 2891936120 -5.00000000
4.67034245 -3.96634746 1.19102979 34 11 13034 6.24200000 2891936122 2891936122 11.00000000
3.97729516 -3.37896323 -0.27350771 10 12 13035 5.22600000 2891936125 2891936125 -3.00000000
4.31221247 -3.66479254 1.30651569 12 13 13036 5.80800000 2891936127 2891936127 13.00000000
3.68540215 -3.13319731 -0.08443474 30 14 13037 4.83800000 2891936129 2891936129 -1.00000000
6.16551447 -5.24170017 2.16838598 33 15 13037 8.37800000 2891936131 2891936131 15.00000000
1.59945345 -1.36365008 -0.56319022 4 0 13045 2.17600000 2891936152 2891936152 -15.00000000
3.99694538 -3.40889072 0.09169494 49 1 13046 5.25400000 2891936155 2891936155 1.00000000
1.87684000 -1.60127401 -0.56957608 3 2 13047 2.53200000 2891936157 2891936157 -13.00000000
3.43942451 -2.93547034 0.23697720 30 3 13048 4.52800000 2891936159 2891936159 3.00000000
3.63920951 -3.10598207 -0.93000305 4 4 13048 4.87400000 2891936161 2891936161 -11.00000000
3.88964820 -3.32089949 0.44745758 27 5 13049 5.13400000 2891936164 2891936164 5.00000000
2.72028184 -2.32334018 -0.56660563 5 6 13050 3.62200000 2891936166 2891936166 -9.00000000
3.92103410 -3.35006332 0.63323313 18 7 13051 5.19600000 2891936168 2891936168 7.00000000
3.53262973 -3.01928401 -0.57059228 4 8 13052 4.68200000 2891936171 2891936171 -7.00000000
6.21135902 -5.31062889 1.29433882 52 9 13053 8.27400000 2891936173 2891936173 9.00000000
5.05489063 -4.32186365 -0.58185172 12 10 13053 6.67600000 2891936175 2891936175 -5.00000000
4.64154911 -3.96986508 1.18721354 34 11 13054 6.22200000 2891936178 2891936178 11.00000000
3.98065209 -3.40581036 -0.27455443 26 12 13055 5.24600000 2891936180 2891936180 -3.00000000
4.28606892 -3.66841817 1.30246663 13 13 13056 5.79000000 2891936182 2891936182 13.00000000
3.69570875 -3.16425037 -0.08492341 26 14 13057 4.86600000 2891936184 2891936184 -1.00000000
6.11398172 -5.23661518 2.15699792 33 15 13058 8.33400000 2891936187 2891936187 15.00000000
1.59028649 -1.36544955 -0.56163734 4 0 13065 2.17000000 2891936208 2891936208 -15.00000000
1.86237073 -1.60019565 -0.56687665 3 2 13067 2.52000000 2891936212 2891936212 -13.00000000
3.43521523 -2.95266581 0.23739590 30 3 13068 4.53600000 2891936214 2891936214 3.00000000
3.64621162 -3.13402295 -0.93458247 4 4 13068 4.89800000 2891936217 2891936217 -11.00000000
3.89313984 -3.34744644 0.44920069 27 5 13069 5.15400000 2891936219 2891936219 5.00000000
2.70616484 -2.32766891 -0.56535417 5 6 13070 3.61400000 2891936221 2891936221 -9.00000000
3.92285895 -3.37538242 0.63542676 20 7 13071 5.21400000 2891936224 2891936224 7.00000000
3.52206898 -3.03159690 -0.57059228 4 8 13072 4.68200000 2891936226 2891936226 -7.00000000
6.17182684 -5.31423330 1.28995860 52 9 13073 8.24600000 2891936228 2891936228 9.00000000
5.03977346 -4.33948231 -0.58185172 12 10 13073 6.67600000 2891936231 2891936231 -5.00000000
4.60683823 -3.96810508 1.18187094 34 11 13074 6.19400000 2891936233 2891936233 11.00000000
3.96117425 -3.41316605 -0.27403107 10 12 13075 5.23600000 2891936235 2891936235 -3.00000000
4.25404882 -3.66681695 1.29661787 15 13 13076 5.76400000 2891936237 2891936237 13.00000000
3.69524217 -3.18627262 -0.08516774 26 14 13077 4.88000000 2891936240 2891936240 -1.00000000
6.08780479 -5.24929190 2.15389204 24 15 13077 8.32200000 2891936242 2891936242 15.00000000
1.59573960 -1.37983739 -0.56526077 4 0 13085 2.18400000 2891936263 2891936263 -15.00000000
4.00329733 -3.46287608 0.09239304 52 1 13086 5.29400000 2891936265 2891936265 1.00000000
1.86561537 -1.61433768 -0.56957608 3 2 13087 2.53200000 2891936267 2891936267 -13.00000000
3.43243814 -2.97117472 0.23791926 28 3 13088 4.54600000 2891936270 2891936270 3.00000000
3.66048408 -3.16857505 -0.94106996 4 4 13088 4.93200000 2891936272 2891936272 -11.00000000
3.89649296 -3.37405801 0.45094383 27 5 13089 5.17400000 2891936274 2891936274 5.00000000
2.70399570 -2.34227443 -0.56660563 5 6 13090 3.62200000 2891936277 2891936277 -9.00000000
3.91555333 -3.39295506 0.63615799 18 7 13091 5.22000000 2891936279 2891936279 7.00000000
3.50846529 -3.04127216 -0.57010478 4 8 13092 4.67800000 2891936281 2891936281 -7.00000000
6.13682222 -5.32150936 1.28651702 52 9 13093 8.22400000 2891936284 2891936284 9.00000000
5.01706886 -4.35052156 -0.58098018 12 10 13093 6.66600000 2891936286 2891936286 -5.00000000
4.58851004 -3.98030233 1.18072605 34 11 13094 6.18800000 2891936288 2891936288 11.00000000
3.94621897 -3.42435431 -0.27382171 7 12 13095 5.23200000 2891936290 2891936290 -3.00000000
4.21031904 -3.65481734 1.28716993 42 13 13096 5.72200000 2891936293 2891936293 13.00000000
3.69013691 -3.20439649 -0.08530736 12 14 13097 4.88800000 2891936295 2891936295 -1.00000000
6.07965469 -5.27937698 2.15751553 33 15 13097 8.33600000 2891936297 2891936297 15.00000000
1.59237027 -1.38666785 -0.56577843 4 0 13105 2.18600000 2891936319 2891936319 -15.00000000
3.97912264 -3.46632099 0.09211380 28 1 13106 5.27800000 2891936321 2891936321 1.00000000
1.84821558 -1.61059785 -0.56597686 3 2 13107 2.51600000 2891936324 2891936324 -13.00000000
3.43160105 -2.99041367 0.23854730 28 3 13107 4.55800000 2891936326 2891936326 3.00000000
2.18431330 -1.90415561 -0.56326813 3 4 13108 2.95200000 2891936328 2891936328 -11.00000000
3.90271115 -3.40335250 0.45303556 27 5 13109 5.19800000 2891936331 2891936331 5.00000000
2.69282603 -2.34910178 -0.56597990 5 6 13110 3.61800000 2891936333 2891936333 -9.00000000
3.91864252 -3.41965437 0.63859534 20 7 13111 5.24000000 2891936335 2891936335 7.00000000
3.49633241 -3.05219507 -0.56986105 6 8 13112 4.67600000 2891936337 2891936337 -7.00000000
6.08789158 -5.31454945 1.27994680 50 9 13112 8.18200000 2891936340 2891936340 9.00000000
5.00935555 -4.37456036 -0.58185172 12 10 13113 6.67600000 2891936342 2891936342 -5.00000000
4.56423855 -3.98725367 1.17805469 37 11 13114 6.17400000 2891936344 2891936344 11.00000000
3.90717101 -3.41445160 -0.27193764 5 12 13115 5.19600000 2891936347 2891936347 -3.00000000
4.19313431 -3.66564393 1.28582025 48 13 13116 5.71600000 2891936349 2891936349 13.00000000
3.67892909 -3.21725798 -0.08530736 10 14 13117 4.88800000 2891936351 2891936351 -1.00000000
6.04955530 -5.29039288 2.15337443 54 15 13117 8.32000000 2891936354 2891936354 15.00000000
1.58025801 -1.38584900 -0.56319022 4 0 13125 2.17600000 2891936374 2891936374 -15.00000000
1.84551167 -1.61961031 -0.56687665 3 2 13127 2.52000000 2891936379 2891936379 -13.00000000
3.41611481 -2.99901795 0.23823327 26 3 13128 4.55200000 2891936381 2891936381 3.00000000
2.18060398 -1.91435909 -0.56403136 3 4 13128 2.95600000 2891936384 2891936384 -11.00000000
3.89978957 -3.42484307 0.45408142 30 5 13129 5.21000000 2891936386 2891936386 5.00000000
2.68609357 -2.35979104 -0.56629276 5 6 13130 3.62000000 2891936388 2891936388 -9.00000000
3.92457509 -3.44903731 0.64152020 16 7 13131 5.26400000 2891936390 2891936390 7.00000000
3.48416615 -3.06307030 -0.56961733 4 8 13132 4.67400000 2891936393 2891936393 -7.00000000
6.04167175 -5.31334543 1.27431512 52 9 13133 8.14600000 2891936395 2891936395 9.00000000
4.97011709 -4.37096739 -0.57906276 12 10 13133 6.64400000 2891936397 2891936397 -5.00000000
4.54144812 -3.99538088 1.17576504 46 11 13134 6.16200000 2891936400 2891936400 11.00000000
3.91621923 -3.44654250 -0.27340305 2 12 13135 5.22400000 2891936402 2891936402 -3.00000000
4.18616390 -3.68540931 1.28761983 22 13 13136 5.72400000 2891936404 2891936404 13.00000000
3.67367887 -3.23536658 -0.08544698 12 14 13137 4.89600000 2891936407 2891936407 -1.00000000
5.99678516 -5.28315783 2.14146876 47 15 13138 8.27400000 2891936409 2891936409 15.00000000
1.57106686 -1.38752031 -0.56163734 4 0 13145 2.17000000 2891936430 2891936430 -15.00000000
3.38985133 -2.99487066 0.07895469 8 1 13146 4.52400000 2891936432 2891936432 1.00000000
1.84276736 -1.62862349 -0.56777644 3 2 13147 2.52400000 2891936434 2891936434 -13.00000000
3.42410946 -3.02620149 0.23948933 24 3 13147 4.57600000 2891936437 2891936437 3.00000000
2.18273330 -1.92976153 -0.56632107 3 4 13148 2.96800000 2891936439 2891936439 -11.00000000
3.89825797 -3.44767475 0.45530161 30 5 13149 5.22400000 2891936441 2891936441 5.00000000
2.67931962 -2.37046170 -0.56660563 7 6 13150 3.62200000 2891936443 2891936443 -9.00000000
3.92589045 -3.47455621 0.64371389 11 7 13151 5.28200000 2891936446 2891936446 7.00000000
3.47939777 -3.08047700 -0.57059228 4 8 13152 4.68200000 2891936448 2891936448 -7.00000000
5.99794817 -5.31213760 1.26899636 52 9 13153 8.11200000 2891936450 2891936450 9.00000000
4.84743977 -4.29317951 -0.56651235 11 10 13153 6.50000000 2891936453 2891936453 -5.00000000
4.50102329 -3.98777461 1.16889596 43 11 13154 6.12600000 2891936455 2891936455 11.00000000
3.93256402 -3.48536134 -0.27539179 2 12 13155 5.26200000 2891936457 2891936457 -3.00000000
4.14994335 -3.67931437 1.28042138 9 13 13156 5.69200000 2891936460 2891936460 13.00000000
3.67283559 -3.25745845 -0.08569132 6 14 13157 4.91000000 2891936462 2891936462 -1.00000000
5.94599056 -5.27353239 2.12956309 45 15 13157 8.22800000 2891936464 2891936464 15.00000000
1.56910098 -1.39556360 -0.56267262 4 0 13165 2.17400000 2891936485 2891936485 -15.00000000
3.37788248 -3.00535607 0.07891978 8 1 13166 4.52200000 2891936487 2891936487 1.00000000
1.83707118 -1.63504601 -0.56777644 3 2 13167 2.52400000 2891936489 2891936489 -13.00000000
3.42098475 -3.04477477 0.24001269 22 3 13167 4.58600000 2891936492 2891936492 3.00000000
2.16571999 -1.92823040 -0.56364977 3 4 13168 2.95400000 2891936494 2891936494 -11.00000000
3.90107799 -3.47451258 0.45704472 31 5 13169 5.24400000 2891936496 2891936496 5.00000000
2.65922976 -2.36928725 -0.56410271 7 6 13170 3.60600000 2891936499 2891936499 -9.00000000
3.93448496 -3.50673008 0.64712620 9 7 13171 5.31000000 2891936501 2891936501 7.00000000
3.46121526 -3.08599830 -0.56937355 4 8 13172 4.67200000 2891936503 2891936503 -7.00000000
5.95283318 -5.30937481 1.26336479 55 9 13173 8.07600000 2891936506 2891936506 9.00000000
4.73726273 -4.22519875 -0.55535638 15 10 13173 6.37200000 2891936508 2891936508 -5.00000000
4.47389174 -3.99169850 1.16546130 15 11 13174 6.10800000 2891936510 2891936510 11.00000000
3.88014197 -3.46315908 -0.27256566 7 12 13175 5.20800000 2891936513 2891936513 -3.00000000
4.13562107 -3.69248009 1.27997148 9 13 13176 5.69000000 2891936515 2891936515 13.00000000
3.69127083 -3.29690099 -0.08638941 12 14 13177 4.95000000 2891936517 2891936517 -1.00000000
5.90881538 -5.27752590 2.12283373 47 15 13177 8.20200000 2891936519 2891936519 15.00000000
1.56590378 -1.40204787 -0.56319022 4 0 13184 2.17600000 2891936540 2891936540 -15.00000000
3.37236667 -3.02054334 0.07902449 6 1 13185 4.52800000 2891936542 2891936542 1.00000000
1.82583356 -1.63592732 -0.56597686 3 2 13186 2.51600000 2891936545 2891936545 -13.00000000
3.42074680 -3.06602907 0.24074540 28 3 13187 4.60000000 2891936547 2891936547 3.00000000
2.16954756 -1.94457412 -0.56632107 3 4 13187 2.96800000 2891936549 2891936549 -11.00000000
3.90140200 -3.49807024 0.45843920 31 5 13188 5.26000000 2891936552 2891936552 5.00000000
2.64694667 -2.37413549 -0.56316406 5 6 13189 3.60000000 2891936554 2891936554 -9.00000000
3.92431211 -3.52108383 0.64736998 9 7 13190 5.31200000 2891936556 2891936556 7.00000000
3.43914437 -3.08685136 -0.56742364 4 8 13191 4.65600000 2891936559 2891936559 -7.00000000
5.92142344 -5.31485510 1.26023602 55 9 13191 8.05600000 2891936561 2891936561 9.00000000
4.90408993 -4.40327883 -0.57662237 12 10 13192 6.61600000 2891936563 2891936563 -5.00000000
5.90514994 -5.30397177 1.54288149 53 11 13193 8.08600000 2891936566 2891936566 11.00000000
3.93549061 -3.53607631 -0.27727589 2 12 13194 5.29800000 2891936568 2891936568 -3.00000000
4.10886049 -3.69314718 1.27547252 9 13 13195 5.67000000 2891936570 2891936570 13.00000000
3.67139578 -3.30110145 -0.08617999 14 14 13196 4.93800000 2891936572 2891936572 -1.00000000
5.87312126 -5.28261662 2.11662221 47 15 13197 8.17800000 2891936575 2891936575 15.00000000
1.56530440 -1.41138637 -0.56474316 4 0 13204 2.18200000 2891936595 2891936595 -15.00000000
4.01070166 -3.61759448 0.09427790 62 1 13205 5.40200000 2891936598 2891936598 1.00000000
1.82011199 -1.64229071 -0.56597686 3 2 13206 2.51600000 2891936600 2891936600 -13.00000000
3.40611196 -3.07334185 0.24043138 26 3 13206 4.59400000 2891936602 2891936602 3.00000000
2.15108728 -1.94161177 -0.56326813 3 4 13207 2.95200000 2891936605 2891936605 -11.00000000
3.90247655 -3.52368450 0.46000800 28 5 13208 5.27800000 2891936607 2891936607 5.00000000
2.64597273 -2.38998103 -0.56472844 5 6 13209 3.61000000 2891936609 2891936609 -9.00000000
3.93409061 -3.55472374 0.65102601 9 7 13210 5.34200000 2891936612 2891936612 7.00000000
3.44012952 -3.10948634 -0.56937355 4 8 13211 4.67200000 2891936614 2891936614 -7.00000000
5.87406445 -5.31135035 1.25429153 52 9 13212 8.01800000 2891936616 2891936616 9.00000000
4.89903450 -4.42972469 -0.57784259 12 10 13212 6.63000000 2891936619 2891936619 -5.00000000
5.86912775 -5.30874872 1.53830206 34 11 13213 8.06200000 2891936621 2891936621 11.00000000
3.91275668 -3.54041171 -0.27654320 5 12 13214 5.28400000 2891936623 2891936623 -3.00000000
4.09016466 -3.70223618 1.27367282 13 13 13215 5.66200000 2891936625 2891936625 13.00000000
3.30854034 -2.99579501 -0.07790754 11 14 13216 4.46400000 2891936628 2891936628 -1.00000000
5.83460045 -5.28492880 2.10937524 47 15 13217 8.15000000 2891936630 2891936630 15.00000000
1.55607748 -1.41294575 -0.56319022 4 0 13224 2.17600000 2891936651 2891936651 -15.00000000
4.02321291 -3.65442920 0.09487128 62 1 13225 5.43600000 2891936653 2891936653 1.00000000
1.81725276 -1.65125513 -0.56687665 3 2 13226 2.52000000 2891936655 2891936655 -13.00000000
3.41753578 -3.10535979 0.24200146 26 3 13226 4.62400000 2891936658 2891936658 3.00000000
2.14720225 -1.95174968 -0.56403136 3 4 13227 2.95600000 2891936660 2891936660 -11.00000000
3.89899755 -3.54532766 0.46105388 26 5 13228 5.29000000 2891936662 2891936662 5.00000000
2.64199781 -2.40319037 -0.56566703 5 6 13229 3.61600000 2891936665 2891936665 -9.00000000
3.95249128 -3.59649038 0.65614456 7 7 13230 5.38400000 2891936667 2891936667 7.00000000
3.42485046 -3.11746693 -0.56864238 4 8 13231 4.66600000 2891936669 2891936669 -7.00000000
5.82866383 -5.30553579 1.24834704 50 9 13231 7.98000000 2891936672 2891936672 9.00000000
4.88206863 -4.44545698 -0.57766825 12 10 13232 6.62800000 2891936674 2891936674 -5.00000000
4.28305769 -3.90138388 1.12615466 54 11 13233 5.90200000 2891936676 2891936676 11.00000000
4.10410309 -3.73968744 -0.29098791 5 12 13234 5.56000000 2891936678 2891936678 -3.00000000
4.07577658 -3.71517825 1.27322292 10 13 13235 5.66000000 2891936681 2891936681 13.00000000
3.28919721 -2.99924135 -0.07769811 7 14 13236 4.45200000 2891936683 2891936683 -1.00000000
5.78757191 -5.27922487 2.09902239 47 15 13237 8.11000000 2891936685 2891936685 15.00000000
1.54400754 -1.41185057 -0.56060207 4 0 13244 2.16600000 2891936706 2891936706 -15.00000000
4.00600529 -3.66440153 0.09476656 90 1 13245 5.43000000 2891936708 2891936708 1.00000000
1.81435311 -1.66021955 -0.56777644 3 2 13246 2.52400000 2891936711 2891936711 -13.00000000
3.41551614 -3.12536025 0.24262950 26 3 13246 4.63600000 2891936713 2891936713 3.00000000
2.14327264 -1.96188414 -0.56479460 3 4 13247 2.96000000 2891936715 2891936715 -11.00000000
3.89247584 -3.56429815 0.46175113 26 5 13248 5.29800000 2891936718 2891936718 5.00000000
2.62922311 -2.40839505 -0.56472844 5 6 13249 3.61000000 2891936720 2891936720 -9.00000000
5.81620169 -5.32956696 0.96861756 7 7 13250 7.94800000 2891936722 2891936722 7.00000000
3.40955758 -3.12537885 -0.56791115 4 8 13251 4.66000000 2891936725 2891936725 -7.00000000
5.79117823 -5.30849695 1.24427974 50 9 13251 7.95400000 2891936727 2891936727 9.00000000
4.84008884 -4.43823338 -0.57453066 8 10 13252 6.59200000 2891936729 2891936729 -5.00000000
4.24915838 -3.89773130 1.12081206 57 11 13253 5.87400000 2891936731 2891936731 11.00000000
4.22199583 -3.87417245 -0.30030373 21 12 13254 5.73800000 2891936734 2891936734 -3.00000000
4.03550673 -3.70434451 1.26467478 8 13 13255 5.62200000 2891936736 2891936736 13.00000000
3.53794074 -3.24874783 -0.08384136 16 14 13256 4.80400000 2891936738 2891936738 -1.00000000
5.74065447 -5.27325773 2.08866978 47 15 13257 8.07000000 2891936741 2891936741 15.00000000
1.53480649 -1.41330576 -0.55904913 4 0 13264 2.16000000 2891936761 2891936761 -15.00000000
3.97995281 -3.66616940 0.09445243 82 1 13265 5.41200000 2891936764 2891936764 1.00000000
1.80138135 -1.65993989 -0.56552696 4 2 13266 2.51400000 2891936766 2891936766 -13.00000000
3.41192961 -3.14403057 0.24315286 24 3 13266 4.64600000 2891936768 2891936768 3.00000000
2.13929844 -1.97201478 -0.56555784 3 4 13267 2.96400000 2891936771 2891936771 -11.00000000
3.89465761 -3.59137011 0.46349424 26 5 13268 5.31800000 2891936773 2891936773 5.00000000
2.61354041 -2.41086125 -0.56316406 5 6 13269 3.60000000 2891936775 2891936775 -9.00000000
5.76254940 -5.31752777 0.96276784 20 7 13270 7.90000000 2891936777 2891936777 7.00000000
3.40008593 -3.13860798 -0.56815487 6 8 13271 4.66200000 2891936780 2891936780 -7.00000000
5.75229168 -5.30992126 1.23989952 52 9 13271 7.92600000 2891936782 2891936782 9.00000000
4.21564102 -3.89280725 -0.50201708 7 10 13272 5.76000000 2891936784 2891936784 -5.00000000
4.21966362 -3.89788604 1.11661422 57 11 13273 5.85200000 2891936787 2891936787 11.00000000
4.20844698 -3.88888621 -0.30030373 27 12 13274 5.73800000 2891936789 2891936789 -3.00000000
4.06261969 -3.75544691 1.27727211 25 13 13275 5.67800000 2891936791 2891936791 13.00000000
3.70129299 -3.42263818 -0.08799503 30 14 13276 5.04200000 2891936794 2891936794 -1.00000000
5.70469713 -5.27521467 2.08194041 45 15 13276 8.04400000 2891936796 2891936796 15.00000000
1.53694654 -1.42522240 -0.56163734 4 0 13284 2.17000000 2891936817 2891936817 -15.00000000
3.97885966 -3.69091940 0.09473166 60 1 13285 5.42800000 2891936819 2891936819 1.00000000
1.78843379 -1.65959001 -0.56327742 3 2 13286 2.50400000 2891936821 2891936821 -13.00000000
3.40971828 -3.16407275 0.24378088 24 3 13286 4.65800000 2891936824 2891936824 3.00000000
2.13096285 -1.97813475 -0.56517625 3 4 13287 2.96200000 2891936826 2891936826 -11.00000000
3.90545726 -3.62663531 0.46628323 28 5 13288 5.35000000 2891936828 2891936828 5.00000000
2.61089826 -2.42534733 -0.56441557 5 6 13289 3.60800000 2891936830 2891936830 -9.00000000
5.72504854 -5.32004356 0.95959920 35 7 13290 7.87400000 2891936833 2891936833 7.00000000
3.38329363 -3.14505100 -0.56717992 4 8 13291 4.65400000 2891936835 2891936835 -7.00000000
5.71346617 -5.31113911 1.23551941 52 9 13291 7.89800000 2891936837 2891936837 9.00000000
4.19327307 -3.89935827 -0.50097120 10 10 13292 5.74800000 2891936840 2891936840 -5.00000000
4.20603180 -3.91259170 1.11661422 57 11 13293 5.85200000 2891936842 2891936842 11.00000000
4.14513397 -3.85729265 -0.29674488 27 12 13294 5.67000000 2891936844 2891936844 -3.00000000
4.10511446 -3.82138920 1.29481828 35 13 13295 5.75600000 2891936847 2891936847 13.00000000
3.70249414 -3.44780207 -0.08830918 30 14 13296 5.06000000 2891936849 2891936849 -1.00000000
5.67118883 -5.28292036 2.07676411 45 15 13297 8.02400000 2891936851 2891936851 15.00000000
1.53927267 -1.43690264 -0.56422549 4 0 13303 2.18000000 2891936872 2891936872 -15.00000000
3.98705983 -3.72320080 0.09522033 65 1 13304 5.45600000 2891936874 2891936874 1.00000000
1.79716110 -1.67881441 -0.56777644 3 2 13305 2.52400000 2891936877 2891936877 -13.00000000
3.40157151 -3.17868280 0.24399023 22 3 13306 4.66200000 2891936879 2891936879 3.00000000
2.11148167 -1.97312641 -0.56174171 3 4 13306 2.94400000 2891936881 2891936881 -11.00000000
3.90068698 -3.64636922 0.46715477 26 5 13307 5.36000000 2891936883 2891936883 5.00000000
2.59706998 -2.42859507 -0.56316406 5 6 13308 3.60000000 2891936886 2891936886 -9.00000000
5.68997908 -5.32272577 0.95667434 57 7 13309 7.85000000 2891936888 2891936888 7.00000000
3.35835147 -3.14268970 -0.56474257 6 8 13310 4.63400000 2891936890 2891936890 -7.00000000
4.21020651 -3.93984175 0.91326439 28 9 13310 5.83800000 2891936893 2891936893 9.00000000
4.16286469 -3.89690304 -0.49887946 10 10 13311 5.72400000 2891936895 2891936895 -5.00000000
5.65042114 -5.29127169 1.50471973 43 11 13312 7.88600000 2891936897 2891936897 11.00000000
4.13231993 -3.87101722 -0.29674488 12 12 13313 5.67000000 2891936900 2891936900 -3.00000000
4.06966829 -3.81366110 1.28761983 17 13 13314 5.72400000 2891936902 2891936902 13.00000000
3.69104028 -3.46006107 -0.08830918 28 14 13315 5.06000000 2891936904 2891936904 -1.00000000
5.62919474 -5.27692890 2.06744647 47 15 13315 7.98800000 2891936907 2891936907 15.00000000
1.52439463 -1.43300462 -0.56060207 4 0 13323 2.16600000 2891936927 2891936927 -15.00000000
3.99589038 -3.75764394 0.09574390 100 1 13324 5.48600000 2891936930 2891936930 1.00000000
1.78845119 -1.68240690 -0.56687665 3 2 13325 2.52000000 2891936932 2891936932 -13.00000000
3.40645456 -3.20559335 0.24514163 22 3 13326 4.68400000 2891936934 2891936934 3.00000000
2.11030030 -1.98586655 -0.56326813 3 4 13326 2.95200000 2891936936 2891936936 -11.00000000
3.89954066 -3.67088819 0.46854928 26 5 13327 5.37600000 2891936939 2891936939 5.00000000
2.59720516 -2.44577122 -0.56504130 5 6 13328 3.61200000 2891936941 2891936941 -9.00000000
5.64246607 -5.31533194 0.95179957 55 7 13329 7.81000000 2891936943 2891936943 7.00000000
3.34447145 -3.15167046 -0.56425506 4 8 13330 4.63000000 2891936946 2891936946 -7.00000000
4.19142580 -3.95118141 0.91232580 59 9 13331 5.83200000 2891936948 2891936948 9.00000000
4.12024117 -3.88407683 -0.49539325 10 10 13331 5.68400000 2891936950 2891936950 -5.00000000
5.61906195 -5.29884052 1.50128520 53 11 13332 7.86800000 2891936953 2891936953 11.00000000
4.12168837 -3.88815904 -0.29695421 9 12 13333 5.67400000 2891936955 2891936955 -3.00000000
3.92593932 -3.70479608 1.24622881 8 13 13334 5.54000000 2891936957 2891936957 13.00000000
3.69202709 -3.48527837 -0.08862332 30 14 13335 5.07800000 2891936960 2891936960 -1.00000000
5.58593845 -5.27497721 2.05864668 47 15 13336 7.95400000 2891936962 2891936962 15.00000000
1.52193761 -1.44123888 -0.56163734 4 0 13344 2.17000000 2891936983 2891936983 -15.00000000
3.97918773 -3.76951408 0.09567409 100 1 13345 5.48200000 2891936985 2891936985 1.00000000
1.77661490 -1.68358886 -0.56507707 3 2 13346 2.51200000 2891936987 2891936987 -13.00000000
3.40917754 -3.23179770 0.24618834 22 3 13347 4.70400000 2891936989 2891936989 3.00000000
2.10585713 -1.99628925 -0.56403136 2 4 13347 2.95600000 2891936992 2891936992 -11.00000000
3.89184284 -3.69063997 0.46924651 26 5 13348 5.38400000 2891936994 2891936994 5.00000000
2.58105803 -2.44847655 -0.56347692 5 6 13349 3.60200000 2891936996 2891936996 -9.00000000
5.60566711 -5.31957960 0.94887471 52 7 13350 7.78600000 2891936999 2891936999 7.00000000
3.33865643 -3.16937423 -0.56523001 4 8 13351 4.63800000 2891937001 2891937001 -7.00000000
4.15468597 -3.94402790 0.90731990 52 9 13351 5.80000000 2891937003 2891937003 9.00000000
4.08864069 -3.88268852 -0.49330151 17 10 13352 5.66000000 2891937006 2891937006 -5.00000000
5.57825232 -5.29911757 1.49556088 53 11 13353 7.83800000 2891937008 2891937008 11.00000000
4.04660225 -3.84545469 -0.29255798 2 12 13354 5.59000000 2891937010 2891937010 -3.00000000
3.89538550 -3.70304871 1.24083006 6 13 13355 5.51600000 2891937013 2891937013 13.00000000
3.69082093 -3.50981116 -0.08890256 30 14 13356 5.09400000 2891937015 2891937015 -1.00000000
5.53669310 -5.26515579 2.04725862 49 15 13356 7.91000000 2891937017 2891937017 15.00000000
1.51410139 -1.44387615 -0.56060207 4 0 13364 2.16600000 2891937038 2891937038 -15.00000000
3.95298314 -3.77095842 0.09535995 80 1 13365 5.46400000 2891937040 2891937040 1.00000000
1.76649773 -1.68574405 -0.56372732 4 2 13366 2.50600000 2891937042 2891937042 -13.00000000
3.40943289 -3.25471115 0.24702571 22 3 13367 4.72000000 2891937045 2891937045 3.00000000
2.10171604 -2.00633907 -0.56479460 3 4 13367 2.96000000 2891937047 2891937047 -11.00000000
3.89046359 -3.71521044 0.47064102 27 5 13368 5.40000000 2891937049 2891937049 5.00000000
2.56392527 -2.44928408 -0.56159973 5 6 13369 3.59000000 2891937052 2891937052 -9.00000000
4.15908337 -3.97450662 0.70635474 13 7 13370 5.79600000 2891937054 2891937054 7.00000000
3.31752849 -3.17140698 -0.56352383 4 8 13371 4.62400000 2891937056 2891937056 -7.00000000
4.13734722 -3.95649862 0.90669417 61 9 13372 5.79600000 2891937059 2891937059 9.00000000
4.07074308 -3.89280581 -0.49277857 17 10 13372 5.65400000 2891937061 2891937061 -5.00000000
5.53134775 -5.29141426 1.48792851 53 11 13373 7.79800000 2891937063 2891937063 11.00000000
4.05047035 -3.87612700 -0.29381406 2 12 13374 5.61400000 2891937065 2891937065 -3.00000000
3.84442782 -3.68023896 1.22868264 11 13 13375 5.46200000 2891937068 2891937068 13.00000000
3.70021081 -3.54341912 -0.08942613 30 14 13376 5.12400000 2891937070 2891937070 -1.00000000
5.50061750 -5.26937675 2.04104710 47 15 13377 7.88600000 2891937072 2891937072 15.00000000
1.51766670 -1.45691633 -0.56370789 4 0 13383 2.17800000 2891937093 2891937093 -15.00000000
3.92891788 -3.77296543 0.09508071 62 1 13384 5.44800000 2891937095 2891937095 1.00000000
1.75246584 -1.68349254 -0.56102794 4 2 13385 2.49400000 2891937098 2891937098 -13.00000000
3.40438151 -3.27153492 0.24744441 24 3 13386 4.72800000 2891937100 2891937100 3.00000000
2.09222007 -2.01057696 -0.56403136 3 4 13386 2.95600000 2891937102 2891937102 -11.00000000
3.89535832 -3.74466062 0.47273275 27 5 13387 5.42400000 2891937105 2891937105 5.00000000
2.55294132 -2.45503449 -0.56097400 5 6 13388 3.58600000 2891937107 2891937107 -9.00000000
3.30699348 -3.18239093 -0.56352383 6 8 13390 4.62400000 2891937112 2891937112 -7.00000000
4.13486052 -3.97906518 0.90888423 28 9 13390 5.81000000 2891937114 2891937114 9.00000000
4.04345751 -3.89246583 -0.49103546 17 10 13391 5.63400000 2891937116 2891937116 -5.00000000
5.49397230 -5.29066229 1.48258591 56 11 13392 7.77000000 2891937118 2891937118 11.00000000
4.03615570 -3.88815188 -0.29370940 5 12 13393 5.61200000 2891937121 2891937121 -3.00000000
5.47397375 -5.27508783 1.75506818 27 13 13394 7.80200000 2891937123 2891937123 13.00000000
3.70139718 -3.56816053 -0.08974028 26 14 13395 5.14200000 2891937125 2891937125 -1.00000000
5.46734619 -5.27054214 2.03483534 47 15 13395 7.86200000 2891937128 2891937128 15.00000000
1.50840509 -1.45817697 -0.56215495 4 0 13403 2.17200000 2891937148 2891937148 -15.00000000
3.90422392 -3.77553606 0.09480147 55 1 13404 5.43200000 2891937151 2891937151 1.00000000
1.75638306 -1.69908404 -0.56417722 3 2 13405 2.50800000 2891937153 2891937153 -13.00000000
3.40155268 -3.29173207 0.24807243 24 3 13406 4.74000000 2891937155 2891937155 3.00000000
2.07813501 -2.01104164 -0.56212330 3 4 13406 2.94600000 2891937158 2891937158 -11.00000000
3.90230441 -3.77763605 0.47517312 27 5 13407 5.45200000 2891937160 2891937160 5.00000000
2.55003238 -2.46942782 -0.56222546 5 6 13408 3.59400000 2891937162 2891937162 -9.00000000
4.11054707 -3.98200631 0.70269865 55 7 13409 5.76600000 2891937165 2891937165 7.00000000
3.29016256 -3.18838930 -0.56254888 4 8 13410 4.61600000 2891937167 2891937167 -7.00000000
5.46766233 -5.30038404 1.20610976 52 9 13411 7.71000000 2891937169 2891937169 9.00000000
4.01840162 -3.89546204 -0.48964095 17 10 13411 5.61800000 2891937171 2891937171 -5.00000000
5.45573950 -5.29067326 1.47724319 56 11 13412 7.74200000 2891937174 2891937174 11.00000000
3.95661545 -3.83824635 -0.28889447 11 12 13413 5.52000000 2891937176 2891937176 -3.00000000
5.42755699 -5.26702118 1.74607003 51 13 13414 7.76200000 2891937178 2891937178 13.00000000
3.68748450 -3.57966638 -0.08970537 12 14 13415 5.14000000 2891937181 2891937181 -1.00000000
5.44106245 -5.28381634 2.03224707 45 15 13416 7.85200000 2891937183 2891937183 15.00000000
1.49776888 -1.45804322 -0.56008440 4 0 13423 2.16400000 2891937204 2891937204 -15.00000000
1.75881684 -1.71336341 -0.56687665 3 2 13425 2.52000000 2891937208 2891937208 -13.00000000
3.40291524 -3.31613088 0.24901448 22 3 13426 4.75800000 2891937211 2891937211 3.00000000
2.06688428 -2.01417279 -0.56097847 3 4 13426 2.94000000 2891937213 2891937213 -11.00000000
3.89908099 -3.80097008 0.47639328 27 5 13427 5.46600000 2891937215 2891937215 5.00000000
2.54139686 -2.47831392 -0.56222546 5 6 13428 3.59400000 2891937218 2891937218 -9.00000000
4.09235907 -3.99217200 0.70196742 60 7 13429 5.76000000 2891937220 2891937220 7.00000000
3.27475071 -3.19569540 -0.56181765 4 8 13430 4.61000000 2891937222 2891937222 -7.00000000
5.42884874 -5.29779196 1.20141673 55 9 13430 7.68000000 2891937224 2891937224 9.00000000
3.98909664 -3.89415574 -0.48772353 14 10 13431 5.59600000 2891937227 2891937227 -5.00000000
5.42319202 -5.29596853 1.47342706 59 11 13432 7.72200000 2891937229 2891937229 11.00000000
3.95605159 -3.86459494 -0.28983653 2 12 13433 5.53800000 2891937231 2891937231 -3.00000000
5.39938211 -5.27640057 1.74292076 62 13 13434 7.74800000 2891937234 2891937234 13.00000000
3.67782664 -3.59531188 -0.08977518 8 14 13435 5.14400000 2891937236 2891937236 -1.00000000
5.39311934 -5.27212095 2.02085900 47 15 13435 7.80800000 2891937238 2891937238 15.00000000
1.48853159 -1.45920539 -0.55853152 4 0 13443 2.15800000 2891937259 2891937259 -15.00000000
3.68359661 -3.61228538 0.09005442 9 1 13444 5.16000000 2891937261 2891937261 1.00000000
1.74726081 -1.71403372 -0.56507707 4 2 13445 2.51200000 2891937264 2891937264 -13.00000000
3.40842533 -3.34477592 0.25027055 24 3 13446 4.78200000 2891937266 2891937266 3.00000000
2.06264353 -2.02412558 -0.56174171 3 4 13446 2.94400000 2891937268 2891937268 -11.00000000
3.89147663 -3.82014012 0.47709054 30 5 13447 5.47400000 2891937271 2891937271 5.00000000
2.52991152 -2.48440194 -0.56159973 5 6 13448 3.59000000 2891937273 2891937273 -9.00000000
4.08547974 -4.01338816 0.70318609 55 7 13449 5.77000000 2891937275 2891937275 7.00000000
3.26499152 -3.20849824 -0.56206143 4 8 13450 4.61200000 2891937277 2891937277 -7.00000000
5.38685608 -5.29549694 1.19641078 52 9 13451 7.64800000 2891937280 2891937280 9.00000000
3.96127081 -3.89408946 -0.48598042 10 10 13451 5.57600000 2891937282 2891937282 -5.00000000
5.37947607 -5.29008865 1.46655798 53 11 13452 7.68600000 2891937284 2891937284 11.00000000
3.83717537 -3.77473307 -0.28209081 2 12 13453 5.39000000 2891937287 2891937287 -3.00000000
5.36704159 -5.28154707 1.73842180 66 13 13454 7.72800000 2891937289 2891937289 13.00000000
3.68520498 -3.62776804 -0.09026384 8 14 13455 5.17200000 2891937291 2891937291 -1.00000000
5.34760666 -5.26609755 2.01102400 47 15 13456 7.77000000 2891937294 2891937294 15.00000000
1.48394001 -1.46387458 -0.55853152 4 0 13461 2.15800000 2891937314 2891937314 -15.00000000
3.88573194 -3.83452845 0.09529014 22 1 13462 5.46000000 2891937317 2891937317 1.00000000
1.74880159 -1.72635961 -0.56732655 4 2 13463 2.52200000 2891937319 2891937319 -13.00000000
3.41211176 -3.36950111 0.25131726 24 3 13464 4.80200000 2891937321 2891937321 3.00000000
2.05068660 -2.02507758 -0.56021523 3 4 13464 2.93600000 2891937324 2891937324 -11.00000000
3.89221263 -3.84494853 0.47865933 27 5 13465 5.49200000 2891937326 2891937326 5.00000000
2.51647401 -2.48678374 -0.56034827 5 6 13466 3.58200000 2891937328 2891937328 -9.00000000
5.36599874 -5.30454016 0.92645073 50 7 13467 7.60200000 2891937330 2891937330 7.00000000
3.26759911 -3.23130202 -0.56425506 4 8 13468 4.63000000 2891937333 2891937333 -7.00000000
5.35988331 -5.30034494 1.19390786 55 9 13468 7.63200000 2891937335 2891937335 9.00000000
3.93202043 -3.88970065 -0.48388869 10 10 13469 5.55200000 2891937337 2891937337 -5.00000000
5.33492088 -5.27934408 1.45892560 56 11 13470 7.64600000 2891937340 2891937340 11.00000000
3.82813668 -3.78957963 -0.28230014 2 12 13471 5.39400000 2891937342 2891937342 -3.00000000
5.33934498 -5.28741264 1.73482251 68 13 13472 7.71200000 2891937344 2891937344 13.00000000
3.68941712 -3.65480804 -0.09064780 14 14 13473 5.19400000 2891937347 2891937347 -1.00000000
5.31274414 -5.26290703 2.00377703 47 15 13473 7.74200000 2891937349 2891937349 15.00000000
1.48704433 -1.47721446 -0.56163734 4 0 13481 2.17000000 2891937370 2891937370 -15.00000000
3.88934445 -3.86498332 0.09570900 22 1 13482 5.48400000 2891937372 2891937372 1.00000000
1.73032629 -1.72008872 -0.56327742 3 2 13483 2.50400000 2891937374 2891937374 -13.00000000
3.40599394 -3.38702440 0.25173596 24 3 13484 4.81000000 2891937377 2891937377 3.00000000
2.04917383 -2.03776073 -0.56174171 3 4 13484 2.94400000 2891937379 2891937379 -11.00000000
3.90560555 -3.88520908 0.48197126 33 5 13485 5.53000000 2891937381 2891937381 5.00000000
2.50777817 -2.49555254 -0.56034827 5 6 13486 3.58200000 2891937383 2891937383 -9.00000000
5.32494020 -5.30083132 0.92255092 50 7 13487 7.57000000 2891937386 2891937386 7.00000000
3.24504685 -3.23148251 -0.56230515 4 8 13488 4.61400000 2891937388 2891937388 -7.00000000
5.32315302 -5.30090189 1.18984056 52 9 13488 7.60600000 2891937390 2891937390 9.00000000
3.91277289 -3.89777756 -0.48319143 7 10 13489 5.54400000 2891937393 2891937393 -5.00000000
5.30255318 -5.28407621 1.45510936 53 11 13490 7.62600000 2891937395 2891937395 11.00000000
3.87712288 -3.86496162 -0.28690571 8 12 13491 5.48200000 2891937397 2891937397 -3.00000000
5.29049826 -5.27574492 1.72492468 64 13 13492 7.66800000 2891937400 2891937400 13.00000000
3.69504142 -3.68602371 -0.09110156 23 14 13493 5.22000000 2891937402 2891937402 -1.00000000
5.28339911 -5.27050495 1.99963593 47 15 13493 7.72600000 2891937404 2891937404 15.00000000
1.48187888 -1.48239625 -0.56163734 4 0 13501 2.17000000 2891937425 2891937425 -15.00000000
3.88996434 -3.89268112 0.09605805 20 1 13502 5.50400000 2891937427 2891937427 1.00000000
1.72431159 -1.72611821 -0.56327742 3 2 13503 2.50400000 2891937430 2891937430 -13.00000000
3.39979553 -3.40454578 0.25215465 26 3 13504 4.81800000 2891937432 2891937432 3.00000000
2.03649902 -2.03934455 -0.56021523 3 4 13504 2.93600000 2891937434 2891937434 -11.00000000
3.90187287 -3.90868902 0.48319143 25 5 13505 5.54400000 2891937436 2891937436 5.00000000
2.49905181 -2.50429130 -0.56034827 5 6 13506 3.58200000 2891937439 2891937439 -9.00000000
5.29518890 -5.30814314 0.92060101 52 7 13507 7.55400000 2891937441 2891937441 7.00000000
3.22253346 -3.23154521 -0.56035525 4 8 13508 4.59800000 2891937443 2891937443 -7.00000000
5.28137445 -5.29799271 1.18483460 52 9 13509 7.57400000 2891937446 2891937446 9.00000000
3.89351678 -3.90576792 -0.48249421 6 10 13509 5.53600000 2891937448 2891937448 -5.00000000
5.27298975 -5.29142809 1.45205641 53 11 13510 7.61000000 2891937450 2891937450 11.00000000
3.86783671 -3.88271666 -0.28721973 8 12 13511 5.48800000 2891937453 2891937453 -3.00000000
5.25279903 -5.27484846 1.71862602 62 13 13512 7.64000000 2891937455 2891937455 13.00000000
3.68215227 -3.69889927 -0.09110156 29 14 13513 5.22000000 2891937457 2891937457 -1.00000000
5.24588871 -5.26974773 1.99238896 47 15 13513 7.69800000 2891937459 2891937459 15.00000000
1.47125125 -1.48207581 -0.55956680 4 0 13521 2.16200000 2891937480 2891937480 -15.00000000
3.90311527 -3.93320489 0.09672124 20 1 13522 5.54200000 2891937483 2891937483 1.00000000
1.72102070 -1.73489368 -0.56417722 3 2 13523 2.50800000 2891937485 2891937485 -13.00000000
3.40617323 -3.43482900 0.25351536 20 3 13524 4.84400000 2891937487 2891937487 3.00000000
2.02798557 -2.04504681 -0.55983359 3 4 13524 2.93400000 2891937489 2891937489 -11.00000000
3.90082932 -3.93501997 0.48476025 28 5 13525 5.56200000 2891937492 2891937492 5.00000000
2.49585676 -2.51861167 -0.56159973 5 6 13526 3.59000000 2891937494 2891937494 -9.00000000
5.25986338 -5.30967140 0.91767615 52 7 13527 7.53000000 2891937496 2891937496 7.00000000
3.20424962 -3.23572159 -0.55913657 2 8 13528 4.58800000 2891937499 2891937499 -7.00000000
5.23922396 -5.29253006 1.17951584 55 9 13529 7.54000000 2891937501 2891937501 9.00000000
3.87425256 -3.91367126 -0.48179695 3 10 13529 5.52800000 2891937503 2891937503 -5.00000000
5.23515368 -5.29026556 1.44671381 56 11 13530 7.58200000 2891937506 2891937506 11.00000000
3.83740449 -3.87915540 -0.28596365 5 12 13531 5.46400000 2891937508 2891937508 -3.00000000
5.22065210 -5.27929544 1.71412706 64 13 13532 7.62000000 2891937510 2891937510 13.00000000
3.67624736 -3.71884036 -0.09127609 14 14 13533 5.23000000 2891937512 2891937512 -1.00000000
5.20752811 -5.26970196 1.98514211 47 15 13534 7.67000000 2891937515 2891937515 15.00000000
1.46580935 -1.48745823 -0.55956680 4 0 13542 2.16200000 2891937536 2891937536 -15.00000000
1.71465039 -1.74118984 -0.56417722 3 2 13544 2.50800000 2891937540 2891937540 -13.00000000
3.36133480 -3.41455364 0.25110793 8 3 13545 4.79800000 2891937542 2891937542 3.00000000
2.02185392 -2.05386519 -0.56021523 3 4 13545 2.93600000 2891937545 2891937545 -11.00000000
3.00317574 -3.05178928 0.37459537 3 5 13546 4.29800000 2891937547 2891937547 5.00000000
2.48106766 -2.52210975 -0.56034827 5 6 13547 3.58200000 2891937549 2891937549 -9.00000000
5.22366476 -5.31192923 0.91475129 50 7 13548 7.50600000 2891937552 2891937552 7.00000000
3.20211005 -3.25735331 -0.56084269 2 8 13549 4.60200000 2891937554 2891937554 -7.00000000
5.20594501 -5.29760790 1.17638719 55 9 13550 7.52000000 2891937556 2891937556 9.00000000
3.86267519 -3.93068695 -0.48214558 3 10 13550 5.53200000 2891937559 2891937559 -5.00000000
5.19096422 -5.28420782 1.43984473 59 11 13551 7.54600000 2891937561 2891937561 11.00000000
3.82875848 -3.89889431 -0.28638235 5 12 13552 5.47200000 2891937563 2891937563 -3.00000000
5.18761587 -5.28448820 1.70962799 68 13 13553 7.60000000 2891937565 2891937565 13.00000000
3.02951717 -3.08716726 -0.07549911 7 14 13554 4.32600000 2891937568 2891937568 -1.00000000
5.16609907 -5.26440763 1.97634220 45 15 13554 7.63600000 2891937570 2891937570 15.00000000
1.46060812 -1.49256587 -0.55956680 4 0 13562 2.16200000 2891937591 2891937591 -15.00000000
3.00508690 -3.07190967 0.07501044 7 1 13563 4.29800000 2891937593 2891937593 1.00000000
1.70311213 -1.74159145 -0.56237763 3 2 13564 2.50000000 2891937595 2891937595 -13.00000000
3.00175071 -3.07064271 0.22504461 7 3 13565 4.30000000 2891937598 2891937598 3.00000000
2.02427888 -2.07073736 -0.56288654 3 4 13565 2.95000000 2891937600 2891937600 -11.00000000
3.00085974 -3.07080340 0.37564126 9 5 13566 4.31000000 2891937602 2891937602 5.00000000
2.47224855 -2.53075504 -0.56034827 5 6 13567 3.58200000 2891937605 2891937605 -9.00000000
3.20042682 -3.27845430 -0.56254888 4 8 13569 4.61600000 2891937609 2891937609 -7.00000000
5.17362499 -5.30161047 1.17325854 57 9 13570 7.50000000 2891937612 2891937612 9.00000000
3.85171413 -3.94699812 -0.48249421 3 10 13570 5.53600000 2891937614 2891937614 -5.00000000
5.15055227 -5.27981043 1.43373883 56 11 13571 7.51400000 2891937616 2891937616 11.00000000
3.80536461 -3.90222621 -0.28564966 2 12 13572 5.45800000 2891937618 2891937618 -3.00000000
5.15553474 -5.28860998 1.70512903 66 13 13573 7.58000000 2891937621 2891937621 13.00000000
3.01174450 -3.09056282 -0.07532459 7 14 13574 4.31600000 2891937623 2891937623 -1.00000000
5.12881565 -5.26303864 1.96909535 47 15 13574 7.60800000 2891937625 2891937625 15.00000000
1.45969033 -1.50155675 -0.56111968 4 0 13581 2.16800000 2891937646 2891937646 -15.00000000
3.00045824 -3.08759451 0.07515007 7 1 13582 4.30600000 2891937648 2891937648 1.00000000
1.69189596 -1.74163842 -0.56057805 3 2 13583 2.49200000 2891937651 2891937651 -13.00000000
3.00461435 -3.09295130 0.22598666 7 3 13583 4.31800000 2891937653 2891937653 3.00000000
2.00372362 -2.06335449 -0.55907035 3 4 13584 2.93000000 2891937655 2891937655 -11.00000000
2.99621129 -3.08645606 0.37633851 7 5 13585 4.31800000 2891937658 2891937658 5.00000000
2.46109128 -2.53610396 -0.55972254 5 6 13586 3.57800000 2891937660 2891937660 -9.00000000
3.00904369 -3.10184073 0.53061914 5 7 13587 4.35400000 2891937662 2891937662 7.00000000
3.17986393 -3.27907372 -0.56084269 4 8 13588 4.60200000 2891937664 2891937664 -7.00000000
5.14044142 -5.30082035 1.16950405 52 9 13588 7.47600000 2891937667 2891937667 9.00000000
3.85801911 -3.97977686 -0.48493454 3 10 13589 5.56400000 2891937669 2891937669 -5.00000000
5.11798668 -5.28135252 1.42954099 59 11 13590 7.49200000 2891937671 2891937671 11.00000000
3.82297611 -3.94638324 -0.28795242 2 12 13591 5.50200000 2891937674 2891937674 -3.00000000
5.11085558 -5.27767897 1.69613099 72 13 13592 7.54000000 2891937676 2891937676 13.00000000
3.01956034 -3.11921096 -0.07577835 5 14 13593 4.34200000 2891937678 2891937678 -1.00000000
5.09924173 -5.26752520 1.96443653 47 15 13593 7.59000000 2891937681 2891937681 15.00000000
1.43833923 -1.48996425 -0.55490804 3 0 13601 2.14400000 2891937701 2891937701 -15.00000000
5.13088799 -5.31690264 0.12897329 6 1 13602 7.39000000 2891937704 2891937704 1.00000000
1.69121814 -1.75314367 -0.56237763 3 2 13603 2.50000000 2891937706 2891937706 -13.00000000
3.39670300 -3.52230668 0.25644618 24 3 13604 4.90000000 2891937708 2891937708 3.00000000
1.99105787 -2.06468344 -0.55754387 3 4 13604 2.92200000 2891937711 2891937711 -11.00000000
5.12872648 -5.32023478 0.64652127 3 5 13605 7.41800000 2891937713 2891937713 5.00000000
2.45496511 -2.54752421 -0.56034827 5 6 13606 3.58200000 2891937715 2891937715 -9.00000000
2.99131179 -3.10517716 0.52940041 7 7 13607 4.34400000 2891937717 2891937717 7.00000000
3.16151357 -3.28300428 -0.55962402 4 8 13608 4.59200000 2891937720 2891937720 -7.00000000
5.09631872 -5.29400921 1.16387236 52 9 13609 7.44000000 2891937722 2891937722 9.00000000
3.90766525 -4.05924702 -0.49295288 3 10 13609 5.65600000 2891937724 2891937724 -5.00000000
