# .PCD v0.7 - Point Cloud Data file format
VERSION 0.7
FIELDS x y z intensity laser_id azimuth distance_m adjustedtime timestamp vertical_angle
SIZE 4 4 4 1 1 2 8 8 4 8
TYPE F F F U U U F U U F
COUNT 1 1 1 1 1 1 1 1 1 1
WIDTH 528
HEIGHT 1
VIEWPOINT 0 0 0 1 0 0 0
POINTS 528
DATA ascii
8.03637218 -4.81348038 1.15020287 33 7 12092 9.43800000 2889433524 2889433524 7.00000000
4.12419128 -2.47121143 -0.59033507 6 8 12093 4.84400000 2889433526 2889433526 -7.00000000
7.21260452 -4.32349634 1.33188307 10 9 12094 8.51400000 2889433528 2889433528 9.00000000
6.10926294 -3.66211343 -0.62316358 16 10 12094 7.15000000 2889433531 2889433531 -5.00000000
5.00569725 -3.00178409 1.13455033 3 11 12095 5.94600000 2889433533 2889433533 11.00000000
5.01821947 -3.01048422 -0.30668870 18 12 12096 5.86000000 2889433535 2889433535 -3.00000000
8.11399555 -4.86959982 2.18472457 56 13 12097 9.71200000 2889433538 2889433538 13.00000000
5.08157921 -3.05090714 -0.10345787 56 14 12098 5.92800000 2889433540 2889433540 -1.00000000
7.91033268 -4.74924994 2.47223949 24 15 12098 9.55200000 2889433542 2889433542 15.00000000
1.83194911 -1.10335875 -0.57302535 4 0 12106 2.21400000 2889433563 2889433563 -15.00000000
4.70681286 -2.83597064 0.09591842 30 1 12107 5.49600000 2889433565 2889433565 1.00000000
2.14632535 -1.29372466 -0.57857412 3 2 12108 2.57200000 2889433567 2889433567 -13.00000000
4.54663467 -2.74054122 0.27821794 2 3 12108 5.31600000 2889433570 2889433570 3.00000000
2.55381417 -1.53995144 -0.57967770 5 4 12109 3.03800000 2889433572 2889433572 -11.00000000
4.90480042 -2.95876455 0.50114554 30 5 12110 5.75000000 2889433574 2889433574 5.00000000
3.14914823 -1.90043747 -0.58256197 4 6 12111 3.72400000 2889433577 2889433577 -9.00000000
8.03311634 -4.84971094 1.15215278 36 7 12112 9.45400000 2889433579 2889433579 7.00000000
4.09854794 -2.47532988 -0.58789772 6 8 12113 4.82400000 2889433581 2889433581 -7.00000000
7.20592213 -4.35375452 1.33344734 10 9 12114 8.52400000 2889433584 2889433584 9.00000000
6.09985304 -3.68547726 -0.62351221 16 10 12114 7.15400000 2889433586 2889433586 -5.00000000
5.02879238 -3.03954983 1.14218259 3 11 12115 5.98600000 2889433588 2889433588 11.00000000
5.00255299 -3.02488232 -0.30637470 12 12 12116 5.85400000 2889433591 2889433591 -3.00000000
8.10361767 -4.90192795 2.18652415 64 13 12117 9.72000000 2889433593 2889433593 13.00000000
5.09142828 -3.08105016 -0.10387672 51 14 12118 5.95200000 2889433595 2889433595 -1.00000000
7.90031767 -4.78083372 2.47431016 36 15 12118 9.56000000 2889433597 2889433597 15.00000000
1.83119524 -1.11207128 -0.57406062 4 0 12127 2.21800000 2889433618 2889433618 -15.00000000
4.70493174 -2.85839438 0.09609295 27 1 12128 5.50600000 2889433620 2889433620 1.00000000
2.13157749 -1.29550993 -0.57587469 3 2 12129 2.56000000 2889433623 2889433623 -13.00000000
4.80742359 -2.92295933 0.29486078 13 3 12130 5.63400000 2889433625 2889433625 3.00000000
2.53808784 -1.54318154 -0.57738805 5 4 12130 3.02600000 2889433627 2889433627 -11.00000000
4.90413618 -2.98293400 0.50219136 33 5 12131 5.76200000 2889433630 2889433630 5.00000000
3.14216161 -1.91196692 -0.58256197 4 6 12132 3.72400000 2889433632 2889433632 -9.00000000
4.08605671 -2.48827028 -0.58741021 6 8 12134 4.82000000 2889433637 2889433637 -7.00000000
7.19405508 -4.38093615 1.33407307 12 9 12134 8.52800000 2889433639 2889433639 9.00000000
6.08290100 -3.70573640 -0.62316358 12 10 12135 7.15000000 2889433641 2889433641 -5.00000000
5.00420618 -3.04978728 1.13912976 3 11 12136 5.97000000 2889433644 2889433644 11.00000000
4.97096920 -3.03072095 -0.30511862 12 12 12137 5.83000000 2889433646 2889433646 -3.00000000
8.09557915 -4.93768454 2.18922377 68 13 12138 9.73200000 2889433648 2889433648 13.00000000
5.08692980 -3.10385656 -0.10401634 49 14 12139 5.96000000 2889433650 2889433650 -1.00000000
7.89179564 -4.81717253 2.47741580 40 15 12140 9.57200000 2889433653 2889433653 15.00000000
1.81741595 -1.11240542 -0.57095480 4 0 12147 2.20600000 2889433673 2889433673 -15.00000000
4.72050619 -2.89046383 0.09661652 25 1 12148 5.53600000 2889433676 2889433676 1.00000000
2.13701272 -1.30905020 -0.57857412 3 2 12149 2.57200000 2889433678 2889433678 -13.00000000
4.81473541 -2.94931793 0.29590750 18 3 12149 5.65400000 2889433680 2889433680 3.00000000
2.52431583 -1.54690278 -0.57547992 5 4 12150 3.01600000 2889433683 2889433683 -11.00000000
4.90898132 -3.00940633 0.50376022 36 5 12151 5.78000000 2889433685 2889433685 5.00000000
3.13546848 -1.92292345 -0.58256197 4 6 12152 3.72400000 2889433687 2889433687 -9.00000000
7.95590687 -4.88111782 1.14605927 9 7 12153 9.40400000 2889433690 2889433690 7.00000000
4.06888723 -2.49732614 -0.58619153 6 8 12154 4.81000000 2889433692 2889433692 -7.00000000
7.17626667 -4.40624046 1.33376026 12 9 12155 8.52600000 2889433694 2889433694 9.00000000
6.04955387 -3.71443701 -0.62107182 16 10 12155 7.12600000 2889433697 2889433697 -5.00000000
5.02029610 -3.08367753 1.14523554 3 11 12156 6.00200000 2889433699 2889433699 11.00000000
4.90420437 -3.01354814 -0.30166444 12 12 12157 5.76400000 2889433701 2889433701 -3.00000000
8.09821510 -4.97815943 2.19462252 64 13 12158 9.75600000 2889433703 2889433703 13.00000000
5.07606411 -3.12159443 -0.10401634 51 14 12159 5.96000000 2889433706 2889433706 -1.00000000
7.86999655 -4.84165430 2.47586298 40 15 12160 9.56600000 2889433708 2889433708 15.00000000
1.80713975 -1.11437011 -0.56888425 4 0 12166 2.19800000 2889433729 2889433729 -15.00000000
4.70578957 -2.90295219 0.09651181 25 1 12167 5.53000000 2889433731 2889433731 1.00000000
2.13266015 -1.31612957 -0.57857412 3 2 12168 2.57200000 2889433733 2889433733 -13.00000000
4.81512690 -2.97156143 0.29653552 20 3 12168 5.66600000 2889433736 2889433736 3.00000000
2.52251339 -1.55732787 -0.57624316 6 4 12169 3.02000000 2889433738 2889433738 -11.00000000
4.90406036 -3.02880931 0.50428313 39 5 12170 5.78600000 2889433740 2889433740 5.00000000
3.12571359 -1.93123388 -0.58193618 4 6 12171 3.72000000 2889433743 2889433743 -9.00000000
8.04436874 -4.97218323 1.16117108 22 7 12172 9.52800000 2889433745 2889433745 7.00000000
4.07915545 -2.52228928 -0.58887267 6 8 12173 4.83200000 2889433747 2889433747 -7.00000000
6.02703667 -3.72818899 -0.62002593 16 10 12174 7.11400000 2889433752 2889433752 -5.00000000
5.01672029 -3.10444093 1.14676201 3 11 12175 6.01000000 2889433754 2889433754 11.00000000
4.59360456 -2.84371758 -0.28313753 11 12 12176 5.41000000 2889433756 2889433756 -3.00000000
7.97728729 -4.94034672 2.16627860 16 13 12177 9.63000000 2889433759 2889433759 13.00000000
7.84897137 -4.86467218 2.47431016 40 15 12179 9.56000000 2889433763 2889433763 15.00000000
1.80652046 -1.12271082 -0.56991953 4 0 12186 2.20200000 2889433784 2889433784 -15.00000000
4.69562769 -2.91936064 0.09651181 25 1 12187 5.53000000 2889433786 2889433786 1.00000000
2.12143373 -1.31944907 -0.57677448 3 2 12188 2.56400000 2889433789 2889433789 -13.00000000
4.81829262 -2.99678993 0.29737291 23 3 12188 5.68200000 2889433791 2889433791 3.00000000
2.51706195 -1.56612360 -0.57624316 6 4 12189 3.02000000 2889433793 2889433793 -11.00000000
4.90868139 -3.05538511 0.50585192 39 5 12190 5.80400000 2889433796 2889433796 5.00000000
3.10889220 -1.93586791 -0.58005899 3 6 12191 3.70800000 2889433798 2889433798 -9.00000000
7.96630573 -4.96244764 1.15239656 4 7 12192 9.45600000 2889433800 2889433800 7.00000000
4.06695652 -2.53441310 -0.58838516 6 8 12193 4.82800000 2889433803 2889433803 -7.00000000
5.78557396 -3.60540700 1.07971072 2 9 12193 6.90200000 2889433805 2889433805 9.00000000
6.00215101 -3.74182630 -0.61880577 16 10 12194 7.10000000 2889433807 2889433807 -5.00000000
4.99918985 -3.11777782 1.14523554 3 11 12195 6.00200000 2889433809 2889433809 11.00000000
4.51756430 -2.81850410 -0.27905533 35 12 12196 5.33200000 2889433812 2889433812 -3.00000000
7.93850231 -4.95474911 2.16042995 13 13 12197 9.60400000 2889433814 2889433814 13.00000000
4.48307705 -2.79916191 -0.09225342 27 14 12198 5.28600000 2889433816 2889433816 -1.00000000
7.82702732 -4.88897038 2.47275710 40 15 12199 9.55400000 2889433819 2889433819 15.00000000
1.81221569 -1.13547885 -0.57302535 4 0 12207 2.21400000 2889433839 2889433839 -15.00000000
4.70183945 -2.94717193 0.09686086 25 1 12208 5.55000000 2889433842 2889433842 1.00000000
2.10997963 -1.32307458 -0.57497489 3 2 12209 2.55600000 2889433844 2889433844 -13.00000000
4.81066084 -3.01655173 0.29758224 23 3 12209 5.68600000 2889433846 2889433846 3.00000000
2.51629424 -1.57846844 -0.57738805 6 4 12210 3.02600000 2889433849 2889433849 -11.00000000
4.90757561 -3.07971001 0.50689781 36 5 12211 5.81600000 2889433851 2889433851 5.00000000
3.10512209 -1.94935012 -0.58068472 3 6 12212 3.71200000 2889433853 2889433853 -9.00000000
7.90099430 -4.96205139 1.14557183 6 7 12213 9.40000000 2889433855 2889433855 7.00000000
4.04419327 -2.54085374 -0.58643526 6 8 12214 4.81200000 2889433858 2889433858 -7.00000000
5.75057650 -3.61292672 1.07564342 5 9 12214 6.87600000 2889433860 2889433860 9.00000000
5.97321415 -3.75425816 -0.61723697 16 10 12215 7.08200000 2889433862 2889433862 -5.00000000
4.98108101 -3.13189983 1.14370906 3 11 12216 5.99400000 2889433865 2889433865 11.00000000
4.47508192 -2.81483817 -0.27706656 41 12 12217 5.29400000 2889433867 2889433867 -3.00000000
8.03409576 -5.05542421 2.19147325 30 13 12218 9.74200000 2889433869 2889433869 13.00000000
4.45247936 -2.80279088 -0.09183456 44 14 12219 5.26200000 2889433872 2889433872 -1.00000000
7.82299328 -4.92449522 2.47689819 38 15 12219 9.57000000 2889433874 2889433874 15.00000000
1.80824101 -1.14179778 -0.57302535 4 0 12227 2.21400000 2889433895 2889433895 -15.00000000
4.70166731 -2.96997404 0.09707028 26 1 12228 5.56200000 2889433897 2889433897 1.00000000
2.11193776 -1.33459580 -0.57677448 3 2 12229 2.56400000 2889433899 2889433899 -13.00000000
4.80178976 -3.03439283 0.29768690 21 3 12229 5.68800000 2889433902 2889433902 3.00000000
2.50247169 -1.58199692 -0.57547992 6 4 12230 3.01600000 2889433904 2889433904 -11.00000000
4.91363430 -3.10747123 0.50864089 36 5 12231 5.83600000 2889433906 2889433906 5.00000000
3.09829879 -1.96017718 -0.58068472 3 6 12232 3.71200000 2889433908 2889433908 -9.00000000
7.85343266 -4.97049141 1.14118457 6 7 12233 9.36400000 2889433911 2889433911 7.00000000
4.03194523 -2.55283141 -0.58594781 6 8 12234 4.80800000 2889433913 2889433913 -7.00000000
5.73292303 -3.62980771 1.07470477 10 9 12234 6.87000000 2889433915 2889433915 9.00000000
5.96175623 -3.77615166 -0.61741126 16 10 12235 7.08400000 2889433918 2889433918 -5.00000000
4.99996901 -3.16818237 1.15057826 3 11 12236 6.03000000 2889433920 2889433920 11.00000000
4.44667292 -2.81867957 -0.27591518 47 12 12237 5.27200000 2889433922 2889433922 -3.00000000
8.00487995 -5.07613230 2.18832397 38 13 12238 9.72800000 2889433925 2889433925 13.00000000
4.40889692 -2.79689193 -0.09113646 40 14 12239 5.22200000 2889433927 2889433927 -1.00000000
7.81304693 -4.95831060 2.47948647 40 15 12240 9.58000000 2889433929 2889433929 15.00000000
1.79446530 -1.14188004 -0.56991953 4 0 12247 2.20200000 2889433950 2889433950 -15.00000000
4.40281153 -2.80274010 0.09110156 52 1 12248 5.22000000 2889433952 2889433952 1.00000000
2.11384130 -1.34614682 -0.57857412 3 2 12249 2.57200000 2889433955 2889433955 -13.00000000
4.80411196 -3.06055689 0.29852429 11 3 12250 5.70400000 2889433957 2889433957 3.00000000
2.49196696 -1.58755803 -0.57433510 5 4 12250 3.01000000 2889433959 2889433959 -11.00000000
4.90779781 -3.12781644 0.50916386 42 5 12251 5.84200000 2889433961 2889433961 5.00000000
3.09143758 -1.97098029 -0.58068472 5 6 12252 3.71200000 2889433964 2889433964 -9.00000000
7.84942389 -5.00641441 1.14313447 6 7 12253 9.38000000 2889433966 2889433966 7.00000000
4.03305006 -2.57329655 -0.58741021 8 8 12254 4.82000000 2889433968 2889433968 -7.00000000
5.72354794 -3.65192223 1.07533050 10 9 12254 6.87400000 2889433971 2889433971 9.00000000
5.92670631 -3.78300333 -0.61514521 16 10 12255 7.05800000 2889433973 2889433973 -5.00000000
5.01204491 -3.20040870 1.15592086 3 11 12256 6.05800000 2889433975 2889433975 11.00000000
4.40987635 -2.81698132 -0.27424040 47 12 12257 5.24000000 2889433978 2889433978 -3.00000000
7.97069120 -5.09355021 2.18382478 22 13 12258 9.70800000 2889433980 2889433980 13.00000000
4.37551975 -2.79718566 -0.09064780 38 14 12259 5.19400000 2889433982 2889433982 -1.00000000
7.79656172 -4.98419237 2.47948647 45 15 12259 9.58000000 2889433985 2889433985 15.00000000
1.78396356 -1.14396560 -0.56784898 4 0 12267 2.19400000 2889434005 2889434005 -15.00000000
4.34587336 -2.78785920 0.09012423 52 1 12268 5.16400000 2889434008 2889434008 1.00000000
2.11568975 -1.35772729 -0.58037370 3 2 12269 2.58000000 2889434010 2889434010 -13.00000000
2.49467063 -1.60155010 -0.57624316 5 4 12270 3.02000000 2889434014 2889434014 -11.00000000
4.90187931 -3.14815879 0.50968677 40 5 12271 5.84800000 2889434017 2889434017 5.00000000
3.06791949 -1.97108185 -0.57755607 5 6 12272 3.69200000 2889434019 2889434019 -9.00000000
7.84859991 -5.04451656 1.14557183 6 7 12273 9.40000000 2889434021 2889434021 7.00000000
4.01903391 -2.58413792 -0.58667904 8 8 12274 4.81400000 2889434024 2889434024 -7.00000000
5.72839975 -3.68463063 1.07877207 20 9 12275 6.89600000 2889434026 2889434026 9.00000000
5.90173531 -3.79612350 -0.61392504 16 10 12275 7.04400000 2889434028 2889434028 -5.00000000
5.36406040 -3.45160317 1.23987687 6 11 12276 6.49800000 2889434031 2889434031 11.00000000
4.38658094 -2.82370901 -0.27340305 65 12 12277 5.22400000 2889434033 2889434033 -3.00000000
7.93484020 -5.10973644 2.17887592 16 13 12278 9.68600000 2889434035 2889434035 13.00000000
4.33210754 -2.79078293 -0.08994970 58 14 12279 5.15400000 2889434038 2889434038 -1.00000000
7.77012205 -5.00750208 2.47689819 38 15 12280 9.57000000 2889434040 2889434040 15.00000000
1.78360677 -1.15166032 -0.56888425 4 0 12285 2.19800000 2889434061 2889434061 -15.00000000
4.30349874 -2.77979827 0.08942613 52 1 12286 5.12400000 2889434063 2889434063 1.00000000
2.10159326 -1.35802126 -0.57767433 3 2 12287 2.56800000 2889434065 2889434065 -13.00000000
4.82899570 -3.12162685 0.30135044 23 3 12288 5.75800000 2889434067 2889434067 3.00000000
2.49127555 -1.61044514 -0.57662481 5 4 12288 3.02200000 2889434070 2889434070 -11.00000000
4.90200281 -3.17003441 0.51073265 37 5 12289 5.86000000 2889434072 2889434072 5.00000000
3.06834626 -1.98500216 -0.57880753 5 6 12290 3.70000000 2889434074 2889434074 -9.00000000
7.84604549 -5.07777739 1.14752173 6 7 12291 9.41600000 2889434077 2889434077 7.00000000
4.00922966 -2.59567261 -0.58643526 8 8 12292 4.81200000 2889434079 2889434079 -7.00000000
5.73070765 -3.71019936 1.08127499 25 9 12292 6.91200000 2889434081 2889434081 9.00000000
5.87640190 -3.80598092 -0.61253059 16 10 12293 7.02800000 2889434084 2889434084 -5.00000000
5.42733431 -3.51647735 1.25704968 12 11 12294 6.58800000 2889434086 2889434086 11.00000000
4.36930847 -2.83204436 -0.27287969 81 12 12295 5.21400000 2889434088 2889434088 -3.00000000
4.33841753 -2.81417274 -0.09026384 68 14 12297 5.17200000 2889434093 2889434093 -1.00000000
7.76009274 -5.03368855 2.47845125 40 15 12297 9.57600000 2889434095 2889434095 15.00000000
1.79253006 -1.16630781 -0.57302535 4 0 12305 2.21400000 2889434116 2889434116 -15.00000000
4.27365780 -2.78171301 0.08900727 49 1 12306 5.10000000 2889434118 2889434118 1.00000000
2.09357405 -1.36322224 -0.57677448 3 2 12307 2.56400000 2889434120 2889434120 -13.00000000
4.82141685 -3.14064431 0.30155978 26 3 12308 5.76200000 2889434123 2889434123 3.00000000
2.49057412 -1.62234628 -0.57776964 5 4 12308 3.02800000 2889434125 2889434125 -11.00000000
4.90259266 -3.19474053 0.51195282 37 5 12309 5.87400000 2889434127 2889434127 5.00000000
3.06470823 -1.99785817 -0.57943326 5 6 12310 3.70400000 2889434130 2889434130 -9.00000000
5.96265650 -3.88848996 0.87404692 7 7 12311 7.17200000 2889434132 2889434132 7.00000000
4.00014448 -2.60965157 -0.58643526 8 8 12312 4.81200000 2889434134 2889434134 -7.00000000
5.72037888 -3.73333764 1.08190072 27 9 12313 6.91600000 2889434137 2889434137 9.00000000
5.84973288 -3.81775880 -0.61113608 12 10 12313 7.01200000 2889434139 2889434139 -5.00000000
5.37721682 -3.51071525 1.24827242 12 11 12314 6.54200000 2889434141 2889434141 11.00000000
4.38949585 -2.86693788 -0.27476376 15 12 12315 5.25000000 2889434143 2889434143 -3.00000000
7.74967527 -5.06738281 2.48103929 40 15 12318 9.58600000 2889434150 2889434150 15.00000000
1.78521681 -1.17043936 -0.57199007 4 0 12325 2.21000000 2889434171 2889434171 -15.00000000
4.25054455 -2.78784013 0.08872803 49 1 12326 5.08400000 2889434173 2889434173 1.00000000
2.08554411 -1.36838377 -0.57587469 3 2 12327 2.56000000 2889434176 2889434176 -13.00000000
4.80374575 -3.15307117 0.30114108 23 3 12328 5.75400000 2889434178 2889434178 3.00000000
2.47340679 -1.62348902 -0.57509834 5 4 12328 3.01400000 2889434180 2889434180 -11.00000000
4.89973783 -3.21730232 0.51282442 34 5 12329 5.88400000 2889434183 2889434183 5.00000000
3.04450727 -1.99986756 -0.57693028 5 6 12330 3.68800000 2889434185 2889434185 -9.00000000
5.93743420 -3.90164876 0.87234074 10 7 12331 7.15800000 2889434187 2889434187 7.00000000
3.98105812 -2.61705613 -0.58497286 8 8 12332 4.80000000 2889434190 2889434190 -7.00000000
5.71787119 -3.75879717 1.08377802 25 9 12332 6.92800000 2889434192 2889434192 9.00000000
5.83970022 -3.84034443 -0.61148471 12 10 12333 7.01600000 2889434194 2889434194 -5.00000000
5.41905403 -3.56507134 1.26086581 15 11 12334 6.60800000 2889434196 2889434196 11.00000000
4.28234720 -2.81940031 1.18369246 42 13 12336 5.26200000 2889434201 2889434201 13.00000000
7.74734926 -5.10261726 2.48569822 38 15 12337 9.60400000 2889434206 2889434206 15.00000000
1.77144909 -1.17027473 -0.56888425 4 0 12345 2.19800000 2889434226 2889434226 -15.00000000
4.22410440 -2.79163480 0.08837899 67 1 12346 5.06400000 2889434229 2889434229 1.00000000
2.08075476 -1.37565529 -0.57587469 3 2 12347 2.56000000 2889434231 2889434231 -13.00000000
4.81103468 -3.18193984 0.30229250 26 3 12348 5.77600000 2889434233 2889434233 3.00000000
2.46444964 -1.62994683 -0.57433510 5 4 12348 3.01000000 2889434236 2889434236 -11.00000000
4.89678574 -3.23988295 0.51369596 34 5 12349 5.89400000 2889434238 2889434238 5.00000000
3.04409695 -2.01484370 -0.57818180 5 6 12350 3.69600000 2889434240 2889434240 -9.00000000
5.88571024 -3.89714408 0.86673474 40 7 12351 7.11200000 2889434243 2889434243 7.00000000
3.96362376 -2.62545562 -0.58375418 8 8 12352 4.79000000 2889434245 2889434245 -7.00000000
5.71228981 -3.78518486 1.08534229 22 9 12353 6.93800000 2889434247 2889434247 9.00000000
5.79968548 -3.84309673 -0.60869569 12 10 12353 6.98400000 2889434249 2889434249 -5.00000000
5.40984964 -3.58613515 1.26162910 15 11 12354 6.61200000 2889434252 2889434252 11.00000000
4.38268995 -2.90634274 -0.27560115 2 12 12355 5.26600000 2889434254 2889434254 -3.00000000
4.26273632 -2.82786751 1.18099308 42 13 12356 5.25000000 2889434256 2889434256 13.00000000
4.44533634 -2.95012045 -0.09312604 2 14 12357 5.33600000 2889434259 2889434259 -1.00000000
7.71250057 -5.12029362 2.48052168 40 15 12358 9.58400000 2889434261 2889434261 15.00000000
1.77056956 -1.17859209 -0.56991953 4 0 12365 2.20200000 2889434282 2889434282 -15.00000000
4.19602537 -2.79417086 0.08799503 67 1 12366 5.04200000 2889434284 2889434284 1.00000000
2.07918382 -1.38507092 -0.57677448 3 2 12367 2.56400000 2889434286 2889434286 -13.00000000
4.82316637 -3.21422029 0.30375788 26 3 12368 5.80400000 2889434289 2889434289 3.00000000
2.45874524 -1.63853943 -0.57433510 5 4 12368 3.01000000 2889434291 2889434291 -11.00000000
4.22897005 -2.81930614 0.44466859 25 5 12369 5.10200000 2889434293 2889434293 5.00000000
3.02554131 -2.01778531 -0.57599169 5 6 12370 3.68200000 2889434296 2889434296 -9.00000000
5.85225487 -3.90444469 0.86380988 47 7 12371 7.08800000 2889434298 2889434298 7.00000000
3.98415542 -2.65911102 -0.58814144 12 8 12372 4.82600000 2889434300 2889434300 -7.00000000
5.71285057 -3.81287932 1.08784533 7 9 12372 6.95400000 2889434302 2889434302 9.00000000
4.27173948 -2.85212874 -0.44937500 3 10 12373 5.15600000 2889434305 2889434305 -5.00000000
5.42995024 -3.62680602 1.26926148 12 11 12374 6.65200000 2889434307 2889434307 11.00000000
4.25627232 -2.84395003 -0.26827410 7 12 12375 5.12600000 2889434309 2889434309 -3.00000000
4.24635887 -2.83839822 1.17919338 43 13 12376 5.24200000 2889434312 2889434312 13.00000000
4.43501139 -2.96561956 -0.09312604 2 14 12377 5.33600000 2889434314 2889434314 -1.00000000
7.70511389 -5.15228367 2.48362756 40 15 12377 9.59600000 2889434316 2889434316 15.00000000
1.77286232 -1.18906963 -0.57199007 4 0 12385 2.21000000 2889434337 2889434337 -15.00000000
4.18790722 -2.80991483 0.08802994 63 1 12386 5.04400000 2889434339 2889434339 1.00000000
2.06786418 -1.38797605 -0.57497489 3 2 12387 2.55600000 2889434342 2889434342 -13.00000000
4.81025934 -3.22992325 0.30365321 21 3 12388 5.80200000 2889434344 2889434344 3.00000000
2.45627046 -1.64930093 -0.57509834 5 4 12388 3.01400000 2889434346 2889434346 -11.00000000
4.19925594 -2.82071924 0.44257686 27 5 12389 5.07800000 2889434349 2889434349 5.00000000
3.00864196 -2.02172351 -0.57411450 5 6 12390 3.67000000 2889434351 2889434351 -9.00000000
5.82705784 -3.91709685 0.86210376 37 7 12391 7.07400000 2889434353 2889434353 7.00000000
3.96990728 -2.66967893 -0.58741021 8 8 12392 4.82000000 2889434355 2889434355 -7.00000000
4.18439198 -2.81497622 0.79875439 13 9 12393 5.10600000 2889434358 2889434358 9.00000000
4.23530769 -2.84922886 -0.44658601 9 10 12393 5.12400000 2889434360 2889434360 -5.00000000
4.21815395 -2.83982801 -0.26649469 7 12 12395 5.09200000 2889434365 2889434365 -3.00000000
4.23319244 -2.85102630 1.17829359 38 13 12396 5.23800000 2889434367 2889434367 13.00000000
4.42463207 -2.98108244 -0.09312604 2 14 12397 5.33600000 2889434369 2889434369 -1.00000000
7.69098425 -5.18372917 2.48518038 42 15 12398 9.60200000 2889434372 2889434372 15.00000000
1.76090539 -1.18953514 -0.56940192 4 0 12404 2.20000000 2889434392 2889434392 -15.00000000
4.15537024 -2.80811167 0.08754127 54 1 12405 5.01600000 2889434395 2889434395 1.00000000
2.06002140 -1.39264286 -0.57407510 3 2 12406 2.55200000 2889434397 2889434397 -13.00000000
4.10631275 -2.77704835 0.25979570 16 3 12407 4.96400000 2889434399 2889434399 3.00000000
2.45241380 -1.65853703 -0.57547992 5 4 12407 3.01600000 2889434402 2889434402 -11.00000000
4.15687513 -2.81230044 0.43909064 35 5 12408 5.03800000 2889434404 2889434404 5.00000000
3.01664448 -2.04165411 -0.57693028 5 6 12409 3.68800000 2889434406 2889434406 -9.00000000
4.12094688 -2.79009080 0.61105287 38 7 12410 5.01400000 2889434408 2889434408 7.00000000
3.95117092 -2.67614961 -0.58594781 8 8 12411 4.80800000 2889434411 2889434411 -7.00000000
4.16244364 -2.81924582 0.79625142 40 9 12411 5.09000000 2889434413 2889434413 9.00000000
4.21593952 -2.85655236 -0.44554016 9 10 12412 5.11200000 2889434415 2889434415 -5.00000000
4.18467522 -2.83643460 0.98266631 47 11 12413 5.15000000 2889434418 2889434418 11.00000000
4.20044804 -2.84819579 -0.26597133 20 12 12414 5.08200000 2889434420 2889434420 -3.00000000
4.21887636 -2.86176658 1.17694390 28 13 12415 5.23200000 2889434422 2889434422 13.00000000
4.41472244 -2.99573874 -0.09312604 2 14 12416 5.33600000 2889434425 2889434425 -1.00000000
7.65707684 -5.19593334 2.47948647 47 15 12416 9.58000000 2889434427 2889434427 15.00000000
1.77111566 -1.20545745 -0.57406062 4 0 12424 2.21800000 2889434448 2889434448 -15.00000000
4.12240171 -2.80684352 0.08705261 49 1 12425 4.98800000 2889434450 2889434450 1.00000000
2.05836868 -1.40201926 -0.57497489 3 2 12426 2.55600000 2889434452 2889434452 -13.00000000
4.08338976 -2.78236794 0.25895831 46 3 12427 4.94800000 2889434455 2889434455 3.00000000
2.43687510 -1.66045439 -0.57319021 5 4 12427 3.00400000 2889434457 2889434457 -11.00000000
4.08941221 -2.78751683 0.43298972 54 5 12428 4.96800000 2889434459 2889434459 5.00000000
3.01276350 -2.05439758 -0.57755607 5 6 12429 3.69200000 2889434461 2889434461 -9.00000000
4.09806347 -2.79550934 0.60910296 42 7 12430 4.99800000 2889434464 2889434464 7.00000000
3.93524671 -2.68544984 -0.58497286 8 8 12431 4.80000000 2889434466 2889434466 -7.00000000
4.13789225 -2.82373714 0.79343563 49 9 12431 5.07200000 2889434468 2889434468 9.00000000
4.19113302 -2.86114144 -0.44397137 15 10 12432 5.09400000 2889434471 2889434471 -5.00000000
4.16339970 -2.84327435 0.97999501 55 11 12433 5.13600000 2889434473 2889434473 11.00000000
4.19542789 -2.86622071 -0.26628536 22 12 12434 5.08800000 2889434475 2889434475 -3.00000000
4.21047020 -2.87757540 1.17739379 41 13 12435 5.23400000 2889434478 2889434478 13.00000000
4.35801697 -2.97952962 -0.09214871 2 14 12436 5.28000000 2889434480 2889434480 -1.00000000
7.61337662 -5.20518446 2.47120428 45 15 12436 9.54800000 2889434482 2889434482 15.00000000
1.75415123 -1.20289207 -0.56991953 4 0 12444 2.20200000 2889434503 2889434503 -15.00000000
4.09773779 -2.81103539 0.08673846 47 1 12445 4.97000000 2889434505 2889434505 1.00000000
2.05346227 -1.40919578 -0.57497489 3 2 12446 2.55600000 2889434508 2889434508 -13.00000000
4.05554056 -2.78417039 0.25780693 46 3 12447 4.92600000 2889434510 2889434510 3.00000000
2.42620850 -1.66561711 -0.57204539 5 4 12447 2.99800000 2889434512 2889434512 -11.00000000
4.04516745 -2.77808809 0.42932919 49 5 12448 4.92600000 2889434514 2889434514 5.00000000
3.01208663 -2.06937575 -0.57880753 5 6 12449 3.70000000 2889434517 2889434517 -9.00000000
4.08010054 -2.80417538 0.60788429 57 7 12450 4.98800000 2889434519 2889434519 7.00000000
3.93402743 -2.70479321 -0.58619153 8 8 12451 4.81000000 2889434521 2889434521 -7.00000000
4.10310125 -2.82209277 0.78874260 81 9 12452 5.04200000 2889434524 2889434524 9.00000000
4.14336395 -2.84978509 -0.43996218 6 10 12452 5.04800000 2889434526 2889434526 -5.00000000
4.15991926 -2.86224127 0.98152149 57 11 12453 5.14400000 2889434528 2889434528 11.00000000
4.17717123 -2.87518597 -0.26576197 10 12 12454 5.07800000 2889434531 2889434531 -3.00000000
4.21484518 -2.90220165 1.18144298 19 13 12455 5.25200000 2889434533 2889434533 13.00000000
4.34100246 -2.99018645 -0.09200909 2 14 12456 5.27200000 2889434535 2889434535 -1.00000000
7.55061436 -5.20104408 2.45671034 45 15 12456 9.49200000 2889434537 2889434537 15.00000000
1.74676287 -1.20681167 -0.56888425 4 0 12464 2.19800000 2889434558 2889434558 -15.00000000
4.06487036 -2.80940461 0.08624979 47 1 12465 4.94200000 2889434561 2889434561 1.00000000
2.05173659 -1.41857159 -0.57587469 3 2 12466 2.56000000 2889434563 2889434563 -13.00000000
4.02608538 -2.78467607 0.25655085 46 3 12467 4.90200000 2889434565 2889434565 3.00000000
2.42199421 -1.67519283 -0.57242697 5 4 12467 3.00000000 2889434567 2889434567 -11.00000000
4.01578426 -2.77858758 0.42723745 51 5 12468 4.90200000 2889434570 2889434570 5.00000000
2.98535395 -2.06638622 -0.57505310 3 6 12469 3.67600000 2889434572 2889434572 -9.00000000
4.06049538 -2.81162024 0.60642183 70 7 12470 4.97600000 2889434574 2889434574 7.00000000
3.93108940 -2.72303057 -0.58716649 8 8 12471 4.81800000 2889434577 2889434577 -7.00000000
4.08997822 -2.83414793 0.78811681 63 9 12472 5.03800000 2889434579 2889434579 9.00000000
4.11046410 -2.84834337 -0.43752182 9 10 12472 5.02000000 2889434581 2889434581 -5.00000000
4.15796995 -2.88233709 0.98342955 18 11 12473 5.15400000 2889434584 2889434584 11.00000000
4.13264370 -2.86584854 -0.26356387 5 12 12474 5.03600000 2889434586 2889434586 -3.00000000
4.32396698 -3.00076079 -0.09186947 2 14 12476 5.26400000 2889434590 2889434590 -1.00000000
7.49500179 -5.20334435 2.44480467 42 15 12477 9.44600000 2889434593 2889434593 15.00000000
1.73302627 -1.20627975 -0.56577843 4 0 12484 2.18600000 2889434614 2889434614 -15.00000000
4.02878189 -2.80529356 0.08569132 47 1 12485 4.91000000 2889434616 2889434616 1.00000000
2.04037619 -1.42126954 -0.57407510 3 2 12486 2.55200000 2889434618 2889434618 -13.00000000
3.99831557 -2.78615236 0.25539947 44 3 12487 4.88000000 2889434620 2889434620 3.00000000
2.41935349 -1.68588185 -0.57319021 5 4 12487 3.00400000 2889434623 2889434623 -11.00000000
4.00932980 -2.79486704 0.42758608 85 5 12488 4.90600000 2889434625 2889434625 5.00000000
2.96516013 -2.06775522 -0.57255012 5 6 12489 3.66000000 2889434627 2889434627 -9.00000000
4.05228424 -2.82691264 0.60666561 59 7 12490 4.97800000 2889434630 2889434630 7.00000000
3.91504884 -2.73219180 -0.58619153 8 8 12491 4.81000000 2889434632 2889434632 -7.00000000
5.65280294 -3.94638395 1.09191251 32 9 12492 6.98000000 2889434634 2889434634 9.00000000
4.09232807 -2.85697174 -0.43665028 12 10 12492 5.01000000 2889434637 2889434637 -5.00000000
5.28263617 -3.68933177 1.25247025 25 11 12493 6.56400000 2889434639 2889434639 11.00000000
4.05876160 -2.83564591 -0.25948167 27 12 12494 4.95800000 2889434641 2889434641 -3.00000000
4.22802448 -2.95499945 1.19089091 1 13 12495 5.29400000 2889434643 2889434643 13.00000000
4.10041475 -2.86687732 -0.08733184 2 14 12496 5.00400000 2889434646 2889434646 -1.00000000
7.43812466 -5.20049572 2.43186378 45 15 12496 9.39600000 2889434648 2889434648 15.00000000
1.73513174 -1.21675849 -0.56784898 4 0 12504 2.19400000 2889434669 2889434669 -15.00000000
4.01077986 -2.81359768 0.08551679 51 1 12505 4.90000000 2889434671 2889434671 1.00000000
2.03221226 -1.42614424 -0.57317531 3 2 12506 2.54800000 2889434673 2889434673 -13.00000000
3.97712302 -2.79205894 0.25466678 72 3 12507 4.86600000 2889434676 2889434676 3.00000000
2.41024041 -1.69206059 -0.57242697 5 4 12507 3.00000000 2889434678 2889434678 -11.00000000
4.00607109 -2.81342554 0.42828333 69 5 12508 4.91400000 2889434680 2889434680 5.00000000
2.95792437 -2.07809281 -0.57255012 3 6 12509 3.66000000 2889434683 2889434683 -9.00000000
7.61054516 -5.34878063 1.14215946 42 7 12510 9.37200000 2889434685 2889434685 7.00000000
3.89412045 -2.73784924 -0.58448535 8 8 12511 4.79600000 2889434687 2889434687 -7.00000000
5.62929821 -3.95927358 1.09003532 40 9 12512 6.96800000 2889434690 2889434690 9.00000000
4.12959099 -2.90447927 -0.44170532 12 10 12512 5.06800000 2889434692 2889434692 -5.00000000
5.25045824 -3.69419241 1.24789083 25 11 12513 6.54000000 2889434694 2889434694 11.00000000
4.05373859 -2.85324502 -0.25979570 10 12 12514 4.96400000 2889434696 2889434696 -3.00000000
4.21449709 -2.96749616 1.18999112 2 13 12515 5.29000000 2889434699 2889434699 13.00000000
4.06095552 -2.86044526 -0.08670355 2 14 12516 4.96800000 2889434701 2889434701 -1.00000000
7.38675928 -5.20306587 2.42099333 45 15 12516 9.35400000 2889434703 2889434703 15.00000000
1.73381579 -1.22533977 -0.56888425 4 0 12525 2.19800000 2889434724 2889434724 -15.00000000
3.98411226 -2.81673503 0.08516774 48 1 12526 4.88000000 2889434726 2889434726 1.00000000
2.02697158 -1.43358302 -0.57317531 3 2 12527 2.54800000 2889434729 2889434729 -13.00000000
3.97224450 -2.80938458 0.25498077 58 3 12527 4.87200000 2889434731 2889434731 3.00000000
2.40722775 -1.70315099 -0.57319021 5 4 12528 3.00400000 2889434733 2889434733 -11.00000000
4.15998554 -2.94434381 0.44588879 30 5 12529 5.11600000 2889434736 2889434736 5.00000000
2.96963406 -2.10261798 -0.57630455 3 6 12530 3.68400000 2889434738 2889434738 -9.00000000
7.56821108 -5.36057568 1.13874710 11 7 12531 9.34400000 2889434740 2889434740 7.00000000
3.88082027 -2.74980807 -0.58399791 8 8 12532 4.79200000 2889434742 2889434742 -7.00000000
5.58804321 -3.95948434 1.08471656 45 9 12532 6.93400000 2889434745 2889434745 9.00000000
4.04089546 -2.86429119 -0.43333834 9 10 12533 4.97200000 2889434747 2889434747 -5.00000000
5.22727394 -3.70659781 1.24560118 28 11 12534 6.52800000 2889434749 2889434749 11.00000000
4.03347921 -2.86115026 -0.25916764 5 12 12535 4.95200000 2889434752 2889434752 -3.00000000
4.20994949 -2.98743415 1.19179070 3 13 12536 5.29800000 2889434754 2889434754 13.00000000
4.05696678 -2.87994027 -0.08684318 2 14 12537 4.97600000 2889434756 2889434756 -1.00000000
7.32825708 -5.20214844 2.40805244 45 15 12537 9.30400000 2889434759 2889434759 15.00000000
1.72323298 -1.22690272 -0.56681371 4 0 12545 2.19000000 2889434779 2889434779 -15.00000000
3.97099829 -2.82830477 0.08509793 48 1 12546 4.87600000 2889434782 2889434782 1.00000000
2.02830338 -1.44517303 -0.57497489 3 2 12547 2.55600000 2889434784 2889434784 -13.00000000
4.78813457 -3.41282201 0.30815411 14 3 12548 5.88800000 2889434786 2889434786 3.00000000
2.38847828 -1.70242739 -0.57013726 5 4 12548 2.98800000 2889434789 2889434789 -11.00000000
4.16752672 -2.97157073 0.44780621 35 5 12549 5.13800000 2889434791 2889434791 5.00000000
2.96227646 -2.11297131 -0.57630455 3 6 12550 3.68400000 2889434793 2889434793 -9.00000000
3.98317671 -2.84222150 0.60081589 6 7 12551 4.93000000 2889434795 2889434795 7.00000000
3.87281370 -2.76449132 -0.58424163 8 8 12552 4.79400000 2889434798 2889434798 -7.00000000
5.55741787 -3.96845961 1.08158791 47 9 12553 6.91400000 2889434800 2889434800 9.00000000
3.99195838 -2.85059118 -0.42915487 21 10 12553 4.92400000 2889434802 2889434802 -5.00000000
5.21749878 -3.72710419 1.24636436 28 11 12554 6.53200000 2889434805 2889434805 11.00000000
3.96984291 -2.83689165 -0.25571349 7 12 12555 4.88600000 2889434807 2889434807 -3.00000000
4.20108128 -3.00324488 1.19224060 2 13 12556 5.30000000 2889434809 2889434809 13.00000000
4.03062344 -2.88245201 -0.08649413 2 14 12557 4.95600000 2889434812 2889434812 -1.00000000
7.26514769 -5.19750023 2.39355850 40 15 12558 9.24800000 2889434814 2889434814 15.00000000
1.71893990 -1.23291039 -0.56681371 4 0 12565 2.19000000 2889434835 2889434835 -15.00000000
3.93835497 -2.82582808 0.08460927 48 1 12566 4.84800000 2889434837 2889434837 1.00000000
2.02324653 -1.45224428 -0.57497489 3 2 12567 2.55600000 2889434839 2889434839 -13.00000000
4.81410933 -3.45546770 0.31056157 19 3 12567 5.93400000 2889434842 2889434842 3.00000000
2.38730526 -1.71418965 -0.57128215 5 4 12568 2.99400000 2889434844 2889434844 -11.00000000
4.14256525 -2.97563887 0.44623742 30 5 12569 5.12000000 2889434846 2889434846 5.00000000
2.94204926 -2.11407685 -0.57380164 3 6 12570 3.66800000 2889434848 2889434848 -9.00000000
3.96678400 -2.85147333 0.59984088 17 7 12571 4.92200000 2889434851 2889434851 7.00000000
3.85669351 -2.77335739 -0.58326668 8 8 12572 4.78600000 2889434853 2889434853 -7.00000000
5.51947784 -3.97053099 1.07689488 50 9 12573 6.88400000 2889434855 2889434855 9.00000000
3.99168801 -2.87148929 -0.43020076 18 10 12573 4.93600000 2889434858 2889434858 -5.00000000
5.18533468 -3.73153305 1.24178493 25 11 12574 6.50800000 2889434860 2889434860 11.00000000
3.96153712 -2.85189867 -0.25581816 9 12 12575 4.88800000 2889434862 2889434862 -3.00000000
4.20006037 -3.02472401 1.19493997 2 13 12576 5.31200000 2889434865 2889434865 13.00000000
4.01404715 -2.89182830 -0.08635451 2 14 12577 4.94800000 2889434867 2889434867 -1.00000000
7.20555115 -5.19107437 2.37958241 45 15 12577 9.19400000 2889434869 2889434869 15.00000000
1.71462572 -1.23890305 -0.56681371 4 0 12585 2.19000000 2889434890 2889434890 -15.00000000
3.92036390 -2.83370113 0.08443474 44 1 12586 4.83800000 2889434892 2889434892 1.00000000
2.02132320 -1.46158159 -0.57587469 3 2 12587 2.56000000 2889434894 2889434894 -13.00000000
4.81011057 -3.47810268 0.31108493 23 3 12587 5.94400000 2889434897 2889434897 3.00000000
2.38607931 -1.72596431 -0.57242697 5 4 12588 3.00000000 2889434899 2889434899 -11.00000000
3.95298529 -2.86043286 0.42688882 29 5 12589 4.89800000 2889434901 2889434901 5.00000000
2.93145156 -2.12201715 -0.57317591 3 6 12590 3.66400000 2889434904 2889434904 -9.00000000
3.94394374 -2.85598826 0.59789097 21 7 12591 4.90600000 2889434906 2889434906 7.00000000
3.84698915 -2.78680277 -0.58326668 8 8 12592 4.78600000 2889434908 2889434908 -7.00000000
5.49598742 -3.98281860 1.07501769 42 9 12593 6.87200000 2889434911 2889434911 9.00000000
5.15956163 -3.74039197 1.23873198 25 11 12594 6.49200000 2889434915 2889434915 11.00000000
3.98874521 -2.89267826 -0.25822562 2 12 12595 4.93400000 2889434918 2889434918 -3.00000000
4.19894075 -3.04623246 1.19763947 2 13 12596 5.32400000 2889434920 2889434920 13.00000000
3.99098110 -2.89642596 -0.08607527 2 14 12597 4.93200000 2889434922 2889434922 -1.00000000
7.14986324 -5.18896198 2.36715889 45 15 12597 9.14600000 2889434924 2889434924 15.00000000
1.71675634 -1.24912858 -0.56888425 4 0 12604 2.19800000 2889434945 2889434945 -15.00000000
3.91417885 -2.84903955 0.08450455 38 1 12605 4.84200000 2889434947 2889434947 1.00000000
2.01646519 -1.46827650 -0.57587469 3 2 12606 2.56000000 2889434950 2889434950 -13.00000000
4.80762672 -3.50192738 0.31171295 21 3 12607 5.95600000 2889434952 2889434952 3.00000000
2.38351655 -1.73617923 -0.57319021 5 4 12607 3.00400000 2889434954 2889434954 -11.00000000
3.93381667 -2.86648560 0.42584297 22 5 12608 4.88600000 2889434957 2889434957 5.00000000
2.92439866 -2.13172650 -0.57317591 3 6 12609 3.66400000 2889434959 2889434959 -9.00000000
3.92322373 -2.86086392 0.59618485 23 7 12610 4.89200000 2889434961 2889434961 7.00000000
3.82970810 -2.79369521 -0.58204800 8 8 12611 4.77600000 2889434964 2889434964 -7.00000000
5.47387266 -3.99308014 1.07314038 22 9 12611 6.86000000 2889434966 2889434966 9.00000000
3.95273709 -2.88449931 -0.42810902 5 10 12612 4.91200000 2889434968 2889434968 -5.00000000
5.14078665 -3.75285077 1.23720551 25 11 12613 6.48400000 2889434971 2889434971 11.00000000
3.89041901 -2.84110475 -0.25246865 9 12 12614 4.82400000 2889434973 2889434973 -3.00000000
4.19825745 -3.06703734 1.20033884 2 13 12615 5.33600000 2889434975 2889434975 13.00000000
3.89255691 -2.84474993 -0.08415551 6 14 12616 4.82200000 2889434977 2889434977 -1.00000000
7.10051632 -5.19108534 2.35680628 45 15 12617 9.10600000 2889434980 2889434980 15.00000000
1.71550190 -1.25739765 -0.56991953 4 0 12624 2.20200000 2889435000 2889435000 -15.00000000
3.90421009 -2.86268520 0.08450455 25 1 12625 4.84200000 2889435003 2889435003 1.00000000
1.99875700 -1.46608567 -0.57227546 3 2 12626 2.54400000 2889435005 2889435005 -13.00000000
4.79759789 -3.51903200 0.31181762 19 3 12626 5.95800000 2889435007 2889435007 3.00000000
2.37585878 -1.74332726 -0.57280862 5 4 12627 3.00200000 2889435010 2889435010 -11.00000000
3.92539287 -2.88137865 0.42601728 27 5 12628 4.88800000 2889435012 2889435012 5.00000000
2.92012429 -2.14425993 -0.57380164 3 6 12629 3.66800000 2889435014 2889435014 -9.00000000
3.91801310 -2.87806678 0.59691602 25 7 12630 4.89800000 2889435017 2889435017 7.00000000
3.81033516 -2.79999328 -0.58058554 8 8 12631 4.76400000 2889435019 2889435019 -7.00000000
7.25930405 -5.33639145 1.42699516 31 9 12632 9.12200000 2889435021 2889435021 9.00000000
3.88645816 -2.85697651 -0.42200810 11 10 12632 4.84200000 2889435024 2889435024 -5.00000000
5.11974764 -3.76495719 1.23529744 28 11 12633 6.47400000 2889435026 2889435026 11.00000000
3.85956335 -2.83928156 -0.25110793 7 12 12634 4.79800000 2889435028 2889435028 -3.00000000
4.17810869 -3.07474303 1.19763947 2 13 12635 5.32400000 2889435030 2889435030 13.00000000
3.83590245 -2.82393980 -0.08314326 45 14 12636 4.76400000 2889435033 2889435033 -1.00000000
7.05124235 -5.19292736 2.34645343 45 15 12637 9.06600000 2889435035 2889435035 15.00000000
1.70466602 -1.25908589 -0.56784898 4 0 12645 2.19400000 2889435056 2889435056 -15.00000000
3.90816617 -2.88767076 0.08481870 23 1 12646 4.86000000 2889435058 2889435058 1.00000000
1.99023581 -1.47108495 -0.57137567 3 2 12647 2.54000000 2889435060 2889435060 -13.00000000
2.35524583 -1.74151826 -0.56937402 5 4 12648 2.98400000 2889435065 2889435065 -11.00000000
3.91160226 -2.89337707 0.42566866 24 5 12649 4.88400000 2889435067 2889435067 5.00000000
2.90906954 -2.15259838 -0.57317591 3 6 12650 3.66400000 2889435070 2889435070 -9.00000000
3.92498899 -2.90539932 0.59959716 27 7 12651 4.92000000 2889435072 2889435072 7.00000000
3.80004692 -2.81394005 -0.58058554 6 8 12652 4.76400000 2889435074 2889435074 -7.00000000
7.20253229 -5.33348513 1.41948628 49 9 12652 9.07400000 2889435077 2889435077 9.00000000
3.84714317 -2.84985471 -0.41887051 8 10 12653 4.80600000 2889435079 2889435079 -5.00000000
5.10591364 -3.78369665 1.23529744 28 11 12654 6.47400000 2889435081 2889435081 11.00000000
3.85233974 -2.85578728 -0.25131726 7 12 12655 4.80200000 2889435083 2889435083 -3.00000000
4.20437813 -3.11789489 1.20843709 2 13 12656 5.37200000 2889435086 2889435086 13.00000000
3.79019403 -2.81176853 -0.08237536 37 14 12657 4.72000000 2889435088 2889435088 -1.00000000
6.99337864 -5.18995476 2.33351254 45 15 12658 9.01600000 2889435090 2889435090 15.00000000
1.69251108 -1.25926280 -0.56526077 4 0 12665 2.18400000 2889435111 2889435111 -15.00000000
3.90287495 -2.90487695 0.08492341 23 1 12666 4.86600000 2889435113 2889435113 1.00000000
1.99134088 -1.48267841 -0.57317531 3 2 12667 2.54800000 2889435116 2889435116 -13.00000000
4.14431810 -3.08570528 0.27078623 2 3 12667 5.17400000 2889435118 2889435118 3.00000000
2.35859942 -1.75676548 -0.57166374 5 4 12668 2.99600000 2889435120 2889435120 -11.00000000
3.89988089 -2.90582299 0.42549434 24 5 12669 4.88200000 2889435123 2889435123 5.00000000
2.88253212 -2.14857340 -0.56942147 5 6 12670 3.64000000 2889435125 2889435125 -9.00000000
3.92596292 -2.92738867 0.60130334 25 7 12671 4.93400000 2889435127 2889435127 7.00000000
3.79815722 -2.83312225 -0.58180422 4 8 12672 4.77400000 2889435130 2889435130 -7.00000000
7.15061951 -5.33379126 1.41291606 47 9 12672 9.03200000 2889435132 2889435132 9.00000000
3.82439733 -2.85373425 -0.41747600 8 10 12673 4.79000000 2889435134 2889435134 -5.00000000
5.08323526 -3.79445028 1.23300767 28 11 12674 6.46200000 2889435136 2889435136 11.00000000
3.82474446 -2.85607219 -0.25016588 7 12 12675 4.78000000 2889435139 2889435139 -3.00000000
4.19659138 -3.13488436 1.20933688 2 13 12676 5.37600000 2889435141 2889435141 13.00000000
3.78195786 -2.82617879 -0.08241026 50 14 12677 4.72200000 2889435143 2889435143 -1.00000000
6.93808460 -5.18657398 2.32108927 45 15 12678 8.96800000 2889435146 2889435146 15.00000000
1.68677974 -1.26371002 -0.56474316 4 0 12684 2.18200000 2889435166 2889435166 -15.00000000
3.89962125 -2.92260051 0.08506303 23 1 12685 4.87400000 2889435169 2889435169 1.00000000
1.98017645 -1.48459792 -0.57137567 4 2 12686 2.54000000 2889435171 2889435171 -13.00000000
3.85600829 -2.89096570 0.25257331 2 3 12686 4.82600000 2889435173 2889435173 3.00000000
2.34804916 -1.76104331 -0.57051891 5 4 12687 2.99000000 2889435176 2889435176 -11.00000000
3.89659834 -2.92352223 0.42619157 29 5 12688 4.89000000 2889435178 2889435178 5.00000000
2.87539148 -2.15812039 -0.56942147 3 6 12689 3.64000000 2889435180 2889435180 -9.00000000
3.91623378 -2.94039154 0.60130334 25 7 12690 4.93400000 2889435182 2889435182 7.00000000
3.79985213 -2.85404682 -0.58351040 4 8 12691 4.78800000 2889435185 2889435185 -7.00000000
7.10446215 -5.33612061 1.40728450 47 9 12691 8.99600000 2889435187 2889435187 9.00000000
3.81809878 -2.86879420 -0.41782463 8 10 12692 4.79400000 2889435189 2889435189 -5.00000000
5.05022287 -3.79595113 1.22804666 28 11 12693 6.43600000 2889435192 2889435192 11.00000000
3.80727053 -2.86273813 -0.24964251 2 12 12694 4.77000000 2889435194 2889435194 -3.00000000
4.21109056 -3.16752648 1.21653533 2 13 12695 5.40800000 2889435196 2889435196 13.00000000
3.76457596 -2.83269310 -0.08223574 58 14 12696 4.71200000 2889435199 2889435199 -1.00000000
6.87544680 -5.17349911 2.30556011 45 15 12696 8.90800000 2889435201 2889435201 15.00000000
1.69469464 -1.27889991 -0.56888425 4 0 12704 2.19800000 2889435222 2889435222 -15.00000000
3.89418364 -2.93980956 0.08516774 23 1 12705 4.88000000 2889435224 2889435224 1.00000000
1.97187197 -1.48915219 -0.57047588 3 2 12706 2.53600000 2889435226 2889435226 -13.00000000
3.78851581 -2.86107659 0.24880514 6 3 12706 4.75400000 2889435229 2889435229 3.00000000
2.35285306 -1.77751291 -0.57319021 5 4 12707 3.00400000 2889435231 2889435231 -11.00000000
3.89749622 -2.94551516 0.42741176 22 5 12708 4.90400000 2889435233 2889435233 5.00000000
2.87729502 -2.17529178 -0.57129866 3 6 12709 3.65200000 2889435235 2889435235 -9.00000000
3.91544580 -2.96122837 0.60276580 21 7 12710 4.94600000 2889435238 2889435238 7.00000000
3.78353429 -2.86250257 -0.58253545 6 8 12711 4.78000000 2889435240 2889435240 -7.00000000
7.05428600 -5.33705044 1.40102708 49 9 12711 8.95600000 2889435242 2889435242 9.00000000
3.81759357 -2.88931870 -0.41887051 2 10 12712 4.80600000 2889435245 2889435245 -5.00000000
5.03224611 -3.81000137 1.22690189 31 11 12713 6.43000000 2889435247 2889435247 11.00000000
3.80043888 -2.87842226 -0.24985185 2 12 12714 4.77400000 2889435249 2889435249 -3.00000000
4.20000792 -3.18220663 1.21653533 2 13 12715 5.40800000 2889435252 2889435252 13.00000000
3.76422691 -2.85306406 -0.08244517 65 14 12716 4.72400000 2889435254 2889435254 -1.00000000
6.84412336 -5.18932629 2.30141902 45 15 12717 8.89200000 2889435256 2889435256 15.00000000
1.67945433 -1.27662420 -0.56526077 4 0 12724 2.18400000 2889435277 2889435277 -15.00000000
3.90140748 -2.96669912 0.08555169 27 1 12725 4.90200000 2889435279 2889435279 1.00000000
1.96666181 -1.49602628 -0.57047588 3 2 12726 2.53600000 2889435282 2889435282 -13.00000000
3.72555399 -2.83503008 0.24535096 8 3 12727 4.68800000 2889435284 2889435284 3.00000000
2.33413529 -1.77620387 -0.57013726 5 4 12727 2.98800000 2889435286 2889435286 -11.00000000
2.86968446 -2.18532228 -0.57129866 3 6 12729 3.65200000 2889435291 2889435291 -9.00000000
3.91455984 -2.98209548 0.60422820 21 7 12730 4.95800000 2889435293 2889435293 7.00000000
3.77509809 -2.87689543 -0.58277923 6 8 12731 4.78200000 2889435295 2889435295 -7.00000000
6.98533630 -5.32332754 1.39101529 52 9 12731 8.89200000 2889435298 2889435298 9.00000000
3.81699157 -2.90987444 -0.41991636 2 10 12732 4.81800000 2889435300 2889435300 -5.00000000
5.01267147 -3.82278204 1.22537541 31 11 12733 6.42200000 2889435302 2889435302 11.00000000
3.78401637 -2.88682508 -0.24943317 2 12 12734 4.76600000 2889435305 2889435305 -3.00000000
4.23379946 -3.23113370 1.22958243 2 13 12735 5.46600000 2889435307 2889435307 13.00000000
3.74311900 -2.85769200 -0.08220083 58 14 12736 4.71000000 2889435309 2889435309 -1.00000000
6.79770279 -5.18972015 2.29158378 40 15 12736 8.85400000 2889435312 2889435312 15.00000000
1.67805564 -1.28482771 -0.56629604 4 0 12744 2.18800000 2889435332 2889435332 -15.00000000
3.90372825 -2.99002719 0.08583093 27 1 12745 4.91800000 2889435335 2889435335 1.00000000
1.97070897 -1.50999343 -0.57317531 3 2 12746 2.54800000 2889435337 2889435337 -13.00000000
3.69661307 -2.83343697 0.24409489 13 3 12747 4.66400000 2889435339 2889435339 3.00000000
2.32480454 -1.78195202 -0.56937402 5 4 12747 2.98400000 2889435341 2889435341 -11.00000000
3.56852484 -2.73624682 0.39342102 2 5 12748 4.51400000 2889435344 2889435344 5.00000000
2.85263443 -2.18811250 -0.56942147 5 6 12749 3.64000000 2889435346 2889435346 -9.00000000
3.91830039 -3.00661778 0.60642183 21 7 12750 4.97600000 2889435348 2889435348 7.00000000
3.75715947 -2.88401175 -0.58156049 4 8 12751 4.77200000 2889435351 2889435351 -7.00000000
6.93757725 -5.32723856 1.38538361 47 9 12752 8.85600000 2889435353 2889435353 9.00000000
3.82577395 -2.93774176 -0.42200810 2 10 12752 4.84200000 2889435355 2889435355 -5.00000000
4.98528481 -3.82949233 1.22194076 46 11 12753 6.40400000 2889435358 2889435358 11.00000000
3.79608798 -2.91705370 -0.25089857 2 12 12754 4.79400000 2889435360 2889435360 -3.00000000
3.71409869 -2.85611248 -0.08178198 46 14 12756 4.68600000 2889435365 2889435365 -1.00000000
6.73882437 -5.18397474 2.27812529 45 15 12757 8.80200000 2889435367 2889435367 15.00000000
1.66874647 -1.28742933 -0.56474316 4 0 12765 2.18200000 2889435388 2889435388 -15.00000000
3.89274311 -3.00431490 0.08583093 24 1 12766 4.91800000 2889435390 2889435390 1.00000000
1.96516132 -1.51720631 -0.57317531 3 2 12767 2.54800000 2889435392 2889435392 -13.00000000
3.64194345 -2.81278372 0.24116409 5 3 12768 4.60800000 2889435394 2889435394 3.00000000
2.31981158 -1.79166090 -0.56975567 5 4 12768 2.98600000 2889435397 2889435397 -11.00000000
3.59631133 -2.77854276 0.39760450 2 5 12769 4.56200000 2889435399 2889435399 5.00000000
