# .PCD v0.7 - Point Cloud Data file format
VERSION 0.7
FIELDS x y z intensity laser_id azimuth distance_m adjustedtime timestamp vertical_angle
SIZE 4 4 4 1 1 2 8 8 4 8
TYPE F F F U U U F U U F
COUNT 1 1 1 1 1 1 1 1 1 1
WIDTH 528
HEIGHT 1
VIEWPOINT 0 0 0 1 0 0 0
POINTS 528
DATA ascii
3.99604845 -3.36975598 0.09124118 54 1 13014 5.22800000 2891636064 2891636064 1.00000000
1.87979579 -1.58574080 -0.56777644 3 2 13015 2.52400000 2891636066 2891636066 -13.00000000
3.43744874 -2.90075827 0.23572114 30 3 13016 4.50400000 2891636068 2891636068 3.00000000
3.64449644 -3.07547951 -0.92695010 4 4 13016 4.85800000 2891636071 2891636071 -11.00000000
3.89900017 -3.29141283 0.44641173 27 5 13017 5.12200000 2891636073 2891636073 5.00000000
2.73774290 -2.31193447 -0.56754422 5 6 13018 3.62800000 2891636075 2891636075 -9.00000000
3.91845322 -3.31017756 0.62982076 18 7 13019 5.16800000 2891636077 2891636077 7.00000000
3.56308317 -3.01103878 -0.57278591 4 8 13020 4.70000000 2891636080 2891636080 -7.00000000
6.29314184 -5.31811714 1.30497634 50 9 13020 8.34200000 2891636082 2891636082 9.00000000
5.11698818 -4.32572126 -0.58620954 12 10 13021 6.72600000 2891636084 2891636084 -5.00000000
4.67414236 -3.95275402 1.18988490 31 11 13022 6.23600000 2891636087 2891636087 11.00000000
3.97826409 -3.36546588 -0.27308902 7 12 13023 5.21800000 2891636089 2891636089 -3.00000000
4.32880402 -3.66330624 1.30921519 11 13 13024 5.82000000 2891636091 2891636091 13.00000000
3.69806123 -3.13064003 -0.08457436 32 14 13025 4.84600000 2891636094 2891636094 -1.00000000
6.20449352 -5.25249147 2.17822099 33 15 13025 8.41600000 2891636096 2891636096 15.00000000
1.60525131 -1.36279774 -0.56422549 4 0 13033 2.18000000 2891636117 2891636117 -15.00000000
4.00560045 -3.40180659 0.09172985 59 1 13034 5.25600000 2891636119 2891636119 1.00000000
1.87721932 -1.59481621 -0.56867629 3 2 13035 2.52800000 2891636121 2891636121 -13.00000000
3.43795538 -2.92179322 0.23645385 30 3 13036 4.51800000 2891636124 2891636124 3.00000000
3.63972259 -3.09326792 -0.92847657 4 4 13036 4.86600000 2891636126 2891636126 -11.00000000
3.89204121 -3.30887437 0.44693464 30 5 13037 5.12800000 2891636128 2891636128 5.00000000
2.73417044 -2.32531619 -0.56848282 5 6 13038 3.63400000 2891636130 2891636130 -9.00000000
3.91745830 -3.33283949 0.63152695 20 7 13039 5.18200000 2891636133 2891636133 7.00000000
3.53894544 -3.01187873 -0.57059228 4 8 13040 4.68200000 2891636135 2891636135 -7.00000000
6.23843575 -5.30932522 1.29746747 50 9 13040 8.29400000 2891636137 2891636137 9.00000000
5.07303333 -4.31901693 -0.58289760 12 10 13041 6.68800000 2891636140 2891636140 -5.00000000
4.66181087 -3.97031879 1.19026649 34 11 13042 6.23800000 2891636142 2891636142 11.00000000
3.98321557 -3.39357996 -0.27424040 34 12 13043 5.24000000 2891636144 2891636144 -3.00000000
4.30412483 -3.66828179 1.30561590 11 13 13044 5.80400000 2891636147 2891636147 13.00000000
3.68558908 -3.14223218 -0.08453946 28 14 13045 4.84400000 2891636149 2891636149 -1.00000000
6.15083933 -5.24403667 2.16579771 33 15 13045 8.36800000 2891636151 2891636151 15.00000000
1.59754777 -1.36588204 -0.56319022 4 0 13053 2.17600000 2891636172 2891636172 -15.00000000
3.99674082 -3.41836762 0.09179966 23 1 13054 5.26000000 2891636174 2891636174 1.00000000
1.87164092 -1.60135925 -0.56867629 3 2 13055 2.52800000 2891636177 2891636177 -13.00000000
3.43835711 -2.94286704 0.23718655 33 3 13056 4.53200000 2891636179 2891636179 3.00000000
3.63785219 -3.11361361 -0.93076628 4 4 13056 4.87800000 2891636181 2891636181 -11.00000000
3.89257479 -3.33280635 0.44832915 30 5 13057 5.14400000 2891636183 2891636183 5.00000000
2.71703506 -2.32713604 -0.56660563 5 6 13058 3.62200000 2891636186 2891636186 -9.00000000
3.91936755 -3.35811782 0.63372058 18 7 13059 5.20000000 2891636188 2891636188 7.00000000
3.52841043 -3.02421355 -0.57059228 4 8 13060 4.68200000 2891636190 2891636190 -7.00000000
6.19344091 -5.31029606 1.29214871 52 9 13061 8.26000000 2891636193 2891636193 9.00000000
5.05490112 -4.33410501 -0.58254898 12 10 13061 6.68400000 2891636195 2891636195 -5.00000000
4.63451147 -3.97506380 1.18683195 34 11 13062 6.22000000 2891636197 2891636197 11.00000000
3.96831393 -3.40486217 -0.27403107 10 12 13063 5.23600000 2891636200 2891636200 -3.00000000
4.27946424 -3.67312980 1.30201674 11 13 13064 5.78800000 2891636202 2891636202 13.00000000
3.68976998 -3.16810489 -0.08488850 28 14 13065 4.86400000 2891636204 2891636204 -1.00000000
6.10025120 -5.23778868 2.15440965 31 15 13065 8.32400000 2891636206 2891636206 15.00000000
1.59277022 -1.37145019 -0.56319022 4 0 13073 2.17600000 2891636227 2891636227 -15.00000000
3.99387479 -3.44012833 0.09200909 19 1 13074 5.27200000 2891636230 2891636230 1.00000000
1.86013460 -1.60279453 -0.56687665 3 2 13075 2.52000000 2891636232 2891636232 -13.00000000
3.43562770 -2.96137118 0.23770991 28 3 13076 4.54200000 2891636234 2891636234 3.00000000
3.64778042 -3.14423823 -0.93610895 4 4 13076 4.90600000 2891636236 2891636236 -11.00000000
3.89600658 -3.35938454 0.45007226 27 5 13077 5.16400000 2891636239 2891636239 5.00000000
2.69992042 -2.32886481 -0.56472844 5 6 13078 3.61000000 2891636241 2891636241 -9.00000000
3.91663933 -3.37955952 0.63518304 18 7 13079 5.21200000 2891636243 2891636243 7.00000000
3.51933527 -3.03780866 -0.57083601 4 8 13080 4.68400000 2891636246 2891636246 -7.00000000
6.14944935 -5.30993557 1.28682995 52 9 13081 8.22600000 2891636248 2891636248 9.00000000
5.03069353 -4.34391069 -0.58150309 12 10 13081 6.67200000 2891636250 2891636250 -5.00000000
4.60426474 -3.97710013 1.18263412 34 11 13082 6.19800000 2891636253 2891636253 11.00000000
3.95640469 -3.41869354 -0.27403107 7 12 13083 5.23600000 2891636255 2891636255 -3.00000000
4.23270750 -3.65873504 1.29166901 25 13 13084 5.74200000 2891636257 2891636257 13.00000000
3.68625164 -3.18750501 -0.08506303 24 14 13085 4.87400000 2891636259 2891636259 -1.00000000
6.08101273 -5.26011229 2.15440965 24 15 13086 8.32400000 2891636262 2891636262 15.00000000
1.59381139 -1.38206410 -0.56526077 4 0 13093 2.18400000 2891636283 2891636283 -15.00000000
3.99845839 -3.46846223 0.09239304 47 1 13094 5.29400000 2891636285 2891636285 1.00000000
1.84864104 -1.60416901 -0.56507707 3 2 13095 2.51200000 2891636287 2891636287 -13.00000000
3.43582749 -2.98251057 0.23844261 28 3 13096 4.55600000 2891636289 2891636289 3.00000000
2.20905280 -1.91759431 -0.56861079 3 4 13096 2.98000000 2891636292 2891636292 -11.00000000
3.90080428 -3.38733315 0.45198968 27 5 13097 5.18600000 2891636294 2891636294 5.00000000
2.69923115 -2.34475231 -0.56629276 5 6 13098 3.62000000 2891636296 2891636296 -9.00000000
3.92279935 -3.40883565 0.63810790 18 7 13099 5.23600000 2891636299 2891636299 7.00000000
3.51170611 -3.05267954 -0.57132345 4 8 13100 4.68800000 2891636301 2891636301 -7.00000000
6.11895180 -5.32099915 1.28432691 52 9 13101 8.21000000 2891636303 2891636303 9.00000000
5.02151346 -4.36667395 -0.58220035 12 10 13101 6.68000000 2891636306 2891636306 -5.00000000
4.57850409 -3.98283958 1.17958117 37 11 13102 6.18200000 2891636308 2891636308 11.00000000
3.93992710 -3.42854977 -0.27371705 7 12 13103 5.23000000 2891636310 2891636310 -3.00000000
4.20668173 -3.66197205 1.28761983 54 13 13104 5.72400000 2891636312 2891636312 13.00000000
3.68716717 -3.21085882 -0.08534227 8 14 13105 4.89000000 2891636315 2891636315 -1.00000000
6.06644964 -5.28278589 2.15544510 40 15 13105 8.32800000 2891636317 2891636317 15.00000000
1.59479785 -1.39270198 -0.56733137 4 0 13113 2.19200000 2891636338 2891636338 -15.00000000
3.78000760 -3.30216098 0.08761108 6 1 13114 5.02000000 2891636340 2891636340 1.00000000
1.84596491 -1.61317682 -0.56597686 3 2 13115 2.51600000 2891636342 2891636342 -13.00000000
3.42539573 -2.99448586 0.23844261 28 3 13116 4.55600000 2891636345 2891636345 3.00000000
2.19643331 -1.92012501 -0.56708431 3 4 13116 2.97200000 2891636347 2891636347 -11.00000000
3.90695405 -3.41666794 0.45408142 30 5 13117 5.21000000 2891636349 2891636349 5.00000000
2.69400358 -2.35676122 -0.56691849 5 6 13118 3.62400000 2891636352 2891636352 -9.00000000
3.91685176 -3.42773724 0.63908285 18 7 13119 5.24400000 2891636354 2891636354 7.00000000
3.49057364 -3.05576634 -0.56961733 4 8 13120 4.67400000 2891636356 2891636356 -7.00000000
6.07507753 -5.32020187 1.27900815 50 9 13121 8.17600000 2891636359 2891636359 9.00000000
4.99424934 -4.37367487 -0.58080590 12 10 13121 6.66400000 2891636361 2891636361 -5.00000000
4.55275965 -3.98844790 1.17652822 40 11 13122 6.16600000 2891636363 2891636363 11.00000000
3.88737917 -3.40674019 -0.27089092 5 12 13123 5.17600000 2891636365 2891636365 -3.00000000
4.19094276 -3.67406440 1.28672004 40 13 13124 5.72000000 2891636368 2891636368 13.00000000
3.68646097 -3.23293948 -0.08558660 10 14 13125 4.90400000 2891636370 2891636370 -1.00000000
6.02473354 -5.28354931 2.14716291 49 15 13125 8.29600000 2891636372 2891636372 15.00000000
1.57396936 -1.38422680 -0.56163734 4 0 13133 2.17000000 2891636393 2891636393 -15.00000000
3.43815494 -3.02474833 0.07993202 6 1 13134 4.58000000 2891636395 2891636395 1.00000000
1.84324849 -1.62218559 -0.56687665 3 2 13135 2.52000000 2891636398 2891636398 -13.00000000
3.42444277 -3.01374531 0.23907065 24 3 13135 4.56800000 2891636400 2891636400 3.00000000
2.17498183 -1.91480744 -0.56326813 3 4 13136 2.95200000 2891636402 2891636402 -11.00000000
3.89649916 -3.43160176 0.45425573 30 5 13137 5.21200000 2891636405 2891636405 5.00000000
2.68279624 -2.36353922 -0.56629276 5 6 13138 3.62000000 2891636407 2891636407 -9.00000000
3.92422342 -3.45845127 0.64225143 16 7 13139 5.27000000 2891636409 2891636409 7.00000000
3.47541857 -3.06399369 -0.56888610 4 8 13140 4.66800000 2891636411 2891636411 -7.00000000
6.02035809 -5.30765963 1.27118647 52 9 13140 8.12600000 2891636414 2891636414 9.00000000
4.96699810 -4.38053846 -0.57941139 12 10 13141 6.64800000 2891636416 2891636416 -5.00000000
4.51967096 -3.98743081 1.17156720 50 11 13142 6.14000000 2891636418 2891636418 11.00000000
3.97579432 -3.50883579 -0.27790391 2 12 13143 5.31000000 2891636421 2891636421 -3.00000000
4.16932726 -3.68093276 1.28402066 14 13 13144 5.70800000 2891636423 2891636423 13.00000000
3.67215562 -3.24314046 -0.08551679 12 14 13145 4.90000000 2891636425 2891636425 -1.00000000
5.98308611 -5.28408623 2.13888049 47 15 13145 8.26400000 2891636428 2891636428 15.00000000
1.57202041 -1.39227426 -0.56267262 4 0 13153 2.17400000 2891636448 2891636448 -15.00000000
3.38416958 -2.99827480 0.07891978 8 1 13154 4.52200000 2891636451 2891636451 1.00000000
1.84632516 -1.63636506 -0.56957608 3 2 13155 2.53200000 2891636453 2891636453 -13.00000000
3.41935182 -3.03157640 0.23948933 22 3 13156 4.57600000 2891636455 2891636455 3.00000000
2.17416072 -1.92759752 -0.56479460 3 4 13156 2.96000000 2891636458 2891636458 -11.00000000
3.89194989 -3.45179224 0.45512730 27 5 13157 5.22200000 2891636460 2891636460 5.00000000
2.66861892 -2.36764550 -0.56504130 7 6 13158 3.61200000 2891636462 2891636462 -9.00000000
3.93439722 -3.49189353 0.64590752 9 7 13159 5.30000000 2891636464 2891636464 7.00000000
3.47063994 -3.08137846 -0.56986105 4 8 13160 4.67600000 2891636467 2891636467 -7.00000000
5.97427893 -5.30607796 1.26555479 52 9 13161 8.09000000 2891636469 2891636469 9.00000000
4.74014282 -4.20997572 -0.55465913 15 10 13161 6.36400000 2891636471 2891636471 -5.00000000
4.49251556 -3.99144745 1.16813266 34 11 13162 6.12200000 2891636474 2891636474 11.00000000
3.88440084 -3.45237136 -0.27235630 5 12 13163 5.20400000 2891636476 2891636476 -3.00000000
4.13897657 -3.67992592 1.27862179 8 13 13164 5.68400000 2891636478 2891636478 13.00000000
3.67874312 -3.27188635 -0.08593565 8 14 13165 4.92400000 2891636481 2891636481 -1.00000000
5.93625593 -5.28158188 2.12904549 45 15 13166 8.22600000 2891636483 2891636483 15.00000000
1.57003427 -1.40032482 -0.56370789 4 0 13173 2.17800000 2891636504 2891636504 -15.00000000
3.37219095 -3.00873828 0.07888488 8 1 13174 4.52000000 2891636506 2891636506 1.00000000
1.82606316 -1.62982368 -0.56507707 3 2 13175 2.51200000 2891636508 2891636508 -13.00000000
3.42418051 -3.05619788 0.24053605 24 3 13175 4.59600000 2891636511 2891636511 3.00000000
2.16741896 -1.93517506 -0.56479460 3 4 13176 2.96000000 2891636513 2891636513 -11.00000000
3.88879299 -3.47332001 0.45617315 28 5 13177 5.23400000 2891636515 2891636515 5.00000000
2.65444589 -2.37168169 -0.56378978 5 6 13178 3.60400000 2891636517 2891636517 -9.00000000
3.92958474 -3.51222038 0.64712620 9 7 13179 5.31000000 2891636520 2891636520 7.00000000
3.45246363 -3.08685875 -0.56864238 4 8 13180 4.66600000 2891636522 2891636522 -7.00000000
5.94099712 -5.31373072 1.26242614 52 9 13181 8.07000000 2891636524 2891636524 9.00000000
4.78779030 -4.28228283 -0.56198025 11 10 13181 6.44800000 2891636527 2891636527 -5.00000000
5.91678524 -5.29393387 1.54326320 34 11 13182 8.08800000 2891636529 2891636529 11.00000000
3.89613771 -3.48722172 -0.27403107 2 12 13183 5.23600000 2891636531 2891636531 -3.00000000
4.12900972 -3.69695115 1.27952158 9 13 13184 5.68800000 2891636534 2891636534 13.00000000
3.69113278 -3.30605412 -0.08649413 16 14 13185 4.95600000 2891636536 2891636536 -1.00000000
5.89712381 -5.28190470 2.12128091 47 15 13185 8.19600000 2891636538 2891636538 15.00000000
1.56226230 -1.40321493 -0.56267262 4 0 13193 2.17400000 2891636559 2891636559 -15.00000000
3.36910534 -3.02717352 0.07905940 4 1 13194 4.53000000 2891636561 2891636561 1.00000000
1.82616019 -1.64139867 -0.56687665 3 2 13195 2.52000000 2891636563 2891636563 -13.00000000
3.41646242 -3.07080221 0.24074540 28 3 13195 4.60000000 2891636566 2891636566 3.00000000
2.15481114 -1.93747830 -0.56326813 3 4 13196 2.95200000 2891636568 2891636568 -11.00000000
3.89886498 -3.50685906 0.45878783 28 5 13197 5.26400000 2891636570 2891636570 5.00000000
2.64615107 -2.38093305 -0.56378978 5 6 13198 3.60400000 2891636573 2891636573 -9.00000000
3.92762899 -3.53521204 0.64883238 9 7 13199 5.32400000 2891636575 2891636575 7.00000000
3.45494437 -3.11084580 -0.57083601 4 8 13200 4.68400000 2891636577 2891636577 -7.00000000
5.89599276 -5.31063938 1.25679445 52 9 13201 8.03400000 2891636580 2891636580 9.00000000
4.90456915 -4.41764402 -0.57749397 12 10 13201 6.62600000 2891636582 2891636582 -5.00000000
5.88076735 -5.29878521 1.53868377 53 11 13202 8.06400000 2891636584 2891636584 11.00000000
3.90471101 -3.51952124 -0.27549648 5 12 13203 5.26400000 2891636587 2891636587 -3.00000000
4.10160685 -3.69829178 1.27502263 9 13 13204 5.66800000 2891636589 2891636589 13.00000000
3.32319522 -2.99747372 -0.07811697 5 14 13205 4.47600000 2891636591 2891636591 -1.00000000
5.85569811 -5.28175449 2.11299872 47 15 13205 8.16400000 2891636593 2891636593 15.00000000
1.56357884 -1.41329765 -0.56474316 4 0 13211 2.18200000 2891636614 2891636614 -15.00000000
4.00776196 -3.62383294 0.09431280 67 1 13212 5.40400000 2891636616 2891636616 1.00000000
1.82388508 -1.64974213 -0.56777644 3 2 13213 2.52400000 2891636619 2891636619 -13.00000000
3.41514635 -3.09015512 0.24137343 26 3 13214 4.61200000 2891636621 2891636621 3.00000000
2.15453672 -1.94950724 -0.56479460 3 4 13214 2.96000000 2891636623 2891636623 -11.00000000
3.90260005 -3.53246093 0.46053094 26 5 13215 5.28400000 2891636626 2891636626 5.00000000
2.64744377 -2.39718962 -0.56566703 5 6 13216 3.61600000 2891636628 2891636628 -9.00000000
3.94445729 -3.57285404 0.65346342 7 7 13217 5.36200000 2891636630 2891636630 7.00000000
3.42161775 -3.10035777 -0.56693619 4 8 13218 4.65200000 2891636633 2891636633 -7.00000000
5.85971642 -5.30954027 1.25241435 52 9 13218 8.00600000 2891636635 2891636635 9.00000000
4.90542841 -4.44641113 -0.57923704 12 10 13219 6.64600000 2891636637 2891636637 -5.00000000
4.29480743 -3.89429355 1.12691796 12 11 13220 5.90600000 2891636640 2891636640 11.00000000
3.94393253 -3.57739401 -0.27905533 5 12 13221 5.33200000 2891636642 2891636642 -3.00000000
4.08419561 -3.70592093 1.27322292 12 13 13222 5.66000000 2891636644 2891636644 13.00000000
3.30635858 -3.00117898 -0.07794245 20 14 13223 4.46600000 2891636646 2891636646 -1.00000000
5.81669760 -5.28166389 2.10523415 45 15 13224 8.13400000 2891636649 2891636649 15.00000000
1.55006421 -1.41094458 -0.56163734 4 0 13231 2.17000000 2891636669 2891636669 -15.00000000
4.02170229 -3.66203451 0.09494109 62 1 13232 5.44000000 2891636672 2891636672 1.00000000
1.80947137 -1.64822495 -0.56507707 3 2 13233 2.51200000 2891636674 2891636674 -13.00000000
3.41373944 -3.10953283 0.24200146 24 3 13233 4.62400000 2891636676 2891636676 3.00000000
2.13610935 -1.94643760 -0.56174171 3 4 13234 2.94400000 2891636679 2891636679 -11.00000000
3.89613557 -3.55143070 0.46122819 26 5 13235 5.29200000 2891636681 2891636681 5.00000000
2.63176155 -2.39976144 -0.56410271 5 6 13236 3.60600000 2891636683 2891636683 -9.00000000
3.95396090 -3.60666776 0.65711951 7 7 13237 5.39200000 2891636686 2891636686 7.00000000
3.42397189 -3.12432504 -0.56912982 4 8 13238 4.67000000 2891636688 2891636688 -7.00000000
5.81687307 -5.30967379 1.24740839 50 9 13239 7.97400000 2891636690 2891636690 9.00000000
4.87369108 -4.44873190 -0.57731962 12 10 13239 6.62400000 2891636693 2891636693 -5.00000000
4.18653584 -3.82417274 -0.29716355 9 12 13241 5.67800000 2891636697 2891636697 -3.00000000
4.05972576 -3.70963860 1.26962376 11 13 13242 5.64400000 2891636699 2891636699 13.00000000
3.27667451 -2.99516273 -0.07748868 5 14 13243 4.44000000 2891636702 2891636702 -1.00000000
5.77113819 -5.27716637 2.09539890 47 15 13244 8.09600000 2891636704 2891636704 15.00000000
1.53918695 -1.41139376 -0.55956680 4 0 13252 2.16200000 2891636725 2891636725 -15.00000000
3.99793792 -3.66728806 0.09469676 90 1 13253 5.42600000 2891636727 2891636727 1.00000000
1.80916154 -1.66011608 -0.56687665 3 2 13254 2.52000000 2891636729 2891636729 -13.00000000
3.41262054 -3.13147640 0.24273416 24 3 13254 4.63800000 2891636732 2891636732 3.00000000
2.13474607 -1.95956433 -0.56326813 3 4 13255 2.95200000 2891636734 2891636734 -11.00000000
3.89483309 -3.57646751 0.46262267 28 5 13256 5.30800000 2891636736 2891636736 5.00000000
2.62585783 -2.41206384 -0.56472844 5 6 13257 3.61000000 2891636739 2891636739 -9.00000000
5.79559946 -5.32559443 0.96642387 10 7 13258 7.93000000 2891636741 2891636741 7.00000000
3.40080619 -3.12610626 -0.56717992 4 8 13259 4.65400000 2891636743 2891636743 -7.00000000
5.77212620 -5.30588293 1.24177682 52 9 13259 7.93800000 2891636746 2891636746 9.00000000
4.27658224 -3.93251896 -0.50829232 3 10 13260 5.83200000 2891636748 2891636748 -5.00000000
4.23793221 -3.89834380 1.11928558 60 11 13261 5.86600000 2891636750 2891636750 11.00000000
4.21805239 -3.88141608 -0.30040839 33 12 13262 5.74000000 2891636752 2891636752 -3.00000000
4.02746296 -3.70733571 1.26377499 9 13 13263 5.61800000 2891636755 2891636755 13.00000000
3.69080091 -3.39862370 -0.08757617 26 14 13264 5.01800000 2891636757 2891636757 -1.00000000
5.72191906 -5.27079678 2.08452868 45 15 13265 8.05400000 2891636759 2891636759 15.00000000
1.53283167 -1.41544735 -0.55904913 4 0 13272 2.16000000 2891636780 2891636780 -15.00000000
3.97483015 -3.67172289 0.09445243 72 1 13273 5.41200000 2891636782 2891636782 1.00000000
1.80478680 -1.66774368 -0.56732655 4 2 13274 2.52200000 2891636785 2891636785 -13.00000000
3.41633773 -3.15692449 0.24378088 22 3 13274 4.65800000 2891636787 2891636787 3.00000000
2.13654280 -1.97499990 -0.56555784 3 4 13275 2.96400000 2891636789 2891636789 -11.00000000
3.90426731 -3.61033154 0.46523735 28 5 13276 5.33800000 2891636792 2891636792 5.00000000
2.61307192 -2.41719103 -0.56378978 7 6 13277 3.60400000 2891636794 2891636794 -9.00000000
5.75074816 -5.32152367 0.96203661 22 7 13278 7.89400000 2891636796 2891636796 7.00000000
3.38695979 -3.13526130 -0.56669247 6 8 13279 4.65000000 2891636799 2891636799 -7.00000000
5.73617458 -5.30989647 1.23802233 52 9 13279 7.91400000 2891636801 2891636801 9.00000000
4.20435429 -3.89327478 -0.50131983 7 10 13280 5.75200000 2891636803 2891636803 -5.00000000
4.20125437 -3.89176655 1.11317968 63 11 13281 5.83400000 2891636805 2891636805 11.00000000
4.19715309 -3.88932848 -0.29988503 12 12 13282 5.73000000 2891636808 2891636808 -3.00000000
3.69504404 -3.42644310 -0.08796013 32 14 13284 5.04000000 2891636812 2891636812 -1.00000000
5.69215488 -5.28022766 2.08038759 45 15 13285 8.03800000 2891636815 2891636815 15.00000000
1.53495502 -1.42736697 -0.56163734 4 0 13292 2.17000000 2891636835 2891636835 -15.00000000
3.97955894 -3.70191932 0.09487128 57 1 13293 5.43600000 2891636838 2891636838 1.00000000
1.78896809 -1.66474068 -0.56417722 3 2 13294 2.50800000 2891636840 2891636840 -13.00000000
3.40237284 -3.16610932 0.24357153 20 3 13294 4.65400000 2891636842 2891636842 3.00000000
2.13250995 -1.98512125 -0.56632107 3 4 13295 2.96800000 2891636845 2891636845 -11.00000000
3.89601541 -3.62801147 0.46576029 26 5 13296 5.34400000 2891636847 2891636847 5.00000000
2.60750937 -2.42899036 -0.56441557 5 6 13297 3.60800000 2891636849 2891636849 -9.00000000
5.71471024 -5.32532549 0.95911175 45 7 13298 7.87000000 2891636851 2891636851 7.00000000
3.37309098 -3.14435768 -0.56620497 4 8 13299 4.64600000 2891636854 2891636854 -7.00000000
5.70171022 -5.31507063 1.23458076 25 9 13299 7.89200000 2891636856 2891636856 9.00000000
4.16305304 -3.88210964 -0.49800792 10 10 13300 5.71400000 2891636858 2891636858 -5.00000000
4.19625759 -3.91444302 1.11546934 45 11 13301 5.84600000 2891636861 2891636861 11.00000000
4.14120436 -3.86443901 -0.29684955 30 12 13302 5.67200000 2891636863 2891636863 -3.00000000
4.12256718 -3.84839392 1.30201674 22 13 13303 5.78800000 2891636865 2891636865 13.00000000
3.70206094 -3.45706296 -0.08841389 30 14 13304 5.06600000 2891636868 2891636868 -1.00000000
5.65202284 -5.27797842 2.07210517 45 15 13304 8.00600000 2891636870 2891636870 15.00000000
1.53560364 -1.43799818 -0.56370789 4 0 13312 2.17800000 2891636891 2891636891 -15.00000000
3.98704410 -3.73492742 0.09535995 80 1 13313 5.46400000 2891636893 2891636893 1.00000000
1.78599000 -1.67364013 -0.56507707 3 2 13314 2.51200000 2891636895 2891636895 -13.00000000
3.40295935 -3.18889213 0.24440892 22 3 13314 4.67000000 2891636898 2891636898 3.00000000
2.11124420 -1.97912610 -0.56250495 3 4 13315 2.94800000 2891636900 2891636900 -11.00000000
3.89786100 -3.65521765 0.46750340 26 5 13316 5.36400000 2891636902 2891636902 5.00000000
2.59901452 -2.43807745 -0.56441557 5 6 13317 3.60800000 2891636904 2891636904 -9.00000000
5.66279316 -5.31399822 0.95350575 57 7 13318 7.82400000 2891636907 2891636907 7.00000000
3.35630536 -3.15067840 -0.56523001 4 8 13319 4.63800000 2891636909 2891636909 -7.00000000
4.21265411 -3.95456219 0.91514164 54 9 13319 5.85000000 2891636911 2891636911 9.00000000
4.15383339 -3.90070939 -0.49853083 10 10 13320 5.72000000 2891636914 2891636914 -5.00000000
5.63924074 -5.29745245 1.50395656 50 11 13321 7.88200000 2891636916 2891636916 11.00000000
4.13496733 -3.88570976 -0.29737291 12 12 13322 5.68200000 2891636918 2891636918 -3.00000000
4.01397753 -3.77333260 1.27187324 15 13 13323 5.65400000 2891636921 2891636921 13.00000000
3.69142771 -3.47133422 -0.08844879 28 14 13324 5.06800000 2891636923 2891636923 -1.00000000
5.61856890 -5.28542185 2.06692886 47 15 13325 7.98600000 2891636925 2891636925 15.00000000
1.52495277 -1.43804812 -0.56163734 4 0 13332 2.17000000 2891636946 2891636946 -15.00000000
3.99289227 -3.76666045 0.09581371 100 1 13333 5.49000000 2891636948 2891636948 1.00000000
1.77588511 -1.67585182 -0.56372732 4 2 13334 2.50600000 2891636951 2891636951 -13.00000000
3.41012907 -3.21916628 0.24576965 20 3 13335 4.69600000 2891636953 2891636953 3.00000000
2.09861255 -1.98109293 -0.56097847 3 4 13335 2.94000000 2891636955 2891636955 -11.00000000
3.89521813 -3.67837691 0.46872360 26 5 13336 5.37800000 2891636957 2891636957 5.00000000
2.58330846 -2.44035244 -0.56285119 5 6 13337 3.59800000 2891636960 2891636960 -9.00000000
5.62545300 -5.31600809 0.95033711 50 7 13338 7.79800000 2891636962 2891636962 7.00000000
3.34240174 -3.15964746 -0.56474257 4 8 13339 4.63400000 2891636964 2891636964 -7.00000000
4.17154980 -3.94345975 0.90919709 52 9 13339 5.81200000 2891636967 2891636967 9.00000000
4.10255432 -3.87959266 -0.49399874 14 10 13340 5.66800000 2891636969 2891636969 -5.00000000
5.60360050 -5.30091429 1.49937713 56 11 13341 7.85800000 2891636971 2891636971 11.00000000
4.09671688 -3.87678218 -0.29559347 6 12 13342 5.64800000 2891636974 2891636974 -3.00000000
3.90879321 -3.70024085 1.24262965 7 13 13343 5.52400000 2891636976 2891636976 13.00000000
3.68799996 -3.49244857 -0.08865822 30 14 13344 5.08000000 2891636978 2891636978 -1.00000000
5.56874847 -5.27347326 2.05502319 47 15 13344 7.94000000 2891636981 2891636981 15.00000000
1.51712203 -1.44070184 -0.56060207 4 0 13352 2.16600000 2891637001 2891637001 -15.00000000
3.96957111 -3.77093458 0.09556938 95 1 13353 5.47600000 2891637004 2891637004 1.00000000
1.78132558 -1.69277990 -0.56732655 4 2 13354 2.52200000 2891637006 2891637006 -13.00000000
3.40755677 -3.23930693 0.24639769 24 3 13355 4.70800000 2891637008 2891637008 3.00000000
2.08883858 -1.98570096 -0.56021523 3 4 13355 2.93600000 2891637010 2891637010 -11.00000000
3.88812971 -3.69744325 0.46942082 27 5 13356 5.38600000 2891637013 2891637013 5.00000000
2.57763672 -2.45207810 -0.56347692 5 6 13357 3.60200000 2891637015 2891637015 -9.00000000
5.59104395 -5.32055902 0.94765604 42 7 13358 7.77600000 2891637017 2891637017 7.00000000
3.33135223 -3.17129540 -0.56474257 4 8 13359 4.63400000 2891637020 2891637020 -7.00000000
4.14133263 -3.94373798 0.90575558 57 9 13360 5.79000000 2891637022 2891637022 9.00000000
4.07888699 -3.88427162 -0.49277857 21 10 13360 5.65400000 2891637024 2891637024 -5.00000000
5.56658316 -5.30283833 1.49441600 50 11 13361 7.83200000 2891637027 2891637027 11.00000000
4.04990435 -3.85936809 -0.29318604 2 12 13362 5.60200000 2891637029 2891637029 -3.00000000
3.85776925 -3.67755771 1.23048222 6 13 13363 5.47000000 2891637031 2891637031 13.00000000
3.69025803 -3.51910114 -0.08900727 28 14 13364 5.10000000 2891637034 2891637034 -1.00000000
5.52422190 -5.26984596 2.04570580 47 15 13365 7.90400000 2891637036 2891637036 15.00000000
1.51677847 -1.44946504 -0.56215495 4 0 13370 2.17200000 2891637057 2891637057 -15.00000000
3.94035912 -3.76680493 0.09515052 67 1 13371 5.45200000 2891637059 2891637059 1.00000000
1.77036512 -1.69298041 -0.56552696 4 2 13372 2.51400000 2891637061 2891637061 -13.00000000
3.40746593 -3.25966048 0.24713038 22 3 13373 4.72200000 2891637063 2891637063 3.00000000
2.09677649 -2.00582480 -0.56403136 3 4 13373 2.95600000 2891637066 2891637066 -11.00000000
3.89520788 -3.72754765 0.47168687 27 5 13374 5.41200000 2891637068 2891637068 5.00000000
2.55565119 -2.44650388 -0.56034827 5 6 13375 3.58200000 2891637070 2891637070 -9.00000000
4.15635300 -3.98023272 0.70659846 42 7 13376 5.79800000 2891637073 2891637073 7.00000000
3.32710671 -3.18723822 -0.56571752 4 8 13377 4.64200000 2891637075 2891637075 -7.00000000
4.13531923 -3.96147418 0.90700704 49 9 13377 5.79800000 2891637077 2891637077 9.00000000
4.05803299 -3.88879561 -0.49173269 17 10 13378 5.64200000 2891637080 2891637080 -5.00000000
5.52013445 -5.29176950 1.48640203 53 11 13379 7.79000000 2891637082 2891637082 11.00000000
4.03199339 -3.86654258 -0.29276735 2 12 13380 5.59400000 2891637084 2891637084 -3.00000000
3.84900951 -3.69235706 1.23138201 10 13 13381 5.47400000 2891637087 2891637087 13.00000000
3.69649816 -3.54729199 -0.08942613 28 14 13382 5.12400000 2891637089 2891637089 -1.00000000
5.49044180 -5.26882458 2.03897643 45 15 13382 7.87800000 2891637091 2891637091 15.00000000
1.50753367 -1.45073211 -0.56060207 4 0 13390 2.16600000 2891637112 2891637112 -15.00000000
3.91566133 -3.76944160 0.09487128 62 1 13391 5.43600000 2891637114 2891637114 1.00000000
1.75602257 -1.69103932 -0.56282753 4 2 13392 2.50200000 2891637116 2891637116 -13.00000000
3.40469742 -3.27984881 0.24775842 22 3 13393 4.73400000 2891637119 2891637119 3.00000000
2.08976221 -2.01313162 -0.56403136 3 4 13393 2.95600000 2891637121 2891637121 -11.00000000
3.89938831 -3.75771213 0.47377861 27 5 13394 5.43600000 2891637123 2891637123 5.00000000
2.55278444 -2.46089363 -0.56159973 5 6 13395 3.59000000 2891637126 2891637126 -9.00000000
4.12528706 -3.97818136 0.70367360 57 7 13396 5.77400000 2891637128 2891637128 7.00000000
3.30024552 -3.18367219 -0.56303638 6 8 13397 4.62000000 2891637130 2891637130 -7.00000000
5.50383902 -5.31128359 1.21142852 45 9 13398 7.74400000 2891637133 2891637133 9.00000000
4.03296423 -3.89186883 -0.49033821 17 10 13398 5.62600000 2891637135 2891637135 -5.00000000
5.48185444 -5.29191637 1.48105943 56 11 13399 7.76200000 2891637137 2891637137 11.00000000
4.00410509 -3.86671925 -0.29172063 5 12 13400 5.57400000 2891637139 2891637139 -3.00000000
5.46332026 -5.27770996 1.75371838 59 13 13401 7.79600000 2891637142 2891637142 13.00000000
3.69847298 -3.57406974 -0.08977518 22 14 13402 5.14400000 2891637144 2891637144 -1.00000000
5.45442581 -5.27279997 2.03276467 45 15 13403 7.85400000 2891637146 2891637146 15.00000000
1.51494634 -1.46808517 -0.56526077 4 0 13410 2.18400000 2891637167 2891637167 -15.00000000
3.87950706 -3.76081705 0.09431280 22 1 13411 5.40400000 2891637169 2891637169 1.00000000
1.75150800 -1.69851530 -0.56327742 3 2 13412 2.50400000 2891637172 2891637172 -13.00000000
3.40039563 -3.29866672 0.24828178 24 3 13413 4.74400000 2891637174 2891637174 3.00000000
2.07426739 -2.01221204 -0.56174171 3 4 13413 2.94400000 2891637176 2891637176 -11.00000000
3.90626526 -3.79072595 0.47621897 27 5 13414 5.46400000 2891637179 2891637179 5.00000000
2.54984808 -2.47529316 -0.56285119 5 6 13415 3.59800000 2891637181 2891637181 -9.00000000
4.09998274 -3.98149347 0.70172369 55 7 13416 5.75800000 2891637183 2891637183 7.00000000
3.27914524 -3.18549061 -0.56133020 4 8 13417 4.60600000 2891637186 2891637186 -7.00000000
5.45502424 -5.29922485 1.20454538 55 9 13417 7.70000000 2891637188 2891637188 9.00000000
4.00792408 -3.89481449 -0.48894373 17 10 13418 5.61000000 2891637190 2891637190 -5.00000000
5.44082499 -5.28912401 1.47495353 53 11 13419 7.73000000 2891637192 2891637192 11.00000000
3.95765066 -3.84864712 -0.28931317 11 12 13420 5.52800000 2891637195 2891637195 -3.00000000
5.40994310 -5.26277733 1.74247086 51 13 13421 7.74600000 2891637197 2891637197 13.00000000
3.68884087 -3.58974719 -0.08984499 10 14 13422 5.14800000 2891637199 2891637199 -1.00000000
5.42306566 -5.27738571 2.02758837 45 15 13422 7.83400000 2891637202 2891637202 15.00000000
1.49598634 -1.45987201 -0.56008440 4 0 13430 2.16400000 2891637222 2891637222 -15.00000000
3.69178319 -3.60391831 0.09005442 14 1 13431 5.16000000 2891637225 2891637225 1.00000000
1.75951064 -1.71823406 -0.56777644 3 2 13432 2.52400000 2891637227 2891637227 -13.00000000
3.40600467 -3.32726431 0.24953784 24 3 13433 4.76800000 2891637229 2891637229 3.00000000
2.06442213 -2.01669645 -0.56097847 3 4 13433 2.94000000 2891637232 2891637232 -11.00000000
3.90725899 -3.81826353 0.47796211 27 5 13434 5.48400000 2891637234 2891637234 5.00000000
2.54401731 -2.48694062 -0.56347692 5 6 13435 3.60200000 2891637236 2891637236 -9.00000000
4.07896328 -3.98884130 0.70050496 60 7 13436 5.74800000 2891637239 2891637239 7.00000000
3.27793908 -3.20663452 -0.56303638 4 8 13437 4.62000000 2891637241 2891637241 -7.00000000
5.40874004 -5.29293203 1.19860089 52 9 13438 7.66200000 2891637243 2891637243 9.00000000
3.97579217 -3.89066553 -0.48667768 10 10 13438 5.58400000 2891637245 2891637245 -5.00000000
5.40830040 -5.29435015 1.47113740 56 11 13439 7.71000000 2891637248 2891637248 11.00000000
3.94561911 -3.86383581 -0.28941783 2 12 13440 5.53000000 2891637250 2891637250 -3.00000000
5.38457918 -5.27481079 1.74022138 62 13 13441 7.73600000 2891637252 2891637252 13.00000000
3.68342900 -3.60959983 -0.09001951 8 14 13442 5.15800000 2891637255 2891637255 -1.00000000
5.38161421 -5.27558851 2.01930618 47 15 13443 7.80200000 2891637257 2891637257 15.00000000
1.49225926 -1.46643913 -0.56060207 4 0 13450 2.16600000 2891637278 2891637278 -15.00000000
3.73194408 -3.66865182 0.09134590 9 1 13451 5.23400000 2891637280 2891637280 1.00000000
1.75211275 -1.72299898 -0.56732655 4 2 13452 2.52200000 2891637282 2891637282 -13.00000000
3.40860772 -3.35313964 0.25058457 24 3 13453 4.78800000 2891637285 2891637285 3.00000000
2.05457067 -2.02113676 -0.56021523 3 4 13453 2.93600000 2891637287 2891637287 -11.00000000
3.88822651 -3.82628918 0.47726485 27 5 13454 5.47600000 2891637289 2891637289 5.00000000
2.52687454 -2.48749089 -0.56159973 5 6 13455 3.59000000 2891637292 2891637292 -9.00000000
4.08623075 -4.02394819 0.70416105 36 7 13456 5.77800000 2891637294 2891637294 7.00000000
3.25965500 -3.21109176 -0.56181765 4 8 13457 4.61000000 2891637296 2891637296 -7.00000000
5.37849283 -5.29836273 1.19578505 57 9 13457 7.64400000 2891637298 2891637298 9.00000000
3.94231915 -3.88494134 -0.48423731 10 10 13458 5.55600000 2891637301 2891637301 -5.00000000
5.36741638 -5.29114437 1.46503150 56 11 13459 7.67800000 2891637303 2891637303 11.00000000
3.81833982 -3.76539445 -0.28104410 2 12 13460 5.37000000 2891637305 2891637305 -3.00000000
5.35226107 -5.27988911 1.73572230 68 13 13461 7.71600000 2891637308 2891637308 13.00000000
3.69073367 -3.64209962 -0.09050818 10 14 13462 5.18600000 2891637310 2891637310 -1.00000000
5.33383894 -5.26355314 2.00791812 47 15 13462 7.75800000 2891637312 2891637312 15.00000000
1.48438501 -1.46892142 -0.55956680 4 0 13470 2.16200000 2891637333 2891637333 -15.00000000
3.89107299 -3.85188198 0.09556938 22 1 13471 5.47600000 2891637335 2891637335 1.00000000
1.74054897 -1.72361970 -0.56552696 4 2 13472 2.51400000 2891637338 2891637338 -13.00000000
3.41249037 -3.38047910 0.25173596 26 3 13473 4.81000000 2891637340 2891637340 3.00000000
2.06424022 -2.04487634 -0.56479460 3 4 13473 2.96000000 2891637342 2891637342 -11.00000000
3.89041400 -3.85526490 0.47918227 27 5 13474 5.49800000 2891637345 2891637345 5.00000000
2.51537037 -2.49351478 -0.56097400 5 6 13475 3.58600000 2891637347 2891637347 -9.00000000
5.36329794 -5.31855392 0.92742568 75 7 13476 7.61000000 2891637349 2891637349 7.00000000
3.25406361 -3.22804260 -0.56279260 4 8 13477 4.61800000 2891637351 2891637351 -7.00000000
5.34221172 -5.30134296 1.19203067 55 9 13478 7.62000000 2891637354 2891637354 9.00000000
3.91176343 -3.88183808 -0.48214558 6 10 13478 5.53200000 2891637356 2891637356 -5.00000000
5.32383490 -5.28495121 1.45816231 53 11 13479 7.64200000 2891637358 2891637358 11.00000000
3.89587331 -3.86876965 -0.28774309 2 12 13480 5.49800000 2891637361 2891637361 -3.00000000
5.31997252 -5.28480577 1.73122334 68 13 13481 7.69600000 2891637363 2891637363 13.00000000
3.69785595 -3.67469430 -0.09099685 8 14 13482 5.21400000 2891637365 2891637365 -1.00000000
5.29533005 -5.26399994 2.00067115 47 15 13483 7.73000000 2891637368 2891637368 15.00000000
1.48583210 -1.48117149 -0.56215495 4 0 13491 2.17200000 2891637388 2891637388 -15.00000000
3.88967252 -3.87882566 0.09588352 22 1 13492 5.49400000 2891637391 2891637391 1.00000000
1.72180295 -1.71760094 -0.56147784 3 2 13493 2.49600000 2891637393 2891637393 -13.00000000
3.40855980 -3.40142846 0.25236398 24 3 13494 4.82200000 2891637395 2891637395 3.00000000
2.04561400 -2.04133415 -0.56174171 3 4 13494 2.94400000 2891637398 2891637398 -11.00000000
3.90304875 -3.89624262 0.48249421 30 5 13495 5.53600000 2891637400 2891637400 5.00000000
2.50341868 -2.49992561 -0.56034827 5 6 13496 3.58200000 2891637402 2891637402 -9.00000000
5.31568050 -5.31011677 0.92255092 50 7 13497 7.57000000 2891637404 2891637404 7.00000000
3.23378539 -3.23152852 -0.56133020 4 8 13498 4.60600000 2891637407 2891637407 -7.00000000
5.31109810 -5.30739164 1.18921483 52 9 13498 7.60200000 2891637409 2891637409 9.00000000
3.90596390 -3.90460086 -0.48319143 7 10 13499 5.54400000 2891637411 2891637411 -5.00000000
5.29054642 -5.29054642 1.45434618 53 11 13500 7.62200000 2891637414 2891637414 11.00000000
3.87743139 -3.87878513 -0.28742906 20 12 13501 5.49200000 2891637416 2891637416 -3.00000000
5.27577257 -5.27945709 1.72312510 64 13 13502 7.66000000 2891637418 2891637418 13.00000000
3.69425535 -3.69812608 -0.09124118 25 14 13503 5.22800000 2891637421 2891637421 -1.00000000
5.26326990 -5.26878452 1.99549484 47 15 13503 7.71000000 2891637423 2891637423 15.00000000
1.48746979 -1.49319220 -0.56474316 4 0 13511 2.18200000 2891637444 2891637444 -15.00000000
3.89445281 -3.91079998 0.09633728 20 1 13512 5.52000000 2891637446 2891637446 1.00000000
1.71579695 -1.72360075 -0.56147784 3 2 13513 2.49600000 2891637448 2891637448 -13.00000000
3.39666605 -3.41330576 0.25236398 22 3 13514 4.82200000 2891637451 2891637451 3.00000000
2.03016710 -2.04011250 -0.55945200 3 4 13514 2.93200000 2891637453 2891637453 -11.00000000
3.89223480 -3.91266799 0.48284280 25 5 13515 5.54000000 2891637455 2891637455 5.00000000
2.50303435 -2.51705313 -0.56222546 5 6 13516 3.59400000 2891637457 2891637457 -9.00000000
5.27472019 -5.30611420 0.91865110 52 7 13517 7.53800000 2891637460 2891637460 7.00000000
3.22948170 -3.24983716 -0.56254888 2 8 13518 4.61600000 2891637462 2891637462 -7.00000000
5.26747656 -5.30067730 1.18358314 52 9 13518 7.56600000 2891637464 2891637464 9.00000000
3.88528991 -3.91114378 -0.48231989 6 10 13519 5.53400000 2891637467 2891637467 -5.00000000
5.25821304 -5.29505110 1.45052993 53 11 13520 7.60200000 2891637469 2891637469 11.00000000
3.85261154 -3.88095665 -0.28659171 8 12 13521 5.47600000 2891637471 2891637471 -3.00000000
5.24083948 -5.28124142 1.71772623 59 13 13522 7.63600000 2891637474 2891637474 13.00000000
3.67850733 -3.70815945 -0.09117137 27 14 13523 5.22400000 2891637476 2891637476 -1.00000000
5.22988033 -5.27203798 1.98980081 47 15 13523 7.68800000 2891637478 2891637478 15.00000000
1.46646225 -1.48138273 -0.55853152 4 0 13529 2.15800000 2891637499 2891637499 -15.00000000
3.90183949 -3.94291496 0.09682595 12 1 13530 5.54800000 2891637501 2891637501 1.00000000
1.71859658 -1.73729491 -0.56417722 3 2 13531 2.50800000 2891637504 2891637504 -13.00000000
3.40558720 -3.44384193 0.25382939 20 3 13532 4.85000000 2891637506 2891637506 3.00000000
2.01546502 -2.03810477 -0.55716228 3 4 13532 2.92000000 2891637508 2891637508 -11.00000000
3.89673185 -3.94187951 0.48493454 11 5 13533 5.56400000 2891637510 2891637510 5.00000000
2.49511456 -2.52490425 -0.56222546 5 6 13534 3.59400000 2891637513 2891637513 -9.00000000
5.24965429 -5.31418610 0.91718870 52 7 13535 7.52600000 2891637515 2891637515 7.00000000
3.21786141 -3.25855446 -0.56230515 2 8 13536 4.61400000 2891637517 2891637517 -7.00000000
5.22905350 -5.29702902 1.17889011 52 9 13537 7.53600000 2891637520 2891637520 9.00000000
3.87718248 -3.92758417 -0.48284280 3 10 13537 5.54000000 2891637522 2891637522 -5.00000000
5.22500420 -5.29477501 1.44595051 56 11 13538 7.57800000 2891637524 2891637524 11.00000000
3.82497120 -3.87740040 -0.28544030 8 12 13539 5.45400000 2891637527 2891637527 -3.00000000
5.20506573 -5.27825451 1.71142757 62 13 13540 7.60800000 2891637529 2891637529 13.00000000
5.18888044 -5.26367855 1.98048329 45 15 13541 7.65200000 2891637533 2891637533 15.00000000
1.46399093 -1.48924804 -0.55956680 4 0 13549 2.16200000 2891637554 2891637554 -15.00000000
3.02746677 -3.08077264 0.07539440 5 1 13550 4.32000000 2891637557 2891637557 1.00000000
1.70979059 -1.74050307 -0.56327742 3 2 13551 2.50400000 2891637559 2891637559 -13.00000000
2.02622104 -2.06333756 -0.56212330 3 4 13552 2.94600000 2891637563 2891637563 -11.00000000
3.00363231 -3.05972147 0.37511832 5 5 13553 4.30400000 2891637566 2891637566 5.00000000
2.47798443 -2.52513909 -0.56034827 5 6 13554 3.58200000 2891637568 2891637568 -9.00000000
5.21161032 -5.31263924 0.91377634 20 7 13555 7.49800000 2891637570 2891637570 7.00000000
3.20090771 -3.26409769 -0.56133020 4 8 13556 4.60600000 2891637573 2891637573 -7.00000000
5.19393730 -5.29832172 1.17513573 55 9 13557 7.51200000 2891637575 2891637575 9.00000000
3.85508060 -3.93255758 -0.48179695 3 10 13557 5.52800000 2891637577 2891637577 -5.00000000
5.18175602 -5.28774166 1.43908143 59 11 13558 7.54200000 2891637580 2891637580 11.00000000
3.81979918 -3.89928889 -0.28606835 5 12 13559 5.46600000 2891637582 2891637582 -3.00000000
5.17297506 -5.28246832 1.70692861 68 13 13560 7.58800000 2891637584 2891637584 13.00000000
3.01455235 -3.07943439 -0.07521987 7 14 13561 4.31000000 2891637586 2891637586 -1.00000000
5.14793444 -5.26056957 1.97220111 47 15 13562 7.62000000 2891637589 2891637589 15.00000000
1.45582426 -1.49183857 -0.55853152 4 0 13570 2.15800000 2891637610 2891637610 -15.00000000
2.99939847 -3.07467127 0.07497554 13 1 13571 4.29600000 2891637612 2891637612 1.00000000
1.70339978 -1.74675798 -0.56327742 3 2 13572 2.50400000 2891637614 2891637614 -13.00000000
3.01140213 -3.08913255 0.22609133 14 3 13573 4.32000000 2891637616 2891637616 3.00000000
2.01864481 -2.07075024 -0.56212330 3 4 13573 2.94600000 2891637619 2891637619 -11.00000000
2.99378824 -3.07213664 0.37529263 8 5 13574 4.30600000 2891637621 2891637621 5.00000000
2.46319890 -2.52854443 -0.55909675 5 6 13575 3.57400000 2891637623 2891637623 -9.00000000
3.18199944 -3.26869559 -0.56011152 4 8 13577 4.59600000 2891637628 2891637628 -7.00000000
5.15519619 -5.29750347 1.17075551 57 9 13578 7.48400000 2891637630 2891637630 9.00000000
3.86287355 -3.96950674 -0.48458594 3 10 13578 5.56000000 2891637633 2891637633 -5.00000000
5.13769960 -5.28136778 1.43221235 59 11 13579 7.50600000 2891637635 2891637635 11.00000000
3.82776070 -3.93617272 -0.28774309 2 12 13580 5.49800000 2891637637 2891637637 -3.00000000
5.13999557 -5.28741932 1.70242953 66 13 13581 7.56800000 2891637639 2891637639 13.00000000
3.00324535 -3.09046268 -0.07521987 7 14 13582 4.31000000 2891637642 2891637642 -1.00000000
5.11742306 -5.26603842 1.96754241 47 15 13582 7.60200000 2891637644 2891637644 15.00000000
1.45060790 -1.49691129 -0.55853152 3 0 13590 2.15800000 2891637665 2891637665 -15.00000000
3.00534391 -3.10235763 0.07539440 7 1 13591 4.32000000 2891637667 2891637667 1.00000000
1.68373549 -1.73869419 -0.55877841 3 2 13592 2.48400000 2891637669 2891637669 -13.00000000
3.00060058 -3.09962559 0.22609133 5 3 13593 4.32000000 2891637672 2891637672 3.00000000
2.01413536 -2.08060527 -0.56288654 3 4 13593 2.95000000 2891637674 2891637674 -11.00000000
2.98858833 -3.08829522 0.37598988 5 5 13594 4.31400000 2891637676 2891637676 5.00000000
2.45710468 -2.53996682 -0.55972254 5 6 13595 3.57800000 2891637679 2891637679 -9.00000000
2.99726772 -3.09942842 0.52940041 7 7 13596 4.34400000 2891637681 2891637681 7.00000000
3.17746854 -3.28691912 -0.56133020 4 8 13597 4.60600000 2891637683 2891637683 -7.00000000
5.12294579 -5.30126095 1.16762686 57 9 13598 7.46400000 2891637686 2891637686 9.00000000
3.85176301 -3.98583198 -0.48493454 3 10 13598 5.56400000 2891637688 2891637688 -5.00000000
5.10286427 -5.28232527 1.42763293 59 11 13599 7.48200000 2891637690 2891637690 11.00000000
3.80012345 -3.93514299 -0.28669637 2 12 13600 5.47800000 2891637692 2891637692 -3.00000000
5.09173155 -5.27448416 1.69253170 72 13 13601 7.52400000 2891637695 2891637695 13.00000000
3.02993155 -3.13977861 -0.07616230 1 14 13602 4.36400000 2891637697 2891637697 -1.00000000
5.08022928 -5.26440763 1.96029544 47 15 13602 7.57400000 2891637699 2891637699 15.00000000
1.44429624 -1.50032163 -0.55801386 3 0 13609 2.15600000 2891637720 2891637720 -15.00000000
5.11652613 -5.31685734 0.12879875 9 1 13610 7.38000000 2891637722 2891637722 1.00000000
1.68066251 -1.74707699 -0.55967820 3 2 13611 2.48800000 2891637725 2891637725 -13.00000000
3.40485907 -3.53940821 0.25738823 24 3 13611 4.91800000 2891637727 2891637727 3.00000000
2.00178146 -2.08161235 -0.56136006 3 4 13612 2.94200000 2891637729 2891637729 -11.00000000
5.13786221 -5.34462690 0.64861304 3 5 13613 7.44200000 2891637732 2891637732 5.00000000
2.45277452 -2.55237389 -0.56066114 5 6 13614 3.58400000 2891637734 2891637734 -9.00000000
3.00072551 -3.12366629 0.53183782 7 7 13615 4.36400000 2891637736 2891637736 7.00000000
3.15692663 -3.28741527 -0.55962402 4 8 13616 4.59200000 2891637738 2891637738 -7.00000000
5.08711100 -5.29738188 1.16324663 52 9 13616 7.43600000 2891637741 2891637741 9.00000000
4.41940784 -4.60368824 -0.55831969 15 10 13617 6.40600000 2891637743 2891637743 -5.00000000
5.07444477 -5.28788614 1.42457998 59 11 13618 7.46600000 2891637745 2891637745 11.00000000
3.80087948 -3.96213603 -0.28774309 2 12 13619 5.49800000 2891637748 2891637748 -3.00000000
5.04993391 -5.26602268 1.68443346 66 13 13620 7.48800000 2891637750 2891637750 13.00000000
3.67266774 -3.83116078 -0.09263737 23 14 13621 5.30800000 2891637752 2891637752 -1.00000000
5.04670143 -5.26449060 1.95408380 47 15 13621 7.55000000 2891637755 2891637755 15.00000000
1.44305503 -1.50954330 -0.55956680 4 0 13629 2.16200000 2891637775 2891637775 -15.00000000
5.08135700 -5.31733656 0.12837990 9 1 13630 7.35600000 2891637778 2891637778 1.00000000
1.68263042 -1.76138759 -0.56237763 3 2 13631 2.50000000 2891637780 2891637780 -13.00000000
3.41531277 -3.57641935 0.25916764 24 3 13632 4.95200000 2891637782 2891637782 3.00000000
1.99585891 -2.09000707 -0.56174171 3 4 13632 2.94400000 2891637785 2891637785 -11.00000000
2.44112253 -2.55806184 -0.56003541 5 6 13634 3.58000000 2891637789 2891637789 -9.00000000
5.05882406 -5.30301476 0.89988321 22 7 13635 7.38400000 2891637791 2891637791 7.00000000
3.15365195 -3.30703449 -0.56108648 4 8 13636 4.60400000 2891637794 2891637794 -7.00000000
5.04312658 -5.29025555 1.15761507 55 9 13637 7.40000000 2891637796 2891637796 9.00000000
4.40056181 -4.61620283 -0.55797106 19 10 13637 6.40200000 2891637798 2891637798 -5.00000000
5.03970289 -5.28851175 1.42000055 56 11 13638 7.44200000 2891637801 2891637801 11.00000000
3.82559872 -4.01587057 -0.29067391 2 12 13639 5.55400000 2891637803 2891637803 -3.00000000
5.02077055 -5.27232838 1.68083429 68 13 13640 7.47200000 2891637805 2891637805 13.00000000
3.66892362 -3.85409617 -0.09288171 23 14 13641 5.32200000 2891637808 2891637808 -1.00000000
5.00606394 -5.26056099 1.94580162 49 15 13642 7.51800000 2891637810 2891637810 15.00000000
1.43219340 -1.50921702 -0.55749625 4 0 13650 2.15400000 2891637831 2891637831 -15.00000000
5.04256630 -5.31561375 0.12789123 9 1 13651 7.32800000 2891637833 2891637833 1.00000000
1.67348146 -1.76471484 -0.56147784 2 2 13652 2.49600000 2891637835 2891637835 -13.00000000
3.40830517 -3.59411597 0.25958633 20 3 13652 4.96000000 2891637838 2891637838 3.00000000
1.97602916 -2.08448505 -0.55830711 3 4 13653 2.92600000 2891637840 2891637840 -11.00000000
2.42629647 -2.56125569 -0.55878389 3 6 13655 3.57200000 2891637844 2891637844 -9.00000000
5.02979898 -5.31143093 0.89817709 57 7 13656 7.37000000 2891637847 2891637847 7.00000000
3.14150977 -3.31857109 -0.56108648 4 8 13657 4.60400000 2891637849 2891637849 -7.00000000
5.00605202 -5.29005146 1.15354776 52 9 13658 7.37400000 2891637851 2891637851 9.00000000
4.36307144 -4.61059332 -0.55535638 19 10 13658 6.37200000 2891637854 2891637854 -5.00000000
5.00409555 -5.28983307 1.41542113 53 11 13659 7.41800000 2891637856 2891637856 11.00000000
5.03631067 -5.32574940 -0.38414592 7 12 13660 7.34000000 2891637858 2891637858 -3.00000000
4.98802567 -5.27653360 1.67633522 66 13 13661 7.45200000 2891637861 2891637861 13.00000000
3.66713405 -3.88059807 -0.09319585 27 14 13662 5.34000000 2891637863 2891637863 -1.00000000
4.96644115 -5.25553799 1.93751943 47 15 13662 7.48600000 2891637865 2891637865 15.00000000
1.42956638 -1.51701903 -0.55853152 4 0 13670 2.15800000 2891637886 2891637886 -15.00000000
4.99929953 -5.30698347 0.12726295 9 1 13671 7.29200000 2891637888 2891637888 1.00000000
1.43752158 -1.52652812 -0.48409468 1 2 13672 2.15200000 2891637890 2891637890 -13.00000000
3.41490817 -3.62634778 0.26105174 20 3 13672 4.98800000 2891637893 2891637893 3.00000000
1.97412372 -2.09708810 -0.55983359 3 4 13673 2.93400000 2891637895 2891637895 -11.00000000
2.42004824 -2.57258701 -0.55940962 3 6 13675 3.57600000 2891637900 2891637900 -9.00000000
4.98131037 -5.29714108 0.89281482 52 7 13676 7.32600000 2891637902 2891637902 7.00000000
3.12174869 -3.32083869 -0.55962402 4 8 13677 4.59200000 2891637904 2891637904 -7.00000000
