# .PCD v0.7 - Point Cloud Data file format
VERSION 0.7
FIELDS x y z intensity laser_id azimuth distance_m adjustedtime timestamp vertical_angle
SIZE 4 4 4 1 1 2 8 8 4 8
TYPE F F F U U U F U U F
COUNT 1 1 1 1 1 1 1 1 1 1
WIDTH 536
HEIGHT 1
VIEWPOINT 0 0 0 1 0 0 0
POINTS 536
DATA ascii
1.58179283 3.78139758 -0.64920300 2 6 2270 4.15000000 2890906277 2890906277 -9.00000000
2.12222099 5.06836224 -0.67466867 2 8 2272 5.53600000 2890906281 2890906281 -7.00000000
3.18404746 7.60052967 -0.72095233 4 10 2273 8.27200000 2890906286 2890906286 -5.00000000
3.46196771 8.25181675 2.06595039 60 13 2276 9.18400000 2890906293 2890906293 13.00000000
2.98029256 7.10024023 2.06330538 9 15 2277 7.97200000 2890906297 2890906297 15.00000000
0.88370788 2.09713316 -0.60977769 4 0 2285 2.35600000 2890906318 2890906318 -15.00000000
1.04818821 2.48503804 -0.62266451 3 2 2287 2.76800000 2890906323 2890906323 -13.00000000
1.26252794 2.99173498 -0.63119614 4 4 2288 3.30800000 2890906327 2890906327 -11.00000000
1.58806479 3.75947571 -0.64638722 2 6 2290 4.13200000 2890906332 2890906332 -9.00000000
2.15304232 5.09200573 -0.67881227 2 8 2292 5.57000000 2890906337 2890906337 -7.00000000
3.20823026 7.58386421 -0.72042936 4 10 2293 8.26600000 2890906341 2890906341 -5.00000000
3.49379158 8.24685955 2.06774998 57 13 2296 9.19200000 2890906348 2890906348 13.00000000
3.04400682 7.17819643 2.08918738 13 15 2298 8.07200000 2890906353 2890906353 15.00000000
0.89216954 2.09774661 -0.61081296 4 0 2304 2.36000000 2890906374 2890906374 -15.00000000
1.05642307 2.48154855 -0.62266451 3 2 2306 2.76800000 2890906378 2890906378 -13.00000000
1.27705777 2.99836946 -0.63348585 2 4 2307 3.32000000 2890906383 2890906383 -11.00000000
1.60362160 3.76145744 -0.64763868 2 6 2309 4.14000000 2890906387 2890906387 -9.00000000
2.16290402 5.06840563 -0.67661858 2 8 2311 5.55200000 2890906392 2890906392 -7.00000000
3.22866750 7.56218958 -0.71938348 4 10 2312 8.25400000 2890906397 2890906397 -5.00000000
4.46295166 10.44808102 2.20842338 59 11 2313 11.57400000 2890906399 2890906399 11.00000000
3.51499081 8.22089386 2.06415081 56 13 2315 9.17600000 2890906403 2890906403 13.00000000
3.04982734 7.12952232 2.07779932 18 15 2316 8.02800000 2890906408 2890906408 15.00000000
0.90253568 2.10172009 -0.61288351 4 0 2324 2.36800000 2890906429 2890906429 -15.00000000
1.05892241 2.46352291 -0.61906528 3 2 2326 2.75200000 2890906433 2890906433 -13.00000000
1.27976012 2.97585797 -0.62966967 4 4 2327 3.30000000 2890906438 2890906438 -11.00000000
1.62455213 3.77398086 -0.65076739 2 6 2329 4.16000000 2890906443 2890906443 -9.00000000
2.17586970 5.04988670 -0.67515618 2 8 2331 5.54000000 2890906447 2890906447 -7.00000000
3.26687574 7.57831764 -0.72199816 4 10 2332 8.28400000 2890906452 2890906452 -5.00000000
4.50717020 10.45046616 2.21223950 56 11 2333 11.59400000 2890906454 2890906454 11.00000000
3.54057622 8.20141792 2.06235123 60 13 2335 9.16800000 2890906459 2890906459 13.00000000
3.08158922 7.13479424 2.08245802 33 15 2336 8.04600000 2890906463 2890906463 15.00000000
0.90525573 2.08792233 -0.60977769 4 0 2344 2.35600000 2890906484 2890906484 -15.00000000
1.07372177 2.47411299 -0.62266451 3 2 2346 2.76800000 2890906489 2890906489 -13.00000000
1.29014003 2.97137260 -0.62966967 4 4 2347 3.30000000 2890906493 2890906493 -11.00000000
1.63299179 3.75741720 -0.64889014 2 6 2349 4.14800000 2890906498 2890906498 -9.00000000
2.19823503 5.05318260 -0.67661858 2 8 2351 5.55200000 2890906502 2890906502 -7.00000000
3.29251385 7.56504107 -0.72182387 4 10 2352 8.28200000 2890906507 2890906507 -5.00000000
4.55145931 10.45267010 2.21605563 56 11 2353 11.61400000 2890906509 2890906509 11.00000000
3.57074022 8.19258118 2.06325102 56 13 2355 9.17200000 2890906514 2890906514 13.00000000
3.10029817 7.10982752 2.07831693 38 15 2356 8.03000000 2890906519 2890906519 15.00000000
0.90943986 2.07767057 -0.60770714 4 0 2364 2.34800000 2890906539 2890906539 -15.00000000
1.08391547 2.47391963 -0.62356430 3 2 2366 2.77200000 2890906544 2890906544 -13.00000000
1.30208051 2.97044730 -0.63043290 4 4 2367 3.30400000 2890906549 2890906549 -11.00000000
1.64133549 3.74084044 -0.64701295 2 6 2369 4.13600000 2890906553 2890906553 -9.00000000
2.22064996 5.05638361 -0.67808104 2 8 2371 5.56400000 2890906558 2890906558 -7.00000000
3.31970215 7.55532598 -0.72199816 4 10 2372 8.28400000 2890906562 2890906562 -5.00000000
4.59107876 10.44390774 2.21758223 56 11 2373 11.62200000 2890906565 2890906565 11.00000000
3.59774613 8.17650032 2.06235123 60 13 2375 9.16800000 2890906569 2890906569 13.00000000
3.13022947 7.10725689 2.08090520 38 15 2377 8.04000000 2890906574 2890906574 15.00000000
0.92256880 2.08878064 -0.61184824 4 0 2383 2.36400000 2890906595 2890906595 -15.00000000
1.08896148 2.46318245 -0.62176472 3 2 2385 2.76400000 2890906599 2890906599 -13.00000000
1.31192374 2.96611309 -0.63043290 4 4 2386 3.30400000 2890906604 2890906604 -11.00000000
1.65533090 3.73898959 -0.64763868 2 6 2388 4.14000000 2890906608 2890906608 -9.00000000
2.22614574 5.02358389 -0.67466867 2 8 2390 5.53600000 2890906613 2890906613 -7.00000000
3.34554577 7.54609728 -0.72217250 4 10 2391 8.28600000 2890906618 2890906618 -5.00000000
4.63046265 10.43939400 2.21987176 53 11 2392 11.63400000 2890906620 2890906620 11.00000000
3.62958527 8.17521095 2.06505060 56 13 2394 9.18000000 2890906625 2890906625 13.00000000
3.15018940 7.09209108 2.07935214 42 15 2395 8.03400000 2890906629 2890906629 15.00000000
0.92985433 2.08554745 -0.61184824 4 0 2403 2.36400000 2890906650 2890906650 -15.00000000
1.09596467 2.45580697 -0.62086493 3 2 2405 2.76000000 2890906654 2890906654 -13.00000000
1.32867265 2.97585702 -0.63348585 4 4 2406 3.32000000 2890906659 2890906659 -11.00000000
1.66514850 3.72597480 -0.64638722 2 6 2408 4.13200000 2890906664 2890906664 -9.00000000
2.25420523 5.03933907 -0.67783731 2 8 2410 5.56200000 2890906668 2890906668 -7.00000000
3.37512183 7.54164743 -0.72286975 8 10 2411 8.29400000 2890906673 2890906673 -5.00000000
4.67329311 10.43750191 2.22292471 59 11 2412 11.65000000 2890906675 2890906675 11.00000000
3.65650582 8.15893555 2.06415081 56 13 2414 9.17600000 2890906680 2890906680 13.00000000
3.17492628 7.08105183 2.07935214 42 15 2415 8.03400000 2890906684 2890906684 15.00000000
0.93871427 2.08581233 -0.61288351 4 0 2423 2.36800000 2890906705 2890906705 -15.00000000
1.10773194 2.45907354 -0.62266451 3 2 2425 2.76800000 2890906710 2890906710 -13.00000000
1.33824563 2.96941090 -0.63310426 4 4 2426 3.31800000 2890906714 2890906714 -11.00000000
2.26688075 5.02058458 -0.67637485 2 8 2430 5.55000000 2890906724 2890906724 -7.00000000
3.40552759 7.53889894 -0.72374129 4 10 2431 8.30400000 2890906728 2890906728 -5.00000000
4.72101784 10.44617176 2.22826743 62 11 2432 11.67800000 2890906731 2890906731 11.00000000
3.68014455 8.13546848 2.06145144 60 13 2434 9.16400000 2890906735 2890906735 13.00000000
3.20404553 7.07640696 2.08142281 40 15 2436 8.04200000 2890906740 2890906740 15.00000000
0.94598943 2.08252287 -0.61288351 4 0 2443 2.36800000 2890906760 2890906760 -15.00000000
1.11630893 2.45519185 -0.62266451 3 2 2445 2.76800000 2890906765 2890906765 -13.00000000
1.34291232 2.95221210 -0.63043290 4 4 2446 3.30400000 2890906770 2890906770 -11.00000000
1.69930542 3.73223710 -0.64951593 2 6 2448 4.15200000 2890906774 2890906774 -9.00000000
2.28521538 5.01444721 -0.67661858 2 8 2450 5.55200000 2890906779 2890906779 -7.00000000
3.43182254 7.52696562 -0.72374129 4 10 2451 8.30400000 2890906784 2890906784 -5.00000000
4.76885986 10.45463562 2.23361015 59 11 2452 11.70600000 2890906786 2890906786 11.00000000
3.71013904 8.12611866 2.06235123 60 13 2454 9.16800000 2890906790 2890906790 13.00000000
3.22872734 7.06517982 2.08142281 40 15 2456 8.04200000 2890906795 2890906795 15.00000000
0.94681209 2.06515956 -0.60874242 4 0 2463 2.35200000 2890906816 2890906816 -15.00000000
1.12649786 2.45482254 -0.62356430 3 2 2465 2.77200000 2890906820 2890906820 -13.00000000
1.35320926 2.94750667 -0.63043290 4 4 2466 3.30400000 2890906825 2890906825 -11.00000000
1.72057116 3.74423218 -0.65264457 2 6 2468 4.17200000 2890906830 2890906830 -9.00000000
2.30270505 5.00643969 -0.67661858 2 8 2470 5.55200000 2890906834 2890906834 -7.00000000
3.45474410 7.50770044 -0.72304404 4 10 2471 8.29600000 2890906839 2890906839 -5.00000000
4.80860806 10.44505882 2.23513651 53 11 2472 11.71400000 2890906841 2890906841 11.00000000
3.73685074 8.10957813 2.06145144 57 13 2474 9.16400000 2890906846 2890906846 13.00000000
3.25013328 7.04684925 2.07935214 42 15 2476 8.03400000 2890906850 2890906850 15.00000000
0.95726001 2.06885505 -0.61081296 4 0 2483 2.36000000 2890906871 2890906871 -15.00000000
1.13342202 2.44733882 -0.62266451 3 2 2485 2.76800000 2890906876 2890906876 -13.00000000
1.36844194 2.95345306 -0.63272262 4 4 2486 3.31600000 2890906880 2890906880 -11.00000000
1.71700883 3.70236254 -0.64638722 2 6 2488 4.13200000 2890906885 2890906885 -9.00000000
2.32852483 5.01637697 -0.67905599 2 8 2490 5.57200000 2890906890 2890906890 -7.00000000
3.47757316 7.48836708 -0.72234678 4 10 2491 8.28800000 2890906894 2890906894 -5.00000000
3.76842260 8.10355282 2.06325102 59 13 2494 9.17200000 2890906901 2890906901 13.00000000
3.27471161 7.03546095 2.07935214 42 15 2496 8.03400000 2890906906 2890906906 15.00000000
0.96538830 2.06933880 -0.61184824 4 0 2501 2.36400000 2890906926 2890906926 -15.00000000
1.13615799 2.43317175 -0.61996508 3 2 2503 2.75600000 2890906931 2890906931 -13.00000000
1.37937558 2.95269680 -0.63348585 2 4 2504 3.32000000 2890906936 2890906936 -11.00000000
1.74034560 3.72200203 -0.65076739 2 6 2506 4.16000000 2890906940 2890906940 -9.00000000
2.33754110 4.99465370 -0.67710608 2 8 2508 5.55600000 2890906945 2890906945 -7.00000000
3.51121950 7.49905777 -0.72443855 4 10 2509 8.31200000 2890906949 2890906949 -5.00000000
3.78889847 8.08108711 2.06055164 62 13 2512 9.16000000 2890906956 2890906956 13.00000000
3.29885340 7.03271008 2.08142281 40 15 2513 8.04200000 2890906961 2890906961 15.00000000
0.97425145 2.06945205 -0.61288351 4 0 2521 2.36800000 2890906982 2890906982 -15.00000000
1.14962840 2.43976784 -0.62266451 3 2 2523 2.76800000 2890906986 2890906986 -13.00000000
1.38799965 2.94431233 -0.63272262 2 4 2524 3.31600000 2890906991 2890906991 -11.00000000
1.74826956 3.70518541 -0.64889014 2 6 2526 4.14800000 2890906995 2890906995 -9.00000000
2.34648418 4.96851397 -0.67466867 2 8 2528 5.53600000 2890907000 2890907000 -7.00000000
3.53482127 7.48135138 -0.72391558 8 10 2529 8.30600000 2890907005 2890907005 -5.00000000
4.93423080 10.43844604 2.24429536 59 11 2530 11.76200000 2890907007 2890907007 11.00000000
3.81208301 8.05724335 2.05785227 59 13 2532 9.14800000 2890907012 2890907012 13.00000000
3.32543421 7.02231789 2.08194041 40 15 2534 8.04400000 2890907016 2890907016 15.00000000
0.97815347 2.05905890 -0.61081296 4 0 2541 2.36000000 2890907037 2890907037 -15.00000000
1.16148496 2.44277978 -0.62446415 3 2 2543 2.77600000 2890907042 2890907042 -13.00000000
1.39658213 2.93590355 -0.63195938 2 4 2544 3.31200000 2890907046 2890907046 -11.00000000
1.77138245 3.72046280 -0.65264457 2 6 2546 4.17200000 2890907051 2890907051 -9.00000000
2.37406111 4.98179722 -0.67759353 4 8 2548 5.56000000 2890907055 2890907055 -7.00000000
3.56262946 7.47256422 -0.72426420 8 10 2549 8.31000000 2890907060 2890907060 -5.00000000
4.98247051 10.44596672 2.24963808 56 11 2550 11.79000000 2890907062 2890907062 11.00000000
3.84018493 8.04388809 2.05785227 62 13 2552 9.14800000 2890907067 2890907067 13.00000000
3.34453988 7.00253534 2.07935214 42 15 2553 8.03400000 2890907072 2890907072 15.00000000
0.98199487 2.04866362 -0.60874242 4 0 2561 2.35200000 2890907092 2890907092 -15.00000000
1.17506242 2.44925261 -0.62716353 3 2 2563 2.78800000 2890907097 2890907097 -13.00000000
1.40852094 2.93455052 -0.63272262 4 4 2564 3.31600000 2890907101 2890907101 -11.00000000
1.78093696 3.70713449 -0.65139312 2 6 2566 4.16400000 2890907106 2890907106 -9.00000000
2.39143634 4.97347975 -0.67759353 2 8 2568 5.56000000 2890907111 2890907111 -7.00000000
3.58178210 7.44571924 -0.72286975 8 10 2569 8.29400000 2890907115 2890907115 -5.00000000
5.02571440 10.44266319 2.25269103 53 11 2570 11.80600000 2890907118 2890907118 11.00000000
3.87162256 8.03745651 2.05965185 60 13 2572 9.15600000 2890907122 2890907122 13.00000000
3.37018299 6.99023008 2.07935214 42 15 2574 8.03400000 2890907127 2890907127 15.00000000
0.98878306 2.04539609 -0.60874242 4 0 2580 2.35200000 2890907148 2890907148 -15.00000000
1.17469037 2.42780066 -0.62266451 3 2 2582 2.76800000 2890907152 2890907152 -13.00000000
1.41995525 2.93339777 -0.63348585 2 4 2583 3.32000000 2890907157 2890907157 -11.00000000
1.78633010 3.68698668 -0.64889014 2 6 2585 4.14800000 2890907161 2890907161 -9.00000000
2.40964818 4.96909428 -0.67808104 2 8 2587 5.56400000 2890907166 2890907166 -7.00000000
3.61862850 7.45889664 -0.72531009 8 10 2588 8.32200000 2890907171 2890907171 -5.00000000
5.06203032 10.42947197 2.25345421 59 11 2589 11.81000000 2890907173 2890907173 11.00000000
3.89484835 8.01756191 2.05785227 60 13 2591 9.14800000 2890907178 2890907178 13.00000000
3.39381576 6.98308277 2.08038759 42 15 2592 8.03800000 2890907182 2890907182 15.00000000
1.00269175 2.05582261 -0.61288351 4 0 2600 2.36800000 2890907203 2890907203 -15.00000000
1.17802846 2.41317797 -0.61996508 4 2 2602 2.75600000 2890907207 2890907207 -13.00000000
1.43190920 2.93195152 -0.63424909 2 4 2603 3.32400000 2890907212 2890907212 -11.00000000
1.80959916 3.70202518 -0.65264457 2 6 2605 4.17200000 2890907217 2890907217 -9.00000000
2.42697883 4.96065283 -0.67808104 2 8 2607 5.56400000 2890907221 2890907221 -7.00000000
3.63325620 7.42295599 -0.72304404 8 10 2608 8.29600000 2890907226 2890907226 -5.00000000
5.10876608 10.43289757 2.25803375 59 11 2609 11.83400000 2890907228 2890907228 11.00000000
3.91595006 7.98991871 2.05425310 64 13 2611 9.13200000 2890907233 2890907233 13.00000000
3.41938710 6.97059727 2.08038759 42 15 2613 8.03800000 2890907237 2890907237 15.00000000
1.00887108 2.04849148 -0.61184824 4 0 2622 2.36400000 2890907258 2890907258 -15.00000000
1.19590175 2.42611623 -0.62446415 3 2 2624 2.77600000 2890907263 2890907263 -13.00000000
1.44315648 2.92643189 -0.63424909 4 4 2625 3.32400000 2890907267 2890907267 -11.00000000
1.81505752 3.67733598 -0.64951593 2 6 2627 4.15200000 2890907272 2890907272 -9.00000000
2.44073296 4.94061852 -0.67661858 2 8 2629 5.55200000 2890907277 2890907277 -7.00000000
3.68380070 7.45360422 -0.72740185 8 10 2630 8.34600000 2890907281 2890907281 -5.00000000
5.16009998 10.43608284 2.26299477 59 11 2631 11.86000000 2890907283 2890907283 11.00000000
3.94487166 7.97133064 2.05335331 59 13 2633 9.12800000 2890907288 2890907288 13.00000000
3.44491267 6.95801735 2.08038759 45 15 2634 8.03800000 2890907293 2890907293 15.00000000
1.01257718 2.03803706 -0.60977769 4 0 2642 2.35600000 2890907313 2890907313 -15.00000000
1.20609856 2.42541671 -0.62536395 3 2 2644 2.78000000 2890907318 2890907318 -13.00000000
1.44811606 2.91083002 -0.63195938 4 4 2645 3.31200000 2890907323 2890907323 -11.00000000
1.83316565 3.68158746 -0.65139312 2 6 2647 4.16400000 2890907327 2890907327 -9.00000000
2.46681857 4.94983578 -0.67905599 2 8 2649 5.57200000 2890907332 2890907332 -7.00000000
3.70179510 7.42465258 -0.72583300 8 10 2650 8.32800000 2890907336 2890907336 -5.00000000
5.20964193 10.44435978 2.26871896 62 11 2651 11.89000000 2890907339 2890907339 11.00000000
3.97180223 7.95576859 2.05290341 34 13 2653 9.12600000 2890907343 2890907343 13.00000000
3.46866488 6.94188833 2.07935214 42 15 2655 8.03400000 2890907348 2890907348 15.00000000
1.01724482 2.03139114 -0.60874242 4 0 2660 2.35200000 2890907369 2890907369 -15.00000000
1.22069764 2.43555307 -0.62896317 3 2 2662 2.79600000 2890907373 2890907373 -13.00000000
1.45901346 2.90977621 -0.63272262 4 4 2663 3.31600000 2890907378 2890907378 -11.00000000
1.84206450 3.67051387 -0.65045452 2 6 2665 4.15800000 2890907383 2890907383 -9.00000000
2.48324776 4.94383526 -0.67929971 4 8 2667 5.57400000 2890907387 2890907387 -7.00000000
3.72420740 7.41120577 -0.72565871 8 10 2668 8.32600000 2890907392 2890907392 -5.00000000
5.24242783 10.42794132 2.26871896 62 11 2669 11.89000000 2890907394 2890907394 11.00000000
4.55735874 9.05736065 2.34084058 55 13 2671 10.40600000 2890907399 2890907399 13.00000000
3.48664093 6.92638922 2.07779932 45 15 2672 8.02800000 2890907403 2890907403 15.00000000
1.02607155 2.03127646 -0.60977769 4 0 2680 2.35600000 2890907424 2890907424 -15.00000000
1.22215784 2.41736436 -0.62536395 3 2 2682 2.78000000 2890907429 2890907429 -13.00000000
1.47270608 2.91167331 -0.63424909 4 4 2683 3.32400000 2890907433 2890907433 -11.00000000
1.85308135 3.66053653 -0.64982879 2 6 2685 4.15400000 2890907438 2890907438 -9.00000000
2.50228405 4.93867874 -0.67978722 4 8 2687 5.57800000 2890907442 2890907442 -7.00000000
3.75726104 7.41237783 -0.72705323 8 10 2688 8.34200000 2890907447 2890907447 -5.00000000
5.28589964 10.42358589 2.27177191 62 11 2689 11.90600000 2890907449 2890907449 11.00000000
4.59335709 9.05008602 2.34309030 53 13 2691 10.41600000 2890907454 2890907454 13.00000000
3.51462865 6.91873074 2.07935214 42 15 2693 8.03400000 2890907459 2890907459 15.00000000
1.03490996 2.03112507 -0.61081296 4 0 2700 2.36000000 2890907479 2890907479 -15.00000000
1.22704732 2.40613937 -0.62356430 3 2 2702 2.77200000 2890907484 2890907484 -13.00000000
1.48999846 2.92050529 -0.63730204 4 4 2703 3.34000000 2890907489 2890907489 -11.00000000
1.86944103 3.66108298 -0.65108025 2 6 2705 4.16200000 2890907493 2890907493 -9.00000000
2.51499128 4.92107582 -0.67856848 4 8 2707 5.56800000 2890907498 2890907498 -7.00000000
3.77494931 7.38325167 -0.72548443 17 10 2708 8.32400000 2890907502 2890907502 -5.00000000
5.33298111 10.42604637 2.27635121 62 11 2709 11.93000000 2890907505 2890907505 11.00000000
4.62491941 9.03399658 2.34309030 57 13 2711 10.41600000 2890907509 2890907509 13.00000000
3.53755283 6.90703773 2.07935214 45 15 2712 8.03400000 2890907514 2890907514 15.00000000
1.04375970 2.03093672 -0.61184824 4 0 2720 2.36400000 2890907535 2890907535 -15.00000000
1.23900437 2.40877318 -0.62536395 3 2 2722 2.78000000 2890907539 2890907539 -13.00000000
1.48940408 2.89433813 -0.63272262 4 4 2723 3.31600000 2890907544 2890907544 -11.00000000
1.89034951 3.67034030 -0.65389609 2 6 2725 4.18000000 2890907548 2890907548 -9.00000000
2.53306317 4.91403151 -0.67881227 4 8 2727 5.57000000 2890907553 2890907553 -7.00000000
3.80617785 7.38065434 -0.72653025 13 10 2728 8.33600000 2890907558 2890907558 -5.00000000
5.38104439 10.43004894 2.28131247 65 11 2729 11.95600000 2890907560 2890907560 11.00000000
4.65463781 9.01433468 2.34219027 57 13 2731 10.41200000 2890907565 2890907565 13.00000000
3.56518769 6.90151262 2.08142281 42 15 2732 8.04200000 2890907569 2890907569 15.00000000
1.05084252 2.02728081 -0.61184824 4 0 2740 2.36400000 2890907590 2890907590 -15.00000000
1.24740493 2.40443349 -0.62536395 3 2 2742 2.78000000 2890907595 2890907595 -13.00000000
1.50130689 2.89260674 -0.63348585 4 4 2743 3.32000000 2890907599 2890907599 -11.00000000
1.90132868 3.66021347 -0.65327030 4 6 2745 4.17600000 2890907604 2890907604 -9.00000000
2.54836965 4.90163708 -0.67832476 2 8 2747 5.56600000 2890907608 2890907608 -7.00000000
3.83099842 7.36555576 -0.72635597 8 10 2748 8.33400000 2890907613 2890907613 -5.00000000
5.43282509 10.44080830 2.28779984 65 11 2749 11.99000000 2890907615 2890907615 11.00000000
4.68967581 9.00494576 2.34399009 57 13 2751 10.42000000 2890907620 2890907620 13.00000000
3.58925676 6.88902617 2.08142281 42 15 2752 8.04200000 2890907624 2890907624 15.00000000
1.05254257 2.01332831 -0.60874242 4 0 2760 2.35200000 2890907645 2890907645 -15.00000000
1.25940418 2.40697122 -0.62716353 3 2 2762 2.78800000 2890907650 2890907650 -13.00000000
1.51685774 2.89778471 -0.63577557 4 4 2763 3.33200000 2890907654 2890907654 -11.00000000
1.91042674 3.64655519 -0.65201885 2 6 2765 4.16800000 2890907659 2890907659 -9.00000000
2.55901098 4.88040495 -0.67661858 4 8 2767 5.55200000 2890907664 2890907664 -7.00000000
3.86038780 7.35919571 -0.72705323 8 10 2768 8.34200000 2890907668 2890907668 -5.00000000
4.72108030 8.98852062 2.34399009 59 13 2771 10.42000000 2890907675 2890907675 13.00000000
3.60549331 6.85872459 2.07624626 45 15 2773 8.02200000 2890907680 2890907680 15.00000000
1.06281602 2.01666307 -0.61081296 4 0 2779 2.36000000 2890907701 2890907701 -15.00000000
1.26192415 2.39243984 -0.62446415 3 2 2781 2.77600000 2890907705 2890907705 -13.00000000
1.51912880 2.87884808 -0.63272262 4 4 2782 3.31600000 2890907710 2890907710 -11.00000000
1.91881871 3.63321304 -0.65076739 2 6 2784 4.16000000 2890907714 2890907714 -9.00000000
2.58538532 4.89119720 -0.67929971 2 8 2786 5.57400000 2890907719 2890907719 -7.00000000
3.89315295 7.36220551 -0.72862202 8 10 2787 8.36000000 2890907724 2890907724 -5.00000000
4.75268507 8.97626019 2.34488988 55 13 2790 10.42400000 2890907730 2890907730 13.00000000
3.62973547 6.85248518 2.07779932 45 15 2791 8.02800000 2890907735 2890907735 15.00000000
1.07710218 2.02658796 -0.61495405 4 0 2799 2.37600000 2890907756 2890907756 -15.00000000
1.26843727 2.38457942 -0.62356430 3 2 2801 2.77200000 2890907760 2890907760 -13.00000000
1.54023623 2.89432526 -0.63730204 4 4 2802 3.34000000 2890907765 2890907765 -11.00000000
1.93334651 3.62997985 -0.65139312 2 6 2804 4.16400000 2890907770 2890907770 -9.00000000
2.60617805 4.88914967 -0.68027467 4 8 2806 5.58200000 2890907774 2890907774 -7.00000000
3.91976571 7.35032892 -0.72879630 8 10 2807 8.36200000 2890907779 2890907779 -5.00000000
4.77848196 8.94930172 2.34219027 56 13 2810 10.41200000 2890907786 2890907786 13.00000000
3.65818429 6.84829330 2.08038759 42 15 2811 8.03800000 2890907790 2890907790 15.00000000
1.08452284 2.02262640 -0.61495405 4 0 2820 2.37600000 2890907811 2890907811 -15.00000000
1.28085458 2.38678265 -0.62536395 3 2 2822 2.78000000 2890907816 2890907816 -13.00000000
1.54340494 2.87482262 -0.63424909 4 4 2823 3.32400000 2890907820 2890907820 -11.00000000
1.94570303 3.62112951 -0.65108025 2 6 2825 4.16200000 2890907825 2890907825 -9.00000000
2.61561847 4.86383009 -0.67808104 4 8 2827 5.56400000 2890907829 2890907829 -7.00000000
3.94856763 7.33942223 -0.72914493 4 10 2828 8.36600000 2890907834 2890907834 -5.00000000
4.80940247 8.92829609 2.34129047 57 13 2831 10.40800000 2890907841 2890907841 13.00000000
3.68509293 6.83824062 2.08142281 42 15 2832 8.04200000 2890907846 2890907846 15.00000000
1.08606350 2.00863242 -0.61184824 4 0 2840 2.36400000 2890907866 2890907866 -15.00000000
1.28546834 2.37544155 -0.62356430 3 2 2842 2.77200000 2890907871 2890907871 -13.00000000
1.55343056 2.86941767 -0.63424909 2 4 2843 3.32400000 2890907876 2890907876 -11.00000000
1.96115446 3.61952615 -0.65201885 2 6 2845 4.16800000 2890907880 2890907880 -9.00000000
2.63825822 4.86514044 -0.67954344 4 8 2847 5.57600000 2890907885 2890907885 -7.00000000
3.97036266 7.31858921 -0.72844768 4 10 2848 8.35800000 2890907889 2890907889 -5.00000000
4.84053850 8.91145420 2.34129047 57 13 2851 10.40800000 2890907896 2890907896 13.00000000
3.70551801 6.81620169 2.07883453 45 15 2853 8.03200000 2890907901 2890907901 15.00000000
1.08936918 1.99804449 -0.60977769 4 0 2860 2.35600000 2890907922 2890907922 -15.00000000
1.30121982 2.38462520 -0.62716353 3 2 2862 2.78800000 2890907926 2890907926 -13.00000000
1.56908143 2.87431693 -0.63653880 2 4 2863 3.33600000 2890907931 2890907931 -11.00000000
1.97472405 3.61439180 -0.65233171 2 6 2865 4.17000000 2890907935 2890907935 -9.00000000
2.66379595 4.87157679 -0.68173712 4 8 2867 5.59400000 2890907940 2890907940 -7.00000000
3.98345470 7.28196239 -0.72618163 4 10 2868 8.33200000 2890907945 2890907945 -5.00000000
4.87255192 8.89621162 2.34174037 54 13 2871 10.41000000 2890907952 2890907952 13.00000000
3.72717261 6.80218220 2.07831693 40 15 2872 8.03000000 2890907956 2890907956 15.00000000
1.09633708 1.99422967 -0.60977769 4 0 2880 2.35600000 2890907977 2890907977 -15.00000000
1.30577815 2.37323904 -0.62536395 3 2 2882 2.78000000 2890907981 2890907981 -13.00000000
1.57531822 2.86194277 -0.63501233 2 4 2883 3.32800000 2890907986 2890907986 -11.00000000
1.98446918 3.60228610 -0.65139312 2 6 2885 4.16400000 2890907991 2890907991 -9.00000000
2.67982626 4.86051035 -0.68149334 6 8 2887 5.59200000 2890907995 2890907995 -7.00000000
4.02039671 7.28894806 -0.72827339 4 10 2888 8.35600000 2890908000 2890908000 -5.00000000
4.90828657 8.88767910 2.34399009 56 13 2891 10.42000000 2890908007 2890908007 13.00000000
3.75276256 6.79251242 2.07935214 40 15 2892 8.03400000 2890908011 2890908011 15.00000000
1.10856187 2.00072193 -0.61288351 4 0 2899 2.36800000 2890908032 2890908032 -15.00000000
1.31175077 2.36548734 -0.62446415 3 2 2901 2.77600000 2890908037 2890908037 -13.00000000
1.59432423 2.87387061 -0.63882852 2 4 2902 3.34800000 2890908041 2890908041 -11.00000000
2.00023937 3.60259366 -0.65264457 2 6 2904 4.17200000 2890908046 2890908046 -9.00000000
2.69207287 4.84465647 -0.68051839 6 8 2906 5.58400000 2890908051 2890908051 -7.00000000
4.05519390 7.29473162 -0.73019081 4 10 2907 8.37800000 2890908055 2890908055 -5.00000000
4.93583632 8.86794758 2.34309030 56 13 2910 10.41600000 2890908062 2890908062 13.00000000
3.77456975 6.77599621 2.07831693 42 15 2912 8.03000000 2890908067 2890908067 15.00000000
1.11553895 1.99684024 -0.61288351 4 0 2919 2.36800000 2890908087 2890908087 -15.00000000
1.31809795 2.35749221 -0.62356430 3 2 2921 2.77200000 2890908092 2890908092 -13.00000000
1.59667897 2.85458040 -0.63577557 2 4 2922 3.33200000 2890908097 2890908097 -11.00000000
2.00315356 3.57835293 -0.64951593 2 6 2924 4.15200000 2890908101 2890908101 -9.00000000
2.71090794 4.83869314 -0.68100590 6 8 2926 5.58800000 2890908106 2890908106 -7.00000000
4.08550358 7.28922176 -0.73106235 4 10 2927 8.38800000 2890908111 2890908111 -5.00000000
4.96103954 8.84046841 2.34039068 56 13 2930 10.40400000 2890908117 2890908117 13.00000000
3.80198336 6.76951647 2.08038759 42 15 2932 8.03800000 2890908122 2890908122 15.00000000
1.11871016 1.98620117 -0.61081296 4 0 2939 2.36000000 2890908143 2890908143 -15.00000000
1.33014679 2.35966730 -0.62536395 3 2 2941 2.78000000 2890908147 2890908147 -13.00000000
1.60084748 2.83872914 -0.63348585 2 4 2942 3.32000000 2890908152 2890908152 -11.00000000
2.02631235 3.59026194 -0.65295744 2 6 2944 4.17400000 2890908157 2890908157 -9.00000000
2.72778153 4.82920122 -0.68100590 6 8 2946 5.58800000 2890908161 2890908161 -7.00000000
4.09719992 7.25063181 -0.72862202 4 10 2947 8.36000000 2890908166 2890908166 -5.00000000
4.99762583 8.83327389 2.34309030 57 13 2950 10.41600000 2890908173 2890908173 13.00000000
3.82273459 6.75116062 2.07883453 40 15 2952 8.03200000 2890908177 2890908177 15.00000000
1.11991286 1.97220469 -0.60770714 4 0 2959 2.34800000 2890908198 2890908198 -15.00000000
1.34415269 2.36517525 -0.62806332 3 2 2961 2.79200000 2890908203 2890908203 -13.00000000
1.61462796 2.83995056 -0.63501233 2 4 2962 3.32800000 2890908207 2890908207 -11.00000000
2.03590155 3.57801628 -0.65201885 2 6 2964 4.16800000 2890908212 2890908212 -9.00000000
2.74658680 4.82310009 -0.68149334 6 8 2966 5.59200000 2890908217 2890908217 -7.00000000
4.12051201 7.23282337 -0.72827339 8 10 2967 8.35600000 2890908221 2890908221 -5.00000000
5.02456713 8.80900383 2.34129047 56 13 2970 10.40800000 2890908228 2890908228 13.00000000
3.83957291 6.72603178 2.07521105 42 15 2972 8.01800000 2890908233 2890908233 15.00000000
1.13220382 1.97854042 -0.61081296 4 0 2978 2.36000000 2890908253 2890908253 -15.00000000
1.34617758 2.35055852 -0.62536395 3 2 2980 2.78000000 2890908258 2890908258 -13.00000000
1.62598872 2.83798766 -0.63577557 4 4 2981 3.33200000 2890908263 2890908263 -11.00000000
2.05070329 3.57638621 -0.65295744 2 6 2983 4.17400000 2890908267 2890908267 -9.00000000
2.76552963 4.81913042 -0.68222457 6 8 2985 5.59800000 2890908272 2890908272 -7.00000000
4.15141821 7.23121500 -0.72949356 8 10 2986 8.37000000 2890908276 2890908276 -5.00000000
5.05763578 8.79905128 2.34309030 55 13 2989 10.41600000 2890908283 2890908283 13.00000000
3.86261058 6.71728563 2.07624626 42 15 2990 8.02200000 2890908288 2890908288 15.00000000
1.14103401 1.97792292 -0.61184824 4 0 2998 2.36400000 2890908309 2890908309 -15.00000000
1.35437441 2.34584522 -0.62536395 3 2 3000 2.78000000 2890908313 2890908313 -13.00000000
1.63195753 2.82549429 -0.63424909 2 4 3001 3.32400000 2890908318 2890908318 -11.00000000
2.05922031 3.56236529 -0.65170598 2 6 3003 4.16600000 2890908322 2890908322 -9.00000000
2.77935266 4.80429268 -0.68149334 6 8 3005 5.59200000 2890908327 2890908327 -7.00000000
4.17264223 7.20978212 -0.72879630 4 10 3006 8.36200000 2890908332 2890908332 -5.00000000
5.08441114 8.77459908 2.34129047 55 13 3009 10.40800000 2890908339 2890908339 13.00000000
3.88623548 6.70141220 2.07572865 40 15 3011 8.02000000 2890908343 2890908343 15.00000000
1.14987361 1.97726798 -0.61288351 4 0 3018 2.36800000 2890908364 2890908364 -15.00000000
1.36059415 2.33773494 -0.62446415 3 2 3020 2.77600000 2890908369 2890908369 -13.00000000
1.64971328 2.83335352 -0.63730204 2 4 3021 3.34000000 2890908373 2890908373 -11.00000000
2.07860470 3.56710291 -0.65389609 2 6 3023 4.18000000 2890908378 2890908378 -9.00000000
2.79610586 4.79456186 -0.68149334 6 8 3025 5.59200000 2890908382 2890908382 -7.00000000
4.19979191 7.19861460 -0.72914493 8 10 3026 8.36600000 2890908387 2890908387 -5.00000000
5.11500931 8.75679779 2.34129047 57 13 3029 10.40800000 2890908394 2890908394 13.00000000
3.91038609 6.69182396 2.07676411 40 15 3030 8.02400000 2890908399 2890908399 15.00000000
1.15481460 1.96990895 -0.61184824 4 0 3038 2.36400000 2890908419 2890908419 -15.00000000
1.37071836 2.33633280 -0.62536395 3 2 3040 2.78000000 2890908424 2890908424 -13.00000000
1.65561831 2.82080507 -0.63577557 2 4 3041 3.33200000 2890908428 2890908428 -11.00000000
2.09204388 3.56152868 -0.65420896 4 6 3043 4.18200000 2890908433 2890908433 -9.00000000
2.81081295 4.78134966 -0.68100590 6 8 3045 5.58800000 2890908438 2890908438 -7.00000000
4.22489405 7.18391085 -0.72914493 8 10 3046 8.36600000 2890908442 2890908442 -5.00000000
5.14554501 8.73888969 2.34129047 56 13 3049 10.40800000 2890908449 2890908449 13.00000000
3.93292499 6.67411804 2.07572865 40 15 3051 8.02000000 2890908454 2890908454 15.00000000
1.15706861 1.95961714 -0.60977769 4 0 3056 2.35600000 2890908475 2890908475 -15.00000000
1.38003421 2.33537054 -0.62626374 3 2 3058 2.78400000 2890908479 2890908479 -13.00000000
1.66846836 2.82235003 -0.63730204 2 4 3059 3.34000000 2890908484 2890908484 -11.00000000
2.10020494 3.54983854 -0.65327030 2 6 3061 4.17600000 2890908488 2890908488 -9.00000000
2.82986569 4.77932835 -0.68198085 6 8 3063 5.59600000 2890908493 2890908493 -7.00000000
4.25048828 7.17574501 -0.72966790 8 10 3064 8.37200000 2890908498 2890908498 -5.00000000
5.17197943 8.72100544 2.34084058 54 13 3067 10.40600000 2890908505 2890908505 13.00000000
1.16192579 1.95224619 -0.60874242 4 0 3076 2.35200000 2890908530 2890908530 -15.00000000
1.38618326 2.32719064 -0.62536395 3 2 3078 2.78000000 2890908534 2890908534 -13.00000000
1.67228019 2.80638957 -0.63501233 2 4 3079 3.32800000 2890908539 2890908539 -11.00000000
2.11258340 3.54248571 -0.65327030 2 6 3081 4.17600000 2890908544 2890908544 -9.00000000
2.85467005 4.78305769 -0.68393075 6 8 3083 5.61200000 2890908548 2890908548 -7.00000000
4.27448893 7.15915394 -0.72949356 8 10 3084 8.37000000 2890908553 2890908553 -5.00000000
5.20738935 8.71126175 2.34309030 56 13 3087 10.41600000 2890908560 2890908560 13.00000000
4.51267242 7.54311371 2.35525322 33 15 3089 9.10000000 2890908564 2890908564 15.00000000
1.17304981 1.95460010 -0.61081296 4 0 3097 2.36000000 2890908585 2890908585 -15.00000000
1.38868320 2.31207085 -0.62266451 3 2 3099 2.76800000 2890908590 2890908590 -13.00000000
1.69468868 2.82043552 -0.63959175 2 4 3100 3.35200000 2890908594 2890908594 -11.00000000
2.12758899 3.53810477 -0.65389609 2 6 3102 4.18000000 2890908599 2890908599 -9.00000000
2.86604023 4.76235771 -0.68246830 6 8 3104 5.60000000 2890908604 2890908604 -7.00000000
4.30789375 7.15538740 -0.73071373 8 10 3105 8.38400000 2890908608 2890908608 -5.00000000
5.23324680 8.68210316 2.34039068 55 13 3108 10.40400000 2890908615 2890908615 13.00000000
4.54396343 7.53558779 2.35784149 40 15 3109 9.11000000 2890908620 2890908620 15.00000000
1.18786454 1.96371722 -0.61495405 4 0 3117 2.37600000 2890908640 2890908640 -15.00000000
1.40481901 2.32054591 -0.62626374 3 2 3119 2.78400000 2890908645 2890908645 -13.00000000
1.70045543 2.80778551 -0.63806528 2 4 3120 3.34400000 2890908650 2890908650 -11.00000000
2.13787866 3.52727795 -0.65327030 2 6 3122 4.17600000 2890908654 2890908654 -9.00000000
2.88264656 4.75232410 -0.68246830 9 8 3124 5.60000000 2890908659 2890908659 -7.00000000
4.33904600 7.15052605 -0.73175961 8 10 3125 8.39600000 2890908663 2890908663 -5.00000000
5.26149750 8.66045189 2.33949089 57 13 3128 10.40000000 2890908670 2890908670 13.00000000
4.56854153 7.51393032 2.35628867 40 15 3130 9.10400000 2890908675 2890908675 15.00000000
1.18833780 1.94986951 -0.61184824 4 0 3136 2.36400000 2890908696 2890908696 -15.00000000
1.41352129 2.31753826 -0.62671363 3 2 3138 2.78600000 2890908700 2890908700 -13.00000000
1.70157635 2.78872395 -0.63501233 2 4 3139 3.32800000 2890908705 2890908705 -11.00000000
2.15162277 3.52354074 -0.65389609 2 6 3141 4.18000000 2890908710 2890908710 -9.00000000
2.89942503 4.74443293 -0.68271208 9 8 3143 5.60200000 2890908714 2890908714 -7.00000000
4.37104797 7.14969730 -0.73315412 8 10 3144 8.41200000 2890908719 2890908719 -5.00000000
5.28815317 8.63963223 2.33859110 57 13 3147 10.39600000 2890908726 2890908726 13.00000000
4.58808899 7.49295092 2.35421801 40 15 3148 9.09600000 2890908730 2890908730 15.00000000
1.19311464 1.94241738 -0.61081296 4 0 3156 2.36000000 2890908751 2890908751 -15.00000000
1.42466390 2.31757045 -0.62806332 3 2 3158 2.79200000 2890908756 2890908756 -13.00000000
1.71747100 2.79280138 -0.63730204 2 4 3159 3.34000000 2890908760 2890908760 -11.00000000
2.16597986 3.51937342 -0.65452182 2 6 3161 4.18400000 2890908765 2890908765 -9.00000000
2.91909170 4.73935366 -0.68344325 9 8 3163 5.60800000 2890908769 2890908769 -7.00000000
4.39388800 7.13100338 -0.73280549 8 10 3164 8.40800000 2890908774 2890908774 -5.00000000
5.32032490 8.62443733 2.33949089 55 13 3167 10.40000000 2890908781 2890908781 13.00000000
4.61450672 7.47444057 2.35370040 42 15 3169 9.09400000 2890908786 2890908786 15.00000000
1.20022595 1.93803132 -0.61081296 4 0 3177 2.36000000 2890908806 2890908806 -15.00000000
1.42698908 2.30239487 -0.62536395 3 2 3179 2.78000000 2890908811 2890908811 -13.00000000
1.72562647 2.78315067 -0.63653880 2 4 3180 3.33600000 2890908816 2890908816 -11.00000000
2.17261529 3.50134015 -0.65264457 2 6 3182 4.17200000 2890908820 2890908820 -9.00000000
2.93853712 4.73199558 -0.68393075 6 8 3184 5.61200000 2890908825 2890908825 -7.00000000
4.40317297 7.08777237 -0.73001653 4 10 3185 8.37600000 2890908829 2890908829 -5.00000000
5.35498714 8.60984421 2.34084058 53 13 3188 10.40600000 2890908836 2890908836 13.00000000
4.64158964 7.45992756 2.35421801 40 15 3189 9.09600000 2890908841 2890908841 15.00000000
1.21107507 1.94038522 -0.61288351 4 0 3197 2.36800000 2890908862 2890908862 -15.00000000
1.43914676 2.30401087 -0.62716353 3 2 3199 2.78800000 2890908866 2890908866 -13.00000000
1.74365389 2.79042959 -0.63959175 2 4 3200 3.35200000 2890908871 2890908871 -11.00000000
2.18482399 3.49373484 -0.65264457 2 6 3202 4.17200000 2890908875 2890908875 -9.00000000
2.94871831 4.71161318 -0.68246830 6 8 3204 5.60000000 2890908880 2890908880 -7.00000000
4.45220423 7.11119986 -0.73402566 4 10 3205 8.42200000 2890908885 2890908885 -5.00000000
5.37776327 8.57954121 2.33769131 56 13 3208 10.39200000 2890908892 2890908892 13.00000000
4.67068052 7.44858980 2.35577106 40 15 3209 9.10200000 2890908896 2890908896 15.00000000
1.21989810 1.93941653 -0.61391878 4 0 3217 2.37200000 2890908917 2890908917 -15.00000000
1.44302785 2.29237652 -0.62536395 3 2 3219 2.78000000 2890908922 2890908922 -13.00000000
1.75129139 2.78100348 -0.63882852 2 4 3220 3.34800000 2890908926 2890908926 -11.00000000
2.20332527 3.49611425 -0.65452182 2 6 3222 4.18400000 2890908931 2890908931 -9.00000000
2.97150087 4.71136570 -0.68393075 6 8 3224 5.61200000 2890908935 2890908935 -7.00000000
4.47274733 7.08887577 -0.73332840 4 10 3225 8.41400000 2890908940 2890908940 -5.00000000
5.40247536 8.55247879 2.33544183 54 13 3228 10.38200000 2890908947 2890908947 13.00000000
4.70078039 7.43877316 2.35784149 42 15 3229 9.11000000 2890908951 2890908951 15.00000000
1.22045469 1.92535651 -0.61081296 4 0 3237 2.36000000 2890908972 2890908972 -15.00000000
1.45728433 2.29719877 -0.62806332 3 2 3239 2.79200000 2890908977 2890908977 -13.00000000
1.75257254 2.76161242 -0.63577557 2 4 3240 3.33200000 2890908981 2890908981 -11.00000000
2.21869278 3.49340439 -0.65546042 2 6 3242 4.19000000 2890908986 2890908986 -9.00000000
2.98260427 4.69258785 -0.68271208 4 8 3244 5.60200000 2890908991 2890908991 -7.00000000
4.51350069 7.09843922 -0.73594308 4 10 3245 8.44400000 2890908995 2890908995 -5.00000000
5.43334246 8.53521252 2.33589172 57 13 3248 10.38400000 2890909002 2890909002 13.00000000
4.72593737 7.41823530 2.35680628 42 15 3250 9.10600000 2890909007 2890909007 15.00000000
1.22441864 1.91825604 -0.60977769 4 0 3255 2.35600000 2890909028 2890909028 -15.00000000
1.46659219 2.29589391 -0.62896317 3 2 3257 2.79600000 2890909032 2890909032 -13.00000000
1.75912535 2.75278425 -0.63501233 2 4 3258 3.32800000 2890909037 2890909037 -11.00000000
2.23497796 3.49473763 -0.65702474 2 6 3260 4.20000000 2890909041 2890909041 -9.00000000
2.99947190 4.68653870 -0.68319952 4 8 3262 5.60600000 2890909046 2890909046 -7.00000000
4.51858950 7.05737734 -0.73315412 4 10 3263 8.41200000 2890909051 2890909051 -5.00000000
5.46223307 8.52138233 2.33679152 57 13 3266 10.38800000 2890909057 2890909057 13.00000000
4.40275574 6.86590195 2.18546796 20 15 3267 8.44400000 2890909062 2890909062 15.00000000
1.23319721 1.91721988 -0.61081296 4 0 3275 2.36000000 2890909083 2890909083 -15.00000000
1.46826863 2.28092885 -0.62626374 3 2 3277 2.78400000 2890909087 2890909087 -13.00000000
1.76872373 2.74662709 -0.63501233 2 4 3278 3.32800000 2890909092 2890909092 -11.00000000
2.23753262 3.47197104 -0.65420896 2 6 3280 4.18200000 2890909097 2890909097 -9.00000000
3.02549601 4.69105387 -0.68539321 6 8 3282 5.62400000 2890909101 2890909101 -7.00000000
4.53239536 7.02481985 -0.73141098 4 10 3283 8.39200000 2890909106 2890909106 -5.00000000
5.49194479 8.50226402 2.33679152 56 13 3286 10.38800000 2890909113 2890909113 13.00000000
4.77164602 7.38431692 2.35577106 45 15 3287 9.10200000 2890909117 2890909117 15.00000000
1.24408507 1.91938794 -0.61288351 4 0 3295 2.36800000 2890909139 2890909139 -15.00000000
1.47410059 2.27252007 -0.62536395 3 2 3297 2.78000000 2890909144 2890909144 -13.00000000
1.78898728 2.75690532 -0.63882852 2 4 3298 3.34800000 2890909148 2890909148 -11.00000000
2.25286603 3.46910954 -0.65514755 2 6 3300 4.18800000 2890909153 2890909153 -9.00000000
3.03536201 4.67047739 -0.68393075 6 8 3302 5.61200000 2890909157 2890909157 -7.00000000
4.56992102 7.02900076 -0.73350275 4 10 3303 8.41600000 2890909162 2890909162 -5.00000000
5.51521158 8.47324181 2.33409214 59 13 3306 10.37600000 2890909169 2890909169 13.00000000
4.79739332 7.36761618 2.35577106 40 15 3307 9.10200000 2890909174 2890909174 15.00000000
1.24972105 1.91341615 -0.61236584 4 0 3315 2.36600000 2890909194 2890909194 -15.00000000
1.48202419 2.26736069 -0.62536395 3 2 3317 2.78000000 2890909199 2890909199 -13.00000000
1.79859984 2.75064373 -0.63882852 2 4 3318 3.34800000 2890909204 2890909204 -11.00000000
2.27253318 3.47279477 -0.65733761 2 6 3320 4.20200000 2890909208 2890909208 -9.00000000
3.04947138 4.65653229 -0.68344325 9 8 3322 5.60800000 2890909213 2890909213 -7.00000000
4.58351040 6.99634027 -0.73175961 4 10 3323 8.39600000 2890909217 2890909217 -5.00000000
5.54475498 8.45393848 2.33409214 59 13 3326 10.37600000 2890909224 2890909224 13.00000000
4.82860518 7.35644341 2.35784149 42 15 3328 9.11000000 2890909229 2890909229 15.00000000
1.25247633 1.90236866 -0.61029530 4 0 3336 2.35800000 2890909250 2890909250 -15.00000000
1.49461329 2.26842260 -0.62716353 3 2 3338 2.78800000 2890909254 2890909254 -13.00000000
1.80218661 2.73419785 -0.63653880 2 4 3339 3.33600000 2890909259 2890909259 -11.00000000
2.27654481 3.45125055 -0.65483469 2 6 3341 4.18600000 2890909263 2890909263 -9.00000000
3.07089233 4.65195084 -0.68441826 6 8 3343 5.61600000 2890909268 2890909268 -7.00000000
4.61571026 6.98946905 -0.73280549 4 10 3344 8.40800000 2890909273 2890909273 -5.00000000
5.57892752 8.43843651 2.33544183 53 13 3347 10.38200000 2890909280 2890909280 13.00000000
4.84786034 7.32987547 2.35473561 42 15 3348 9.09800000 2890909284 2890909284 15.00000000
1.25697339 1.89476550 -0.60926002 4 0 3356 2.35400000 2890909305 2890909305 -15.00000000
1.50467813 2.26643872 -0.62806332 3 2 3358 2.79200000 2890909309 2890909309 -13.00000000
1.81389213 2.73116112 -0.63730204 2 4 3359 3.34000000 2890909314 2890909314 -11.00000000
2.28529787 3.43834758 -0.65389609 2 6 3361 4.18000000 2890909319 2890909319 -9.00000000
3.09150958 4.64781475 -0.68539321 6 8 3363 5.62400000 2890909323 2890909323 -7.00000000
4.64890957 6.98658466 -0.73420000 4 10 3364 8.42400000 2890909328 2890909328 -5.00000000
5.61375093 8.42702007 2.33769131 55 13 3367 10.39200000 2890909335 2890909335 13.00000000
4.87127399 7.30969334 2.35370040 40 15 3368 9.09400000 2890909339 2890909339 15.00000000
1.26572680 1.89357841 -0.61029530 4 0 3376 2.35800000 2890909360 2890909360 -15.00000000
1.50824630 2.25469351 -0.62626374 3 2 3378 2.78400000 2890909365 2890909365 -13.00000000
1.82559836 2.72807622 -0.63806528 4 4 3379 3.34400000 2890909369 2890909369 -11.00000000
2.31267452 3.45332789 -0.65827620 2 6 3381 4.20800000 2890909374 2890909374 -9.00000000
3.10439920 4.63204765 -0.68466198 6 8 3383 5.61800000 2890909379 2890909379 -7.00000000
4.66439295 6.95707560 -0.73280549 4 10 3384 8.40800000 2890909383 2890909383 -5.00000000
5.64530468 8.41060925 2.33859110 55 13 3387 10.39600000 2890909390 2890909390 13.00000000
4.89587831 7.28858328 2.35266519 42 15 3389 9.09000000 2890909395 2890909395 15.00000000
1.27664554 1.89555800 -0.61236584 4 0 3396 2.36600000 2890909415 2890909415 -15.00000000
1.52046406 2.25587893 -0.62806332 3 2 3398 2.79200000 2890909420 2890909420 -13.00000000
1.83730507 2.72494268 -0.63882852 2 4 3399 3.34800000 2890909425 2890909425 -11.00000000
2.32913423 3.45178390 -0.65952772 2 6 3401 4.21600000 2890909429 2890909429 -9.00000000
3.12610364 4.62940884 -0.68588066 6 8 3403 5.62800000 2890909434 2890909434 -7.00000000
4.69534111 6.95065737 -0.73385137 4 10 3404 8.42000000 2890909439 2890909439 -5.00000000
5.66807842 8.38116646 2.33589172 57 13 3407 10.38400000 2890909445 2890909445 13.00000000
4.92453861 7.27624846 2.35421801 40 15 3409 9.09600000 2890909450 2890909450 15.00000000
1.28834677 1.89930785 -0.61495405 4 0 3415 2.37600000 2890909471 2890909471 -15.00000000
1.51918042 2.23792577 -0.62446415 3 2 3417 2.77600000 2890909475 2890909475 -13.00000000
1.83530176 2.70259333 -0.63501233 4 4 3418 3.32800000 2890909480 2890909480 -11.00000000
2.32724404 3.42443585 -0.65577328 2 6 3420 4.19200000 2890909485 2890909485 -9.00000000
3.14143825 4.61901712 -0.68588066 6 8 3422 5.62800000 2890909489 2890909489 -7.00000000
4.71724367 6.93340158 -0.73367703 4 10 3423 8.41800000 2890909494 2890909494 -5.00000000
5.69145203 8.35588169 2.33409214 59 13 3426 10.37600000 2890909501 2890909501 13.00000000
4.95190477 7.26466703 2.35577106 42 15 3428 9.10200000 2890909505 2890909505 15.00000000
1.28842843 1.88522935 -0.61184824 4 0 3435 2.36400000 2890909526 2890909526 -15.00000000
1.53798425 2.24869418 -0.62896317 3 2 3437 2.79600000 2890909531 2890909531 -13.00000000
1.84694159 2.69941115 -0.63577557 4 4 3438 3.33200000 2890909535 2890909535 -11.00000000
2.33471942 3.40977168 -0.65452182 2 6 3440 4.18400000 2890909540 2890909540 -9.00000000
3.15081000 4.59819794 -0.68441826 6 8 3442 5.61600000 2890909545 2890909545 -7.00000000
4.73803759 6.91196299 -0.73315412 4 10 3443 8.41200000 2890909549 2890909549 -5.00000000
5.72279024 8.33917809 2.33499193 55 13 3446 10.38000000 2890909556 2890909556 13.00000000
4.97285843 7.24096727 2.35370040 45 15 3448 9.09400000 2890909561 2890909561 15.00000000
1.28952324 1.87276483 -0.60926002 4 0 3455 2.35400000 2890909581 2890909581 -15.00000000
1.54803574 2.24652123 -0.62986296 3 2 3457 2.80000000 2890909586 2890909586 -13.00000000
1.85635304 2.69294763 -0.63577557 4 4 3458 3.33200000 2890909591 2890909591 -11.00000000
2.35221601 3.40973115 -0.65608615 2 6 3460 4.19400000 2890909595 2890909595 -9.00000000
3.17811942 4.60350752 -0.68685561 6 8 3462 5.63600000 2890909600 2890909600 -7.00000000
4.76553249 6.90030003 -0.73367703 8 10 3463 8.41800000 2890909604 2890909604 -5.00000000
5.75851393 8.32876778 2.33769131 59 13 3466 10.39200000 2890909611 2890909611 13.00000000
4.99354601 7.21967030 2.35214758 40 15 3467 9.08800000 2890909616 2890909616 15.00000000
1.30045724 1.87460124 -0.61133057 4 0 3475 2.36200000 2890909637 2890909637 -15.00000000
1.54697752 2.22829771 -0.62626374 3 2 3477 2.78400000 2890909641 2890909641 -13.00000000
1.87470102 2.69935131 -0.63882852 2 4 3478 3.34800000 2890909646 2890909646 -11.00000000
2.36523128 3.40312171 -0.65639901 2 6 3480 4.19600000 2890909650 2890909650 -9.00000000
3.20097017 4.60216379 -0.68831807 6 8 3482 5.64800000 2890909655 2890909655 -7.00000000
4.79072809 6.88525867 -0.73385137 8 10 3483 8.42000000 2890909660 2890909660 -5.00000000
5.78977966 8.31181431 2.33859110 56 13 3486 10.39600000 2890909667 2890909667 13.00000000
5.02549791 7.20924377 2.35473561 40 15 3488 9.09800000 2890909671 2890909671 15.00000000
1.31109202 1.87661302 -0.61340111 4 0 3494 2.37000000 2890909692 2890909692 -15.00000000
1.55212498 2.21996117 -0.62536395 3 2 3496 2.78000000 2890909697 2890909697 -13.00000000
1.88814306 2.69955492 -0.64035499 4 4 3497 3.35600000 2890909701 2890909701 -11.00000000
2.36517596 3.37907624 -0.65327030 2 6 3499 4.17600000 2890909706 2890909706 -9.00000000
3.20482516 4.57526493 -0.68588066 6 8 3501 5.62800000 2890909710 2890909710 -7.00000000
4.82039404 6.87912416 -0.73489720 8 10 3502 8.43200000 2890909715 2890909715 -5.00000000
5.81059599 8.28299713 2.33589172 57 13 3505 10.38400000 2890909722 2890909722 13.00000000
5.05256033 7.19974518 2.35680628 42 15 3506 9.10600000 2890909727 2890909727 15.00000000
1.32208240 1.87834418 -0.61547166 4 0 3514 2.37800000 2890909747 2890909747 -15.00000000
1.55986464 2.21452975 -0.62536395 3 2 3516 2.78000000 2890909752 2890909752 -13.00000000
1.89529312 2.68973804 -0.63959175 2 4 3517 3.35200000 2890909756 2890909756 -11.00000000
2.38834047 3.38694334 -0.65639901 2 6 3519 4.19600000 2890909761 2890909761 -9.00000000
3.23679996 4.58675671 -0.68929303 9 8 3521 5.65600000 2890909766 2890909766 -7.00000000
4.84897375 6.86876678 -0.73559445 13 10 3522 8.44000000 2890909770 2890909770 -5.00000000
5.83497477 8.25629807 2.33409214 56 13 3525 10.37600000 2890909777 2890909777 13.00000000
5.08337688 7.18748760 2.35887671 45 15 3527 9.11400000 2890909782 2890909782 15.00000000
1.32639611 1.87056601 -0.61443639 4 0 3534 2.37400000 2890909803 2890909803 -15.00000000
1.57209635 2.21542835 -0.62716353 4 2 3536 2.78800000 2890909807 2890909807 -13.00000000
1.89557898 2.67029858 -0.63653880 2 4 3537 3.33600000 2890909812 2890909812 -11.00000000
2.41387677 3.39791059 -0.66015345 2 6 3539 4.22000000 2890909816 2890909816 -9.00000000
3.27694535 4.60940599 -0.69441152 9 8 3541 5.69800000 2890909821 2890909821 -7.00000000
4.86830139 6.84530401 -0.73489720 13 10 3542 8.43200000 2890909826 2890909826 -5.00000000
5.86827993 8.24223042 2.33589172 59 13 3545 10.38400000 2890909833 2890909833 13.00000000
5.10157967 7.16272306 2.35628867 40 15 3546 9.10400000 2890909837 2890909837 15.00000000
