# .PCD v0.7 - Point Cloud Data file format
VERSION 0.7
FIELDS x y z intensity laser_id azimuth distance_m adjustedtime timestamp vertical_angle
SIZE 4 4 4 1 1 2 8 8 4 8
TYPE F F F U U U F U U F
COUNT 1 1 1 1 1 1 1 1 1 1
WIDTH 534
HEIGHT 1
VIEWPOINT 0 0 0 1 0 0 0
POINTS 534
DATA ascii
1.54705584 8.72923756 2.37544131 42 15 1005 9.17800000 2432103849 2432103849 15.00000000
0.39574656 2.21946478 -0.60408366 4 0 1011 2.33400000 2432103869 2432103869 -15.00000000
0.47265041 2.64542079 -0.62041503 3 2 1013 2.75800000 2432103874 2432103874 -13.00000000
0.56477374 3.15785098 -0.62356383 2 4 1014 3.26800000 2432103879 2432103879 -11.00000000
0.71920431 4.01324320 -0.64576149 2 6 1016 4.12800000 2432103883 2432103883 -9.00000000
1.44058371 8.01445389 -0.71241105 4 10 1019 8.17400000 2432103892 2432103892 -5.00000000
1.89336932 10.52290440 2.07829165 56 11 1020 10.89200000 2432103895 2432103895 11.00000000
1.81905186 10.08965588 2.36693501 56 13 1022 10.52200000 2432103899 2432103899 13.00000000
1.57309937 8.71672916 2.37337065 45 15 1023 9.17000000 2432103904 2432103904 15.00000000
0.40487453 2.22567248 -0.60615420 4 0 1031 2.34200000 2432103925 2432103925 -15.00000000
0.48048401 2.63608623 -0.61861539 3 2 1033 2.75000000 2432103929 2432103929 -13.00000000
0.58002186 3.17903686 -0.62814319 2 4 1034 3.29200000 2432103934 2432103934 -11.00000000
0.73818207 4.03791285 -0.65014166 2 6 1036 4.15600000 2432103938 2432103938 -9.00000000
0.98644173 5.38528490 -0.67223132 2 8 1038 5.51600000 2432103943 2432103943 -7.00000000
1.46855068 8.00937653 -0.71241105 4 10 1039 8.17400000 2432103948 2432103948 -5.00000000
1.93115282 10.52202415 2.07943654 59 11 1040 10.89800000 2432103950 2432103950 11.00000000
1.85637498 10.09474468 2.36963439 57 13 1042 10.53400000 2432103955 2432103955 13.00000000
1.60258687 8.69760609 2.36974716 45 15 1044 9.15600000 2432103959 2432103959 15.00000000
0.41084468 2.21671963 -0.60408366 4 0 1050 2.33400000 2432103980 2432103980 -15.00000000
0.49135774 2.64597416 -0.62131482 3 2 1052 2.76200000 2432103985 2432103985 -13.00000000
0.58984315 3.17323542 -0.62737995 2 4 1053 3.28800000 2432103989 2432103989 -11.00000000
0.73565435 3.94999528 -0.63637543 2 6 1055 4.06800000 2432103994 2432103994 -9.00000000
1.00138140 5.36637306 -0.67028141 2 8 1057 5.50000000 2432103998 2432103998 -7.00000000
1.49217606 7.98879385 -0.71101654 4 10 1058 8.15800000 2432104003 2432104003 -5.00000000
1.96423054 10.50591373 2.07752824 59 11 1059 10.88800000 2432104005 2432104005 11.00000000
1.89127529 10.09619427 2.37143397 57 13 1061 10.54200000 2432104010 2432104010 13.00000000
1.63097131 8.69822502 2.37129998 45 15 1062 9.16200000 2432104015 2432104015 15.00000000
0.41965601 2.22096682 -0.60563654 4 0 1070 2.34000000 2432104035 2432104035 -15.00000000
0.49986595 2.64041352 -0.62041503 3 2 1072 2.75800000 2432104040 2432104040 -13.00000000
0.59945416 3.16344142 -0.62585348 2 4 1073 3.28000000 2432104044 2432104044 -11.00000000
0.75901777 3.99786186 -0.64450997 2 6 1075 4.12000000 2432104049 2432104049 -9.00000000
1.01862371 5.35504436 -0.66930646 2 8 1077 5.49200000 2432104054 2432104054 -7.00000000
1.52377963 8.00310898 -0.71275967 4 10 1078 8.17800000 2432104058 2432104058 -5.00000000
2.00309634 10.51056385 2.07981801 59 11 1079 10.90000000 2432104061 2432104061 11.00000000
1.92285120 10.07038975 2.36693501 56 13 1081 10.52200000 2432104065 2432104065 13.00000000
1.66465592 8.70167542 2.37388825 45 15 1083 9.17200000 2432104070 2432104070 15.00000000
0.42923260 2.22897339 -0.60822475 4 0 1090 2.35000000 2432104091 2432104091 -15.00000000
0.50834131 2.63482571 -0.61951518 3 2 1092 2.75400000 2432104095 2432104095 -13.00000000
0.60974848 3.15747452 -0.62509024 2 4 1093 3.27600000 2432104100 2432104100 -11.00000000
0.77221781 3.99130917 -0.64388424 2 6 1095 4.11600000 2432104104 2432104104 -9.00000000
1.03579903 5.34366083 -0.66833150 2 8 1097 5.48400000 2432104109 2432104109 -7.00000000
1.54563463 7.96644640 -0.70997065 4 10 1098 8.14600000 2432104114 2432104114 -5.00000000
2.04314113 10.52085304 2.08325267 59 11 1099 10.91800000 2432104116 2432104116 11.00000000
1.93640578 9.95267010 2.34084058 48 13 1101 10.40600000 2432104121 2432104121 13.00000000
1.69461036 8.70179653 2.37544131 45 15 1102 9.17800000 2432104125 2432104125 15.00000000
0.43552285 2.21987867 -0.60615420 4 0 1110 2.34200000 2432104146 2432104146 -15.00000000
0.52091807 2.65024447 -0.62356430 3 2 1112 2.77200000 2432104150 2432104150 -13.00000000
0.62000847 3.15147424 -0.62432700 2 4 1113 3.27200000 2432104155 2432104155 -11.00000000
0.78996533 4.00797033 -0.64701295 2 6 1115 4.13600000 2432104160 2432104160 -9.00000000
1.05367649 5.33611774 -0.66784400 2 8 1117 5.48000000 2432104164 2432104164 -7.00000000
1.57884169 7.98836708 -0.71241105 4 10 1118 8.17400000 2432104169 2432104169 -5.00000000
2.07947230 10.51173115 2.08287096 59 11 1119 10.91600000 2432104171 2432104171 11.00000000
1.99424493 10.06245518 2.36828470 57 13 1121 10.52800000 2432104176 2432104176 13.00000000
1.72385907 8.68226242 2.37181783 42 15 1123 9.16400000 2432104180 2432104180 15.00000000
0.44289845 2.21447873 -0.60511893 4 0 1131 2.33800000 2432104201 2432104201 -15.00000000
0.52871400 2.63876367 -0.62131482 3 2 1133 2.76200000 2432104206 2432104206 -13.00000000
0.63155502 3.14918065 -0.62432700 2 4 1134 3.27200000 2432104210 2432104210 -11.00000000
0.80465001 4.00504780 -0.64701295 2 6 1136 4.13600000 2432104215 2432104215 -9.00000000
1.07871091 5.35946465 -0.67125636 2 8 1138 5.50800000 2432104220 2432104220 -7.00000000
1.60889685 7.98643255 -0.71275967 4 10 1139 8.17800000 2432104224 2432104224 -5.00000000
2.12031412 10.51558590 2.08516073 59 11 1140 10.92800000 2432104226 2432104226 11.00000000
2.03149796 10.05698776 2.36873460 56 13 1142 10.53000000 2432104231 2432104231 13.00000000
1.75262392 8.66861820 2.36974716 45 15 1143 9.15600000 2432104236 2432104236 15.00000000
0.45216766 2.22049117 -0.60718948 4 0 1151 2.34600000 2432104256 2432104256 -15.00000000
0.53558463 2.62544560 -0.61861539 3 2 1153 2.75000000 2432104261 2432104261 -13.00000000
0.64293659 3.14888048 -0.62470865 4 4 1154 3.27400000 2432104266 2432104266 -11.00000000
0.81466681 3.98286176 -0.64388424 2 6 1156 4.11600000 2432104270 2432104270 -9.00000000
1.09581840 5.34788799 -0.67028141 2 8 1158 5.50000000 2432104275 2432104275 -7.00000000
1.64236879 8.00809288 -0.71520001 4 10 1159 8.20600000 2432104279 2432104279 -5.00000000
2.15621805 10.50427437 2.08439755 59 11 1160 10.92400000 2432104282 2432104282 11.00000000
2.06737614 10.05365372 2.36963439 57 13 1162 10.53400000 2432104286 2432104286 13.00000000
1.78594339 8.66970444 2.37181783 42 15 1164 9.16400000 2432104291 2432104291 15.00000000
0.45913169 2.21511602 -0.60615420 4 0 1171 2.34200000 2432104312 2432104312 -15.00000000
0.54553825 2.62737608 -0.61951518 3 2 1173 2.75400000 2432104316 2432104316 -13.00000000
0.65672058 3.16007233 -0.62737995 2 4 1174 3.28800000 2432104321 2432104321 -11.00000000
0.83259064 3.99933290 -0.64701295 2 6 1176 4.13600000 2432104326 2432104326 -9.00000000
1.11528993 5.34791660 -0.67076886 2 8 1178 5.50400000 2432104330 2432104330 -7.00000000
2.19568181 10.51013660 2.08706880 59 11 1180 10.93800000 2432104337 2432104337 11.00000000
2.10086060 10.03874588 2.36783481 59 13 1182 10.52600000 2432104342 2432104342 13.00000000
1.81468332 8.66373444 2.37181783 45 15 1183 9.16400000 2432104346 2432104346 15.00000000
0.46765846 2.21728039 -0.60718948 4 0 1191 2.34600000 2432104367 2432104367 -15.00000000
0.55309486 2.61782908 -0.61771560 3 2 1193 2.74600000 2432104372 2432104372 -13.00000000
0.66449791 3.14239430 -0.62432700 2 4 1194 3.27200000 2432104376 2432104376 -11.00000000
0.84818327 4.00413227 -0.64826441 2 6 1196 4.14400000 2432104381 2432104381 -9.00000000
1.13147855 5.33233976 -0.66930646 2 8 1198 5.49200000 2432104385 2432104385 -7.00000000
1.69823539 7.99643183 -0.71520001 4 10 1199 8.20600000 2432104390 2432104390 -5.00000000
2.23398852 10.51008987 2.08859515 59 11 1200 10.94600000 2432104392 2432104392 11.00000000
2.13345456 10.01991558 2.36513543 56 13 1202 10.51400000 2432104397 2432104397 13.00000000
1.84803724 8.66458321 2.37388825 42 15 1204 9.17200000 2432104402 2432104402 15.00000000
0.47419876 2.21193957 -0.60615420 4 0 1210 2.34200000 2432104422 2432104422 -15.00000000
0.56750107 2.64265490 -0.62401420 3 2 1212 2.77400000 2432104427 2432104427 -13.00000000
0.67656499 3.14785123 -0.62585348 2 4 1213 3.28000000 2432104432 2432104432 -11.00000000
0.86062527 3.99743509 -0.64763868 2 6 1215 4.14000000 2432104436 2432104436 -9.00000000
1.15082896 5.33632040 -0.67028141 2 8 1217 5.50000000 2432104441 2432104441 -7.00000000
1.74576128 8.08813286 -0.72391558 4 10 1218 8.30600000 2432104445 2432104445 -5.00000000
2.27255988 10.51989460 2.09202981 59 11 1219 10.96400000 2432104448 2432104448 11.00000000
2.16667008 10.01278496 2.36513543 62 13 1221 10.51400000 2432104452 2432104452 13.00000000
1.87238634 8.64551735 2.37026477 45 15 1222 9.15800000 2432104457 2432104457 15.00000000
0.48027080 2.20272088 -0.60408366 4 0 1230 2.33400000 2432104478 2432104478 -15.00000000
0.57505894 2.63304234 -0.62221462 3 2 1232 2.76600000 2432104482 2432104482 -13.00000000
0.68754894 3.14547038 -0.62585348 2 4 1233 3.28000000 2432104487 2432104487 -11.00000000
0.86950368 3.97125077 -0.64388424 2 6 1235 4.11600000 2432104491 2432104491 -9.00000000
1.16944921 5.33227062 -0.67028141 2 8 1237 5.50000000 2432104496 2432104496 -7.00000000
1.77398348 8.08199024 -0.72391558 4 10 1238 8.30600000 2432104501 2432104501 -5.00000000
2.30884600 10.50998020 2.09164810 59 11 1239 10.96200000 2432104503 2432104503 11.00000000
2.20160818 10.00516129 2.36513543 60 13 1241 10.51400000 2432104508 2432104508 13.00000000
1.90089142 8.63138294 2.36819434 45 15 1242 9.15000000 2432104512 2432104512 15.00000000
0.48917788 2.20471764 -0.60511893 4 0 1251 2.33800000 2432104533 2432104533 -15.00000000
0.58216900 2.61950302 -0.61951518 3 2 1253 2.75400000 2432104538 2432104538 -13.00000000
0.69992554 3.14676213 -0.62661672 2 4 1254 3.28400000 2432104542 2432104542 -11.00000000
0.88577151 3.97574949 -0.64513576 2 6 1256 4.12400000 2432104547 2432104547 -9.00000000
1.18812037 5.32407379 -0.66979390 2 8 1258 5.49600000 2432104551 2432104551 -7.00000000
2.34649491 10.49761486 2.09088492 56 11 1260 10.95800000 2432104558 2432104558 11.00000000
2.24081874 10.00843430 2.36783481 60 13 1262 10.52600000 2432104563 2432104563 13.00000000
1.93293667 8.62624264 2.36871195 45 15 1263 9.15200000 2432104567 2432104567 15.00000000
0.49942103 2.21430373 -0.60822475 4 0 1271 2.35000000 2432104588 2432104588 -15.00000000
0.59087980 2.61555409 -0.61906528 4 2 1273 2.75200000 2432104593 2432104593 -13.00000000
0.71177143 3.14812946 -0.62737995 2 4 1274 3.28800000 2432104597 2432104597 -11.00000000
0.89789885 3.96492696 -0.64388424 2 6 1276 4.11600000 2432104602 2432104602 -9.00000000
1.21108878 5.33925343 -0.67223132 2 8 1278 5.51600000 2432104607 2432104607 -7.00000000
2.38529897 10.49893284 2.09279299 50 11 1280 10.96800000 2432104614 2432104614 11.00000000
2.27314663 9.98915100 2.36513543 57 13 1282 10.51400000 2432104618 2432104618 13.00000000
1.96539903 8.62286758 2.36974716 42 15 1284 9.15600000 2432104623 2432104623 15.00000000
0.50762373 2.21640158 -0.60926002 4 0 1290 2.35400000 2432104644 2432104644 -15.00000000
0.60085720 2.61927843 -0.62041503 3 2 1292 2.75800000 2432104648 2432104648 -13.00000000
0.71781409 3.12661719 -0.62356383 2 4 1293 3.26800000 2432104653 2432104653 -11.00000000
0.91192746 3.96577811 -0.64450997 2 6 1295 4.12000000 2432104657 2432104657 -9.00000000
1.23146093 5.34681463 -0.67369372 2 8 1297 5.52800000 2432104662 2432104662 -7.00000000
1.85851908 8.06297016 -0.72391558 4 10 1298 8.30600000 2432104667 2432104667 -5.00000000
2.30538177 9.97776031 2.36423564 62 13 1301 10.51000000 2432104673 2432104673 13.00000000
1.99334931 8.62041473 2.37078238 40 15 1302 9.16000000 2432104678 2432104678 15.00000000
0.51360589 2.20708990 -0.60718948 4 0 1310 2.34600000 2432104699 2432104699 -15.00000000
0.60999650 2.61716509 -0.62041503 3 2 1312 2.75800000 2432104703 2432104703 -13.00000000
0.72872365 3.12409258 -0.62356383 2 4 1313 3.26800000 2432104708 2432104708 -11.00000000
0.92846149 3.97411203 -0.64638722 2 6 1315 4.13200000 2432104713 2432104713 -9.00000000
1.24921274 5.33861732 -0.67320627 2 8 1317 5.52400000 2432104717 2432104717 -7.00000000
1.88665271 8.05643368 -0.72391558 4 10 1318 8.30600000 2432104722 2432104722 -5.00000000
2.33752465 9.95826912 2.36153626 56 13 1321 10.49800000 2432104729 2432104729 13.00000000
2.02166080 8.60588169 2.36871195 45 15 1322 9.15200000 2432104733 2432104733 15.00000000
0.51914567 2.19785404 -0.60511893 4 0 1329 2.33800000 2432104754 2432104754 -15.00000000
0.61867201 2.61512804 -0.62041503 3 2 1331 2.75800000 2432104759 2432104759 -13.00000000
0.74088877 3.12930059 -0.62509024 2 4 1332 3.27600000 2432104763 2432104763 -11.00000000
0.93981189 3.96332312 -0.64513576 2 6 1334 4.12400000 2432104768 2432104768 -9.00000000
1.26599193 5.33058310 -0.67271876 2 8 1336 5.52000000 2432104772 2432104772 -7.00000000
1.89953697 7.99198151 -0.71868628 4 10 1337 8.24600000 2432104777 2432104777 -5.00000000
2.49736071 10.49907875 2.09775400 50 11 1338 10.99400000 2432104779 2432104779 11.00000000
2.37234116 9.95804596 2.36333585 60 13 1340 10.50600000 2432104784 2432104784 13.00000000
2.04705167 8.58597565 2.36508846 40 15 1341 9.13800000 2432104789 2432104789 15.00000000
0.52546251 2.19039297 -0.60356599 3 0 1349 2.33200000 2432104809 2432104809 -15.00000000
0.62779671 2.61295247 -0.62041503 3 2 1351 2.75800000 2432104814 2432104814 -13.00000000
0.75639737 3.14578390 -0.62890643 2 4 1352 3.29600000 2432104819 2432104819 -11.00000000
0.95734060 3.97538209 -0.64763868 2 6 1354 4.14000000 2432104823 2432104823 -9.00000000
1.28924572 5.34542894 -0.67515618 2 8 1356 5.54000000 2432104828 2432104828 -7.00000000
1.93022752 7.99692249 -0.71973211 4 10 1357 8.25800000 2432104832 2432104832 -5.00000000
2.40983605 9.96106911 2.36603522 59 13 1360 10.51800000 2432104839 2432104839 13.00000000
2.07896185 8.58029270 2.36560607 42 15 1362 9.14000000 2432104844 2432104844 15.00000000
0.53813452 2.20919204 -0.60926002 4 0 1369 2.35400000 2432104865 2432104865 -15.00000000
0.63506633 2.60317230 -0.61861539 3 2 1371 2.75000000 2432104869 2432104869 -13.00000000
0.76737356 3.14312434 -0.62890643 2 4 1372 3.29600000 2432104874 2432104874 -11.00000000
0.96839637 3.96050310 -0.64576149 2 6 1374 4.12800000 2432104878 2432104878 -9.00000000
1.30506396 5.32932711 -0.67369372 2 8 1376 5.52800000 2432104883 2432104883 -7.00000000
1.94580007 7.93982267 -0.71520001 4 10 1377 8.20600000 2432104888 2432104888 -5.00000000
2.35828996 9.61572456 1.92449951 9 11 1378 10.08600000 2432104890 2432104890 11.00000000
2.44087338 9.93745613 2.36243606 59 13 1380 10.50200000 2432104895 2432104895 13.00000000
2.11155415 8.59023571 2.37026477 45 15 1381 9.15800000 2432104899 2432104899 15.00000000
0.54584277 2.20730019 -0.60926002 4 0 1389 2.35400000 2432104920 2432104920 -15.00000000
0.64414924 2.60093951 -0.61861539 3 2 1391 2.75000000 2432104924 2432104924 -13.00000000
0.77456212 3.12518167 -0.62585348 2 4 1392 3.28000000 2432104929 2432104929 -11.00000000
0.98411870 3.96476746 -0.64701295 2 6 1394 4.13600000 2432104934 2432104934 -9.00000000
1.32174325 5.31703329 -0.67271876 2 8 1396 5.52000000 2432104938 2432104938 -7.00000000
1.97350335 7.93298244 -0.71520001 4 10 1397 8.20600000 2432104943 2432104943 -5.00000000
2.39610934 9.62458038 1.92793405 12 11 1398 10.10400000 2432104945 2432104945 11.00000000
2.47271800 9.91753006 2.35973644 57 13 1400 10.49000000 2432104950 2432104950 13.00000000
2.14012361 8.57718945 2.36871195 42 15 1401 9.15200000 2432104954 2432104954 15.00000000
0.55166310 2.19788647 -0.60718948 4 0 1409 2.34600000 2432104975 2432104975 -15.00000000
0.65417445 2.60245514 -0.61951518 3 2 1411 2.75400000 2432104980 2432104980 -13.00000000
0.78450841 3.11865115 -0.62509024 2 4 1412 3.27600000 2432104984 2432104984 -11.00000000
0.99891746 3.96513915 -0.64763868 2 6 1414 4.14000000 2432104989 2432104989 -9.00000000
1.33349657 5.28544044 -0.66930646 2 8 1416 5.49200000 2432104994 2432104994 -7.00000000
2.00898647 7.95695353 -0.71798903 4 10 1417 8.23800000 2432104998 2432104998 -5.00000000
2.43065262 9.61996460 1.92869735 12 11 1418 10.10800000 2432105001 2432105001 11.00000000
2.50827765 9.91261673 2.36063647 56 13 1420 10.49400000 2432105005 2432105005 13.00000000
2.16869903 8.55805206 2.36560607 45 15 1422 9.14000000 2432105010 2432105010 15.00000000
0.55647081 2.18471479 -0.60408366 4 0 1429 2.33400000 2432105030 2432105030 -15.00000000
0.66518140 2.60770893 -0.62131482 3 2 1431 2.76200000 2432105035 2432105035 -13.00000000
0.79538977 3.11589360 -0.62509024 4 4 1432 3.27600000 2432105040 2432105040 -11.00000000
1.01177382 3.95780039 -0.64701295 2 6 1434 4.13600000 2432105044 2432105044 -9.00000000
1.35883069 5.30767632 -0.67271876 2 8 1436 5.52000000 2432105049 2432105049 -7.00000000
2.02883744 7.91901159 -0.71520001 4 10 1437 8.20600000 2432105054 2432105054 -5.00000000
2.46763086 9.62473392 1.93136871 15 11 1438 10.12200000 2432105056 2432105056 11.00000000
2.54286385 9.90380096 2.36063647 57 13 1440 10.49400000 2432105060 2432105060 13.00000000
2.19663453 8.54294586 2.36353540 45 15 1442 9.13200000 2432105065 2432105065 15.00000000
0.56602693 2.19024086 -0.60615420 4 0 1449 2.34200000 2432105086 2432105086 -15.00000000
0.67623293 2.61291742 -0.62311441 3 2 1451 2.77000000 2432105090 2432105090 -13.00000000
0.80527699 3.10929704 -0.62432700 2 4 1452 3.27200000 2432105095 2432105095 -11.00000000
1.02558291 3.95424461 -0.64701295 2 6 1454 4.13600000 2432105100 2432105100 -9.00000000
1.38233995 5.32211447 -0.67515618 2 8 1456 5.54000000 2432105104 2432105104 -7.00000000
2.06348443 7.93887758 -0.71764040 4 10 1457 8.23400000 2432105109 2432105109 -5.00000000
2.49972963 9.61036110 1.93022382 18 11 1458 10.11600000 2432105111 2432105111 11.00000000
2.57741904 9.89486408 2.36063647 59 13 1460 10.49400000 2432105116 2432105116 13.00000000
2.22741675 8.53896427 2.36457086 45 15 1462 9.13600000 2432105120 2432105120 15.00000000
0.57660824 2.19946384 -0.60926002 4 0 1469 2.35400000 2432105141 2432105141 -15.00000000
0.67842191 2.58415294 -0.61681581 3 2 1471 2.74200000 2432105146 2432105146 -13.00000000
0.82710034 3.14824128 -0.63272262 2 4 1472 3.31600000 2432105150 2432105150 -11.00000000
1.03636396 3.93917823 -0.64513576 2 6 1474 4.12400000 2432105155 2432105155 -9.00000000
1.39484036 5.29422140 -0.67223132 2 8 1476 5.51600000 2432105160 2432105160 -7.00000000
2.09829497 7.95859814 -0.72008073 4 10 1477 8.26200000 2432105164 2432105164 -5.00000000
2.53576517 9.61106873 1.93213189 15 11 1478 10.12600000 2432105166 2432105166 11.00000000
2.60995173 9.87827110 2.35883665 59 13 1480 10.48600000 2432105171 2432105171 13.00000000
2.25819802 8.53487301 2.36560607 42 15 1482 9.14000000 2432105176 2432105176 15.00000000
0.58389878 2.19753957 -0.60926002 4 0 1488 2.35400000 2432105196 2432105196 -15.00000000
0.68798971 2.58565545 -0.61771560 3 2 1490 2.74600000 2432105201 2432105201 -13.00000000
0.82642245 3.10374379 -0.62432700 2 4 1491 3.27200000 2432105206 2432105206 -11.00000000
1.05043888 3.93953729 -0.64576149 2 6 1493 4.12800000 2432105210 2432105210 -9.00000000
1.41034055 5.28189516 -0.67125636 2 8 1495 5.50800000 2432105215 2432105215 -7.00000000
2.12158918 7.94004726 -0.71903485 4 10 1496 8.25000000 2432105219 2432105219 -5.00000000
2.57117248 9.61588287 1.93480325 18 11 1497 10.14000000 2432105222 2432105222 11.00000000
2.64067888 9.86203194 2.35703707 57 13 1499 10.47800000 2432105226 2432105226 13.00000000
2.28699994 8.53520012 2.36767673 40 15 1500 9.14800000 2432105231 2432105231 15.00000000
0.59056085 2.19175744 -0.60822475 4 0 1508 2.35000000 2432105252 2432105252 -15.00000000
0.70310301 2.60581565 -0.62311441 3 2 1510 2.77000000 2432105256 2432105256 -13.00000000
0.84032214 3.11221242 -0.62661672 2 4 1511 3.28400000 2432105261 2432105261 -11.00000000
1.06830883 3.95110178 -0.64826441 2 6 1513 4.14400000 2432105265 2432105265 -9.00000000
1.43136311 5.28652048 -0.67247504 2 8 1515 5.51800000 2432105270 2432105270 -7.00000000
2.15137625 7.94028521 -0.71973211 4 10 1516 8.25800000 2432105275 2432105275 -5.00000000
2.60934639 9.62390327 1.93823779 21 11 1517 10.15800000 2432105277 2432105277 11.00000000
2.67610884 9.85651588 2.35793686 57 13 1519 10.48200000 2432105282 2432105282 13.00000000
2.31725407 8.52303219 2.36664128 42 15 1521 9.14400000 2432105286 2432105286 15.00000000
0.59617144 2.18222833 -0.60615420 4 0 1528 2.34200000 2432105307 2432105307 -15.00000000
0.71116626 2.59958601 -0.62221462 3 2 1530 2.76600000 2432105312 2432105312 -13.00000000
0.85118067 3.10926008 -0.62661672 2 4 1531 3.28400000 2432105316 2432105316 -11.00000000
1.07948303 3.93782330 -0.64670008 2 6 1533 4.13400000 2432105321 2432105321 -9.00000000
1.45243526 5.29106331 -0.67369372 2 8 1535 5.52800000 2432105325 2432105325 -7.00000000
2.16958046 7.89814520 -0.71659452 4 10 1536 8.22200000 2432105330 2432105330 -5.00000000
2.64344454 9.61662960 1.93861938 25 11 1537 10.16000000 2432105332 2432105332 11.00000000
2.71153259 9.85087204 2.35883665 57 13 1539 10.48600000 2432105337 2432105337 13.00000000
2.34088755 8.49853897 2.36198258 40 15 1540 9.12600000 2432105342 2432105342 15.00000000
0.60636330 2.18944287 -0.60874242 4 0 1548 2.35200000 2432105362 2432105362 -15.00000000
0.72127771 2.60084343 -0.62311441 3 2 1550 2.77000000 2432105367 2432105367 -13.00000000
0.86517870 3.11762071 -0.62890643 2 4 1551 3.29600000 2432105371 2432105371 -11.00000000
1.09375083 3.93593431 -0.64701295 2 6 1553 4.13600000 2432105376 2432105376 -9.00000000
1.46663833 5.27066183 -0.67174381 2 8 1555 5.51200000 2432105381 2432105381 -7.00000000
2.19820595 7.89436245 -0.71694314 4 10 1556 8.22600000 2432105385 2432105385 -5.00000000
2.67488885 9.59977818 1.93709290 21 11 1557 10.15200000 2432105388 2432105388 11.00000000
2.74485445 9.83759308 2.35793686 59 13 1559 10.48200000 2432105392 2432105392 13.00000000
2.37306023 8.49362278 2.36301780 40 15 1561 9.13000000 2432105397 2432105397 15.00000000
0.61452430 2.18917298 -0.60926002 4 0 1568 2.35400000 2432105418 2432105418 -15.00000000
0.72560602 2.58142567 -0.61906528 3 2 1570 2.75200000 2432105422 2432105422 -13.00000000
0.87605596 3.11458158 -0.62890643 2 4 1571 3.29600000 2432105427 2432105427 -11.00000000
1.10748315 3.93209243 -0.64701295 2 6 1573 4.13600000 2432105431 2432105431 -9.00000000
1.48394978 5.26168919 -0.67125636 2 8 1575 5.50800000 2432105436 2432105436 -7.00000000
2.23007822 7.90198135 -0.71833766 4 10 1576 8.24200000 2432105441 2432105441 -5.00000000
2.71104980 9.59982967 1.93900096 25 11 1577 10.16200000 2432105443 2432105443 11.00000000
2.77917743 9.82795143 2.35793686 57 13 1579 10.48200000 2432105448 2432105448 13.00000000
2.40489507 8.49871922 2.36664128 42 15 1580 9.14400000 2432105452 2432105452 15.00000000
0.62321937 2.19073081 -0.61029530 4 0 1588 2.35800000 2432105473 2432105473 -15.00000000
0.73834956 2.59199619 -0.62221462 3 2 1590 2.76600000 2432105477 2432105477 -13.00000000
0.88476986 3.10395241 -0.62737995 2 4 1591 3.28800000 2432105482 2432105482 -11.00000000
1.11849117 3.91870499 -0.64544863 2 6 1593 4.12600000 2432105487 2432105487 -9.00000000
1.50067103 5.25075102 -0.67052513 2 8 1595 5.50200000 2432105491 2432105491 -7.00000000
2.25545621 7.88648605 -0.71764040 4 10 1596 8.23400000 2432105496 2432105496 -5.00000000
2.74940443 9.60729504 1.94243562 21 11 1597 10.18000000 2432105498 2432105498 11.00000000
3.21441722 11.22479153 -0.61191201 4 12 1598 11.69200000 2432105500 2432105500 -3.00000000
2.81024551 9.80695057 2.35523748 57 13 1599 10.47000000 2432105503 2432105503 13.00000000
3.20572543 11.17969322 -0.20300639 2 14 1600 11.63200000 2432105505 2432105505 -1.00000000
2.43815947 8.49727535 2.36871195 45 15 1601 9.15200000 2432105507 2432105507 15.00000000
0.62765217 2.17740440 -0.60718948 4 0 1608 2.34600000 2432105528 2432105528 -15.00000000
3.22716188 11.18809319 0.20325072 3 1 1609 11.64600000 2432105530 2432105530 1.00000000
0.74631202 2.58565855 -0.62131482 3 2 1610 2.76200000 2432105533 2432105533 -13.00000000
3.23378110 11.19636250 0.61076063 7 3 1611 11.67000000 2432105535 2432105535 3.00000000
0.89668882 3.10461736 -0.62814319 2 4 1611 3.29200000 2432105537 2432105537 -11.00000000
1.13271201 3.91667461 -0.64576149 2 6 1613 4.12800000 2432105542 2432105542 -9.00000000
1.52175117 5.25501442 -0.67174381 2 8 1615 5.51200000 2432105547 2432105547 -7.00000000
2.29406190 7.91683865 -0.72112662 4 10 1616 8.27400000 2432105551 2432105551 -5.00000000
2.78839087 9.61649513 1.94625175 21 11 1617 10.20000000 2432105553 2432105553 11.00000000
3.20905566 11.06005096 -0.60353827 4 12 1618 11.53200000 2432105556 2432105556 -3.00000000
2.84554768 9.80082417 2.35613728 57 13 1619 10.47400000 2432105558 2432105558 13.00000000
3.21795130 11.07626057 -0.20133096 6 14 1620 11.53600000 2432105560 2432105560 -1.00000000
2.46416831 8.48172283 2.36664128 42 15 1620 9.14400000 2432105563 2432105563 15.00000000
0.63416576 2.17149138 -0.60615420 4 0 1628 2.34200000 2432105583 2432105583 -15.00000000
3.23198032 11.05967617 0.20112154 6 1 1629 11.52400000 2432105586 2432105586 1.00000000
0.75533307 2.58303761 -0.62131482 3 2 1630 2.76200000 2432105588 2432105588 -13.00000000
3.24535990 11.09107876 0.60563171 31 3 1631 11.57200000 2432105590 2432105590 3.00000000
0.91193128 3.11654234 -0.63119614 2 4 1631 3.30800000 2432105593 2432105593 -11.00000000
3.25393462 11.11318684 1.01309836 25 5 1632 11.62400000 2432105595 2432105595 5.00000000
1.14637685 3.91269684 -0.64576149 2 6 1633 4.12800000 2432105597 2432105597 -9.00000000
3.26319480 11.13040447 1.42416513 27 7 1634 11.68600000 2432105600 2432105600 7.00000000
1.54232061 5.25728989 -0.67271876 2 8 1635 5.52000000 2432105602 2432105602 -7.00000000
3.27612805 11.16008759 1.84217227 21 9 1636 11.77600000 2432105604 2432105604 9.00000000
2.30596924 7.85525417 -0.71624589 4 10 1636 8.21800000 2432105606 2432105606 -5.00000000
2.82526159 9.61800575 1.94854140 18 11 1637 10.21200000 2432105609 2432105609 11.00000000
3.20483661 10.90315056 -0.59558320 4 12 1638 11.38000000 2432105611 2432105611 -3.00000000
2.88084149 9.79457092 2.35703707 59 13 1639 10.47800000 2432105613 2432105613 13.00000000
3.21763778 10.93259525 -0.19892253 6 14 1640 11.39800000 2432105616 2432105616 -1.00000000
2.48978114 8.45410252 2.36146498 42 15 1641 9.12400000 2432105618 2432105618 15.00000000
0.64098459 2.16948843 -0.60615420 4 0 1646 2.34200000 2432105639 2432105639 -15.00000000
3.22588968 10.91139698 0.19860838 6 1 1647 11.38000000 2432105641 2432105641 1.00000000
0.76233858 2.57691455 -0.62041503 3 2 1648 2.75800000 2432105643 2432105643 -13.00000000
3.24277091 10.95443153 0.59872335 31 3 1649 11.44000000 2432105646 2432105646 3.00000000
0.91614503 3.09483719 -0.62737995 2 4 1649 3.28800000 2432105648 2432105648 -11.00000000
3.24356198 10.95008183 0.99915344 8 5 1650 11.46400000 2432105650 2432105650 5.00000000
1.15754056 3.90528822 -0.64513576 2 6 1651 4.12400000 2432105653 2432105653 -9.00000000
3.25298905 10.96784592 1.40466607 29 7 1652 11.52600000 2432105655 2432105655 7.00000000
1.55657005 5.24480629 -0.67174381 2 8 1653 5.51200000 2432105657 2432105657 -7.00000000
3.26145387 10.98935032 1.81557846 25 9 1653 11.60600000 2432105659 2432105659 9.00000000
2.34424877 7.89380980 -0.72042936 4 10 1654 8.26600000 2432105662 2432105662 -5.00000000
2.85434484 9.60531807 1.94777822 18 11 1655 10.20800000 2432105664 2432105664 11.00000000
3.18784094 10.72073174 -0.58616269 4 12 1656 11.20000000 2432105666 2432105666 -3.00000000
2.90937471 9.77800083 2.35523748 57 13 1657 10.47000000 2432105669 2432105669 13.00000000
3.20745921 10.77294159 -0.19619995 6 14 1658 11.24200000 2432105671 2432105671 -1.00000000
2.51816154 8.45778751 2.36457086 42 15 1658 9.13600000 2432105673 2432105673 15.00000000
0.65021515 2.17279005 -0.60770714 3 0 1666 2.34800000 2432105694 2432105694 -15.00000000
3.21692014 10.74298668 0.19574618 6 1 1667 11.21600000 2432105696 2432105696 1.00000000
0.76909167 2.56677103 -0.61861539 3 2 1668 2.75000000 2432105699 2432105699 -13.00000000
3.23739552 10.79764843 0.59076828 26 3 1669 11.28800000 2432105701 2432105701 3.00000000
0.93032539 3.10290360 -0.62966967 2 4 1669 3.30000000 2432105703 2432105703 -11.00000000
3.24111533 10.80319977 0.98677731 17 5 1670 11.32200000 2432105706 2432105706 5.00000000
1.17343736 3.90879178 -0.64638722 2 6 1671 4.13200000 2432105708 2432105708 -9.00000000
3.24842143 10.81383705 1.38638568 29 7 1672 11.37600000 2432105710 2432105710 7.00000000
1.57601118 5.24314308 -0.67223132 2 8 1673 5.51600000 2432105712 2432105712 -7.00000000
3.26302028 10.84869003 1.79430330 31 9 1674 11.47000000 2432105715 2432105715 9.00000000
2.36605024 7.86649942 -0.71868628 4 10 1674 8.24600000 2432105717 2432105717 -5.00000000
2.88785648 9.59529591 1.94777822 12 11 1675 10.20800000 2432105719 2432105719 11.00000000
3.19126368 10.59670544 -0.57998705 8 12 1676 11.08200000 2432105722 2432105722 -3.00000000
2.94236398 9.76405334 2.35433769 55 13 1677 10.46600000 2432105724 2432105724 13.00000000
3.19885969 10.60851574 -0.19340757 6 14 1678 11.08200000 2432105726 2432105726 -1.00000000
2.54746985 8.44295216 2.36301780 40 15 1679 9.13000000 2432105729 2432105729 15.00000000
0.66059715 2.17975116 -0.61029530 4 0 1686 2.35800000 2432105749 2432105749 -15.00000000
3.21842098 10.61304665 0.19358209 10 1 1687 11.09200000 2432105752 2432105752 1.00000000
0.78144181 2.57525945 -0.62131482 3 2 1688 2.76200000 2432105754 2432105754 -13.00000000
3.23676872 10.66014862 0.58385992 23 3 1689 11.15600000 2432105756 2432105756 3.00000000
0.93658775 3.08460879 -0.62661672 2 4 1689 3.28400000 2432105759 2432105759 -11.00000000
3.24984622 10.69650269 0.97806174 24 5 1690 11.22200000 2432105761 2432105761 5.00000000
1.18477619 3.89711189 -0.64513576 2 6 1691 4.12400000 2432105763 2432105763 -9.00000000
3.25321817 10.69417953 1.37249255 25 7 1692 11.26200000 2432105765 2432105765 7.00000000
3.22560334 10.59675980 -1.36006188 2 8 1693 11.16000000 2432105768 2432105768 -7.00000000
3.26158762 10.71497536 1.77396679 28 9 1693 11.34000000 2432105770 2432105770 9.00000000
3.22712564 10.59512234 -0.96899754 4 10 1694 11.11800000 2432105772 2432105772 -5.00000000
2.92877340 9.60957050 1.95273924 12 11 1695 10.23400000 2432105775 2432105775 11.00000000
3.22706842 10.58168125 -0.57977772 25 12 1696 11.07800000 2432105777 2432105777 -3.00000000
2.97529149 9.74999523 2.35343790 57 13 1697 10.46200000 2432105779 2432105779 13.00000000
3.23703885 10.60111046 -0.19347738 21 14 1698 11.08600000 2432105782 2432105782 -1.00000000
2.57714605 8.44000149 2.36457086 40 15 1698 9.13600000 2432105784 2432105784 15.00000000
0.66593486 2.17004466 -0.60822475 4 0 1706 2.35000000 2432105805 2432105805 -15.00000000
3.25720882 10.60748196 0.19368681 30 1 1707 11.09800000 2432105807 2432105807 1.00000000
0.79500526 2.58741832 -0.62491405 3 2 1708 2.77800000 2432105809 2432105809 -13.00000000
3.26985121 10.63542175 0.58312720 10 3 1709 11.14200000 2432105812 2432105812 3.00000000
0.94619542 3.07756758 -0.62585348 2 4 1709 3.28000000 2432105814 2432105814 -11.00000000
3.26900291 10.62606049 0.97265810 12 5 1710 11.16000000 2432105816 2432105816 5.00000000
1.20418406 3.91183209 -0.64826441 2 6 1711 4.14400000 2432105818 2432105818 -9.00000000
3.27708769 10.63912487 1.36688650 10 7 1712 11.21600000 2432105821 2432105821 7.00000000
1.61140716 5.22821856 -0.67174381 2 8 1713 5.51200000 2432105823 2432105823 -7.00000000
3.27918768 10.63934135 1.76332927 9 9 1713 11.27200000 2432105825 2432105825 9.00000000
2.42560816 7.86502075 -0.72008073 4 10 1714 8.26200000 2432105828 2432105828 -5.00000000
2.96982503 9.62367630 1.95770025 12 11 1715 10.26000000 2432105830 2432105830 11.00000000
3.27341390 10.60088539 -0.58145249 8 12 1716 11.11000000 2432105832 2432105832 -3.00000000
3.00988245 9.74141216 2.35388780 54 13 1717 10.46400000 2432105835 2432105835 13.00000000
3.27520514 10.59356785 -0.19354719 8 14 1718 11.09000000 2432105837 2432105837 -1.00000000
2.60430908 8.42357159 2.36250019 40 15 1718 9.12800000 2432105839 2432105839 15.00000000
0.67235929 2.16401696 -0.60718948 4 0 1726 2.34600000 2432105860 2432105860 -15.00000000
3.29896545 10.61132431 0.19396605 10 1 1727 11.11400000 2432105862 2432105862 1.00000000
0.80055904 2.57346272 -0.62221462 3 2 1728 2.76600000 2432105865 2432105865 -13.00000000
3.30636215 10.62203598 0.58302253 10 3 1729 11.14000000 2432105867 2432105867 3.00000000
0.96393436 3.09674048 -0.63043290 2 4 1729 3.30400000 2432105869 2432105869 -11.00000000
3.30548239 10.61268234 0.97248375 12 5 1730 11.15800000 2432105871 2432105871 5.00000000
1.21900713 3.91137671 -0.64889014 2 6 1731 4.14800000 2432105874 2432105874 -9.00000000
3.31952405 10.64467621 1.36908019 12 7 1732 11.23400000 2432105876 2432105876 7.00000000
1.62846458 5.21877193 -0.67125636 2 8 1733 5.50800000 2432105878 2432105878 -7.00000000
3.32169318 10.63856411 1.76520646 12 9 1734 11.28400000 2432105881 2432105881 9.00000000
2.44829679 7.84129143 -0.71868628 4 10 1734 8.24600000 2432105883 2432105883 -5.00000000
3.02681804 9.68820858 1.97296500 12 11 1735 10.34000000 2432105885 2432105885 11.00000000
3.31993294 10.61989498 -0.58312720 12 12 1736 11.14200000 2432105888 2432105888 -3.00000000
3.04561329 9.73642635 2.35523748 59 13 1737 10.47000000 2432105890 2432105890 13.00000000
3.32052612 10.60878754 -0.19403586 10 14 1738 11.11800000 2432105892 2432105892 -1.00000000
2.63081169 8.40521049 2.35991216 38 15 1738 9.11800000 2432105894 2432105894 15.00000000
0.67990905 2.16165686 -0.60718948 4 0 1746 2.34600000 2432105915 2432105915 -15.00000000
3.33838701 10.60737419 0.19410567 13 1 1747 11.12200000 2432105918 2432105918 1.00000000
0.81187862 2.57808757 -0.62401420 3 2 1748 2.77400000 2432105920 2432105920 -13.00000000
3.35002279 10.63138390 0.58417392 10 3 1749 11.16200000 2432105922 2432105922 3.00000000
0.97001785 3.07837677 -0.62737995 2 4 1749 3.28800000 2432105924 2432105924 -11.00000000
3.34250736 10.60107899 0.97248375 12 5 1750 11.15800000 2432105927 2432105927 5.00000000
1.23265290 3.90709758 -0.64889014 2 6 1751 4.14800000 2432105929 2432105929 -9.00000000
3.35785580 10.63681030 1.36956763 10 7 1752 11.23800000 2432105931 2432105931 7.00000000
1.64607370 5.21116304 -0.67101258 2 8 1753 5.50600000 2432105934 2432105934 -7.00000000
3.36297584 10.64008999 1.76739657 12 9 1754 11.29800000 2432105936 2432105936 9.00000000
2.46964860 7.81369972 -0.71694314 4 10 1754 8.22600000 2432105938 2432105938 -5.00000000
3.12692142 9.88723373 2.01570630 18 11 1755 10.56400000 2432105941 2432105941 11.00000000
3.35517526 10.60252953 -0.58281320 12 12 1756 11.13600000 2432105943 2432105943 -3.00000000
3.07958126 9.72573566 2.35523748 55 13 1757 10.47000000 2432105945 2432105945 13.00000000
3.36357737 10.61619568 -0.19438490 12 14 1758 11.13800000 2432105947 2432105947 -1.00000000
2.66218448 8.39735317 2.36042976 42 15 1759 9.12000000 2432105950 2432105950 15.00000000
0.69293100 2.17779946 -0.61236584 4 0 1765 2.36600000 2432105971 2432105971 -15.00000000
3.37839699 10.61148834 0.19438490 13 1 1766 11.13800000 2432105973 2432105973 1.00000000
0.81687433 2.56424022 -0.62131482 3 2 1767 2.76200000 2432105975 2432105975 -13.00000000
3.38707900 10.62592602 0.58448797 13 3 1768 11.16800000 2432105977 2432105977 3.00000000
0.98379821 3.08636642 -0.62966967 2 4 1768 3.30000000 2432105980 2432105980 -11.00000000
3.38793564 10.62220573 0.97544706 12 5 1769 11.19200000 2432105982 2432105982 5.00000000
1.24019730 3.88605189 -0.64607435 2 6 1770 4.13000000 2432105984 2432105984 -9.00000000
3.39311028 10.62561703 1.36956763 12 7 1771 11.23800000 2432105987 2432105987 7.00000000
1.66697061 5.21702099 -0.67247504 2 8 1772 5.51800000 2432105989 2432105989 -7.00000000
3.40485835 10.64957619 1.77083814 12 9 1773 11.32000000 2432105991 2432105991 9.00000000
2.50889468 7.84721756 -0.72077799 4 10 1773 8.27000000 2432105994 2432105994 -5.00000000
3.18481588 9.95534611 2.03173423 37 11 1774 10.64800000 2432105996 2432105996 11.00000000
3.39275169 10.59895325 -0.58323193 12 12 1775 11.14400000 2432105998 2432105998 -3.00000000
3.10824943 9.70433521 2.35253811 57 13 1776 10.45800000 2432106000 2432106000 13.00000000
3.40242529 10.61640835 -0.19459434 10 14 1777 11.15000000 2432106003 2432106003 -1.00000000
2.68973160 8.39262772 2.36146498 40 15 1777 9.12400000 2432106005 2432106005 15.00000000
0.69934440 2.17168975 -0.61133057 4 0 1785 2.36200000 2432106026 2432106026 -15.00000000
3.42093706 10.61676121 0.19469905 13 1 1786 11.15600000 2432106028 2432106028 1.00000000
0.82462424 2.55766368 -0.62041503 3 2 1787 2.75800000 2432106030 2432106030 -13.00000000
3.42660260 10.62164116 0.58490664 13 3 1788 11.17600000 2432106033 2432106033 3.00000000
0.98974347 3.06796598 -0.62661672 2 4 1788 3.28400000 2432106035 2432106035 -11.00000000
3.42866564 10.62169170 0.97649294 12 5 1789 11.20400000 2432106037 2432106037 5.00000000
1.25071895 3.87230015 -0.64450997 2 6 1790 4.12000000 2432106040 2432106040 -9.00000000
3.43506360 10.62881851 1.37151754 14 7 1791 11.25400000 2432106042 2432106042 7.00000000
1.68700361 5.21683693 -0.67320627 2 8 1792 5.52400000 2432106044 2432106044 -7.00000000
3.44201159 10.63762569 1.77083814 12 9 1793 11.32000000 2432106047 2432106047 9.00000000
3.44405389 10.64393806 -0.97875899 4 10 1793 11.23000000 2432106049 2432106049 -5.00000000
3.22559428 9.96284580 2.03555036 46 11 1794 10.66800000 2432106051 2432106051 11.00000000
3.43403697 10.60034657 -0.58396459 12 12 1795 11.15800000 2432106053 2432106053 -3.00000000
3.12527966 9.64151955 2.33994079 64 13 1796 10.40200000 2432106056 2432106056 13.00000000
3.44007969 10.60636997 -0.19462924 10 14 1797 11.15200000 2432106058 2432106058 -1.00000000
2.72020292 8.38686275 2.36250019 42 15 1797 9.12800000 2432106060 2432106060 15.00000000
0.70452642 2.16188812 -0.60926002 4 0 1805 2.35400000 2432106081 2432106081 -15.00000000
3.46107531 10.61426067 0.19487357 13 1 1806 11.16600000 2432106083 2432106083 1.00000000
0.83838278 2.56959081 -0.62401420 3 2 1807 2.77400000 2432106086 2432106086 -13.00000000
3.46738195 10.62730789 0.58584869 13 3 1807 11.19400000 2432106088 2432106088 3.00000000
0.99922812 3.06075978 -0.62585348 2 4 1808 3.28000000 2432106090 2432106090 -11.00000000
3.46695876 10.61344624 0.97684157 12 5 1809 11.20800000 2432106093 2432106093 5.00000000
1.27527475 3.90170813 -0.65014166 2 6 1810 4.15600000 2432106095 2432106095 -9.00000000
3.47831488 10.63563156 1.37395501 12 7 1811 11.27400000 2432106097 2432106097 7.00000000
3.47831893 10.62936401 -1.37322378 2 8 1812 11.26800000 2432106099 2432106099 -7.00000000
3.47911143 10.63178539 1.77177680 12 9 1812 11.32600000 2432106102 2432106102 9.00000000
2.56237698 7.82572412 -0.72042936 4 10 1813 8.26600000 2432106104 2432106104 -5.00000000
3.26340771 9.96085453 2.03745842 43 11 1814 10.67800000 2432106106 2432106106 11.00000000
3.47972846 10.61486530 -0.58543003 12 12 1815 11.18600000 2432106109 2432106109 -3.00000000
3.11882973 9.50834179 2.31024742 62 13 1816 10.27000000 2432106111 2432106111 13.00000000
3.48207045 10.60949707 -0.19490847 10 14 1817 11.16800000 2432106113 2432106113 -1.00000000
2.74705219 8.36997509 2.36042976 40 15 1817 9.12000000 2432106116 2432106116 15.00000000
0.70843863 2.14840770 -0.60615420 4 0 1825 2.34200000 2432106136 2432106136 -15.00000000
3.50061131 10.60971069 0.19501320 13 1 1826 11.17400000 2432106139 2432106139 1.00000000
0.84612536 2.56294751 -0.62311441 3 2 1827 2.77000000 2432106141 2432106141 -13.00000000
3.51069498 10.62780380 0.58658141 10 3 1828 11.20800000 2432106143 2432106143 3.00000000
1.01483238 3.07216668 -0.62890643 2 4 1828 3.29600000 2432106146 2432106146 -11.00000000
3.50773716 10.61262989 0.97788745 12 5 1829 11.22000000 2432106148 2432106148 5.00000000
1.28206372 3.87660265 -0.64670008 2 6 1830 4.13400000 2432106150 2432106150 -9.00000000
3.52165532 10.64227104 1.37639236 14 7 1831 11.29400000 2432106152 2432106152 7.00000000
3.51664901 10.62092686 -1.37371123 2 8 1832 11.27200000 2432106155 2432106155 -7.00000000
3.52240396 10.63208866 1.77396679 12 9 1833 11.34000000 2432106157 2432106157 9.00000000
2.57965302 7.78647137 -0.71764040 4 10 1833 8.23400000 2432106159 2432106159 -5.00000000
3.29568672 9.94194794 2.03593206 43 11 1834 10.67000000 2432106162 2432106162 11.00000000
3.52116156 10.61592388 -0.58616269 12 12 1835 11.20000000 2432106164 2432106164 -3.00000000
3.12130976 9.40491962 2.28775215 64 13 1836 10.17000000 2432106166 2432106166 13.00000000
3.52475524 10.61435795 -0.19522262 10 14 1837 11.18600000 2432106169 2432106169 -1.00000000
2.77527475 8.35251713 2.35835910 42 15 1838 9.11200000 2432106171 2432106171 15.00000000
0.71837920 2.15325189 -0.60822475 4 0 1845 2.35000000 2432106192 2432106192 -15.00000000
3.54205704 10.61070442 0.19525753 13 1 1846 11.18800000 2432106194 2432106194 1.00000000
0.85259712 2.55258489 -0.62131482 3 2 1847 2.76200000 2432106196 2432106196 -13.00000000
3.55098057 10.63125801 0.58741879 13 3 1847 11.22400000 2432106199 2432106199 3.00000000
1.02679467 3.07232952 -0.62966967 2 4 1848 3.30000000 2432106201 2432106201 -11.00000000
3.55297494 10.62488556 0.98015350 12 5 1849 11.24600000 2432106203 2432106203 5.00000000
1.29182696 3.86086392 -0.64482284 2 6 1850 4.12200000 2432106205 2432106205 -9.00000000
3.55878210 10.62991333 1.37639236 14 7 1851 11.29400000 2432106208 2432106208 7.00000000
3.55370164 10.60858631 -1.37371123 2 8 1852 11.27200000 2432106210 2432106210 -7.00000000
3.56702876 10.64220428 1.77772129 12 9 1853 11.36400000 2432106212 2432106212 9.00000000
2.60175157 7.76230669 -0.71624589 4 10 1853 8.21800000 2432106215 2432106215 -5.00000000
3.32912207 9.92666054 2.03516865 40 11 1854 10.66600000 2432106217 2432106217 11.00000000
3.56073809 10.61114216 -0.58658141 12 12 1855 11.20800000 2432106219 2432106219 -3.00000000
3.11814380 9.28681850 2.26165795 57 13 1856 10.05400000 2432106222 2432106222 13.00000000
3.56751609 10.61904907 -0.19553676 10 14 1857 11.20400000 2432106224 2432106224 -1.00000000
2.80541825 8.35059261 2.36042976 45 15 1857 9.12000000 2432106226 2432106226 15.00000000
0.72836220 2.15805292 -0.61029530 4 0 1865 2.35800000 2432106247 2432106247 -15.00000000
3.58227277 10.60774899 0.19543205 13 1 1866 11.19800000 2432106249 2432106249 1.00000000
0.85775912 2.53851604 -0.61861539 3 2 1867 2.75000000 2432106251 2432106251 -13.00000000
3.58870840 10.62069035 0.58752346 10 3 1867 11.22600000 2432106254 2432106254 3.00000000
1.03248250 3.05384803 -0.62661672 2 4 1868 3.28400000 2432106256 2432106256 -11.00000000
3.59323335 10.62185478 0.98102504 12 5 1869 11.25600000 2432106258 2432106258 5.00000000
1.31036270 3.87129998 -0.64732581 2 6 1870 4.13800000 2432106261 2432106261 -9.00000000
3.59713936 10.62118626 1.37687981 14 7 1871 11.29800000 2432106263 2432106263 7.00000000
3.59453344 10.60739803 -1.37517369 2 8 1872 11.28400000 2432106265 2432106265 -7.00000000
3.60542393 10.63342953 1.77834702 12 9 1873 11.36800000 2432106268 2432106268 9.00000000
2.62883139 7.75317764 -0.71624589 4 10 1873 8.21800000 2432106270 2432106270 -5.00000000
3.36375213 9.91497898 2.03516865 46 11 1874 10.66600000 2432106272 2432106272 11.00000000
3.59518814 10.59108257 -0.58616269 12 12 1875 11.20000000 2432106275 2432106275 -3.00000000
3.11293840 9.16516495 2.23466372 55 13 1876 9.93400000 2432106277 2432106277 13.00000000
3.60391831 10.60463810 -0.19550186 10 14 1877 11.20200000 2432106279 2432106279 -1.00000000
2.83703661 8.34806538 2.36250019 45 15 1877 9.12800000 2432106281 2432106281 15.00000000
0.73426688 2.15196896 -0.60926002 4 0 1884 2.35400000 2432106302 2432106302 -15.00000000
3.62453651 10.61662769 0.19581600 13 1 1885 11.22000000 2432106304 2432106304 1.00000000
0.86869222 2.54303432 -0.62041503 3 2 1886 2.75800000 2432106307 2432106307 -13.00000000
3.62834334 10.61565876 0.58794212 13 3 1887 11.23400000 2432106309 2432106309 3.00000000
1.04387367 3.05412269 -0.62737995 2 4 1887 3.28800000 2432106311 2432106311 -11.00000000
3.63488412 10.62873268 0.98276818 12 5 1888 11.27600000 2432106314 2432106314 5.00000000
1.31935596 3.85571933 -0.64544863 2 6 1889 4.12600000 2432106316 2432106316 -9.00000000
3.64005685 10.63173580 1.37980473 10 7 1890 11.32200000 2432106318 2432106318 7.00000000
3.63097572 10.59917545 -1.37566113 2 8 1891 11.28800000 2432106321 2432106321 -7.00000000
3.64521384 10.64073753 1.78147566 12 9 1891 11.38800000 2432106323 2432106323 9.00000000
2.65581942 7.74818707 -0.71659452 4 10 1892 8.22200000 2432106325 2432106325 -5.00000000
3.39661288 9.90377045 2.03516865 43 11 1893 10.66600000 2432106328 2432106328 11.00000000
3.63417935 10.59043694 -0.58679074 12 12 1894 11.21200000 2432106330 2432106330 -3.00000000
3.10660934 9.04789066 2.20856953 56 13 1895 9.81800000 2432106332 2432106332 13.00000000
3.64166379 10.60019398 -0.19564147 10 14 1896 11.21000000 2432106334 2432106334 -1.00000000
2.86992741 8.34907341 2.36560607 36 15 1897 9.14000000 2432106337 2432106337 15.00000000
0.74177414 2.14939284 -0.60926002 4 0 1904 2.35400000 2432106357 2432106357 -15.00000000
3.66483688 10.61336231 0.19599052 13 1 1905 11.23000000 2432106360 2432106360 1.00000000
0.88201839 2.55287981 -0.62356430 3 2 1906 2.77200000 2432106362 2432106362 -13.00000000
3.66939640 10.62055779 0.58888417 13 3 1906 11.25200000 2432106364 2432106364 3.00000000
1.05324531 3.04674935 -0.62661672 2 4 1907 3.28400000 2432106367 2432106367 -11.00000000
3.67326570 10.61974621 0.98311681 12 5 1908 11.28000000 2432106369 2432106369 5.00000000
1.33797538 3.86602449 -0.64795154 2 6 1909 4.14200000 2432106371 2432106371 -9.00000000
3.68364191 10.63772297 1.38224208 12 7 1910 11.34200000 2432106374 2432106374 7.00000000
3.67575026 10.60894489 -1.37858605 2 8 1911 11.31200000 2432106376 2432106376 -7.00000000
3.68548369 10.63103867 1.78210139 12 9 1912 11.39200000 2432106378 2432106378 9.00000000
2.68154407 7.73510408 -0.71624589 4 10 1912 8.21800000 2432106381 2432106381 -5.00000000
3.43373632 9.89927292 2.03669524 46 11 1913 10.67400000 2432106383 2432106383 11.00000000
3.67636347 10.59278202 -0.58762813 12 12 1914 11.22800000 2432106385 2432106385 -3.00000000
3.10365295 8.93758297 2.18427467 60 13 1915 9.71000000 2432106387 2432106387 13.00000000
3.68258095 10.59875107 -0.19585091 12 14 1916 11.22200000 2432106390 2432106390 -1.00000000
2.40234494 6.91024303 1.96029544 9 15 1917 7.57400000 2432106392 2432106392 15.00000000
0.74672604 2.13949466 -0.60718948 4 0 1924 2.34600000 2432106413 2432106413 -15.00000000
3.69988418 10.59484100 0.19588581 13 1 1925 11.22400000 2432106415 2432106415 1.00000000
0.88963866 2.54610610 -0.62266451 3 2 1926 2.76800000 2432106417 2432106417 -13.00000000
3.71105814 10.62088299 0.58961689 13 3 1926 11.26600000 2432106420 2432106420 3.00000000
1.06776154 3.05417395 -0.62890643 2 4 1927 3.29600000 2432106422 2432106422 -11.00000000
3.71097112 10.60873985 0.98329109 12 5 1928 11.28200000 2432106424 2432106424 5.00000000
1.35146213 3.86133051 -0.64795154 2 6 1929 4.14200000 2432106427 2432106427 -9.00000000
3.72337651 10.63229370 1.38321710 12 7 1930 11.35000000 2432106429 2432106429 7.00000000
3.72063708 10.61853027 -1.38151085 2 8 1931 11.33600000 2432106431 2432106431 -7.00000000
3.72137046 10.62062359 1.78241432 12 9 1931 11.39400000 2432106434 2432106434 9.00000000
2.71380186 7.74073839 -0.71764040 4 10 1932 8.23400000 2432106436 2432106436 -5.00000000
3.46892023 9.88907909 2.03707695 50 11 1933 10.67600000 2432106438 2432106438 11.00000000
3.71463966 10.58365345 -0.58783746 12 12 1934 11.23200000 2432106440 2432106440 -3.00000000
3.10771298 8.84947109 2.16537881 56 13 1935 9.62600000 2432106443 2432106443 13.00000000
3.72220683 10.59337807 -0.19599052 10 14 1936 11.23000000 2432106445 2432106445 -1.00000000
