# .PCD v0.7 - Point Cloud Data file format
VERSION 0.7
FIELDS x y z intensity laser_id azimuth distance_m adjustedtime timestamp vertical_angle
SIZE 4 4 4 1 1 2 8 8 4 8
TYPE F F F U U U F U U F
COUNT 1 1 1 1 1 1 1 1 1 1
WIDTH 524
HEIGHT 1
VIEWPOINT 0 0 0 1 0 0 0
POINTS 524
DATA ascii
-1.44422817 1.49501967 -0.55697858 4 0 31599 2.15200000 2432588872 2432588872 -15.00000000
-1.71483886 1.77638793 -0.57002598 3 2 31601 2.53400000 2432588876 2432588876 -13.00000000
-2.00677466 2.07952833 -0.56174171 3 4 31602 2.94400000 2432588881 2432588881 -11.00000000
-2.45448303 2.54524517 -0.56003541 1 6 31604 3.58000000 2432588885 2432588885 -9.00000000
-2.97532415 3.08750224 -0.52647555 74 8 31606 4.32000000 2432588890 2432588890 -7.00000000
-3.38658094 3.51549244 -0.42706314 100 10 31607 4.90000000 2432588895 2432588895 -5.00000000
-7.11969280 7.39587164 -0.53801364 8 12 31609 10.28000000 2432588899 2432588899 -3.00000000
-7.72650433 8.02902603 2.57254028 50 13 31610 11.43600000 2432588902 2432588902 13.00000000
-6.64831734 6.91103792 2.56955552 40 15 31611 9.92800000 2432588906 2432588906 15.00000000
-1.44969964 1.51120472 -0.56111968 4 0 31619 2.16800000 2432588927 2432588927 -15.00000000
-1.69514203 1.76829541 -0.56552696 3 2 31621 2.51400000 2432588932 2432588932 -13.00000000
-2.00222039 2.08935547 -0.56250495 3 4 31622 2.94800000 2432588936 2432588936 -11.00000000
-2.45104861 2.55950427 -0.56128687 1 6 31624 3.58800000 2432588941 2432588941 -9.00000000
-2.96727347 3.10073757 -0.52696306 74 8 31626 4.32400000 2432588945 2432588945 -7.00000000
-3.37153435 3.52441287 -0.42671451 100 10 31627 4.89600000 2432588950 2432588950 -5.00000000
-7.26082802 7.59536791 -0.55067891 8 12 31629 10.52200000 2432588955 2432588955 -3.00000000
-7.69977713 8.05735683 2.57299018 53 13 31630 11.43800000 2432588957 2432588957 13.00000000
-6.62682199 6.93699646 2.57059073 45 15 31631 9.93200000 2432588961 2432588961 15.00000000
-1.44708061 1.51905346 -0.56215495 4 0 31639 2.17200000 2432588982 2432588982 -15.00000000
-1.67821002 1.76291013 -0.56192774 3 2 31641 2.49800000 2432588987 2432588987 -13.00000000
-1.98950124 2.09064293 -0.56097847 3 4 31642 2.94000000 2432588991 2432588991 -11.00000000
-2.44073796 2.56661296 -0.56097400 1 6 31644 3.58600000 2432588996 2432588996 -9.00000000
-2.95232964 3.10675955 -0.52623183 86 8 31646 4.31800000 2432589001 2432589001 -7.00000000
-3.35783911 3.53471565 -0.42654020 100 10 31647 4.89400000 2432589005 2432589005 -5.00000000
-7.23839617 7.62501240 -0.55099297 12 12 31649 10.52800000 2432589010 2432589010 -3.00000000
-7.66758060 8.07994366 2.57164049 54 13 31650 11.43200000 2432589012 2432589012 13.00000000
-6.60135174 6.96123838 2.57059073 45 15 31652 9.93200000 2432589017 2432589017 15.00000000
-1.44442451 1.52690220 -0.56319022 4 0 31659 2.17600000 2432589038 2432589038 -15.00000000
-1.67204607 1.76875746 -0.56192774 3 2 31661 2.49800000 2432589042 2432589042 -13.00000000
-1.98488832 2.10042882 -0.56174171 3 4 31662 2.94400000 2432589047 2432589047 -11.00000000
-2.43040776 2.57368088 -0.56066114 1 6 31664 3.58400000 2432589051 2432589051 -9.00000000
-2.94146681 3.11704612 -0.52623183 98 8 31666 4.31800000 2432589056 2432589056 -7.00000000
-3.33591008 3.53627014 -0.42532003 100 10 31667 4.88000000 2432589061 2432589061 -5.00000000
-7.14049530 7.57466030 -0.54554999 12 12 31669 10.42400000 2432589065 2432589065 -3.00000000
-7.63665676 8.10382366 2.57074070 54 13 31670 11.42800000 2432589067 2432589067 13.00000000
-6.57558203 6.98027849 2.56955552 42 15 31671 9.92800000 2432589072 2432589072 15.00000000
-1.43511784 1.52771080 -0.56163734 4 0 31679 2.17000000 2432589093 2432589093 -15.00000000
-1.67919934 1.78879130 -0.56642675 3 2 31681 2.51800000 2432589097 2432589097 -13.00000000
-1.96948373 2.09875464 -0.55945200 3 4 31682 2.93200000 2432589102 2432589102 -11.00000000
-2.43492150 2.59655833 -0.56378978 1 6 31684 3.60400000 2432589107 2432589107 -9.00000000
-2.94821429 3.14612508 -0.52940041 100 8 31686 4.34400000 2432589111 2432589111 -7.00000000
-3.30856276 3.53189850 -0.42340261 54 10 31687 4.85800000 2432589116 2432589116 -5.00000000
-7.08807755 7.57183552 -0.54356122 8 12 31689 10.38600000 2432589120 2432589120 -3.00000000
-7.60699081 8.12900829 2.57029080 56 13 31690 11.42600000 2432589123 2432589123 13.00000000
-6.55249596 7.00460005 2.57007313 45 15 31691 9.93000000 2432589127 2432589127 15.00000000
-1.42345381 1.52539945 -0.55904913 4 0 31698 2.16000000 2432589148 2432589148 -15.00000000
-1.67857444 1.80005074 -0.56822634 3 2 31700 2.52600000 2432589153 2432589153 -13.00000000
-1.96519053 2.10814643 -0.56021523 3 4 31701 2.93600000 2432589157 2432589157 -11.00000000
-2.40610075 2.58293748 -0.55909675 1 6 31703 3.57400000 2432589162 2432589162 -9.00000000
-2.95264339 3.17186737 -0.53208154 100 8 31705 4.36600000 2432589166 2432589166 -7.00000000
-3.28597403 3.53118229 -0.42200810 25 10 31706 4.84200000 2432589171 2432589171 -5.00000000
-7.86529875 8.45518780 2.24467707 3 11 31707 11.76400000 2432589173 2432589173 11.00000000
-7.04796839 7.57921028 -0.54240984 8 12 31708 10.36400000 2432589176 2432589176 -3.00000000
-7.58131933 8.15561581 2.57074070 53 13 31709 11.42800000 2432589178 2432589178 13.00000000
-6.52528667 7.02204466 2.56852031 45 15 31710 9.92400000 2432589183 2432589183 15.00000000
-1.42468584 1.53744388 -0.56163734 4 0 31718 2.17000000 2432589203 2432589203 -15.00000000
-1.66698468 1.80017972 -0.56642675 3 2 31720 2.51800000 2432589208 2432589208 -13.00000000
-1.96315444 2.12075615 -0.56174171 3 4 31721 2.94400000 2432589213 2432589213 -11.00000000
-2.42658067 2.62322259 -0.56597990 11 6 31723 3.61800000 2432589217 2432589217 -9.00000000
-2.95502830 3.19673157 -0.53451896 100 8 31725 4.38600000 2432589222 2432589222 -7.00000000
-7.02417898 7.60670090 -0.54261917 8 12 31728 10.36800000 2432589231 2432589231 -3.00000000
-7.55412626 8.18346214 2.57119060 55 13 31729 11.43000000 2432589233 2432589233 13.00000000
-6.49950600 7.04591417 2.56852031 45 15 31731 9.92400000 2432589238 2432589238 15.00000000
-1.42296493 1.54692066 -0.56319022 4 0 31739 2.17600000 2432589259 2432589259 -15.00000000
-1.64718747 1.79193044 -0.56192774 3 2 31741 2.49800000 2432589263 2432589263 -13.00000000
-1.96333849 2.13661098 -0.56403136 3 4 31742 2.95600000 2432589268 2432589268 -11.00000000
-2.41026950 2.62482381 -0.56441557 7 6 31744 3.60800000 2432589272 2432589272 -9.00000000
-2.94731832 3.21192884 -0.53525013 100 8 31746 4.39200000 2432589277 2432589277 -7.00000000
-4.28284836 4.66899872 -0.55431050 3 10 31747 6.36000000 2432589282 2432589282 -5.00000000
-7.00569916 7.64270067 -0.54335189 4 12 31749 10.38200000 2432589286 2432589286 -3.00000000
-7.51091623 8.19672680 2.56669164 56 13 31750 11.41000000 2432589289 2432589289 13.00000000
-6.47226143 7.06570959 2.56748486 40 15 31751 9.92000000 2432589293 2432589293 15.00000000
-1.42146516 1.55615747 -0.56474316 4 0 31759 2.18200000 2432589314 2432589314 -15.00000000
-1.65143275 1.80918360 -0.56552696 3 2 31761 2.51400000 2432589318 2432589318 -13.00000000
-1.96380830 2.15215278 -0.56632107 3 4 31762 2.96800000 2432589323 2432589323 -11.00000000
-2.39976144 2.63176155 -0.56410271 1 6 31764 3.60600000 2432589328 2432589328 -9.00000000
-2.92940354 3.21486068 -0.53403145 100 8 31766 4.38200000 2432589332 2432589332 -7.00000000
-4.27457476 4.69275761 -0.55535638 3 10 31767 6.37200000 2432589337 2432589337 -5.00000000
-6.99107838 7.68040133 -0.54429394 8 12 31769 10.40000000 2432589342 2432589342 -3.00000000
-7.48225880 8.22289467 2.56669164 57 13 31770 11.41000000 2432589344 2432589344 13.00000000
-6.45535755 7.09683323 2.57059073 42 15 31771 9.93200000 2432589348 2432589348 15.00000000
-1.41342866 1.55824804 -0.56370789 4 0 31779 2.17800000 2432589369 2432589369 -15.00000000
-1.65034246 1.82071257 -0.56732655 3 2 31781 2.52200000 2432589374 2432589374 -13.00000000
-1.94310141 2.14444613 -0.56250495 2 4 31782 2.94800000 2432589378 2432589378 -11.00000000
-2.39586377 2.64597940 -0.56535417 1 6 31784 3.61400000 2432589383 2432589383 -9.00000000
-2.91017246 3.21623492 -0.53256905 94 8 31786 4.37000000 2432589388 2432589388 -7.00000000
-4.26485062 4.71503830 -0.55622792 7 10 31787 6.38200000 2432589392 2432589392 -5.00000000
-6.97761917 7.71957493 -0.54534066 4 12 31789 10.42000000 2432589397 2432589397 -3.00000000
-7.45089674 8.24607086 2.56579161 55 13 31790 11.40600000 2432589399 2432589399 13.00000000
-6.42412472 7.11471033 2.56852031 42 15 31792 9.92400000 2432589404 2432589404 15.00000000
-1.40280914 1.55743062 -0.56163734 4 0 31799 2.17000000 2432589424 2432589424 -15.00000000
-1.64658427 1.82935917 -0.56822634 3 2 31801 2.52600000 2432589429 2432589429 -13.00000000
-1.93560410 2.15121579 -0.56250495 2 4 31802 2.94800000 2432589434 2432589434 -11.00000000
-2.38000917 2.64698195 -0.56378978 1 6 31804 3.60400000 2432589438 2432589438 -9.00000000
-2.89494777 3.22194386 -0.53183782 82 8 31806 4.36400000 2432589443 2432589443 -7.00000000
-4.25901699 4.74175453 -0.55762243 7 10 31807 6.39800000 2432589448 2432589448 -5.00000000
-6.95730066 7.75131607 -0.54586405 4 12 31809 10.43000000 2432589452 2432589452 -3.00000000
-7.41425848 8.26332664 2.56309223 45 13 31810 11.39400000 2432589454 2432589454 13.00000000
-6.39151239 7.12846136 2.56541443 45 15 31812 9.91200000 2432589459 2432589459 15.00000000
-1.39763677 1.56207395 -0.56163734 4 0 31818 2.17000000 2432589480 2432589480 -15.00000000
-1.64050889 1.83480930 -0.56822634 3 2 31820 2.52600000 2432589484 2432589484 -13.00000000
-1.94415951 2.17518806 -0.56708431 3 4 31821 2.97200000 2432589489 2432589489 -11.00000000
-2.37779784 2.66222620 -0.56535417 1 6 31823 3.61400000 2432589494 2432589494 -9.00000000
-2.88556933 3.23300719 -0.53208154 56 8 31825 4.36600000 2432589498 2432589498 -7.00000000
-4.23531055 4.74693203 -0.55657655 7 10 31826 6.38600000 2432589503 2432589503 -5.00000000
-6.95282459 7.79819679 -0.54753876 4 12 31828 10.46200000 2432589507 2432589507 -3.00000000
-6.35600662 7.13131952 2.20542026 10 13 31829 9.80400000 2432589510 2432589510 13.00000000
-6.36526871 7.14673185 2.56437922 42 15 31831 9.90800000 2432589514 2432589514 15.00000000
-1.39987421 1.57560825 -0.56474316 4 0 31838 2.18200000 2432589535 2432589535 -15.00000000
-1.62891889 1.83469558 -0.56642675 3 2 31840 2.51800000 2432589540 2432589540 -13.00000000
-1.93134212 2.17608786 -0.56555784 2 4 31841 2.96400000 2432589544 2432589544 -11.00000000
-2.36324739 2.66459846 -0.56410271 1 6 31843 3.60600000 2432589549 2432589549 -9.00000000
-2.87558293 3.24454570 -0.53232527 52 8 31845 4.36800000 2432589554 2432589554 -7.00000000
-4.22399998 4.76765203 -0.55727381 7 10 31846 6.39400000 2432589558 2432589558 -5.00000000
-6.90967417 7.80447483 -0.54628271 4 12 31848 10.43800000 2432589563 2432589563 -3.00000000
-6.30782747 7.12719536 2.19732189 14 13 31849 9.76800000 2432589565 2432589565 13.00000000
-6.34540272 7.17469549 2.56644964 42 15 31851 9.91600000 2432589570 2432589570 15.00000000
-1.39436579 1.58048511 -0.56474316 4 0 31858 2.18200000 2432589590 2432589590 -15.00000000
-1.61992729 1.83744681 -0.56552696 3 2 31860 2.51400000 2432589595 2432589595 -13.00000000
-1.92113817 2.17987037 -0.56479460 3 4 31861 2.96000000 2432589600 2432589600 -11.00000000
-2.34870958 2.66690183 -0.56285119 1 6 31863 3.59800000 2432589604 2432589604 -9.00000000
-4.23102045 4.80929375 -0.56041145 3 10 31866 6.43000000 2432589613 2432589613 -5.00000000
-6.90744495 7.85704660 -0.54827148 4 12 31868 10.47600000 2432589618 2432589618 -3.00000000
-6.25332260 7.11550283 2.18697405 16 13 31869 9.72200000 2432589620 2432589620 13.00000000
-6.30882502 7.18118525 2.56127334 42 15 31870 9.89600000 2432589625 2432589625 15.00000000
-1.38629436 1.58243644 -0.56370789 4 0 31878 2.17800000 2432589646 2432589646 -15.00000000
-1.61607075 1.84602273 -0.56642675 3 2 31880 2.51800000 2432589650 2432589650 -13.00000000
-1.92127490 2.19542766 -0.56708431 3 4 31881 2.97200000 2432589655 2432589655 -11.00000000
-2.33938622 2.67508411 -0.56285119 1 6 31883 3.59800000 2432589659 2432589659 -9.00000000
-2.95083117 3.37664819 -0.55060571 12 8 31885 4.51800000 2432589664 2432589664 -7.00000000
-4.20503139 4.81352997 -0.55919123 3 10 31886 6.41600000 2432589669 2432589669 -5.00000000
-6.90099239 7.90518379 -0.54994625 4 12 31888 10.50800000 2432589673 2432589673 -3.00000000
-6.04906368 6.93172932 2.12398791 90 13 31889 9.44200000 2432589676 2432589676 13.00000000
-6.28500175 7.20717192 2.56230855 42 15 31891 9.90000000 2432589680 2432589680 15.00000000
-1.38203013 1.58872342 -0.56422549 4 0 31898 2.18000000 2432589701 2432589701 -15.00000000
-1.61089563 1.85312343 -0.56687665 4 2 31900 2.52000000 2432589706 2432589706 -13.00000000
-1.90329766 2.19026542 -0.56403136 2 4 31901 2.95600000 2432589710 2432589710 -11.00000000
-2.34039545 2.69516587 -0.56535417 1 6 31903 3.61400000 2432589715 2432589715 -9.00000000
-2.94423056 3.39292526 -0.55158067 10 8 31905 4.52600000 2432589719 2432589719 -7.00000000
-4.21039772 4.85376501 -0.56215453 3 10 31906 6.45000000 2432589724 2432589724 -5.00000000
-6.88382149 7.94129801 -0.55078357 4 12 31908 10.52400000 2432589729 2432589729 -3.00000000
-6.16903830 7.11922169 2.17482686 18 13 31909 9.66800000 2432589731 2432589731 13.00000000
-6.05489492 6.98996210 2.47793365 45 15 31910 9.57400000 2432589736 2432589736 15.00000000
-1.37395036 1.59061408 -0.56319022 4 0 31918 2.17600000 2432589756 2432589756 -15.00000000
-1.60569048 1.86021030 -0.56732655 4 2 31920 2.52200000 2432589761 2432589761 -13.00000000
-1.90590119 2.20878696 -0.56708431 2 4 31921 2.97200000 2432589765 2432589765 -11.00000000
-2.32968354 2.70182300 -0.56504130 1 6 31923 3.61200000 2432589770 2432589770 -9.00000000
-2.93496060 3.40618944 -0.55206811 12 8 31925 4.53000000 2432589775 2432589775 -7.00000000
-4.19342947 4.86843252 -0.56215453 3 10 31926 6.45000000 2432589779 2432589779 -5.00000000
-6.87430048 7.98647070 -0.55224901 4 12 31928 10.55200000 2432589784 2432589784 -3.00000000
-6.13143969 7.12594032 2.17032766 17 13 31929 9.64800000 2432589786 2432589786 13.00000000
-6.23327398 7.24940872 2.56179094 45 15 31931 9.89800000 2432589791 2432589791 15.00000000
-1.37593603 1.60419846 -0.56629604 4 0 31938 2.18800000 2432589812 2432589812 -15.00000000
-1.59031010 1.85544658 -0.56417722 4 2 31940 2.50800000 2432589816 2432589816 -13.00000000
-1.89817941 2.21542645 -0.56708431 2 4 31941 2.97200000 2432589821 2432589821 -11.00000000
-2.32152295 2.71143913 -0.56535417 1 6 31943 3.61400000 2432589825 2432589825 -9.00000000
-2.92047191 3.41339707 -0.55158067 12 8 31945 4.52600000 2432589830 2432589830 -7.00000000
-4.19454002 4.90423822 -0.56459492 7 10 31946 6.47800000 2432589835 2432589835 -5.00000000
-6.84638071 8.01041794 -0.55224901 4 12 31948 10.55200000 2432589839 2432589839 -3.00000000
-6.08880615 7.12655735 2.16402912 21 13 31949 9.62000000 2432589842 2432589842 13.00000000
-6.21547318 7.27738380 2.56437922 45 15 31950 9.90800000 2432589846 2432589846 15.00000000
-1.37032795 1.60899162 -0.56629604 4 0 31958 2.18800000 2432589867 2432589867 -15.00000000
-1.58761275 1.86543858 -0.56552696 4 2 31960 2.51400000 2432589871 2432589871 -13.00000000
-1.88280165 2.21306682 -0.56479460 3 4 31961 2.96000000 2432589876 2432589876 -11.00000000
-2.31460309 2.72253633 -0.56597990 1 6 31963 3.61800000 2432589881 2432589881 -9.00000000
-2.90082765 3.41449332 -0.55011821 12 8 31965 4.51400000 2432589885 2432589885 -7.00000000
-4.16836739 4.90821934 -0.56337470 7 10 31966 6.46400000 2432589890 2432589890 -5.00000000
-6.03152227 7.10458279 1.81154060 18 11 31967 9.49400000 2432589892 2432589892 11.00000000
-6.83647013 8.05558681 -0.55371439 4 12 31968 10.58000000 2432589894 2432589894 -3.00000000
-6.04876471 7.12993526 2.15863037 16 13 31969 9.59600000 2432589897 2432589897 13.00000000
-6.19125700 7.30306292 2.56541443 45 15 31971 9.91200000 2432589901 2432589901 15.00000000
-1.36248946 1.61057723 -0.56526077 4 0 31977 2.18400000 2432589922 2432589922 -15.00000000
-1.58645034 1.87664592 -0.56732655 4 2 31979 2.52200000 2432589927 2432589927 -13.00000000
-1.87545252 2.21929836 -0.56479460 3 4 31980 2.96000000 2432589931 2432589931 -11.00000000
-2.31958151 2.74679828 -0.56942147 1 6 31982 3.64000000 2432589936 2432589936 -9.00000000
-2.89332938 3.42864537 -0.55084944 8 8 31984 4.52000000 2432589941 2432589941 -7.00000000
-4.14307547 4.91135502 -0.56215453 7 10 31985 6.45000000 2432589945 2432589945 -5.00000000
-6.02691412 7.14705753 1.81726491 25 11 31986 9.52400000 2432589947 2432589947 11.00000000
-6.84190130 8.11639023 -0.55633122 4 12 31987 10.63000000 2432589950 2432589950 -3.00000000
-6.00625134 7.12760162 2.15188169 12 13 31988 9.56600000 2432589952 2432589952 13.00000000
-6.16081572 7.31361246 2.56230855 42 15 31989 9.90000000 2432589957 2432589957 15.00000000
-1.34940386 1.60644794 -0.56215495 4 0 31997 2.17200000 2432589977 2432589977 -15.00000000
-1.58490145 1.88814270 -0.56912619 4 2 31999 2.53000000 2432589982 2432589982 -13.00000000
-1.87778986 2.23786283 -0.56784755 3 4 32000 2.97600000 2432589987 2432589987 -11.00000000
-2.29474854 2.73671436 -0.56566703 1 6 32002 3.61600000 2432589991 2432589991 -9.00000000
-2.88134360 3.43872428 -0.55084944 8 8 32004 4.52000000 2432589996 2432589996 -7.00000000
-4.13102388 4.93189669 -0.56285179 7 10 32005 6.45800000 2432590000 2432590000 -5.00000000
-6.01201248 7.18009377 1.82031786 9 11 32006 9.54000000 2432590003 2432590003 11.00000000
-6.80199051 8.12643909 -0.55538917 4 12 32007 10.61200000 2432590005 2432590005 -3.00000000
-5.97133064 7.13656759 2.14828253 15 13 32008 9.55000000 2432590007 2432590007 13.00000000
-6.13025093 7.33169794 2.56075573 45 15 32010 9.89400000 2432590012 2432590012 15.00000000
-1.35368705 1.62301695 -0.56629604 4 0 32017 2.18800000 2432590033 2432590033 -15.00000000
-1.57206261 1.88617861 -0.56687665 4 2 32019 2.52000000 2432590037 2432590037 -13.00000000
-1.87248027 2.24742055 -0.56861079 3 4 32020 2.98000000 2432590042 2432590042 -11.00000000
-2.28644562 2.74622607 -0.56597990 1 6 32022 3.61800000 2432590047 2432590047 -9.00000000
-2.87820983 3.45944309 -0.55255562 8 8 32024 4.53400000 2432590051 2432590051 -7.00000000
-4.13671541 4.97385931 -0.56598938 3 10 32025 6.49400000 2432590056 2432590056 -5.00000000
-6.02958679 7.25236416 1.83329284 9 11 32026 9.60800000 2432590058 2432590058 11.00000000
-6.77358246 8.15013313 -0.55538917 4 12 32027 10.61200000 2432590060 2432590060 -3.00000000
-5.99619532 7.21732473 2.16627860 30 13 32028 9.63000000 2432590063 2432590063 13.00000000
-6.01827145 7.24646950 2.52400327 47 15 32029 9.75200000 2432590067 2432590067 15.00000000
-1.34431684 1.62326872 -0.56474316 4 0 32037 2.18200000 2432590088 2432590088 -15.00000000
-1.56671154 1.89315605 -0.56732655 4 2 32039 2.52200000 2432590093 2432590093 -13.00000000
-1.86712670 2.25696850 -0.56937402 3 4 32040 2.98400000 2432590097 2432590097 -11.00000000
-2.28943181 2.76941538 -0.56910861 1 6 32042 3.63800000 2432590102 2432590102 -9.00000000
-2.88508081 3.49242520 -0.55621171 8 8 32044 4.56400000 2432590106 2432590106 -7.00000000
-4.14343262 5.01745796 -0.56930131 4 10 32045 6.53200000 2432590111 2432590111 -5.00000000
-6.76416016 8.19683456 -0.55695927 4 12 32047 10.64200000 2432590116 2432590116 -3.00000000
-7.03867102 8.53252125 2.55364442 44 13 32048 11.35200000 2432590118 2432590118 13.00000000
-6.07891703 7.37431574 2.56075573 45 15 32050 9.89400000 2432590123 2432590123 15.00000000
-1.34723139 1.63839650 -0.56836665 4 0 32057 2.19600000 2432590143 2432590143 -15.00000000
-1.56009364 1.89861333 -0.56732655 4 2 32059 2.52200000 2432590148 2432590148 -13.00000000
-1.86172938 2.26650643 -0.57013726 2 4 32060 2.98800000 2432590153 2432590153 -11.00000000
-2.27849746 2.77586317 -0.56879574 1 6 32062 3.63600000 2432590157 2432590157 -9.00000000
-2.88797951 3.52089262 -0.55913657 8 8 32064 4.58800000 2432590162 2432590162 -7.00000000
-4.11452341 5.01802492 -0.56773251 4 10 32065 6.51400000 2432590166 2432590166 -5.00000000
-6.72917747 8.21267128 -0.55643588 8 12 32067 10.63200000 2432590171 2432590171 -3.00000000
-7.00390482 8.55100822 2.55184484 57 13 32068 11.34400000 2432590173 2432590173 13.00000000
-6.05565310 7.39592838 2.56127334 45 15 32069 9.89600000 2432590178 2432590178 15.00000000
-1.34150410 1.64308918 -0.56836665 5 0 32077 2.19600000 2432590199 2432590199 -15.00000000
-1.55961633 1.91159725 -0.56957608 4 2 32079 2.53200000 2432590203 2432590203 -13.00000000
-1.84139812 2.25777721 -0.56632107 2 4 32080 2.96800000 2432590208 2432590208 -11.00000000
-2.25631452 2.76848722 -0.56566703 1 6 32082 3.61600000 2432590212 2432590212 -9.00000000
-2.89572883 3.55557942 -0.56303638 8 8 32084 4.62000000 2432590217 2432590217 -7.00000000
-4.09949827 5.03544664 -0.56808114 4 10 32085 6.51800000 2432590222 2432590222 -5.00000000
-6.73324060 8.27639294 -0.55915737 8 12 32087 10.68400000 2432590226 2432590226 -3.00000000
-6.97278404 8.57389259 2.55139494 59 13 32088 11.34200000 2432590229 2432590229 13.00000000
-6.02979994 7.41702175 2.56127334 42 15 32089 9.89600000 2432590233 2432590233 15.00000000
-1.32996404 1.64002633 -0.56577843 5 0 32096 2.18600000 2432590254 2432590254 -15.00000000
-1.56308389 1.92887080 -0.57317531 4 2 32098 2.54800000 2432590259 2432590259 -13.00000000
-1.84378719 2.27607512 -0.56937402 3 4 32099 2.98400000 2432590263 2432590263 -11.00000000
-2.26576447 2.79898500 -0.57036006 1 6 32101 3.64600000 2432590268 2432590268 -9.00000000
-2.89765501 3.58213949 -0.56571752 8 8 32103 4.64200000 2432590272 2432590272 -7.00000000
-4.07400799 5.03816843 -0.56686097 4 10 32104 6.50400000 2432590277 2432590277 -5.00000000
-6.71705532 8.31265640 -0.56009942 8 12 32106 10.70200000 2432590282 2432590282 -3.00000000
-6.94921207 8.60303116 2.55319452 59 13 32107 11.35000000 2432590284 2432590284 13.00000000
-6.00031614 7.43096447 2.55920267 42 15 32108 9.88800000 2432590288 2432590288 15.00000000
-1.33028889 1.65218246 -0.56836665 6 0 32116 2.19600000 2432590309 2432590309 -15.00000000
-1.55145490 1.92824209 -0.57137567 4 2 32118 2.54000000 2432590314 2432590314 -13.00000000
-1.83583093 2.28249741 -0.56937402 2 4 32119 2.98400000 2432590318 2432590318 -11.00000000
-2.24236774 2.78994012 -0.56691849 1 6 32121 3.62400000 2432590323 2432590323 -9.00000000
-2.88637638 3.59378004 -0.56596124 8 8 32123 4.64400000 2432590328 2432590328 -7.00000000
-4.07760191 5.07877016 -0.56982422 4 10 32124 6.53800000 2432590332 2432590332 -5.00000000
-6.70299625 8.35474682 -0.56135547 4 12 32126 10.72600000 2432590337 2432590337 -3.00000000
-6.92889309 8.63939857 2.55679369 56 13 32127 11.36600000 2432590339 2432590339 13.00000000
-5.96941566 7.44838428 2.55764985 45 15 32129 9.88200000 2432590344 2432590344 15.00000000
-1.32089472 1.65228915 -0.56681371 5 0 32136 2.19000000 2432590365 2432590365 -15.00000000
-1.53984940 1.92755568 -0.56957608 4 2 32138 2.53200000 2432590369 2432590369 -13.00000000
-1.83030260 2.29195976 -0.57013726 3 4 32139 2.98800000 2432590374 2432590374 -11.00000000
-2.23631191 2.80238247 -0.56785709 1 6 32141 3.63000000 2432590378 2432590378 -9.00000000
-2.87133908 3.60072947 -0.56547374 8 8 32143 4.64000000 2432590383 2432590383 -7.00000000
-4.06730032 5.10232067 -0.57087010 4 10 32144 6.55000000 2432590388 2432590388 -5.00000000
-6.67752504 8.38278008 -0.56166947 4 12 32146 10.73200000 2432590392 2432590392 -3.00000000
-6.88655472 8.64828682 2.55229473 60 13 32147 11.34600000 2432590394 2432590394 13.00000000
-5.95069885 7.47569609 2.56023788 42 15 32148 9.89200000 2432590399 2432590399 15.00000000
-1.31632018 1.65840292 -0.56733137 4 0 32156 2.19200000 2432590420 2432590420 -15.00000000
-1.54158854 1.94360662 -0.57272536 4 2 32158 2.54600000 2432590424 2432590424 -13.00000000
-1.82473040 2.30141163 -0.57090050 3 4 32159 2.99200000 2432590429 2432590429 -11.00000000
-2.24246359 2.83029962 -0.57192439 1 6 32161 3.65600000 2432590434 2432590434 -9.00000000
-2.85505581 3.60606122 -0.56474257 8 8 32163 4.63400000 2432590438 2432590438 -7.00000000
-4.06059313 5.13054752 -0.57243890 4 10 32164 6.56800000 2432590443 2432590443 -5.00000000
-6.67052412 8.43423557 -0.56355357 4 12 32166 10.76800000 2432590447 2432590447 -3.00000000
-6.84907293 8.66310120 2.54959536 60 13 32167 11.33400000 2432590450 2432590450 13.00000000
-5.92696333 7.49945354 2.56127334 45 15 32168 9.89600000 2432590454 2432590454 15.00000000
-1.30574024 1.65691841 -0.56526077 4 0 32176 2.18400000 2432590475 2432590475 -15.00000000
-1.53117776 1.94438279 -0.57137567 4 2 32178 2.54000000 2432590480 2432590480 -13.00000000
-1.81668591 2.30776715 -0.57090050 2 4 32179 2.99200000 2432590484 2432590484 -11.00000000
-2.22279978 2.82568932 -0.56942147 1 6 32181 3.64000000 2432590489 2432590489 -9.00000000
-2.84613132 3.62068725 -0.56547374 8 8 32183 4.64000000 2432590493 2432590493 -7.00000000
-4.04019737 5.14155722 -0.57209027 8 10 32184 6.56400000 2432590498 2432590498 -5.00000000
-6.64104271 8.45746899 -0.56355357 4 12 32186 10.76800000 2432590503 2432590503 -3.00000000
-6.81397867 8.68082428 2.54779553 60 13 32187 11.32600000 2432590505 2432590505 13.00000000
-5.89478636 7.51249743 2.55868506 45 15 32188 9.88600000 2432590510 2432590510 15.00000000
-1.29399645 1.65385878 -0.56267262 4 0 32196 2.17400000 2432590530 2432590530 -15.00000000
-1.53158307 1.95892704 -0.57407510 4 2 32198 2.55200000 2432590535 2432590535 -13.00000000
-1.80378330 2.30790710 -0.56937402 3 4 32199 2.98400000 2432590540 2432590540 -11.00000000
-2.20805907 2.82720375 -0.56816995 1 6 32201 3.63200000 2432590544 2432590544 -9.00000000
-2.83591819 3.63372970 -0.56596124 8 8 32203 4.64400000 2432590549 2432590549 -7.00000000
-4.01977444 5.15248728 -0.57174170 4 10 32204 6.56000000 2432590553 2432590553 -5.00000000
-6.61639214 8.48689938 -0.56397223 4 12 32206 10.77600000 2432590558 2432590558 -3.00000000
-6.79082251 8.71377945 2.55049515 62 13 32207 11.33800000 2432590560 2432590560 13.00000000
-5.86365128 7.52947998 2.55713224 42 15 32209 9.88000000 2432590565 2432590565 15.00000000
-1.28318667 1.65248704 -0.56060207 3 0 32217 2.16600000 2432590586 2432590586 -15.00000000
-1.52439296 1.96452737 -0.57407510 4 2 32219 2.55200000 2432590590 2432590590 -13.00000000
-1.79531229 2.31450272 -0.56937402 2 4 32220 2.98400000 2432590595 2432590595 -11.00000000
-2.18921089 2.82434893 -0.56597990 1 6 32222 3.61800000 2432590599 2432590599 -9.00000000
-2.82744312 3.65037704 -0.56693619 8 8 32224 4.65200000 2432590604 2432590604 -7.00000000
-4.00574160 5.17348719 -0.57243890 4 10 32225 6.56800000 2432590609 2432590609 -5.00000000
-6.60601902 8.53794670 -0.56575167 4 12 32227 10.81000000 2432590613 2432590613 -3.00000000
-6.75407028 8.73244476 2.54869556 59 13 32228 11.33000000 2432590616 2432590616 13.00000000
-5.83969593 7.55295897 2.55816746 42 15 32229 9.88400000 2432590620 2432590620 15.00000000
-1.29628277 1.68143559 -0.56888425 4 0 32237 2.19800000 2432590641 2432590641 -15.00000000
-1.50801194 1.95748651 -0.57047588 4 2 32239 2.53600000 2432590645 2432590645 -13.00000000
-1.79920101 2.33631015 -0.57319021 4 4 32240 3.00400000 2432590650 2432590650 -11.00000000
-2.20584249 2.86641431 -0.57286298 1 6 32242 3.66200000 2432590655 2432590655 -9.00000000
-2.81226349 3.65707731 -0.56644869 8 8 32244 4.64800000 2432590659 2432590659 -7.00000000
-3.98522997 5.18427896 -0.57209027 4 10 32245 6.56400000 2432590664 2432590664 -5.00000000
-6.58955956 8.57837677 -0.56690305 4 12 32247 10.83200000 2432590669 2432590669 -3.00000000
-6.72117376 8.75287628 2.54779553 59 13 32248 11.32600000 2432590671 2432590671 13.00000000
-5.81329584 7.57329702 2.55816746 42 15 32249 9.88400000 2432590675 2432590675 15.00000000
-1.29099405 1.68549967 -0.56888425 4 0 32255 2.19800000 2432590696 2432590696 -15.00000000
-1.50659251 1.96840429 -0.57227546 4 2 32257 2.54400000 2432590701 2432590701 -13.00000000
-1.77992260 2.32635880 -0.56937402 2 4 32258 2.98400000 2432590705 2432590705 -11.00000000
-2.18482876 2.85763717 -0.56973433 1 6 32260 3.64200000 2432590710 2432590710 -9.00000000
-2.79714513 3.66116190 -0.56571752 8 8 32262 4.64200000 2432590715 2432590715 -7.00000000
-3.97497010 5.20469046 -0.57296187 4 10 32263 6.57400000 2432590719 2432590719 -5.00000000
-6.58923435 8.63396645 -0.56920588 4 12 32265 10.87600000 2432590724 2432590724 -3.00000000
-6.68891430 8.76775074 2.54599595 56 13 32266 11.31800000 2432590726 2432590726 13.00000000
-5.79166317 7.59714222 2.55972028 45 15 32268 9.89000000 2432590731 2432590731 15.00000000
-1.28510273 1.68999577 -0.56888425 4 0 32275 2.19800000 2432590751 2432590751 -15.00000000
-1.50678647 1.98296106 -0.57497489 4 2 32277 2.55600000 2432590756 2432590756 -13.00000000
-1.77654135 2.33881116 -0.57090050 3 4 32278 2.99200000 2432590761 2432590761 -11.00000000
-2.18200612 2.87468696 -0.57161152 1 6 32280 3.65400000 2432590765 2432590765 -9.00000000
-2.78554797 3.67248511 -0.56596124 8 8 32282 4.64400000 2432590770 2432590770 -7.00000000
-3.95557427 5.21694660 -0.57278752 4 10 32283 6.57200000 2432590775 2432590775 -5.00000000
-6.55061293 8.64577103 -0.56847316 4 12 32285 10.86200000 2432590779 2432590779 -3.00000000
-6.66062164 8.79415321 2.54689574 56 13 32286 11.32200000 2432590781 2432590781 13.00000000
-5.75578213 7.60498905 2.55557919 40 15 32288 9.87400000 2432590786 2432590786 15.00000000
-1.27744067 1.69337559 -0.56836665 4 0 32297 2.19600000 2432590807 2432590807 -15.00000000
-1.50150740 1.99184430 -0.57587469 4 2 32299 2.56000000 2432590811 2432590811 -13.00000000
-1.77463698 2.35502291 -0.57319021 2 4 32300 3.00400000 2432590816 2432590816 -11.00000000
-2.16738725 2.87830997 -0.57067293 1 6 32302 3.64800000 2432590821 2432590821 -9.00000000
-2.77620029 3.68949842 -0.56693619 6 8 32304 4.65200000 2432590825 2432590825 -7.00000000
-3.94509482 5.24483442 -0.57418203 4 10 32305 6.58800000 2432590830 2432590830 -5.00000000
-6.53416824 8.69321060 -0.56993854 4 12 32307 10.89000000 2432590834 2432590834 -3.00000000
-6.63148785 8.82589436 2.54869556 56 13 32308 11.33000000 2432590837 2432590837 13.00000000
-5.72421885 7.62394381 2.55454397 45 15 32310 9.87000000 2432590841 2432590841 15.00000000
-1.27152193 1.69782436 -0.56836665 4 0 32317 2.19600000 2432590862 2432590862 -15.00000000
-1.48987508 1.99083257 -0.57407510 4 2 32319 2.55200000 2432590867 2432590867 -13.00000000
-1.76170146 2.35491490 -0.57166374 3 4 32320 2.99600000 2432590871 2432590871 -11.00000000
-2.15732694 2.88585806 -0.57067293 1 6 32322 3.64800000 2432590876 2432590876 -9.00000000
-2.77518463 3.71507025 -0.56937355 4 8 32324 4.67200000 2432590881 2432590881 -7.00000000
-3.93033910 5.26336241 -0.57470495 4 10 32325 6.59400000 2432590885 2432590885 -5.00000000
-6.52408886 8.74317932 -0.57171798 4 12 32327 10.92400000 2432590890 2432590890 -3.00000000
-6.60063934 8.84898949 2.54869556 56 13 32328 11.33000000 2432590892 2432590892 13.00000000
-5.69757175 7.64387894 2.55454397 40 15 32330 9.87000000 2432590897 2432590897 15.00000000
-1.26819050 1.70513177 -0.56940192 4 0 32336 2.20000000 2432590917 2432590917 -15.00000000
-1.48326504 1.99576223 -0.57407510 4 2 32338 2.55200000 2432590922 2432590922 -13.00000000
-1.75856590 2.36704779 -0.57319021 2 4 32339 3.00400000 2432590927 2432590927 -11.00000000
-2.15598774 2.90409875 -0.57286298 1 6 32341 3.66200000 2432590931 2432590931 -9.00000000
-2.78413892 3.75294995 -0.57376087 2 8 32343 4.70800000 2432590936 2432590936 -7.00000000
-3.91998434 5.28596926 -0.57575083 4 10 32344 6.60600000 2432590940 2432590940 -5.00000000
-6.49505949 8.76476574 -0.57171798 4 12 32346 10.92400000 2432590945 2432590945 -3.00000000
-6.56893921 8.86769676 2.54779553 56 13 32347 11.32600000 2432590947 2432590947 13.00000000
-5.67467928 7.66329288 2.55506158 42 15 32348 9.87200000 2432590952 2432590952 15.00000000
-1.26682067 1.71576476 -0.57147247 4 0 32356 2.20800000 2432590973 2432590973 -15.00000000
-1.46934760 1.99151886 -0.57137567 4 2 32358 2.54000000 2432590977 2432590977 -13.00000000
-1.74563134 2.36685181 -0.57166374 3 4 32359 2.99600000 2432590982 2432590982 -11.00000000
-2.14114952 2.90524602 -0.57161152 1 6 32361 3.65400000 2432590986 2432590986 -9.00000000
-2.77337599 3.76584220 -0.57424837 2 8 32363 4.71200000 2432590991 2432590991 -7.00000000
-3.90150905 5.29962015 -0.57575083 4 10 32364 6.60600000 2432590996 2432590996 -5.00000000
-6.47389364 8.80025482 -0.57255536 4 12 32366 10.94000000 2432591000 2432591000 -3.00000000
-6.53563595 8.88743305 2.54689574 57 13 32367 11.32200000 2432591003 2432591003 13.00000000
-5.65112972 7.69026709 2.55713224 42 15 32369 9.88000000 2432591007 2432591007 15.00000000
-1.25655472 1.71372449 -0.56940192 4 0 32375 2.20000000 2432591028 2432591028 -15.00000000
-1.46964598 2.00581217 -0.57407510 4 2 32377 2.55200000 2432591033 2432591033 -13.00000000
-1.73081267 2.36312437 -0.56937402 3 4 32378 2.98400000 2432591037 2432591037 -11.00000000
-2.14433694 2.92986488 -0.57505310 1 6 32380 3.67600000 2432591042 2432591042 -9.00000000
-2.76204467 3.77662086 -0.57449210 2 8 32382 4.71400000 2432591046 2432591046 -7.00000000
-3.89449620 5.32700443 -0.57731962 4 10 32383 6.62400000 2432591051 2432591051 -5.00000000
-6.46823883 8.85392952 -0.57464880 4 12 32385 10.98000000 2432591056 2432591056 -3.00000000
-6.50842667 8.91220474 2.54779553 57 13 32386 11.32600000 2432591058 2432591058 13.00000000
-5.62466383 7.70486212 2.55609679 45 15 32387 9.87600000 2432591063 2432591063 15.00000000
-1.24829137 1.71497643 -0.56836665 4 0 32395 2.19600000 2432591083 2432591083 -15.00000000
-1.46492803 2.01408195 -0.57497489 4 2 32397 2.55600000 2432591088 2432591088 -13.00000000
-1.72948039 2.37867904 -0.57166374 2 4 32398 2.99600000 2432591092 2432591092 -11.00000000
-2.13758016 2.94212651 -0.57599169 1 6 32400 3.68200000 2432591097 2432591097 -9.00000000
-2.76167369 3.80390930 -0.57717323 2 8 32402 4.73600000 2432591102 2432591102 -7.00000000
-3.86300516 5.32282877 -0.57540220 4 10 32403 6.60200000 2432591106 2432591106 -5.00000000
-6.44667387 8.88938808 -0.57548618 4 12 32405 10.99600000 2432591111 2432591111 -3.00000000
-6.47956514 8.93802452 2.54869556 62 13 32406 11.33000000 2432591113 2432591113 13.00000000
-5.58731985 7.71290970 2.55195570 40 15 32408 9.86000000 2432591118 2432591118 15.00000000
-1.24425960 1.72267222 -0.56940192 4 0 32416 2.20000000 2432591139 2432591139 -15.00000000
-1.45297420 2.01311707 -0.57317531 4 2 32418 2.54800000 2432591143 2432591143 -13.00000000
-1.72304785 2.38818622 -0.57242697 4 4 32419 3.00000000 2432591148 2432591148 -11.00000000
-2.12100625 2.94192958 -0.57442737 1 6 32421 3.67200000 2432591152 2432591152 -9.00000000
-2.74655271 3.81239510 -0.57692945 2 8 32423 4.73400000 2432591157 2432591157 -7.00000000
-3.86326361 5.36443710 -0.57836550 4 10 32424 6.63600000 2432591162 2432591162 -5.00000000
-6.42104912 8.92268372 -0.57611418 4 12 32426 11.00800000 2432591166 2432591166 -3.00000000
-6.44448614 8.95854950 2.54779553 62 13 32427 11.32600000 2432591169 2432591169 13.00000000
-5.56036282 7.73236609 2.55195570 40 15 32428 9.86000000 2432591173 2432591173 15.00000000
-1.24499273 1.73642504 -0.57250774 4 0 32436 2.21200000 2432591194 2432591194 -15.00000000
-1.44593835 2.01817656 -0.57317531 4 2 32438 2.54800000 2432591198 2432591198 -13.00000000
-1.72384620 2.40695524 -0.57547992 4 4 32439 3.01600000 2432591203 2432591203 -11.00000000
-2.10382628 2.93967724 -0.57255012 1 6 32441 3.66000000 2432591208 2432591208 -9.00000000
-2.72976398 3.81711507 -0.57619828 2 8 32443 4.72800000 2432591212 2432591212 -7.00000000
-3.86421227 5.40544367 -0.58132881 4 10 32444 6.67000000 2432591217 2432591217 -5.00000000
-6.41424370 8.97917175 -0.57831234 4 12 32446 11.05000000 2432591221 2432591221 -3.00000000
-6.40864611 8.97464657 2.54599595 59 13 32447 11.31800000 2432591224 2432591224 13.00000000
-5.53871727 7.76212931 2.55506158 40 15 32449 9.87200000 2432591228 2432591228 15.00000000
-1.23698676 1.73739660 -0.57147247 4 0 32455 2.20800000 2432591249 2432591249 -15.00000000
-1.43923783 2.02296042 -0.57317531 4 2 32457 2.54800000 2432591254 2432591254 -13.00000000
-1.71357930 2.40945864 -0.57471669 4 4 32458 3.01200000 2432591258 2432591258 -11.00000000
-2.09063339 2.94180703 -0.57161152 1 6 32460 3.65400000 2432591263 2432591263 -9.00000000
-2.70559740 3.80996132 -0.57376087 2 8 32462 4.70800000 2432591268 2432591268 -7.00000000
-3.84857273 5.42147732 -0.58167744 4 10 32463 6.67400000 2432591272 2432591272 -5.00000000
-6.39136600 9.01016712 -0.57894033 4 12 32465 11.06200000 2432591277 2432591277 -3.00000000
-6.37434101 8.98949051 2.54419637 60 13 32466 11.31000000 2432591279 2432591279 13.00000000
-4.84512568 6.83542442 2.24499631 33 15 32467 8.67400000 2432591284 2432591284 15.00000000
-1.23314452 1.74485910 -0.57250774 4 0 32475 2.21200000 2432591304 2432591304 -15.00000000
-1.43216765 2.02797198 -0.57317531 4 2 32477 2.54800000 2432591309 2432591309 -13.00000000
-1.69836473 2.40580225 -0.57242697 2 4 32478 3.00000000 2432591314 2432591314 -11.00000000
-2.09401584 2.96845675 -0.57536596 1 6 32480 3.67800000 2432591318 2432591318 -9.00000000
-2.70714998 3.84047484 -0.57692945 2 8 32482 4.73400000 2432591323 2432591323 -7.00000000
-3.82618189 5.42999220 -0.58115447 4 10 32483 6.66800000 2432591327 2432591327 -5.00000000
-6.36447525 9.03895473 -0.57935905 4 12 32485 11.07000000 2432591332 2432591332 -3.00000000
-6.34292269 9.01168633 2.54419637 60 13 32486 11.31000000 2432591334 2432591334 13.00000000
-4.82337379 6.85787725 2.24654937 45 15 32488 8.68000000 2432591339 2432591339 15.00000000
-1.22069323 1.73945093 -0.56940192 4 0 32494 2.20000000 2432591360 2432591360 -15.00000000
-1.43214798 2.04228330 -0.57587469 4 2 32496 2.56000000 2432591364 2432591364 -13.00000000
-1.69488513 2.41785145 -0.57395345 2 4 32497 3.00800000 2432591369 2432591369 -11.00000000
-2.08756065 2.98023820 -0.57630455 1 6 32499 3.68400000 2432591374 2432591374 -9.00000000
-2.68870783 3.84129953 -0.57571077 2 8 32501 4.72400000 2432591378 2432591378 -7.00000000
-3.79558992 5.42469311 -0.57923704 4 10 32502 6.64600000 2432591383 2432591383 -5.00000000
-6.33217716 9.05673695 -0.57914966 8 12 32504 11.06600000 2432591387 2432591387 -3.00000000
-6.31300402 9.03267097 2.54419637 59 13 32505 11.31000000 2432591390 2432591390 13.00000000
-4.79184771 6.85874367 2.24189067 38 15 32506 8.66200000 2432591394 2432591394 15.00000000
-1.21682239 1.74687171 -0.57043719 4 0 32514 2.20400000 2432591415 2432591415 -15.00000000
-1.41944385 2.03927279 -0.57362521 4 2 32516 2.55000000 2432591420 2432591420 -13.00000000
-1.68867755 2.42697597 -0.57471669 2 4 32517 3.01200000 2432591424 2432591424 -11.00000000
-2.07714486 2.98750710 -0.57630455 1 6 32519 3.68400000 2432591429 2432591429 -9.00000000
-2.68887448 3.87022471 -0.57863563 2 8 32521 4.74800000 2432591433 2432591433 -7.00000000
-3.78004050 5.44281864 -0.57976002 4 10 32522 6.65200000 2432591438 2432591438 -5.00000000
-6.31760502 9.10339737 -0.58071977 8 12 32524 11.09600000 2432591443 2432591443 -3.00000000
-6.27921438 9.05144978 2.54329658 56 13 32525 11.30600000 2432591445 2432591445 13.00000000
-4.76667738 6.87626076 2.24189067 40 15 32527 8.66200000 2432591450 2432591450 15.00000000
-1.21669459 1.76106751 -0.57354301 4 0 32536 2.21600000 2432591470 2432591470 -15.00000000
-1.40938890 2.04150057 -0.57272536 4 2 32538 2.54600000 2432591475 2432591475 -13.00000000
-1.68157649 2.43667388 -0.57547992 2 4 32539 3.01600000 2432591480 2432591480 -11.00000000
-2.07687259 3.01172256 -0.57943326 1 6 32541 3.70400000 2432591484 2432591484 -9.00000000
-2.65597224 3.85436702 -0.57473582 2 8 32543 4.71600000 2432591489 2432591489 -7.00000000
-3.77380681 5.47862339 -0.58202606 4 10 32544 6.67800000 2432591493 2432591493 -5.00000000
-6.30298758 9.15720177 -0.58260387 8 12 32546 11.13200000 2432591498 2432591498 -3.00000000
-6.24441290 9.07549381 2.54329658 57 13 32547 11.30600000 2432591500 2432591500 13.00000000
-4.74582148 6.90005207 2.24396110 40 15 32548 8.67000000 2432591505 2432591505 15.00000000
-1.20835471 1.76211739 -0.57250774 4 0 32556 2.21200000 2432591526 2432591526 -15.00000000
-1.40666032 2.05283809 -0.57452500 3 2 32558 2.55400000 2432591530 2432591530 -13.00000000
-1.67084169 2.43928933 -0.57471669 2 4 32559 3.01200000 2432591535 2432591535 -11.00000000
-2.06634712 3.01895404 -0.57943326 1 6 32561 3.70400000 2432591539 2432591539 -9.00000000
-2.67163897 3.90621614 -0.58107305 4 8 32563 4.76800000 2432591544 2432591544 -7.00000000
-3.77714944 5.52465773 -0.58551228 8 10 32564 6.71800000 2432591549 2432591549 -5.00000000
-6.25971794 9.16265583 -0.58155715 4 12 32566 11.11200000 2432591553 2432591553 -3.00000000
-6.20390368 9.08436108 2.53969741 59 13 32567 11.29000000 2432591556 2432591556 13.00000000
-4.72497463 6.92136240 2.24551415 42 15 32568 8.67600000 2432591560 2432591560 15.00000000
-1.20250475 1.76611471 -0.57250774 4 0 32575 2.21200000 2432591581 2432591581 -15.00000000
-1.39874887 2.05588007 -0.57407510 4 2 32577 2.55200000 2432591586 2432591586 -13.00000000
-1.66053534 2.44156981 -0.57395345 4 4 32578 3.00800000 2432591590 2432591590 -11.00000000
-2.05188322 3.01925445 -0.57818180 1 6 32580 3.69600000 2432591595 2432591595 -9.00000000
-2.66536188 3.92490745 -0.58253545 6 8 32582 4.78000000 2432591599 2432591599 -7.00000000
-3.74314189 5.51407433 -0.58307195 8 10 32583 6.69000000 2432591604 2432591604 -5.00000000
-6.24499559 9.20650387 -0.58302253 4 12 32585 11.14000000 2432591609 2432591609 -3.00000000
-6.17811918 9.11133575 2.54149699 57 13 32586 11.29800000 2432591611 2432591611 13.00000000
-4.69874477 6.93219566 2.24396110 38 15 32587 8.67000000 2432591615 2432591615 15.00000000
-1.19200575 1.76389897 -0.57043719 4 0 32595 2.20400000 2432591636 2432591636 -15.00000000
-1.40028858 2.07367015 -0.57767433 4 2 32597 2.56800000 2432591641 2432591641 -13.00000000
-1.66078985 2.46036911 -0.57700640 2 4 32598 3.02400000 2432591645 2432591645 -11.00000000
-2.04574990 3.03294897 -0.57943326 1 6 32600 3.70400000 2432591650 2432591650 -9.00000000
-2.65275478 3.93583345 -0.58277923 4 8 32602 4.78200000 2432591655 2432591655 -7.00000000
-3.71719193 5.51719284 -0.58202606 8 10 32603 6.67800000 2432591659 2432591659 -5.00000000
-6.24628305 9.27795029 -0.58616269 4 12 32605 11.20000000 2432591664 2432591664 -3.00000000
-6.15062904 9.13931274 2.54329658 56 13 32606 11.30600000 2432591666 2432591666 13.00000000
-4.66683722 6.93975258 2.24085522 40 15 32608 8.65800000 2432591671 2432591671 15.00000000
-1.18799353 1.77125788 -0.57147247 4 0 32615 2.20800000 2432591692 2432591692 -15.00000000
-1.38761699 2.07045150 -0.57542479 4 2 32617 2.55800000 2432591696 2432591696 -13.00000000
-1.65000606 2.46288943 -0.57624316 2 4 32618 3.02000000 2432591701 2432591701 -11.00000000
-2.02416158 3.02365661 -0.57630455 1 6 32620 3.68400000 2432591705 2432591705 -9.00000000
-2.62906647 3.93021965 -0.58058554 2 8 32622 4.76400000 2432591710 2432591710 -7.00000000
-3.70234060 5.53675938 -0.58272332 8 10 32623 6.68600000 2432591715 2432591715 -5.00000000
-6.22162628 9.31132221 -0.58689541 4 12 32625 11.21400000 2432591719 2432591719 -3.00000000
-6.12301922 9.16720867 2.54509616 56 13 32626 11.31400000 2432591721 2432591721 13.00000000
-4.64379835 6.95519018 2.24085522 40 15 32627 8.65800000 2432591726 2432591726 15.00000000
-1.19036722 1.78825915 -0.57561356 4 0 32635 2.22400000 2432591747 2432591747 -15.00000000
-1.38146055 2.07690525 -0.57587469 4 2 32637 2.56000000 2432591751 2432591751 -13.00000000
-1.64139891 2.46863389 -0.57624316 2 4 32638 3.02000000 2432591756 2432591756 -11.00000000
-2.01796746 3.03728509 -0.57755607 1 6 32640 3.69200000 2432591761 2432591761 -9.00000000
-2.60215592 3.91952705 -0.57766068 2 8 32642 4.74000000 2432591765 2432591765 -7.00000000
-3.70061827 5.57621050 -0.58551228 4 10 32643 6.71800000 2432591770 2432591770 -5.00000000
-6.18908596 9.33298302 -0.58689541 8 12 32645 11.21400000 2432591774 2432591774 -3.00000000
-6.08667517 9.18202877 2.54329658 57 13 32646 11.30600000 2432591777 2432591777 13.00000000
-4.62376022 6.97779894 2.24292588 40 15 32647 8.66600000 2432591781 2432591781 15.00000000
-1.18443060 1.79219675 -0.57561356 4 0 32654 2.22400000 2432591802 2432591802 -15.00000000
-1.37563956 2.08310103 -0.57632458 4 2 32656 2.56200000 2432591807 2432591807 -13.00000000
-1.63752997 2.48061728 -0.57776964 4 4 32657 3.02800000 2432591811 2432591811 -11.00000000
-2.01005960 3.04725814 -0.57818180 1 6 32659 3.69600000 2432591816 2432591816 -9.00000000
-2.60225368 3.94802380 -0.58058554 2 8 32661 4.76400000 2432591820 2432591820 -7.00000000
-3.67881799 5.58346033 -0.58498937 4 10 32662 6.71200000 2432591825 2432591825 -5.00000000
-6.15920067 9.35512352 -0.58700007 8 12 32664 11.21600000 2432591830 2432591830 -3.00000000
-6.05405045 9.19890690 2.54239678 57 13 32665 11.30200000 2432591832 2432591832 13.00000000
-4.59953403 6.99147987 2.24240828 42 15 32666 8.66400000 2432591837 2432591837 15.00000000
-1.16969144 1.78339708 -0.57147247 4 0 32674 2.20800000 2432591857 2432591857 -15.00000000
-1.37370074 2.09603953 -0.57857412 4 2 32676 2.57200000 2432591862 2432591862 -13.00000000
-1.61595058 2.46661162 -0.57319021 4 4 32677 3.00400000 2432591867 2432591867 -11.00000000
-2.01022983 3.07078338 -0.58131045 2 6 32679 3.71600000 2432591871 2432591871 -9.00000000
-2.59062982 3.96040583 -0.58107305 2 8 32681 4.76800000 2432591876 2432591876 -7.00000000
-3.67784214 5.62461615 -0.58795261 4 10 32682 6.74600000 2432591880 2432591880 -5.00000000
-6.14726448 9.40833378 -0.58898884 8 12 32684 11.25400000 2432591885 2432591885 -3.00000000
-6.02190351 9.21998405 2.54239678 59 13 32685 11.30200000 2432591887 2432591887 13.00000000
-4.57176638 7.00505543 2.24137282 42 15 32687 8.66000000 2432591892 2432591892 15.00000000
-1.16377103 1.78726614 -0.57147247 4 0 32693 2.20800000 2432591913 2432591913 -15.00000000
-1.37099361 2.10711718 -0.58037370 4 2 32695 2.58000000 2432591917 2432591917 -13.00000000
-1.61418462 2.48183131 -0.57547992 4 4 32696 3.01600000 2432591922 2432591922 -11.00000000
-1.99357700 3.06749463 -0.57943326 1 6 32698 3.70400000 2432591926 2432591926 -9.00000000
-2.58613181 3.98229361 -0.58302295 2 8 32700 4.78400000 2432591931 2432591931 -7.00000000
-3.65049124 5.62341213 -0.58655816 4 10 32701 6.73000000 2432591936 2432591936 -5.00000000
-6.12798738 9.44709873 -0.59014022 8 12 32703 11.27600000 2432591940 2432591940 -3.00000000
-5.99553680 9.24644279 2.54419637 59 13 32704 11.31000000 2432591943 2432591943 13.00000000
-4.54343224 7.00965691 2.23826718 45 15 32705 8.64800000 2432591947 2432591947 15.00000000
-1.15752530 1.79131758 -0.57147247 4 0 32713 2.20800000 2432591968 2432591968 -15.00000000
-1.36045885 2.10697865 -0.57902402 3 2 32715 2.57400000 2432591972 2432591972 -13.00000000
-1.60977018 2.49404883 -0.57700640 4 4 32716 3.02400000 2432591977 2432591977 -11.00000000
-1.98499858 3.07775497 -0.58005899 1 6 32718 3.70800000 2432591982 2432591982 -9.00000000
-2.57221508 3.99129677 -0.58302295 2 8 32720 4.78400000 2432591986 2432591986 -7.00000000
-3.65134072 5.66794395 -0.58987010 4 10 32721 6.76800000 2432591991 2432591991 -5.00000000
-6.09929800 9.47515011 -0.59055895 8 12 32723 11.28400000 2432591996 2432591996 -3.00000000
-5.97587824 9.28698063 2.54959536 59 13 32724 11.33400000 2432591998 2432591998 13.00000000
-4.51580095 7.02059937 2.23671412 45 15 32725 8.64200000 2432592002 2432592002 15.00000000
-1.15960789 1.80835688 -0.57561356 4 0 32733 2.22400000 2432592023 2432592023 -15.00000000
-1.34258223 2.09530663 -0.57452500 3 2 32735 2.55400000 2432592028 2432592028 -13.00000000
-1.60105455 2.49965286 -0.57700640 4 4 32736 3.02400000 2432592032 2432592032 -11.00000000
-1.96891892 3.07634616 -0.57849467 1 6 32738 3.69800000 2432592037 2432592037 -9.00000000
-2.55826735 4.00025129 -0.58302295 2 8 32740 4.78400000 2432592042 2432592042 -7.00000000
-3.62509465 5.67058277 -0.58882421 4 10 32741 6.75600000 2432592046 2432592046 -5.00000000
-6.06403589 9.49301624 -0.59034961 8 12 32743 11.28000000 2432592051 2432592051 -3.00000000
-5.93293619 9.29135895 2.54509616 60 13 32744 11.31400000 2432592053 2432592053 13.00000000
