# .PCD v0.7 - Point Cloud Data file format
VERSION 0.7
FIELDS x y z intensity laser_id azimuth distance_m adjustedtime timestamp vertical_angle
SIZE 4 4 4 1 1 2 8 8 4 8
TYPE F F F U U U F U U F
COUNT 1 1 1 1 1 1 1 1 1 1
WIDTH 534
HEIGHT 1
VIEWPOINT 0 0 0 1 0 0 0
POINTS 534
DATA ascii
3.93594337 -0.08794445 -0.62354779 8 6 9128 3.98600000 2432026469 2432026469 -9.00000000
8.12292385 -0.18291648 0.99762243 87 7 9129 8.18600000 2432026471 2432026471 7.00000000
5.22738743 -0.11862601 -0.64200771 8 8 9130 5.26800000 2432026473 2432026473 -7.00000000
8.19570351 -0.18598652 1.29840600 10 9 9130 8.30000000 2432026476 2432026476 9.00000000
8.08499527 -0.18488602 -0.70753032 17 10 9131 8.11800000 2432026478 2432026478 -5.00000000
8.10668755 -0.18821336 -0.42496797 17 12 9133 8.12000000 2432026483 2432026483 -3.00000000
8.09052086 -0.19066370 -0.14125977 20 14 9135 8.09400000 2432026487 2432026487 -1.00000000
8.16560173 -0.19243307 2.18857384 47 15 9135 8.45600000 2432026490 2432026490 15.00000000
2.21321249 -0.05524929 -0.59321326 4 0 9143 2.29200000 2432026510 2432026510 -15.00000000
8.10620403 -0.20377403 0.14153902 18 1 9144 8.11000000 2432026513 2432026513 1.00000000
2.61826801 -0.06627538 -0.60466844 9 2 9145 2.68800000 2432026515 2432026515 -13.00000000
8.11821938 -0.20691168 0.42559600 15 3 9146 8.13200000 2432026517 2432026517 3.00000000
3.12841153 -0.07973484 -0.60829908 9 4 9146 3.18800000 2432026520 2432026520 -11.00000000
8.09838963 -0.20782062 0.70875049 76 5 9147 8.13200000 2432026522 2432026522 5.00000000
3.92968822 -0.10152986 -0.62260920 6 6 9148 3.98000000 2432026524 2432026524 -9.00000000
8.13612652 -0.21163099 0.99932861 90 7 9149 8.20000000 2432026526 2432026526 7.00000000
5.23487902 -0.13708013 -0.64298266 8 8 9150 5.27600000 2432026529 2432026529 -7.00000000
8.19694138 -0.21607608 1.29871893 10 9 9151 8.30200000 2432026531 2432026531 9.00000000
8.07235050 -0.21279179 -0.70648444 17 10 9151 8.10600000 2432026533 2432026533 -5.00000000
8.11995697 -0.21688312 -0.42570066 17 12 9153 8.13400000 2432026538 2432026538 -3.00000000
8.09180546 -0.21895781 -0.14129469 18 14 9155 8.09600000 2432026543 2432026543 -1.00000000
8.16097927 -0.22225502 2.18753862 49 15 9156 8.45200000 2432026545 2432026545 15.00000000
2.21879935 -0.06313936 -0.59476614 4 0 9163 2.29800000 2432026566 2432026566 -15.00000000
8.09544849 -0.23178257 0.14136449 15 1 9164 8.10000000 2432026568 2432026568 1.00000000
2.61412501 -0.07530221 -0.60376865 9 2 9165 2.68400000 2432026570 2432026570 -13.00000000
8.12747002 -0.23411907 0.42611936 26 3 9165 8.14200000 2432026573 2432026573 3.00000000
3.13203907 -0.09076829 -0.60906231 8 4 9166 3.19200000 2432026575 2432026575 -11.00000000
8.10358906 -0.23626220 0.70927346 76 5 9167 8.13800000 2432026577 2432026577 5.00000000
3.92141175 -0.11501476 -0.62135768 6 6 9168 3.97200000 2432026579 2432026579 -9.00000000
8.12541676 -0.23973735 0.99810994 87 7 9169 8.19000000 2432026582 2432026582 7.00000000
5.23833704 -0.15547021 -0.64347011 6 8 9170 5.28000000 2432026584 2432026584 -7.00000000
8.20600986 -0.24498217 1.30028331 10 9 9171 8.31200000 2432026586 2432026586 9.00000000
8.08350754 -0.24132498 -0.70753032 17 10 9171 8.11800000 2432026589 2432026589 -5.00000000
8.10118294 -0.24468307 -0.42475861 17 12 9173 8.11600000 2432026593 2432026593 -3.00000000
8.09898663 -0.24744642 -0.14143430 16 14 9175 8.10400000 2432026598 2432026598 -1.00000000
8.16019726 -0.24931657 2.18753862 49 15 9175 8.45200000 2432026600 2432026600 15.00000000
2.22628903 -0.07113080 -0.59683675 4 0 9183 2.30600000 2432026621 2432026621 -15.00000000
8.11057949 -0.26055321 0.14164373 18 1 9184 8.11600000 2432026623 2432026623 1.00000000
2.60995078 -0.08430093 -0.60286885 9 2 9185 2.68000000 2432026625 2432026625 -13.00000000
8.11262989 -0.26203647 0.42538664 26 3 9185 8.12800000 2432026628 2432026628 3.00000000
3.13170314 -0.10170060 -0.60906231 6 4 9186 3.19200000 2432026630 2432026630 -11.00000000
8.10271454 -0.26454759 0.70927346 76 5 9187 8.13800000 2432026632 2432026632 5.00000000
3.91901207 -0.12863754 -0.62104481 8 6 9188 3.97000000 2432026635 2432026635 -9.00000000
8.11659431 -0.26783702 0.99713498 87 7 9189 8.18200000 2432026637 2432026637 7.00000000
5.21395445 -0.17296468 -0.64054525 6 8 9190 5.25600000 2432026639 2432026639 -7.00000000
8.20905304 -0.27375665 1.30090904 10 9 9191 8.31600000 2432026642 2432026642 9.00000000
8.08261585 -0.26954022 -0.70753032 17 10 9191 8.11800000 2432026644 2432026644 -5.00000000
8.09229469 -0.27269092 -0.42433992 17 12 9193 8.10800000 2432026649 2432026649 -3.00000000
8.10207081 -0.27585173 -0.14150411 18 14 9195 8.10800000 2432026653 2432026653 -1.00000000
8.16699982 -0.27806240 2.18960905 49 15 9195 8.46000000 2432026655 2432026655 15.00000000
2.22604084 -0.07851305 -0.59683675 4 0 9202 2.30600000 2432026676 2432026676 -15.00000000
8.10567474 -0.28730577 0.14157392 15 1 9203 8.11200000 2432026678 2432026678 1.00000000
2.60965681 -0.09295537 -0.60286885 9 2 9204 2.68000000 2432026681 2432026681 -13.00000000
8.10966969 -0.29028177 0.42528197 26 3 9205 8.12600000 2432026683 2432026683 3.00000000
3.13331056 -0.11215536 -0.60944390 5 4 9205 3.19400000 2432026685 2432026685 -11.00000000
8.11373997 -0.29184541 0.71031928 76 5 9206 8.15000000 2432026688 2432026688 5.00000000
3.92646027 -0.14191815 -0.62229627 8 6 9207 3.97800000 2432026690 2432026690 -9.00000000
8.11962986 -0.29489523 0.99762243 90 7 9208 8.18600000 2432026692 2432026692 7.00000000
5.20938444 -0.19010904 -0.64005780 8 8 9209 5.25200000 2432026695 2432026695 -7.00000000
8.19828224 -0.29918456 1.29934466 10 9 9209 8.30600000 2432026697 2432026697 9.00000000
6.62422752 -0.24289940 -0.57993430 4 10 9210 6.65400000 2432026699 2432026699 -5.00000000
8.10531712 -0.30004165 -0.42507264 17 12 9212 8.12200000 2432026704 2432026704 -3.00000000
8.09911251 -0.30264297 -0.14146921 16 14 9214 8.10600000 2432026708 2432026708 -1.00000000
8.16984081 -0.30671382 2.19064450 47 15 9215 8.46400000 2432026711 2432026711 15.00000000
2.21803164 -0.08598357 -0.59476614 4 0 9222 2.29800000 2432026731 2432026731 -15.00000000
8.12060738 -0.31622058 0.14185315 21 1 9223 8.12800000 2432026734 2432026734 1.00000000
2.61126375 -0.10214037 -0.60331875 7 2 9224 2.68200000 2432026736 2432026736 -13.00000000
8.11464977 -0.31740701 0.42559600 21 3 9224 8.13200000 2432026738 2432026738 3.00000000
3.12701488 -0.12286074 -0.60829908 6 4 9225 3.18800000 2432026741 2432026741 -11.00000000
8.10470867 -0.31985158 0.70962209 72 5 9226 8.14200000 2432026743 2432026743 5.00000000
3.93383622 -0.15593615 -0.62354779 8 6 9227 3.98600000 2432026745 2432026745 -9.00000000
8.12251759 -0.32339418 0.99810994 90 7 9228 8.19000000 2432026748 2432026748 7.00000000
5.22455740 -0.20892657 -0.64200771 8 8 9229 5.26800000 2432026750 2432026750 -7.00000000
8.18923569 -0.32891366 1.29809320 10 9 9230 8.29800000 2432026752 2432026752 9.00000000
6.59546852 -0.26490137 -0.57749397 16 10 9230 6.62600000 2432026755 2432026755 -5.00000000
8.11020756 -0.32857519 -0.42538664 17 12 9232 8.12800000 2432026759 2432026759 -3.00000000
8.09001541 -0.33058575 -0.14132959 14 14 9234 8.09800000 2432026764 2432026764 -1.00000000
8.16872025 -0.33523002 2.19064450 47 15 9235 8.46400000 2432026766 2432026766 15.00000000
2.21387386 -0.09317589 -0.59373087 4 0 9241 2.29400000 2432026787 2432026787 -15.00000000
8.10752678 -0.34264112 0.14164373 18 1 9242 8.11600000 2432026789 2432026789 1.00000000
2.61480451 -0.11096433 -0.60421854 7 2 9243 2.68600000 2432026791 2432026791 -13.00000000
8.11754417 -0.34448379 0.42580533 21 3 9243 8.13600000 2432026794 2432026794 3.00000000
3.12659025 -0.13322963 -0.60829908 8 4 9244 3.18800000 2432026796 2432026796 -11.00000000
8.09962177 -0.34655568 0.70927346 76 5 9245 8.13800000 2432026798 2432026798 5.00000000
3.92737699 -0.16872601 -0.62260920 4 6 9246 3.98000000 2432026801 2432026801 -9.00000000
8.12140083 -0.35032764 0.99810994 90 7 9247 8.19000000 2432026803 2432026803 7.00000000
5.22383595 -0.22625069 -0.64200771 8 8 9248 5.26800000 2432026805 2432026805 -7.00000000
8.20592308 -0.35540852 1.30090904 10 9 9248 8.31600000 2432026808 2432026808 9.00000000
6.58261061 -0.28625193 -0.57644808 16 10 9249 6.61400000 2432026810 2432026810 -5.00000000
8.10508251 -0.35529286 -0.42517731 17 12 9251 8.12400000 2432026814 2432026814 -3.00000000
8.09286976 -0.35758790 -0.14139940 14 14 9253 8.10200000 2432026819 2432026819 -1.00000000
8.15984440 -0.36197418 2.18857384 47 15 9254 8.45600000 2432026821 2432026821 15.00000000
2.22511435 -0.10143101 -0.59683675 4 0 9261 2.30600000 2432026842 2432026842 -15.00000000
8.09829044 -0.37057394 0.14150411 15 1 9262 8.10800000 2432026844 2432026844 1.00000000
2.61634803 -0.12018044 -0.60466844 9 2 9263 2.68800000 2432026847 2432026847 -13.00000000
8.11230183 -0.37263390 0.42559600 18 3 9263 8.13200000 2432026849 2432026849 3.00000000
3.12218380 -0.14396179 -0.60753584 8 4 9264 3.18400000 2432026851 2432026851 -11.00000000
8.09637260 -0.37473440 0.70909911 72 5 9265 8.13600000 2432026854 2432026854 5.00000000
3.92281747 -0.18225074 -0.62198341 4 6 9266 3.97600000 2432026856 2432026856 -9.00000000
8.12409401 -0.37885943 0.99859738 90 7 9267 8.19400000 2432026858 2432026858 7.00000000
5.21508265 -0.24411263 -0.64103276 8 8 9268 5.26000000 2432026861 2432026861 -7.00000000
8.20068645 -0.38386565 1.30028331 10 9 9268 8.31200000 2432026863 2432026863 9.00000000
6.59351254 -0.30978882 -0.57749397 16 10 9269 6.62600000 2432026865 2432026865 -5.00000000
8.26396942 -0.38971892 1.60813820 3 11 9270 8.42800000 2432026867 2432026867 11.00000000
8.10578823 -0.38367715 -0.42528197 17 12 9271 8.12600000 2432026870 2432026870 -3.00000000
8.10355663 -0.38640660 -0.14160882 16 14 9273 8.11400000 2432026874 2432026874 -1.00000000
8.16624928 -0.39082453 2.19064450 47 15 9274 8.46400000 2432026877 2432026877 15.00000000
2.21702862 -0.10881866 -0.59476614 4 0 9281 2.29800000 2432026897 2432026897 -15.00000000
8.10094261 -0.39903677 0.14157392 15 1 9282 8.11200000 2432026900 2432026900 1.00000000
2.60034156 -0.12854275 -0.60106921 9 2 9283 2.67200000 2432026902 2432026902 -13.00000000
8.11494064 -0.40114608 0.42580533 13 3 9283 8.13600000 2432026904 2432026904 3.00000000
3.13342714 -0.15544301 -0.60982555 6 4 9284 3.19600000 2432026907 2432026907 -11.00000000
8.10297489 -0.40338999 0.70979637 76 5 9285 8.14400000 2432026909 2432026909 5.00000000
3.92413044 -0.19604138 -0.62229627 2 6 9286 3.97800000 2432026911 2432026911 -9.00000000
8.11875725 -0.40701672 0.99810994 85 7 9287 8.19000000 2432026913 2432026913 7.00000000
5.21816397 -0.26251465 -0.64152020 6 8 9288 5.26400000 2432026916 2432026916 -7.00000000
8.21507931 -0.41328305 1.30278623 10 9 9288 8.32800000 2432026918 2432026918 9.00000000
6.59040117 -0.33270213 -0.57731962 16 10 9289 6.62400000 2432026920 2432026920 -5.00000000
8.09043694 -0.41125953 -0.42454928 17 12 9291 8.11200000 2432026925 2432026925 -3.00000000
8.10215855 -0.41469094 -0.14160882 14 14 9293 8.11400000 2432026930 2432026930 -1.00000000
8.16683769 -0.41800138 2.19116211 47 15 9293 8.46600000 2432026932 2432026932 15.00000000
2.22049356 -0.11675975 -0.59580141 4 0 9301 2.30200000 2432026953 2432026953 -15.00000000
8.09950066 -0.42731190 0.14157392 18 1 9302 8.11200000 2432026955 2432026955 1.00000000
2.60376906 -0.13782486 -0.60196900 9 2 9303 2.67600000 2432026957 2432026957 -13.00000000
8.10750771 -0.42915335 0.42549133 15 3 9303 8.13000000 2432026960 2432026960 3.00000000
3.12894464 -0.16617154 -0.60906231 5 4 9304 3.19200000 2432026962 2432026962 -11.00000000
8.11146545 -0.43220225 0.71066791 76 5 9305 8.15400000 2432026964 2432026964 5.00000000
3.91355944 -0.20921071 -0.62073195 6 6 9306 3.96800000 2432026966 2432026966 -9.00000000
8.11728668 -0.43535399 0.99810994 90 7 9307 8.19000000 2432026969 2432026969 7.00000000
5.21523333 -0.28062117 -0.64127648 4 8 9308 5.26200000 2432026971 2432026971 -7.00000000
8.20766926 -0.44163811 1.30184758 10 9 9308 8.32200000 2432026973 2432026973 9.00000000
6.60909462 -0.35677889 -0.57906276 60 10 9309 6.64400000 2432026976 2432026976 -5.00000000
8.09493446 -0.43982300 -0.42486328 17 12 9311 8.11800000 2432026980 2432026980 -3.00000000
8.09267521 -0.44253346 -0.14146921 14 14 9313 8.10600000 2432026985 2432026985 -1.00000000
8.17296696 -0.44835481 2.19323254 47 15 9314 8.47400000 2432026987 2432026987 15.00000000
2.22005081 -0.12489749 -0.59580141 4 0 9322 2.30200000 2432027008 2432027008 -15.00000000
8.11584854 -0.45800921 0.14188807 15 1 9323 8.13000000 2432027010 2432027010 1.00000000
2.60519218 -0.14747737 -0.60241890 7 2 9324 2.67800000 2432027013 2432027013 -13.00000000
8.11577034 -0.46084684 0.42601469 18 3 9325 8.14000000 2432027015 2432027015 3.00000000
3.12439442 -0.17741597 -0.60829908 5 4 9325 3.18800000 2432027017 2432027017 -11.00000000
8.10186958 -0.46147615 0.70997065 76 5 9326 8.14600000 2432027019 2432027019 5.00000000
3.91671062 -0.22377858 -0.62135768 4 6 9327 3.97200000 2432027022 2432027022 -9.00000000
8.12158203 -0.46544313 0.99884117 95 7 9328 8.19600000 2432027024 2432027024 7.00000000
5.20029736 -0.29893661 -0.63957030 6 8 9329 5.24800000 2432027026 2432027026 -7.00000000
8.19219017 -0.47092420 1.29965758 10 9 9329 8.30800000 2432027029 2432027029 9.00000000
6.59381914 -0.38019720 -0.57784259 51 10 9330 6.63000000 2432027031 2432027031 -5.00000000
8.10323811 -0.47006780 -0.42538664 17 12 9332 8.12800000 2432027036 2432027036 -3.00000000
8.08700562 -0.47195864 -0.14139940 18 14 9334 8.10200000 2432027040 2432027040 -1.00000000
8.16363716 -0.47643086 2.19116211 47 15 9334 8.46600000 2432027043 2432027043 15.00000000
2.21381593 -0.13230042 -0.59424853 4 0 9342 2.29600000 2432027063 2432027063 -15.00000000
8.10421944 -0.48573783 0.14171354 15 1 9343 8.12000000 2432027066 2432027066 1.00000000
2.61438751 -0.15715495 -0.60466844 9 2 9344 2.68800000 2432027068 2432027068 -13.00000000
8.11211872 -0.48905319 0.42591003 18 3 9345 8.13800000 2432027070 2432027070 3.00000000
3.12571573 -0.18843921 -0.60868067 4 4 9345 3.19000000 2432027072 2432027072 -11.00000000
8.09225464 -0.48927316 0.70927346 76 5 9346 8.13800000 2432027075 2432027075 5.00000000
3.91196203 -0.23720996 -0.62073195 4 6 9347 3.96800000 2432027077 2432027077 -9.00000000
8.12188911 -0.49391040 0.99908489 85 7 9348 8.19800000 2432027079 2432027079 7.00000000
5.21507311 -0.31805396 -0.64152020 4 8 9349 5.26400000 2432027082 2432027082 -7.00000000
8.20026779 -0.50154984 1.30122185 10 9 9350 8.31800000 2432027084 2432027084 9.00000000
8.09955406 -0.49822786 -0.42528197 17 12 9352 8.12600000 2432027091 2432027091 -3.00000000
8.08930111 -0.50043160 -0.14146921 14 14 9354 8.10600000 2432027096 2432027096 -1.00000000
8.16183662 -0.50634891 2.19116211 47 15 9355 8.46600000 2432027098 2432027098 15.00000000
2.20760536 -0.13889076 -0.59269559 4 0 9360 2.29000000 2432027119 2432027119 -15.00000000
8.09267521 -0.51056600 0.14153902 15 1 9361 8.11000000 2432027121 2432027121 1.00000000
2.60221195 -0.16462925 -0.60196900 9 2 9362 2.67600000 2432027123 2432027123 -13.00000000
8.12449551 -0.51542085 0.42664272 18 3 9363 8.15200000 2432027125 2432027125 3.00000000
3.12902689 -0.19850658 -0.60944390 4 4 9363 3.19400000 2432027128 2432027128 -11.00000000
8.10260773 -0.51545221 0.71031928 76 5 9364 8.15000000 2432027130 2432027130 5.00000000
3.89739799 -0.24861827 -0.61854190 4 6 9365 3.95400000 2432027132 2432027132 -9.00000000
8.12029743 -0.51942360 0.99908489 87 7 9366 8.19800000 2432027135 2432027135 7.00000000
5.22593451 -0.33519837 -0.64298266 4 8 9367 5.27600000 2432027137 2432027137 -7.00000000
8.20268631 -0.52613121 1.30184758 10 9 9367 8.32200000 2432027139 2432027139 9.00000000
6.57922268 -0.42315310 -0.57679671 62 10 9368 6.61800000 2432027142 2432027142 -5.00000000
8.10193539 -0.52392864 -0.42549133 17 12 9370 8.13000000 2432027146 2432027146 -3.00000000
8.09367561 -0.52623159 -0.14157392 20 14 9372 8.11200000 2432027151 2432027151 -1.00000000
8.16608143 -0.53093928 2.19271493 51 15 9372 8.47200000 2432027153 2432027153 15.00000000
2.21867275 -0.14736408 -0.59580141 4 0 9380 2.30200000 2432027174 2432027174 -15.00000000
8.09882450 -0.53934312 0.14167863 15 1 9381 8.11800000 2432027176 2432027176 1.00000000
2.59578800 -0.17332217 -0.60061932 7 2 9382 2.67000000 2432027178 2432027178 -13.00000000
8.11666775 -0.54337728 0.42632869 26 3 9383 8.14600000 2432027181 2432027181 3.00000000
3.13223267 -0.20968999 -0.61020714 4 4 9383 3.19800000 2432027183 2432027183 -11.00000000
8.10274696 -0.54386586 0.71049362 72 5 9384 8.15200000 2432027185 2432027185 5.00000000
3.92212844 -0.26394549 -0.62260920 4 6 9385 3.98000000 2432027188 2432027188 -9.00000000
8.10853195 -0.54709738 0.99786621 90 7 9386 8.18800000 2432027190 2432027190 7.00000000
5.21086884 -0.35250041 -0.64127648 2 8 9387 5.26200000 2432027192 2432027192 -7.00000000
8.21055698 -0.55686033 1.30341196 10 9 9388 8.33200000 2432027195 2432027195 9.00000000
8.09208679 -0.55166310 -0.42507264 17 12 9390 8.12200000 2432027201 2432027201 -3.00000000
8.10375881 -0.55530083 -0.14178336 20 14 9392 8.12400000 2432027206 2432027206 -1.00000000
8.16600800 -0.56099832 2.19323254 47 15 9393 8.47400000 2432027208 2432027208 15.00000000
2.22582626 -0.15603530 -0.59787202 4 0 9401 2.31000000 2432027229 2432027229 -15.00000000
8.09878826 -0.56916332 0.14171354 15 1 9402 8.12000000 2432027231 2432027231 1.00000000
2.59902334 -0.18310896 -0.60151911 7 2 9403 2.67400000 2432027234 2432027234 -13.00000000
8.09868336 -0.57199699 0.42549133 23 3 9404 8.13000000 2432027236 2432027236 3.00000000
3.12360954 -0.22061552 -0.60868067 4 4 9404 3.19000000 2432027238 2432027238 -11.00000000
8.11659908 -0.57468599 0.71188813 76 5 9405 8.16800000 2432027241 2432027241 5.00000000
3.88960791 -0.27608129 -0.61760324 4 6 9406 3.94800000 2432027243 2432027243 -9.00000000
8.11439228 -0.57737654 0.99884117 92 7 9407 8.19600000 2432027245 2432027245 7.00000000
5.19766140 -0.37074938 -0.63981408 2 8 9408 5.25000000 2432027248 2432027248 -7.00000000
8.20068169 -0.58495498 1.30216050 7 9 9408 8.32400000 2432027250 2432027250 9.00000000
6.59192467 -0.47135863 -0.57819122 24 10 9409 6.63400000 2432027252 2432027252 -5.00000000
8.09598637 -0.58174783 -0.42538664 17 12 9411 8.12800000 2432027257 2432027257 -3.00000000
8.08970261 -0.58413476 -0.14157392 20 14 9413 8.11200000 2432027261 2432027261 -1.00000000
8.16785336 -0.58977783 2.19426775 47 15 9413 8.47800000 2432027264 2432027264 15.00000000
2.21756148 -0.16323666 -0.59580141 4 0 9421 2.30200000 2432027284 2432027284 -15.00000000
8.10273457 -0.59787136 0.14181826 15 1 9422 8.12600000 2432027287 2432027287 1.00000000
2.59448147 -0.19189265 -0.60061932 7 2 9423 2.67000000 2432027289 2432027289 -13.00000000
8.10261345 -0.60070622 0.42580533 23 3 9424 8.13600000 2432027291 2432027291 3.00000000
3.11107326 -0.23064670 -0.60639101 4 4 9424 3.17800000 2432027294 2432027294 -11.00000000
8.10858250 -0.60257179 0.71136516 76 5 9425 8.16200000 2432027296 2432027296 5.00000000
3.90831971 -0.29112422 -0.62073195 4 6 9426 3.96800000 2432027298 2432027298 -9.00000000
8.11628723 -0.60599315 0.99932861 90 7 9427 8.20000000 2432027301 2432027301 7.00000000
5.20029449 -0.38918665 -0.64030153 4 8 9428 5.25400000 2432027303 2432027303 -7.00000000
8.20242214 -0.61530358 1.30278623 7 9 9429 8.32800000 2432027305 2432027305 9.00000000
6.59222603 -0.49451491 -0.57836550 16 10 9429 6.63600000 2432027307 2432027307 -5.00000000
8.09788990 -0.61030477 -0.42559600 17 12 9431 8.13200000 2432027312 2432027312 -3.00000000
8.07764435 -0.61161464 -0.14139940 16 14 9433 8.10200000 2432027317 2432027317 -1.00000000
8.15407944 -0.61883342 2.19116211 49 15 9434 8.46600000 2432027319 2432027319 15.00000000
2.20927358 -0.17038222 -0.59373087 4 0 9441 2.29400000 2432027340 2432027340 -15.00000000
8.09860516 -0.62599742 0.14178336 12 1 9442 8.12400000 2432027342 2432027342 1.00000000
2.60351038 -0.20170052 -0.60286885 6 2 9443 2.68000000 2432027344 2432027344 -13.00000000
8.11042309 -0.62975901 0.42632869 23 3 9444 8.14600000 2432027347 2432027347 3.00000000
3.10633445 -0.24120098 -0.60562778 4 4 9444 3.17400000 2432027349 2432027349 -11.00000000
8.09848404 -0.63025397 0.71066791 76 5 9445 8.15400000 2432027351 2432027351 5.00000000
3.89940214 -0.30415058 -0.61948049 6 6 9446 3.96000000 2432027354 2432027354 -9.00000000
8.12005901 -0.63478470 1.00005984 90 7 9447 8.20600000 2432027356 2432027356 7.00000000
5.20286226 -0.40764681 -0.64078903 4 8 9448 5.25800000 2432027358 2432027358 -7.00000000
8.19245911 -0.64188319 1.30153477 10 9 9448 8.32000000 2432027360 2432027360 9.00000000
6.60237741 -0.51845890 -0.57941139 52 10 9449 6.64800000 2432027363 2432027363 -5.00000000
8.11363029 -0.63998139 -0.42653805 17 12 9451 8.15000000 2432027367 2432027367 -3.00000000
8.08941460 -0.64091271 -0.14164373 16 14 9453 8.11600000 2432027372 2432027372 -1.00000000
8.15198231 -0.64586991 2.19116211 47 15 9453 8.46600000 2432027374 2432027374 15.00000000
2.20866537 -0.17809297 -0.59373087 4 0 9461 2.29400000 2432027395 2432027395 -15.00000000
8.09039116 -0.65377980 0.14167863 15 1 9462 8.11800000 2432027397 2432027397 1.00000000
2.59113622 -0.20984341 -0.60016942 6 2 9463 2.66800000 2432027400 2432027400 -13.00000000
8.11414719 -0.65855056 0.42664272 23 3 9464 8.15200000 2432027402 2432027402 3.00000000
3.11721444 -0.25299555 -0.60791749 4 4 9464 3.18600000 2432027404 2432027404 -11.00000000
8.10417843 -0.65916520 0.71136516 83 5 9465 8.16200000 2432027407 2432027407 5.00000000
3.87665939 -0.31599486 -0.61603892 6 6 9466 3.93800000 2432027409 2432027409 -9.00000000
8.10988045 -0.66247869 0.99908489 85 7 9467 8.19800000 2432027411 2432027411 7.00000000
5.19151545 -0.42499590 -0.63957030 4 8 9468 5.24800000 2432027413 2432027413 -7.00000000
8.21367741 -0.67384398 1.30528915 7 9 9469 8.34400000 2432027416 2432027416 9.00000000
6.59258461 -0.54085070 -0.57871413 56 10 9469 6.64000000 2432027418 2432027418 -5.00000000
8.08547020 -0.66616738 -0.42517731 17 12 9471 8.12400000 2432027423 2432027423 -3.00000000
8.08912086 -0.66931105 -0.14167863 16 14 9473 8.11800000 2432027427 2432027427 -1.00000000
8.15341091 -0.67606336 2.19219732 47 15 9474 8.47000000 2432027430 2432027430 15.00000000
2.20421243 -0.18509290 -0.59269559 4 0 9480 2.29000000 2432027450 2432027450 -15.00000000
8.09017086 -0.68077260 0.14171354 15 1 9481 8.12000000 2432027453 2432027453 1.00000000
2.58654237 -0.21810730 -0.59926963 6 2 9482 2.66400000 2432027455 2432027455 -13.00000000
8.10793877 -0.68511808 0.42643338 18 3 9483 8.14800000 2432027457 2432027457 3.00000000
3.11635828 -0.26333120 -0.60791749 4 4 9483 3.18600000 2432027460 2432027460 -11.00000000
8.10194778 -0.68603599 0.71136516 76 5 9484 8.16200000 2432027462 2432027462 5.00000000
3.89133644 -0.33018470 -0.61854190 6 6 9485 3.95400000 2432027464 2432027464 -9.00000000
8.10368252 -0.68903202 0.99859738 87 7 9486 8.19400000 2432027466 2432027466 7.00000000
5.19007730 -0.44220924 -0.63957030 4 8 9487 5.24800000 2432027469 2432027469 -7.00000000
8.19183731 -0.69796759 1.30216050 7 9 9487 8.32400000 2432027471 2432027471 9.00000000
6.59869528 -0.56338751 -0.57941139 100 10 9488 6.64800000 2432027473 2432027473 -5.00000000
8.09117603 -0.69365847 -0.42559600 17 12 9490 8.13200000 2432027478 2432027478 -3.00000000
8.09681797 -0.69698936 -0.14185315 16 14 9492 8.12800000 2432027483 2432027483 -1.00000000
8.15894604 -0.70233738 2.19426775 47 15 9492 8.47800000 2432027485 2432027485 15.00000000
2.21509981 -0.19379613 -0.59580141 4 0 9500 2.30200000 2432027506 2432027506 -15.00000000
8.08973694 -0.70918304 0.14174844 15 1 9501 8.12200000 2432027508 2432027508 1.00000000
2.58770657 -0.22730520 -0.59971952 7 2 9502 2.66600000 2432027510 2432027510 -13.00000000
8.10947704 -0.71376610 0.42664272 21 3 9503 8.15200000 2432027513 2432027513 3.00000000
3.11933160 -0.27455199 -0.60868067 4 4 9503 3.19000000 2432027515 2432027515 -11.00000000
8.11339664 -0.71553814 0.71258533 76 5 9504 8.17600000 2432027517 2432027517 5.00000000
3.89016032 -0.34376597 -0.61854190 6 6 9505 3.95400000 2432027519 2432027519 -9.00000000
8.10913754 -0.71801525 0.99957234 87 7 9506 8.20200000 2432027522 2432027522 7.00000000
5.17663813 -0.45927072 -0.63810790 6 8 9507 5.23600000 2432027524 2432027524 -7.00000000
8.20509243 -0.72795475 1.30466342 7 9 9507 8.34000000 2432027526 2432027526 9.00000000
6.59271955 -0.58606499 -0.57906276 118 10 9508 6.64400000 2432027529 2432027529 -5.00000000
8.09467316 -0.72243035 -0.42591003 12 12 9510 8.13800000 2432027533 2432027533 -3.00000000
8.08437729 -0.72435600 -0.14167863 16 14 9512 8.11800000 2432027538 2432027538 -1.00000000
8.16991329 -0.73201996 2.19789124 51 15 9512 8.49200000 2432027540 2432027540 15.00000000
2.20286655 -0.20047656 -0.59269559 4 0 9520 2.29000000 2432027561 2432027561 -15.00000000
8.09716988 -0.73832512 0.14192297 12 1 9521 8.13200000 2432027563 2432027563 1.00000000
2.59465981 -0.23704579 -0.60151911 7 2 9522 2.67400000 2432027566 2432027566 -13.00000000
8.10096931 -0.74152297 0.42632869 18 3 9523 8.14600000 2432027568 2432027568 3.00000000
3.11444402 -0.28508091 -0.60791749 4 4 9523 3.18600000 2432027570 2432027570 -11.00000000
8.10489750 -0.74330896 0.71206242 83 5 9524 8.17000000 2432027572 2432027572 5.00000000
3.88303542 -0.35680082 -0.61760324 6 6 9525 3.94800000 2432027575 2432027575 -9.00000000
8.12041855 -0.74759096 1.00127852 90 7 9526 8.21600000 2432027577 2432027577 7.00000000
5.17500353 -0.47733778 -0.63810790 8 8 9527 5.23600000 2432027579 2432027579 -7.00000000
8.18663311 -0.75656879 1.30216050 7 9 9528 8.32400000 2432027582 2432027582 9.00000000
6.58468199 -0.60852426 -0.57853985 108 10 9528 6.63800000 2432027584 2432027584 -5.00000000
8.09409142 -0.75086612 -0.42601469 17 12 9530 8.14000000 2432027589 2432027589 -3.00000000
8.07980824 -0.75238591 -0.14164373 18 14 9532 8.11600000 2432027593 2432027593 -1.00000000
8.15769100 -0.75963825 2.19530320 47 15 9532 8.48200000 2432027595 2432027595 15.00000000
2.19830680 -0.20780118 -0.59166032 4 0 9540 2.28600000 2432027616 2432027616 -15.00000000
8.08857059 -0.76601940 0.14181826 12 1 9541 8.12600000 2432027619 2432027619 1.00000000
2.59187675 -0.24591732 -0.60106921 6 2 9542 2.67200000 2432027621 2432027621 -13.00000000
8.10827255 -0.77074111 0.42685205 18 3 9543 8.15600000 2432027623 2432027623 3.00000000
3.10561204 -0.29520747 -0.60639101 4 4 9543 3.17800000 2432027625 2432027625 -11.00000000
8.09828663 -0.77121800 0.71171379 83 5 9544 8.16600000 2432027628 2432027628 5.00000000
3.88766551 -0.37091583 -0.61854190 6 6 9545 3.95400000 2432027630 2432027630 -9.00000000
8.11775970 -0.77593195 1.00127852 92 7 9546 8.21600000 2432027632 2432027632 7.00000000
5.16540194 -0.49464208 -0.63713294 8 8 9547 5.22800000 2432027635 2432027635 -7.00000000
8.19573975 -0.78627276 1.30403769 7 9 9548 8.33600000 2432027637 2432027637 9.00000000
8.11130142 -0.78102952 -0.42706141 17 12 9550 8.16000000 2432027644 2432027644 -3.00000000
8.08509445 -0.78135461 -0.14178336 16 14 9552 8.12400000 2432027648 2432027648 -1.00000000
8.14331436 -0.78841561 2.19219732 47 15 9553 8.47000000 2432027651 2432027651 15.00000000
2.20914149 -0.21621896 -0.59476614 4 0 9559 2.29800000 2432027672 2432027672 -15.00000000
8.08797646 -0.79303300 0.14185315 12 1 9560 8.12800000 2432027674 2432027674 1.00000000
2.58910751 -0.25432044 -0.60061932 5 2 9561 2.67000000 2432027676 2432027676 -13.00000000
8.11759853 -0.79879838 0.42748010 15 3 9562 8.16800000 2432027678 2432027678 3.00000000
3.11243129 -0.30627349 -0.60791749 4 4 9562 3.18600000 2432027681 2432027681 -11.00000000
8.09965038 -0.79845959 0.71206242 76 5 9563 8.17000000 2432027683 2432027683 5.00000000
3.86479020 -0.38167027 -0.61510032 6 6 9564 3.93200000 2432027685 2432027685 -9.00000000
8.10328960 -0.80167454 0.99981612 92 7 9565 8.20400000 2432027688 2432027688 7.00000000
5.17558527 -0.51294315 -0.63859534 8 8 9566 5.24000000 2432027690 2432027690 -7.00000000
8.19308758 -0.81344646 1.30403769 7 9 9567 8.33600000 2432027692 2432027692 9.00000000
6.58038712 -0.65333033 -0.57853985 40 10 9567 6.63800000 2432027695 2432027695 -5.00000000
8.10071754 -0.80713117 -0.42664272 17 12 9569 8.15200000 2432027699 2432027699 -3.00000000
8.09240818 -0.80915618 -0.14195788 14 14 9571 8.13400000 2432027704 2432027704 -1.00000000
8.15233135 -0.81514788 2.19530320 49 15 9571 8.48200000 2432027706 2432027706 15.00000000
2.20837331 -0.22392899 -0.59476614 4 0 9579 2.29800000 2432027727 2432027727 -15.00000000
8.09311676 -0.82206881 0.14199278 12 1 9580 8.13600000 2432027729 2432027729 1.00000000
2.58044910 -0.26256749 -0.59881973 5 2 9581 2.66200000 2432027731 2432027731 -13.00000000
8.10681248 -0.82631916 0.42706141 13 3 9582 8.16000000 2432027734 2432027734 3.00000000
3.11524963 -0.31753421 -0.60868067 4 4 9582 3.19000000 2432027736 2432027736 -11.00000000
8.09879589 -0.82693017 0.71223670 79 5 9583 8.17200000 2432027738 2432027738 5.00000000
3.87915540 -0.39676654 -0.61760324 6 6 9584 3.94800000 2432027741 2432027741 -9.00000000
8.10439110 -0.83036005 1.00030363 90 7 9585 8.20800000 2432027743 2432027743 7.00000000
5.15796566 -0.52938479 -0.63664544 6 8 9586 5.22400000 2432027745 2432027745 -7.00000000
8.20984840 -0.84406096 1.30716634 7 9 9587 8.35600000 2432027748 2432027748 9.00000000
6.58004856 -0.67649996 -0.57871413 40 10 9587 6.64000000 2432027750 2432027750 -5.00000000
8.08592987 -0.83417326 -0.42601469 17 12 9589 8.14000000 2432027754 2432027754 -3.00000000
8.08953476 -0.83739907 -0.14195788 16 14 9591 8.13400000 2432027759 2432027759 -1.00000000
8.15712261 -0.84439552 2.19737363 47 15 9591 8.49000000 2432027761 2432027761 15.00000000
2.20369530 -0.23161770 -0.59373087 4 0 9600 2.29400000 2432027782 2432027782 -15.00000000
8.09402657 -0.85214478 0.14206259 12 1 9601 8.14000000 2432027784 2432027784 1.00000000
2.57946944 -0.27202353 -0.59881973 5 2 9602 2.66200000 2432027787 2432027787 -13.00000000
8.10387897 -0.85461217 0.42706141 18 3 9602 8.16000000 2432027789 2432027789 3.00000000
3.11016011 -0.32853755 -0.60791749 4 4 9603 3.18600000 2432027791 2432027791 -11.00000000
8.11156082 -0.85828531 0.71363121 76 5 9604 8.18800000 2432027794 2432027794 5.00000000
3.87767506 -0.41098168 -0.61760324 4 6 9605 3.94800000 2432027796 2432027796 -9.00000000
8.09931946 -0.85984904 1.00005984 90 7 9606 8.20600000 2432027798 2432027798 7.00000000
5.15204287 -0.54786628 -0.63615799 6 8 9607 5.22000000 2432027800 2432027800 -7.00000000
8.20488834 -0.87250465 1.30685353 5 9 9607 8.35400000 2432027803 2432027803 9.00000000
6.58941174 -0.70187867 -0.57976002 24 10 9608 6.65200000 2432027805 2432027805 -5.00000000
8.10069180 -0.86571425 -0.42695674 17 12 9610 8.15800000 2432027810 2432027810 -3.00000000
8.08044624 -0.86640346 -0.14185315 18 14 9612 8.12800000 2432027814 2432027814 -1.00000000
8.16165638 -0.87511104 2.19944429 47 15 9612 8.49800000 2432027817 2432027817 15.00000000
2.19519114 -0.23847407 -0.59166032 4 0 9620 2.28600000 2432027837 2432027837 -15.00000000
8.09497833 -0.88082564 0.14213240 12 1 9621 8.14400000 2432027840 2432027840 1.00000000
2.59012771 -0.28229275 -0.60151911 4 2 9622 2.67400000 2432027842 2432027842 -13.00000000
8.10069275 -0.88430864 0.42706141 13 3 9623 8.16000000 2432027844 2432027844 3.00000000
3.09923601 -0.33832678 -0.60600936 5 4 9623 3.17600000 2432027847 2432027847 -11.00000000
8.10059357 -0.88572848 0.71293396 76 5 9624 8.18000000 2432027849 2432027849 5.00000000
3.88407135 -0.42537501 -0.61885476 4 6 9625 3.95600000 2432027851 2432027851 -9.00000000
8.11008167 -0.88963085 1.00176597 90 7 9626 8.22000000 2432027853 2432027853 7.00000000
5.14615250 -0.56541336 -0.63567048 6 8 9627 5.21600000 2432027856 2432027856 -7.00000000
8.18789005 -0.90105867 1.30466342 7 9 9628 8.34000000 2432027858 2432027858 9.00000000
6.56909800 -0.72291422 -0.57819122 16 10 9628 6.63400000 2432027860 2432027860 -5.00000000
8.09960556 -0.89420480 -0.42706141 17 12 9630 8.16000000 2432027865 2432027865 -3.00000000
8.07538509 -0.89438409 -0.14181826 16 14 9632 8.12600000 2432027870 2432027870 -1.00000000
8.14879322 -0.90395415 2.19685602 47 15 9633 8.48800000 2432027872 2432027872 15.00000000
2.19827080 -0.24579862 -0.59269559 4 0 9638 2.29000000 2432027893 2432027893 -15.00000000
8.09217167 -0.90625238 0.14213240 12 1 9639 8.14400000 2432027895 2432027895 1.00000000
2.58535480 -0.28999400 -0.60061932 4 2 9640 2.67000000 2432027897 2432027897 -13.00000000
8.10795689 -0.90945309 0.42758477 10 3 9640 8.17000000 2432027900 2432027900 3.00000000
3.09035397 -0.34718490 -0.60448289 5 4 9641 3.16800000 2432027902 2432027902 -11.00000000
8.09777069 -0.91117287 0.71293396 76 5 9642 8.18000000 2432027904 2432027904 5.00000000
3.87486410 -0.43669018 -0.61760324 4 6 9643 3.94800000 2432027906 2432027906 -9.00000000
8.11513710 -0.91599560 1.00274098 90 7 9644 8.22800000 2432027909 2432027909 7.00000000
5.14435101 -0.58157766 -0.63567048 6 8 9645 5.21600000 2432027911 2432027911 -7.00000000
8.19679642 -0.92811066 1.30654061 7 9 9646 8.35200000 2432027913 2432027913 9.00000000
6.59055138 -0.74623805 -0.58028293 40 10 9646 6.65800000 2432027916 2432027916 -5.00000000
8.09874153 -0.91987145 -0.42716607 17 12 9648 8.16200000 2432027920 2432027920 -3.00000000
8.07452202 -0.91997558 -0.14185315 16 14 9650 8.12800000 2432027925 2432027925 -1.00000000
8.14799500 -0.92834675 2.19737363 47 15 9650 8.49000000 2432027927 2432027927 15.00000000
2.19356132 -0.25302777 -0.59166032 4 0 9658 2.28600000 2432027948 2432027948 -15.00000000
8.08895874 -0.93449384 0.14213240 12 1 9659 8.14400000 2432027950 2432027950 1.00000000
2.58432698 -0.29901683 -0.60061932 5 2 9660 2.67000000 2432027952 2432027952 -13.00000000
8.10870075 -0.93820870 0.42779410 10 3 9660 8.17400000 2432027955 2432027955 3.00000000
3.09107327 -0.35819611 -0.60486454 5 4 9661 3.17000000 2432027957 2432027957 -11.00000000
8.10443592 -0.94058222 0.71380556 83 5 9662 8.19000000 2432027959 2432027959 5.00000000
3.86154318 -0.44884488 -0.61572605 4 6 9663 3.93600000 2432027962 2432027962 -9.00000000
8.10597515 -0.94362855 1.00200975 85 7 9664 8.22200000 2432027964 2432027964 7.00000000
5.15214825 -0.60068065 -0.63688916 4 8 9665 5.22600000 2432027966 2432027966 -7.00000000
8.20331669 -0.95786268 1.30810499 5 9 9666 8.36200000 2432027969 2432027969 9.00000000
6.57801151 -0.76808345 -0.57941139 88 10 9666 6.64800000 2432027971 2432027971 -5.00000000
8.09746456 -0.94836801 -0.42727074 17 12 9668 8.16400000 2432027976 2432027976 -3.00000000
8.08119202 -0.94932187 -0.14202769 14 14 9670 8.13800000 2432027980 2432027980 -1.00000000
8.15621662 -0.95813525 2.20047951 47 15 9670 8.50200000 2432027982 2432027982 15.00000000
2.20033813 -0.26159549 -0.59373087 4 0 9678 2.29400000 2432028003 2432028003 -15.00000000
8.08564758 -0.96272385 0.14213240 12 1 9679 8.14400000 2432028005 2432028005 1.00000000
2.56778717 -0.30619007 -0.59702009 5 2 9680 2.65400000 2432028008 2432028008 -13.00000000
8.10719109 -0.96815914 0.42789876 13 3 9681 8.17600000 2432028010 2432028010 3.00000000
3.09760189 -0.36991498 -0.60639101 5 4 9681 3.17800000 2432028012 2432028012 -11.00000000
8.10506058 -0.96933949 0.71415418 76 5 9682 8.19400000 2432028015 2432028015 5.00000000
3.84818482 -0.46091193 -0.61384887 4 6 9683 3.92400000 2432028017 2432028017 -9.00000000
8.10066032 -0.97168148 1.00176597 92 7 9684 8.22000000 2432028019 2432028019 7.00000000
5.14213657 -0.61771429 -0.63591421 4 8 9685 5.21800000 2432028022 2432028022 -7.00000000
8.21774673 -0.98718101 1.31092083 7 9 9685 8.38000000 2432028024 2432028024 9.00000000
8.08022499 -0.97495294 -0.42653805 17 12 9688 8.15000000 2432028031 2432028031 -3.00000000
8.09371090 -0.97944659 -0.14230692 14 14 9690 8.15400000 2432028035 2432028035 -1.00000000
8.15264988 -0.98802286 2.20047951 49 15 9691 8.50200000 2432028038 2432028038 15.00000000
2.19941139 -0.26927450 -0.59373087 4 0 9698 2.29400000 2432028058 2432028058 -15.00000000
8.09017754 -0.99191558 0.14227201 12 1 9699 8.15200000 2432028061 2432028061 1.00000000
2.57057118 -0.31562644 -0.59791988 5 2 9700 2.65800000 2432028063 2432028063 -13.00000000
8.09600639 -0.99406457 0.42748010 13 3 9700 8.16800000 2432028065 2432028065 3.00000000
3.08849740 -0.37976697 -0.60486454 5 4 9701 3.17000000 2432028068 2432028068 -11.00000000
8.11151409 -0.99884301 0.71502572 79 5 9702 8.20400000 2432028070 2432028070 5.00000000
3.85439444 -0.47530887 -0.61510032 4 6 9703 3.93200000 2432028072 2432028072 -9.00000000
8.10115910 -1.00043881 1.00225353 90 7 9704 8.22400000 2432028075 2432028075 7.00000000
5.11433792 -0.63249260 -0.63274562 4 8 9705 5.19200000 2432028077 2432028077 -7.00000000
8.19839001 -1.01535165 1.30841792 7 9 9706 8.36400000 2432028079 2432028079 9.00000000
6.58435249 -0.81545681 -0.58045727 100 10 9706 6.66000000 2432028082 2432028082 -5.00000000
8.09262848 -1.00512159 -0.42737541 17 12 9708 8.16600000 2432028086 2432028086 -3.00000000
8.09024239 -1.00769293 -0.14230692 14 14 9710 8.15400000 2432028091 2432028091 -1.00000000
8.16065407 -1.01790953 2.20358539 49 15 9711 8.51400000 2432028093 2432028093 15.00000000
2.19462466 -0.27646732 -0.59269559 4 0 9718 2.29000000 2432028114 2432028114 -15.00000000
8.09063339 -1.02065015 0.14234182 12 1 9719 8.15600000 2432028116 2432028116 1.00000000
2.57332039 -0.32508597 -0.59881973 4 2 9720 2.66200000 2432028118 2432028118 -13.00000000
8.10239506 -1.02357054 0.42800346 13 3 9720 8.17800000 2432028121 2432028121 3.00000000
3.08325744 -0.39005274 -0.60410130 5 4 9721 3.16600000 2432028123 2432028123 -11.00000000
8.10402489 -1.02665055 0.71467710 90 5 9722 8.20000000 2432028125 2432028125 5.00000000
3.86447001 -0.49025193 -0.61697751 4 6 9723 3.94400000 2432028128 2432028128 -9.00000000
8.10155678 -1.02921128 1.00274098 95 7 9724 8.22800000 2432028130 2432028130 7.00000000
5.12785244 -0.65234524 -0.63469553 4 8 9725 5.20800000 2432028132 2432028132 -7.00000000
8.19497776 -1.04253292 1.30841792 7 9 9725 8.36400000 2432028135 2432028135 9.00000000
8.09699535 -1.03437638 -0.42779410 17 12 9728 8.17400000 2432028141 2432028141 -3.00000000
8.07477474 -1.03440249 -0.14209749 14 14 9730 8.14200000 2432028146 2432028146 -1.00000000
8.14938641 -1.04540610 2.20151472 47 15 9731 8.50600000 2432028148 2432028148 15.00000000
2.18215132 -0.28263745 -0.58958977 4 0 9738 2.27800000 2432028169 2432028169 -15.00000000
8.08702087 -1.04888546 0.14234182 12 1 9739 8.15600000 2432028171 2432028171 1.00000000
2.57603502 -0.33456853 -0.59971952 5 2 9740 2.66600000 2432028174 2432028174 -13.00000000
8.11857891 -1.05441928 0.42905018 13 3 9740 8.19800000 2432028176 2432028176 3.00000000
3.08771777 -0.40157253 -0.60524613 5 4 9741 3.17200000 2432028178 2432028178 -11.00000000
8.09248924 -1.05390346 0.71397984 76 5 9742 8.19200000 2432028181 2432028181 5.00000000
3.85489988 -0.50271672 -0.61572605 6 6 9743 3.93600000 2432028183 2432028183 -9.00000000
8.10775661 -1.05876994 1.00395966 90 7 9744 8.23800000 2432028185 2432028185 7.00000000
5.12751245 -0.67049819 -0.63493925 4 8 9745 5.21000000 2432028188 2432028188 -7.00000000
8.20499992 -1.07292521 1.31060791 7 9 9745 8.37800000 2432028190 2432028190 9.00000000
6.56071949 -0.85907590 -0.57888842 16 10 9746 6.64200000 2432028192 2432028192 -5.00000000
8.09729576 -1.06315386 -0.42800346 17 12 9748 8.17800000 2432028197 2432028197 -3.00000000
8.08697510 -1.06467044 -0.14237674 14 14 9750 8.15800000 2432028201 2432028201 -1.00000000
8.14568710 -1.07384646 2.20151472 47 15 9751 8.50600000 2432028204 2432028204 15.00000000
2.18498135 -0.29076251 -0.59062505 4 0 9758 2.28200000 2432028224 2432028224 -15.00000000
8.08331108 -1.07710803 0.14234182 15 1 9759 8.15600000 2432028227 2432028227 1.00000000
2.57871461 -0.34407401 -0.60061932 5 2 9760 2.67000000 2432028229 2432028229 -13.00000000
8.11088943 -1.08222365 0.42884082 13 3 9760 8.19400000 2432028231 2432028231 3.00000000
3.07851338 -0.41130826 -0.60371965 5 4 9761 3.16400000 2432028234 2432028234 -11.00000000
8.10455990 -1.08425868 0.71537435 90 5 9762 8.20800000 2432028236 2432028236 5.00000000
3.84529018 -0.51512063 -0.61447459 6 6 9763 3.92800000 2432028238 2432028238 -9.00000000
8.10007668 -1.08653712 1.00347221 90 7 9764 8.23400000 2432028240 2432028240 7.00000000
5.13301039 -0.68944949 -0.63591421 4 8 9765 5.21800000 2432028243 2432028243 -7.00000000
8.19141579 -1.10024464 1.30904365 7 9 9765 8.36800000 2432028245 2432028245 9.00000000
6.56952858 -0.88356531 -0.57993430 16 10 9766 6.65400000 2432028247 2432028247 -5.00000000
8.10541153 -1.09301376 -0.42863148 17 12 9768 8.19000000 2432028252 2432028252 -3.00000000
8.08915424 -1.09369659 -0.14248145 16 14 9770 8.16400000 2432028257 2432028257 -1.00000000
8.14591026 -1.10137033 2.20255017 47 15 9770 8.51000000 2432028259 2432028259 15.00000000
2.18778110 -0.29891077 -0.59166032 4 0 9778 2.28600000 2432028280 2432028280 -15.00000000
8.07553959 -1.10477543 0.14227201 15 1 9779 8.15200000 2432028282 2432028282 1.00000000
2.55819082 -0.35042855 -0.59612030 4 2 9780 2.65000000 2432028284 2432028284 -13.00000000
8.09914684 -1.10944510 0.42842212 13 3 9780 8.18600000 2432028287 2432028287 3.00000000
3.08094883 -0.42258534 -0.60448289 5 4 9781 3.16800000 2432028289 2432028289 -11.00000000
8.10862064 -1.11362660 0.71607161 90 5 9782 8.21600000 2432028291 2432028291 5.00000000
3.84738255 -0.52907825 -0.61510032 6 6 9783 3.93200000 2432028293 2432028293 -9.00000000
8.09033489 -1.11399269 1.00274098 90 7 9784 8.22800000 2432028296 2432028296 7.00000000
5.10500813 -0.70383823 -0.63274562 2 8 9785 5.19200000 2432028298 2432028298 -7.00000000
8.21492100 -1.13260853 1.31342375 7 9 9785 8.39600000 2432028300 2432028300 9.00000000
6.57627249 -0.90785420 -0.58080590 16 10 9786 6.66400000 2432028303 2432028303 -5.00000000
8.07187080 -1.11719286 -0.42706141 17 12 9788 8.16000000 2432028307 2432028307 -3.00000000
8.08528805 -1.12192643 -0.14248145 16 14 9790 8.16400000 2432028312 2432028312 -1.00000000
8.14947319 -1.13228261 2.20462060 49 15 9791 8.51800000 2432028314 2432028314 15.00000000
2.19443059 -0.30723551 -0.59373087 4 0 9797 2.29400000 2432028335 2432028335 -15.00000000
8.09163475 -1.13432491 0.14262107 12 1 9798 8.17200000 2432028337 2432028337 1.00000000
2.56473398 -0.35999340 -0.59791988 5 2 9799 2.65800000 2432028340 2432028340 -13.00000000
8.09522533 -1.13770962 0.42842212 13 3 9800 8.18600000 2432028342 2432028342 3.00000000
3.07564235 -0.43225333 -0.60371965 5 4 9800 3.16400000 2432028344 2432028344 -11.00000000
8.10685635 -1.14078724 0.71624589 83 5 9801 8.21800000 2432028346 2432028346 5.00000000
3.83778262 -0.54073131 -0.61384887 4 6 9802 3.92400000 2432028349 2432028349 -9.00000000
8.09642410 -1.14220154 1.00395966 90 7 9803 8.23800000 2432028351 2432028351 7.00000000
5.12623310 -0.72409493 -0.63567048 4 8 9804 5.21600000 2432028353 2432028353 -7.00000000
8.19547272 -1.15763366 1.31092083 7 9 9804 8.38000000 2432028356 2432028356 9.00000000
6.58111715 -0.93077290 -0.58150309 16 10 9805 6.67200000 2432028358 2432028358 -5.00000000
8.08394146 -1.14619708 -0.42789876 17 12 9807 8.17600000 2432028363 2432028363 -3.00000000
8.07558346 -1.14788771 -0.14237674 18 14 9809 8.15800000 2432028367 2432028367 -1.00000000
8.15735149 -1.15951049 2.20772648 47 15 9809 8.53000000 2432028370 2432028370 15.00000000
2.18569589 -0.31379548 -0.59166032 4 0 9817 2.28600000 2432028390 2432028390 -15.00000000
8.09554291 -1.16370118 0.14276068 12 1 9818 8.18000000 2432028393 2432028393 1.00000000
2.56731939 -0.36949903 -0.59881973 6 2 9819 2.66200000 2432028395 2432028395 -13.00000000
8.08922768 -1.16567552 0.42831746 13 3 9820 8.18400000 2432028397 2432028397 3.00000000
3.06634212 -0.44186664 -0.60219318 5 4 9820 3.15600000 2432028399 2432028399 -11.00000000
8.09690857 -1.16822493 0.71572298 90 5 9821 8.21200000 2432028402 2432028402 5.00000000
3.83978176 -0.55468929 -0.61447459 6 6 9822 3.92800000 2432028404 2432028404 -9.00000000
8.10221100 -1.17187715 1.00517833 90 7 9823 8.24800000 2432028406 2432028406 7.00000000
5.11778069 -0.74113089 -0.63493925 4 8 9824 5.21000000 2432028409 2432028409 -7.00000000
8.18726444 -1.18709683 1.31029510 7 9 9825 8.37600000 2432028411 2432028411 9.00000000
6.58768654 -0.95516908 -0.58237469 4 10 9825 6.68200000 2432028413 2432028413 -5.00000000
8.09570312 -1.17670655 -0.42873615 17 12 9827 8.19200000 2432028418 2432028418 -3.00000000
8.08142090 -1.17751145 -0.14255126 16 14 9829 8.16800000 2432028423 2432028423 -1.00000000
8.14922333 -1.18884313 2.20669127 47 15 9830 8.52600000 2432028425 2432028425 15.00000000
2.18082070 -0.32048002 -0.59062505 4 0 9836 2.28200000 2432028446 2432028446 -15.00000000
8.08768272 -1.18995845 0.14269088 12 1 9837 8.17600000 2432028448 2432028448 1.00000000
2.56222415 -0.37744251 -0.59791988 4 2 9838 2.65800000 2432028450 2432028450 -13.00000000
8.10705185 -1.19569957 0.42946887 15 3 9839 8.20600000 2432028452 2432028452 3.00000000
3.06485987 -0.45203257 -0.60219318 5 4 9839 3.15600000 2432028455 2432028455 -11.00000000
8.09101963 -1.19477785 0.71554863 76 5 9840 8.21000000 2432028457 2432028457 5.00000000
3.82815075 -0.56597483 -0.61291021 6 6 9841 3.91800000 2432028459 2432028459 -9.00000000
8.11006260 -1.20048273 1.00664079 92 7 9842 8.26000000 2432028462 2432028462 7.00000000
5.11136723 -0.75751597 -0.63445181 6 8 9843 5.20600000 2432028464 2432028464 -7.00000000
8.19131088 -1.21397042 1.31154656 10 9 9843 8.38400000 2432028466 2432028466 9.00000000
8.05076694 -1.19457746 -0.71206242 17 10 9844 8.17000000 2432028469 2432028469 -5.00000000
8.09175682 -1.20354640 -0.42873615 17 12 9846 8.19200000 2432028473 2432028473 -3.00000000
8.07549381 -1.20400906 -0.14251634 18 14 9848 8.16600000 2432028478 2432028478 -1.00000000
8.13780499 -1.21329927 2.20462060 47 15 9848 8.51800000 2432028480 2432028480 15.00000000
2.17204738 -0.32694039 -0.58855450 4 0 9856 2.27400000 2432028501 2432028501 -15.00000000
8.08347988 -1.21818244 0.14269088 12 1 9857 8.17600000 2432028503 2432028503 1.00000000
2.56089115 -0.38638404 -0.59791988 5 2 9858 2.65800000 2432028505 2432028505 -13.00000000
8.11072826 -1.22518444 0.42988753 15 3 9859 8.21400000 2432028508 2432028508 3.00000000
3.06908703 -0.46360788 -0.60333806 5 4 9859 3.16200000 2432028510 2432028510 -11.00000000
8.09467983 -1.22420514 0.71624589 83 5 9860 8.21800000 2432028512 2432028512 5.00000000
3.81638622 -0.57785547 -0.61134589 6 6 9861 3.90800000 2432028515 2432028515 -9.00000000
8.09993458 -1.22789216 1.00590956 90 7 9862 8.25400000 2432028517 2432028517 7.00000000
5.12243032 -0.77743840 -0.63615799 6 8 9863 5.22000000 2432028519 2432028519 -7.00000000
8.18875980 -1.24428165 1.31185937 10 9 9864 8.38600000 2432028522 2432028522 9.00000000
8.05048752 -1.22327125 -0.71241105 17 10 9864 8.17400000 2432028524 2432028524 -5.00000000
8.09342957 -1.23268676 -0.42905018 17 12 9866 8.19800000 2432028528 2432028528 -3.00000000
8.08112621 -1.23369932 -0.14269088 18 14 9868 8.17600000 2432028533 2432028533 -1.00000000
8.14476204 -1.24486887 2.20772648 49 15 9869 8.53000000 2432028535 2432028535 15.00000000
2.18240738 -0.33590463 -0.59166032 4 0 9875 2.28600000 2432028556 2432028556 -15.00000000
8.08334827 -1.24559057 0.14276068 12 1 9876 8.18000000 2432028558 2432028558 1.00000000
2.55381775 -0.39398277 -0.59657019 6 2 9877 2.65200000 2432028561 2432028561 -13.00000000
8.10267353 -1.25146413 0.42967820 18 3 9878 8.21000000 2432028563 2432028563 3.00000000
3.06947303 -0.47408247 -0.60371965 5 4 9878 3.16400000 2432028565 2432028565 -11.00000000
8.10829639 -1.25378156 0.71781468 79 5 9879 8.23600000 2432028568 2432028568 5.00000000
3.80859256 -0.58960128 -0.61040729 6 6 9880 3.90200000 2432028570 2432028570 -9.00000000
8.09385681 -1.25444174 1.00566578 95 7 9881 8.25200000 2432028572 2432028572 7.00000000
5.10020781 -0.79137695 -0.63372058 8 8 9882 5.20000000 2432028575 2432028575 -7.00000000
8.19652271 -1.27181852 1.31373668 10 9 9882 8.39800000 2432028577 2432028577 9.00000000
8.00307369 -1.24323249 -0.70857620 17 10 9883 8.13000000 2432028579 2432028579 -5.00000000
8.08140373 -1.25828969 -0.42863148 17 12 9885 8.19000000 2432028584 2432028584 -3.00000000
