# .PCD v0.7 - Point Cloud Data file format
VERSION 0.7
FIELDS x y z intensity laser_id azimuth distance_m adjustedtime timestamp vertical_angle
SIZE 4 4 4 1 1 2 8 8 4 8
TYPE F F F U U U F U U F
COUNT 1 1 1 1 1 1 1 1 1 1
WIDTH 523
HEIGHT 1
VIEWPOINT 0 0 0 1 0 0 0
POINTS 523
DATA ascii
2.92844915 -9.35041142 2.26210785 17 13 16261 10.05600000 2432846360 2432846360 13.00000000
2.69486523 -8.60985661 2.41736984 27 15 16262 9.34000000 2432846364 2432846364 15.00000000
0.60057366 -1.92940605 -0.54144943 4 0 16271 2.09200000 2432846385 2432846385 -15.00000000
0.69365996 -2.23119974 -0.53943264 3 2 16273 2.39800000 2432846390 2432846390 -13.00000000
0.82076192 -2.64165711 -0.53769976 3 4 16274 2.81800000 2432846394 2432846394 -11.00000000
1.00053751 -3.22424436 -0.53469300 1 6 16276 3.41800000 2432846399 2432846399 -9.00000000
1.27818155 -4.12404060 -0.53013164 2 8 16278 4.35000000 2432846403 2432846403 -7.00000000
1.80091560 -5.81422615 -0.53252161 3 10 16279 6.11000000 2432846408 2432846408 -5.00000000
2.81619048 -9.10326576 -0.49938971 4 12 16281 9.54200000 2432846413 2432846413 -3.00000000
2.86998296 -9.28288651 2.24321198 17 13 16282 9.97200000 2432846415 2432846415 13.00000000
2.69693804 -8.72857475 2.44791055 33 15 16283 9.45800000 2432846419 2432846419 15.00000000
0.59610599 -1.93887687 -0.54351997 4 0 16291 2.10000000 2432846440 2432846440 -15.00000000
0.68586737 -2.23360753 -0.53943264 3 2 16293 2.39800000 2432846445 2432846445 -13.00000000
0.80404824 -2.62010694 -0.53273869 3 4 16294 2.79200000 2432846449 2432846449 -11.00000000
0.97769946 -3.18994403 -0.52843565 1 6 16296 3.37800000 2432846454 2432846454 -9.00000000
1.25912976 -4.11329222 -0.52818173 2 8 16298 4.33400000 2432846459 2432846459 -7.00000000
1.75729525 -5.74426794 -0.52554911 3 10 16299 6.03000000 2432846463 2432846463 -5.00000000
2.77681017 -9.08820915 -0.49802896 8 12 16301 9.51600000 2432846468 2432846468 -3.00000000
2.82731819 -9.25930023 2.23511362 21 13 16302 9.93600000 2432846470 2432846470 13.00000000
2.69535851 -8.83818436 2.47586298 36 15 16304 9.56600000 2432846475 2432846475 15.00000000
0.58708936 -1.93355179 -0.54144943 4 0 16311 2.09200000 2432846496 2432846496 -15.00000000
0.67919749 -2.23971772 -0.54033244 3 2 16313 2.40200000 2432846500 2432846500 -13.00000000
0.79489750 -2.62289762 -0.53273869 3 4 16314 2.79200000 2432846505 2432846505 -11.00000000
0.97399801 -3.21791625 -0.53250289 3 6 16316 3.40400000 2432846509 2432846509 -9.00000000
1.24763620 -4.12716293 -0.52940041 2 8 16318 4.34400000 2432846514 2432846514 -7.00000000
1.76028121 -5.82665682 -0.53252161 3 10 16319 6.11000000 2432846519 2432846519 -5.00000000
2.73930001 -9.07872581 -0.49698225 8 12 16321 9.49600000 2432846523 2432846523 -3.00000000
2.79047918 -9.25418663 2.23151445 21 13 16322 9.92000000 2432846525 2432846525 13.00000000
2.69390512 -8.93955803 2.50174499 31 15 16323 9.66600000 2432846530 2432846530 15.00000000
0.57811719 -1.92818749 -0.53937888 4 0 16331 2.08400000 2432846551 2432846551 -15.00000000
0.67137533 -2.24207497 -0.54033244 3 2 16333 2.40200000 2432846555 2432846555 -13.00000000
0.78967696 -2.63882208 -0.53541005 3 4 16334 2.80600000 2432846560 2432846560 -11.00000000
0.96106243 -3.21561861 -0.53156430 1 6 16336 3.39800000 2432846565 2432846565 -9.00000000
1.22527313 -4.10486269 -0.52598810 2 8 16338 4.31600000 2432846569 2432846569 -7.00000000
1.73993158 -5.83276606 -0.53252161 3 10 16339 6.11000000 2432846574 2432846574 -5.00000000
2.71044397 -9.09780312 -0.49750561 4 12 16341 9.50600000 2432846578 2432846578 -3.00000000
2.75537872 -9.25453186 2.22926497 25 13 16342 9.91000000 2432846581 2432846581 13.00000000
2.69243455 -9.04889488 2.52969742 38 15 16343 9.77400000 2432846585 2432846585 15.00000000
0.57171988 -1.93009400 -0.53937888 4 0 16350 2.08400000 2432846607 2432846607 -15.00000000
0.66393661 -2.24428892 -0.54033244 3 2 16352 2.40200000 2432846612 2432846612 -13.00000000
0.78092194 -2.64142632 -0.53541005 5 4 16353 2.80600000 2432846616 2432846616 -11.00000000
0.94703752 -3.20742059 -0.52968711 1 6 16355 3.38600000 2432846621 2432846621 -9.00000000
1.21558440 -4.12223148 -0.52769428 4 8 16357 4.33000000 2432846625 2432846625 -7.00000000
1.70368385 -5.78116989 -0.52729225 3 10 16358 6.05000000 2432846630 2432846630 -5.00000000
2.67462063 -9.08758068 -0.49645889 8 12 16360 9.48600000 2432846635 2432846635 -3.00000000
2.72467446 -9.26361847 2.22926497 27 13 16361 9.91000000 2432846637 2432846637 13.00000000
2.69564509 -9.17083359 2.56127334 38 15 16362 9.89600000 2432846642 2432846642 15.00000000
0.56714797 -1.93949473 -0.54144943 4 0 16370 2.09200000 2432846662 2432846662 -15.00000000
0.65282077 -2.23536921 -0.53763300 3 2 16372 2.39000000 2432846667 2432846667 -13.00000000
0.77059680 -2.64036679 -0.53464681 3 4 16373 2.80200000 2432846672 2432846672 -11.00000000
0.93473017 -3.20691395 -0.52906138 1 6 16375 3.38200000 2432846676 2432846676 -9.00000000
1.19841361 -4.11691952 -0.52647555 4 8 16377 4.32000000 2432846681 2432846681 -7.00000000
1.70018923 -5.84447432 -0.53252161 3 10 16378 6.11000000 2432846685 2432846685 -5.00000000
2.63675332 -9.07576466 -0.49530748 4 12 16380 9.46400000 2432846690 2432846690 -3.00000000
2.68688822 -9.25435829 2.22476602 27 13 16381 9.89000000 2432846692 2432846692 13.00000000
2.69590807 -9.29754448 2.59388447 40 15 16383 10.02200000 2432846697 2432846697 15.00000000
0.56178534 -1.94507670 -0.54248470 4 0 16389 2.09600000 2432846718 2432846718 -15.00000000
0.64756483 -2.24501133 -0.53943264 3 2 16391 2.39800000 2432846722 2432846722 -13.00000000
0.76129305 -2.64102125 -0.53426516 5 4 16392 2.80000000 2432846727 2432846727 -11.00000000
3.30799532 -11.48338223 1.04552031 17 5 16393 11.99600000 2432846729 2432846729 5.00000000
0.92627645 -3.21758914 -0.53031284 3 6 16394 3.39000000 2432846731 2432846731 -9.00000000
1.18256092 -4.11323977 -0.52550060 2 8 16396 4.31200000 2432846736 2432846736 -7.00000000
1.66979527 -5.81178141 -0.52903533 3 10 16397 6.07000000 2432846741 2432846741 -5.00000000
2.60554075 -9.08061886 -0.49509814 4 12 16399 9.46000000 2432846745 2432846745 -3.00000000
2.65242481 -9.25010490 2.22161651 21 13 16400 9.87600000 2432846748 2432846748 13.00000000
2.69435835 -9.40253735 2.62080169 45 15 16401 10.12600000 2432846752 2432846752 15.00000000
0.55393320 -1.94331014 -0.54144943 4 0 16409 2.09200000 2432846773 2432846773 -15.00000000
3.27988815 -11.51413631 0.20897512 10 1 16410 11.97400000 2432846775 2432846775 1.00000000
0.63865721 -2.24350953 -0.53853285 3 2 16411 2.39400000 2432846777 2432846777 -13.00000000
3.27169752 -11.49299622 0.62625206 5 3 16411 11.96600000 2432846780 2432846780 3.00000000
0.75045794 -2.63799763 -0.53312033 3 4 16412 2.79400000 2432846782 2432846782 -11.00000000
3.26516652 -11.48527718 1.04464877 21 5 16413 11.98600000 2432846784 2432846784 5.00000000
0.91557920 -3.22270298 -0.53062570 3 6 16414 3.39200000 2432846787 2432846787 -9.00000000
1.16711211 -4.11352348 -0.52501315 2 8 16416 4.30800000 2432846791 2432846791 -7.00000000
1.64732420 -5.80990744 -0.52833813 3 10 16417 6.06200000 2432846796 2432846796 -5.00000000
2.57328343 -9.08773708 -0.49499348 4 12 16419 9.45800000 2432846801 2432846801 -3.00000000
2.61746669 -9.24993134 2.21936703 20 13 16420 9.86600000 2432846803 2432846803 13.00000000
3.25233507 -11.50117016 -0.20862606 6 14 16421 11.95400000 2432846805 2432846805 -1.00000000
2.67991972 -9.47694874 2.63891888 45 15 16421 10.19600000 2432846807 2432846807 15.00000000
0.54610020 -1.94151258 -0.54041415 4 0 16429 2.08800000 2432846828 2432846828 -15.00000000
0.63503802 -2.26073432 -0.54213202 3 2 16431 2.41000000 2432846833 2432846833 -13.00000000
0.74018383 -2.63682079 -0.53235710 3 4 16432 2.79000000 2432846837 2432846837 -11.00000000
3.21536922 -11.46207428 1.04151118 17 5 16433 11.95000000 2432846840 2432846840 5.00000000
0.90272462 -3.22017336 -0.52968711 1 6 16434 3.38600000 2432846842 2432846842 -9.00000000
1.15488684 -4.12521887 -0.52598810 2 8 16436 4.31600000 2432846847 2432846847 -7.00000000
1.62488663 -5.80794764 -0.52764088 3 10 16437 6.05400000 2432846851 2432846851 -5.00000000
2.53832102 -9.08512211 -0.49436545 4 12 16439 9.44600000 2432846856 2432846856 -3.00000000
2.58568668 -9.26088905 2.21981692 16 13 16440 9.86800000 2432846858 2432846858 13.00000000
2.64309144 -9.47926331 2.63684845 45 15 16442 10.18800000 2432846863 2432846863 15.00000000
0.53931975 -1.94340694 -0.54041415 4 0 16449 2.08800000 2432846883 2432846883 -15.00000000
0.62506092 -2.25542545 -0.54033244 3 2 16451 2.40200000 2432846888 2432846888 -13.00000000
0.73097509 -2.63938832 -0.53235710 3 4 16452 2.79000000 2432846893 2432846893 -11.00000000
3.17108798 -11.45786667 1.04011667 17 5 16453 11.93400000 2432846895 2432846895 5.00000000
0.89516461 -3.23663211 -0.53187716 1 6 16454 3.40000000 2432846897 2432846897 -9.00000000
1.13730907 -4.11774397 -0.52452564 2 8 16456 4.30400000 2432846902 2432846902 -7.00000000
1.60672367 -5.82126617 -0.52833813 3 10 16457 6.06200000 2432846907 2432846907 -5.00000000
2.50128531 -9.07467270 -0.49331874 4 12 16459 9.42600000 2432846911 2432846911 -3.00000000
2.55282688 -9.26797962 2.21936703 13 13 16460 9.86600000 2432846913 2432846913 13.00000000
2.61357307 -9.50147057 2.64047194 40 15 16462 10.20200000 2432846918 2432846918 15.00000000
0.53219318 -1.94537067 -0.54041415 4 0 16470 2.08800000 2432846939 2432846939 -15.00000000
3.13708067 -11.47510433 0.20764874 10 1 16471 11.89800000 2432846941 2432846941 1.00000000
0.61473590 -2.25018191 -0.53853285 3 2 16472 2.39400000 2432846943 2432846943 -13.00000000
0.72439873 -2.65341353 -0.53464681 3 4 16473 2.80200000 2432846948 2432846948 -11.00000000
3.12644958 -11.45980167 1.03924513 17 5 16474 11.92400000 2432846950 2432846950 5.00000000
0.87602156 -3.21320987 -0.52749699 3 6 16475 3.37200000 2432846953 2432846953 -9.00000000
1.12220919 -4.12188482 -0.52452564 2 8 16477 4.30400000 2432846957 2432846957 -7.00000000
1.59793007 -5.87325621 -0.53252161 3 10 16478 6.11000000 2432846962 2432846962 -5.00000000
2.45962977 -9.05294132 -0.49164397 4 12 16480 9.39400000 2432846966 2432846966 -3.00000000
2.51935148 -9.27915478 2.21981692 9 13 16481 9.86800000 2432846969 2432846969 13.00000000
3.11609149 -11.48496532 -0.20771854 6 14 16482 11.90200000 2432846971 2432846971 -1.00000000
2.57873106 -9.51098633 2.64047194 42 15 16483 10.20200000 2432846973 2432846973 15.00000000
0.52741235 -1.95467710 -0.54248470 4 0 16490 2.09600000 2432846994 2432846994 -15.00000000
0.60586357 -2.24855065 -0.53763300 3 2 16492 2.39000000 2432846999 2432846999 -13.00000000
0.71513218 -2.65592599 -0.53464681 3 4 16493 2.80200000 2432847003 2432847003 -11.00000000
3.08383989 -11.46102524 1.03837347 17 5 16494 11.91400000 2432847006 2432847006 5.00000000
0.87095517 -3.23913956 -0.53125143 3 6 16495 3.39600000 2432847008 2432847008 -9.00000000
1.11193252 -4.14111471 -0.52647555 2 8 16497 4.32000000 2432847013 2432847013 -7.00000000
1.55883062 -5.80952263 -0.52624637 3 10 16498 6.03800000 2432847017 2432847017 -5.00000000
2.43473411 -9.08655167 -0.49300471 8 12 16500 9.42000000 2432847022 2432847022 -3.00000000
2.54743099 -9.51378345 2.27380514 9 13 16501 10.10800000 2432847024 2432847024 13.00000000
2.54601479 -9.52179623 2.64098954 38 15 16503 10.20400000 2432847029 2432847029 15.00000000
0.51893926 -1.94894803 -0.54041415 4 0 16509 2.08800000 2432847049 2432847049 -15.00000000
0.60040683 -2.25808072 -0.53943264 3 2 16511 2.39800000 2432847054 2432847054 -13.00000000
0.70127928 -2.63930869 -0.53083062 3 4 16512 2.78200000 2432847059 2432847059 -11.00000000
3.04070377 -11.45193195 1.03663039 21 5 16513 11.89400000 2432847061 2432847061 5.00000000
0.86071563 -3.24391913 -0.53156430 1 6 16514 3.39800000 2432847063 2432847063 -9.00000000
1.09412670 -4.12942791 -0.52452564 2 8 16516 4.30400000 2432847068 2432847068 -7.00000000
1.53751719 -5.80695629 -0.52554911 3 10 16517 6.03000000 2432847072 2432847072 -5.00000000
2.40356755 -9.09071350 -0.49279538 8 12 16519 9.41600000 2432847077 2432847077 -3.00000000
2.58207512 -9.77276230 2.33364224 8 13 16520 10.37400000 2432847079 2432847079 13.00000000
2.51214337 -9.51480484 2.63684845 40 15 16521 10.18800000 2432847084 2432847084 15.00000000
0.51115191 -1.94701052 -0.53937888 4 0 16529 2.08400000 2432847105 2432847105 -15.00000000
3.00657368 -11.46037674 0.20681101 10 1 16530 11.85000000 2432847107 2432847107 1.00000000
0.59647441 -2.27524304 -0.54303187 3 2 16531 2.41400000 2432847109 2432847109 -13.00000000
3.00699067 -11.47012234 0.62143713 7 3 16531 11.87400000 2432847112 2432847112 3.00000000
0.69305718 -2.64553881 -0.53159386 3 4 16532 2.78600000 2432847114 2432847114 -11.00000000
2.99465561 -11.43934727 1.03453863 21 5 16533 11.87000000 2432847116 2432847116 5.00000000
0.84538752 -3.23161530 -0.52906138 1 6 16534 3.38200000 2432847118 2432847118 -9.00000000
1.08371937 -4.14858723 -0.52647555 2 8 16536 4.32000000 2432847123 2432847123 -7.00000000
1.51220548 -5.79300976 -0.52380604 3 10 16537 6.01000000 2432847128 2432847128 -5.00000000
2.36829400 -9.08551979 -0.49206266 4 12 16539 9.40200000 2432847132 2432847132 -3.00000000
2.98154354 -11.45451736 -0.20660159 6 14 16541 11.83800000 2432847137 2432847137 -1.00000000
2.47482157 -9.51459980 2.63426018 40 15 16542 10.17800000 2432847139 2432847139 15.00000000
0.50241631 -1.94130206 -0.53730834 4 0 16549 2.07600000 2432847160 2432847160 -15.00000000
0.58462793 -2.26221728 -0.53943264 3 2 16551 2.39800000 2432847165 2432847165 -13.00000000
0.68578190 -2.65554547 -0.53312033 3 4 16552 2.79400000 2432847169 2432847169 -11.00000000
2.94923019 -11.42850971 1.03262126 17 5 16553 11.84800000 2432847171 2432847171 5.00000000
0.83607495 -3.24219775 -0.53031284 1 6 16554 3.39000000 2432847174 2432847174 -9.00000000
1.06725144 -4.14465523 -0.52550060 2 8 16556 4.31200000 2432847178 2432847178 -7.00000000
1.48403096 -5.76738024 -0.52101701 3 10 16557 5.97800000 2432847183 2432847183 -5.00000000
2.33209181 -9.07632065 -0.49112061 8 12 16559 9.38400000 2432847188 2432847188 -3.00000000
2.67226076 -10.40776825 2.48076034 44 13 16560 11.02800000 2432847190 2432847190 13.00000000
2.44277620 -9.52088356 2.63374257 42 15 16561 10.17600000 2432847195 2432847195 15.00000000
0.49754685 -1.95053160 -0.53937888 4 0 16569 2.08400000 2432847215 2432847215 -15.00000000
0.57480371 -2.25669026 -0.53763300 3 2 16571 2.39000000 2432847220 2432847220 -13.00000000
0.67650813 -2.65792322 -0.53312033 3 4 16572 2.79400000 2432847224 2432847224 -11.00000000
2.90489936 -11.42135715 1.03105247 17 5 16573 11.83000000 2432847227 2432847227 5.00000000
0.81940007 -3.22403693 -0.52687126 1 6 16574 3.36800000 2432847229 2432847229 -9.00000000
1.05180073 -4.14450741 -0.52501315 2 8 16576 4.30800000 2432847234 2432847234 -7.00000000
1.47172606 -5.80342579 -0.52380604 3 10 16577 6.01000000 2432847238 2432847238 -5.00000000
2.29696345 -9.07085323 -0.49038792 8 12 16579 9.37000000 2432847243 2432847243 -3.00000000
2.67272353 -10.56250095 2.51540279 51 13 16580 11.18200000 2432847245 2432847245 13.00000000
2.41212320 -9.54662991 2.63840127 40 15 16582 10.19400000 2432847250 2432847250 15.00000000
0.49356091 -1.96349788 -0.54248470 4 0 16589 2.09600000 2432847271 2432847271 -15.00000000
2.87227058 -11.43498898 0.20579877 10 1 16590 11.79200000 2432847273 2432847273 1.00000000
0.56787175 -2.26246333 -0.53853285 3 2 16591 2.39400000 2432847275 2432847275 -13.00000000
2.86964321 -11.44143009 0.61819232 26 3 16592 11.81200000 2432847277 2432847277 3.00000000
0.66531569 -2.65265131 -0.53159386 3 4 16592 2.78600000 2432847280 2432847280 -11.00000000
2.86404490 -11.42756176 1.03070378 12 5 16593 11.82600000 2432847282 2432847282 5.00000000
0.81054056 -3.23645854 -0.52843565 1 6 16594 3.37800000 2432847284 2432847284 -9.00000000
1.03829050 -4.15200520 -0.52550060 2 8 16596 4.31200000 2432847289 2432847289 -7.00000000
1.45532358 -5.82399130 -0.52520049 3 10 16597 6.02600000 2432847294 2432847294 -5.00000000
2.26722026 -9.08656693 -0.49080661 4 12 16599 9.37800000 2432847298 2432847298 -3.00000000
2.66648102 -10.69467163 2.54464626 55 13 16600 11.31200000 2432847301 2432847301 13.00000000
2.85321236 -11.45212460 -0.20600821 21 14 16601 11.80400000 2432847303 2432847303 -1.00000000
2.37998509 -9.55270100 2.63788366 35 15 16601 10.19200000 2432847305 2432847305 15.00000000
0.48298872 -1.95020723 -0.53834361 4 0 16609 2.08000000 2432847326 2432847326 -15.00000000
2.84386683 -11.49153233 0.20663649 30 1 16610 11.84000000 2432847328 2432847328 1.00000000
0.56184202 -2.27199888 -0.54033244 3 2 16611 2.40200000 2432847330 2432847330 -13.00000000
0.65699404 -2.65876937 -0.53235710 3 4 16612 2.79000000 2432847335 2432847335 -11.00000000
0.79971153 -3.24118590 -0.52874851 1 6 16614 3.38000000 2432847340 2432847340 -9.00000000
2.83014584 -11.48766232 -1.45268261 2 8 16616 11.92000000 2432847344 2432847344 -7.00000000
1.41688704 -5.75551987 -0.51857668 3 10 16617 5.95000000 2432847349 2432847349 -5.00000000
2.23167443 -9.07890987 -0.48996922 4 12 16619 9.36200000 2432847353 2432847353 -3.00000000
2.66585588 -10.85342026 2.58018851 48 13 16620 11.47000000 2432847356 2432847356 13.00000000
2.34311604 -9.55385494 2.63581324 21 15 16622 10.18400000 2432847360 2432847360 15.00000000
0.47434682 -1.94437397 -0.53627306 4 0 16629 2.07200000 2432847381 2432847381 -15.00000000
0.55298543 -2.27015924 -0.53943264 3 2 16631 2.39800000 2432847386 2432847386 -13.00000000
0.64770925 -2.66104650 -0.53235710 3 4 16632 2.79000000 2432847390 2432847390 -11.00000000
0.78792626 -3.24203825 -0.52843565 1 6 16634 3.37800000 2432847395 2432847395 -9.00000000
1.01115143 -4.16686869 -0.52647555 2 8 16636 4.32000000 2432847400 2432847400 -7.00000000
1.39021480 -5.73332262 -0.51613629 3 10 16637 5.92200000 2432847404 2432847404 -5.00000000
2.19667959 -9.07305622 -0.48923653 4 12 16639 9.34800000 2432847409 2432847409 -3.00000000
2.66232133 -11.00471783 2.61393118 47 13 16640 11.62000000 2432847411 2432847411 13.00000000
2.31051373 -9.55781746 2.63477778 35 15 16641 10.18000000 2432847416 2432847416 15.00000000
0.46936205 -1.95353150 -0.53834361 4 0 16649 2.08000000 2432847436 2432847436 -15.00000000
0.54414856 -2.26828575 -0.53853285 3 2 16651 2.39400000 2432847441 2432847441 -13.00000000
0.63841647 -2.66329122 -0.53235710 3 4 16652 2.79000000 2432847446 2432847446 -11.00000000
0.77706444 -3.24669003 -0.52874851 1 6 16654 3.38000000 2432847450 2432847450 -9.00000000
0.99936855 -4.18195724 -0.52793801 2 8 16656 4.33200000 2432847455 2432847455 -7.00000000
1.37667179 -5.76527119 -0.51857668 3 10 16657 5.95000000 2432847459 2432847459 -5.00000000
2.15943694 -9.05735493 -0.48798046 4 12 16659 9.32400000 2432847464 2432847464 -3.00000000
2.65956926 -11.16370296 2.64947343 53 13 16660 11.77800000 2432847466 2432847466 13.00000000
2.27770233 -9.57561874 2.63736606 40 15 16662 10.19000000 2432847471 2432847471 15.00000000
0.46254009 -1.95515800 -0.53834361 4 0 16669 2.08000000 2432847492 2432847492 -15.00000000
0.53353959 -2.25879216 -0.53583342 3 2 16671 2.38200000 2432847496 2432847496 -13.00000000
0.63001794 -2.66932511 -0.53312033 3 4 16672 2.79400000 2432847501 2432847501 -11.00000000
0.76482046 -3.24553728 -0.52812278 1 6 16674 3.37600000 2432847506 2432847506 -9.00000000
0.97385317 -4.13904476 -0.52208829 2 8 16676 4.28400000 2432847510 2432847510 -7.00000000
1.35471487 -5.76228380 -0.51787943 3 10 16677 5.94200000 2432847515 2432847515 -5.00000000
2.13145900 -9.08039284 -0.48881784 4 12 16679 9.34000000 2432847519 2432847519 -3.00000000
2.63348937 -11.22793865 2.66252065 52 13 16680 11.83600000 2432847522 2432847522 13.00000000
2.24769902 -9.59064293 2.63943672 38 15 16681 10.19800000 2432847526 2432847526 15.00000000
0.45658886 -1.96052361 -0.53937888 4 0 16689 2.08400000 2432847547 2432847547 -15.00000000
0.52653438 -2.26443696 -0.53673321 3 2 16691 2.38600000 2432847552 2432847552 -13.00000000
0.61758626 -2.65812182 -0.53044903 3 4 16692 2.78000000 2432847556 2432847556 -11.00000000
0.74991572 -3.23279285 -0.52561980 1 6 16694 3.36000000 2432847561 2432847561 -9.00000000
0.95760769 -4.13468313 -0.52111334 2 8 16696 4.27600000 2432847565 2432847565 -7.00000000
1.33549094 -5.77085972 -0.51822805 3 10 16697 5.94600000 2432847570 2432847570 -5.00000000
2.09345484 -9.06053448 -0.48735243 4 12 16699 9.31200000 2432847575 2432847575 -3.00000000
2.59384203 -11.23516464 2.66207075 50 13 16700 11.83400000 2432847577 2432847577 13.00000000
2.21513605 -9.61011124 2.64254236 38 15 16702 10.21000000 2432847582 2432847582 15.00000000
0.44887936 -1.95833945 -0.53834361 4 0 16709 2.08000000 2432847602 2432847602 -15.00000000
0.52080047 -2.27575922 -0.53898275 4 2 16711 2.39600000 2432847607 2432847607 -13.00000000
0.74302322 -3.25464916 -0.52874851 1 6 16714 3.38000000 2432847616 2432847616 -9.00000000
0.94140458 -4.13025856 -0.52013838 2 8 16716 4.26800000 2432847621 2432847621 -7.00000000
1.31091452 -5.75605965 -0.51648492 3 10 16717 5.92600000 2432847625 2432847625 -5.00000000
2.06181502 -9.06778622 -0.48735243 4 12 16719 9.31200000 2432847630 2432847630 -3.00000000
2.55417657 -11.24224949 2.66162086 47 13 16720 11.83200000 2432847632 2432847632 13.00000000
2.18240023 -9.61363602 2.64150715 38 15 16721 10.20600000 2432847637 2432847637 15.00000000
0.44034058 -1.95235634 -0.53627306 4 0 16729 2.07200000 2432847658 2432847658 -15.00000000
0.51242530 -2.27566218 -0.53853285 3 2 16731 2.39400000 2432847662 2432847662 -13.00000000
0.73209077 -3.25915027 -0.52906138 1 6 16734 3.38200000 2432847671 2432847671 -9.00000000
0.92958784 -4.14514160 -0.52160078 2 8 16736 4.28000000 2432847676 2432847676 -7.00000000
1.28732896 -5.74504709 -0.51509047 3 10 16737 5.91000000 2432847681 2432847681 -5.00000000
2.03799844 -9.11001205 -0.48923653 4 12 16739 9.34800000 2432847685 2432847685 -3.00000000
2.51576829 -11.25490093 2.66252065 47 13 16740 11.83600000 2432847688 2432847688 13.00000000
2.14798689 -9.61742496 2.64047194 40 15 16741 10.20200000 2432847692 2432847692 15.00000000
0.43470147 -1.95757771 -0.53730834 4 0 16748 2.07600000 2432847713 2432847713 -15.00000000
0.50318897 -2.26973891 -0.53673321 3 2 16750 2.38600000 2432847718 2432847718 -13.00000000
0.59018219 -2.66434026 -0.53044903 3 4 16751 2.78000000 2432847722 2432847722 -11.00000000
0.71829325 -3.24805880 -0.52687126 1 6 16753 3.36800000 2432847727 2432847727 -9.00000000
0.91583693 -4.14820147 -0.52160078 2 8 16755 4.28000000 2432847731 2432847731 -7.00000000
1.26827061 -5.74928427 -0.51509047 3 10 16756 5.91000000 2432847736 2432847736 -5.00000000
2.00262260 -9.09331417 -0.48798046 4 12 16758 9.32400000 2432847741 2432847741 -3.00000000
2.47926950 -11.26698780 2.66342044 47 13 16759 11.84000000 2432847743 2432847743 13.00000000
2.11774182 -9.63204193 2.64254236 38 15 16760 10.21000000 2432847747 2432847747 15.00000000
0.42951444 -1.96663260 -0.53937888 4 0 16768 2.08400000 2432847768 2432847768 -15.00000000
0.49526304 -2.27148151 -0.53673321 4 2 16770 2.38600000 2432847773 2432847773 -13.00000000
0.70863020 -3.25826716 -0.52812278 1 6 16773 3.37600000 2432847782 2432847782 -9.00000000
0.89882427 -4.13973379 -0.52013838 2 8 16775 4.26800000 2432847787 2432847787 -7.00000000
1.25072849 -5.76535892 -0.51613629 3 10 16776 5.92200000 2432847791 2432847791 -5.00000000
2.43992519 -11.27557373 2.66342044 47 13 16779 11.84000000 2432847798 2432847798 13.00000000
2.08487201 -9.65106964 2.64564824 38 15 16781 10.22200000 2432847803 2432847803 15.00000000
0.42183575 -1.96434236 -0.53834361 4 0 16788 2.08000000 2432847824 2432847824 -15.00000000
0.48937353 -2.28272367 -0.53898275 4 2 16790 2.39600000 2432847828 2432847828 -13.00000000
0.56992251 -2.66071677 -0.52892256 3 4 16791 2.77200000 2432847833 2432847833 -11.00000000
0.69642633 -3.25685763 -0.52749699 1 6 16793 3.37200000 2432847837 2432847837 -9.00000000
0.88353962 -4.13896322 -0.51965088 2 8 16795 4.26400000 2432847842 2432847842 -7.00000000
1.23392081 -5.78527832 -0.51753080 3 10 16796 5.93800000 2432847847 2432847847 -5.00000000
2.40055132 -11.28402138 2.66342044 46 13 16799 11.84000000 2432847853 2432847853 13.00000000
2.05205297 -9.65415096 2.64461303 38 15 16800 10.21800000 2432847858 2432847858 15.00000000
0.41497636 -1.96580279 -0.53834361 4 0 16808 2.08000000 2432847879 2432847879 -15.00000000
0.47979501 -2.27679062 -0.53718311 4 2 16810 2.38800000 2432847883 2432847883 -13.00000000
0.86541778 -4.12453699 -0.51745725 2 8 16815 4.24600000 2432847897 2432847897 -7.00000000
1.20799577 -5.76225042 -0.51509047 3 10 16816 5.91000000 2432847902 2432847902 -5.00000000
2.36354113 -11.30377769 2.66611981 50 13 16819 11.85200000 2432847909 2432847909 13.00000000
2.01834130 -9.66125488 2.64461303 38 15 16820 10.21800000 2432847913 2432847913 15.00000000
0.40614980 -1.95778155 -0.53575540 4 0 16828 2.07000000 2432847934 2432847934 -15.00000000
0.47421569 -2.28990102 -0.53988254 4 2 16830 2.40000000 2432847939 2432847939 -13.00000000
0.85141605 -4.12947702 -0.51770097 4 8 16835 4.24800000 2432847952 2432847952 -7.00000000
1.19189429 -5.78594589 -0.51683354 3 10 16836 5.93000000 2432847957 2432847957 -5.00000000
2.32524586 -11.31768513 2.66746950 28 13 16839 11.85800000 2432847964 2432847964 13.00000000
1.98460495 -9.66824150 2.64461303 38 15 16840 10.21800000 2432847969 2432847969 15.00000000
0.40124246 -1.96865201 -0.53834361 4 0 16848 2.08000000 2432847989 2432847989 -15.00000000
0.46427697 -2.28199410 -0.53763300 3 2 16850 2.39000000 2432847994 2432847994 -13.00000000
0.66071177 -3.25622821 -0.52624553 1 6 16853 3.36400000 2432848003 2432848003 -9.00000000
0.83936071 -4.14409733 -0.51916343 6 8 16855 4.26000000 2432848008 2432848008 -7.00000000
1.16773856 -5.77054310 -0.51509047 3 10 16856 5.91000000 2432848012 2432848012 -5.00000000
2.28726768 -11.33337402 2.66926932 48 13 16859 11.86600000 2432848019 2432848019 13.00000000
1.95068181 -9.68302536 2.64668345 38 15 16861 10.22600000 2432848024 2432848024 15.00000000
0.39440316 -1.97200370 -0.53886127 4 0 16869 2.08200000 2432848045 2432848045 -15.00000000
0.45362085 -2.27221441 -0.53493363 4 2 16871 2.37800000 2432848049 2432848049 -13.00000000
0.53762811 -2.69546223 -0.53426516 3 4 16872 2.80000000 2432848054 2432848054 -11.00000000
0.64491552 -3.23925424 -0.52311683 1 6 16874 3.34400000 2432848058 2432848058 -9.00000000
0.82494009 -4.15104008 -0.51965088 4 8 16876 4.26400000 2432848063 2432848063 -7.00000000
1.14658070 -5.77478456 -0.51509047 3 10 16877 5.91000000 2432848068 2432848068 -5.00000000
2.24533486 -11.33976936 2.66881943 46 13 16880 11.86400000 2432848075 2432848075 13.00000000
1.91799450 -9.69546127 2.64823651 35 15 16881 10.23200000 2432848079 2432848079 15.00000000
0.38788944 -1.97526407 -0.53937888 4 0 16889 2.08400000 2432848100 2432848100 -15.00000000
0.44643626 -2.27760863 -0.53583342 3 2 16891 2.38200000 2432848104 2432848104 -13.00000000
0.52519757 -2.68190932 -0.53121227 3 4 16892 2.78400000 2432848109 2432848109 -11.00000000
0.63890976 -3.26862741 -0.52749699 1 6 16894 3.37200000 2432848114 2432848114 -9.00000000
0.80550343 -4.12856579 -0.51648229 4 8 16896 4.23800000 2432848118 2432848118 -7.00000000
1.12641585 -5.77875137 -0.51509047 3 10 16897 5.91000000 2432848123 2432848123 -5.00000000
2.20425057 -11.33988667 2.66701961 46 13 16900 11.85600000 2432848130 2432848130 13.00000000
1.88671732 -9.71537209 2.65186000 38 15 16901 10.24600000 2432848134 2432848134 15.00000000
0.38097113 -1.97464263 -0.53886127 4 0 16908 2.08200000 2432848155 2432848155 -15.00000000
0.44146046 -2.29247165 -0.53898275 4 2 16910 2.39600000 2432848160 2432848160 -13.00000000
0.51407570 -2.67206860 -0.52892256 3 4 16911 2.77200000 2432848164 2432848164 -11.00000000
0.63067472 -3.28430772 -0.52968711 1 6 16913 3.38600000 2432848169 2432848169 -9.00000000
0.79255557 -4.13511324 -0.51696974 4 8 16915 4.24200000 2432848174 2432848174 -7.00000000
1.10125148 -5.75114584 -0.51230145 3 10 16916 5.87800000 2432848178 2432848178 -5.00000000
2.16736507 -11.35096169 2.66791940 50 13 16919 11.86000000 2432848185 2432848185 13.00000000
1.85062289 -9.71051216 2.64875412 38 15 16921 10.23400000 2432848190 2432848190 15.00000000
0.37191996 -1.96457160 -0.53575540 4 0 16928 2.07000000 2432848210 2432848210 -15.00000000
0.43273193 -2.29016900 -0.53808290 4 2 16930 2.39200000 2432848215 2432848215 -13.00000000
0.50620198 -2.68156362 -0.53044903 3 4 16931 2.78000000 2432848220 2432848220 -11.00000000
0.61262310 -3.25154710 -0.52405548 1 6 16933 3.35000000 2432848224 2432848224 -9.00000000
0.78288573 -4.16321611 -0.52013838 2 8 16935 4.26800000 2432848229 2432848229 -7.00000000
1.07749081 -5.73537350 -0.51055837 3 10 16936 5.85800000 2432848234 2432848234 -5.00000000
2.12988234 -11.36995029 2.67061901 50 13 16939 11.87200000 2432848240 2432848240 13.00000000
1.81707060 -9.71881199 2.64927173 35 15 16941 10.23600000 2432848245 2432848245 15.00000000
0.36576548 -1.96965671 -0.53679073 4 0 16948 2.07400000 2432848266 2432848266 -15.00000000
0.42402485 -2.28783321 -0.53718311 4 2 16950 2.38800000 2432848270 2432848270 -13.00000000
0.49469388 -2.67173171 -0.52815932 3 4 16951 2.76800000 2432848275 2432848275 -11.00000000
0.60126936 -3.25366569 -0.52405548 1 6 16953 3.35000000 2432848280 2432848280 -9.00000000
0.76690841 -4.15811491 -0.51916343 2 8 16955 4.26000000 2432848284 2432848284 -7.00000000
1.06396258 -5.77436876 -0.51369596 3 10 16956 5.89400000 2432848289 2432848289 -5.00000000
2.09123731 -11.38306618 2.67196870 53 13 16959 11.87800000 2432848296 2432848296 13.00000000
1.78313458 -9.72509575 2.64927173 35 15 16961 10.23600000 2432848300 2432848300 15.00000000
0.35854179 -1.96902084 -0.53627306 4 0 16968 2.07200000 2432848321 2432848321 -15.00000000
0.41603622 -2.28929949 -0.53718311 4 2 16970 2.38800000 2432848326 2432848326 -13.00000000
0.48676756 -2.68116879 -0.52968580 3 4 16971 2.77600000 2432848330 2432848330 -11.00000000
0.58814734 -3.24602604 -0.52249110 1 6 16973 3.34000000 2432848335 2432848335 -9.00000000
0.74885684 -4.14123249 -0.51672602 2 8 16975 4.24000000 2432848340 2432848340 -7.00000000
1.03671598 -5.73883438 -0.51020974 3 10 16976 5.85400000 2432848344 2432848344 -5.00000000
2.05079937 -11.38646126 2.67106891 48 13 16979 11.87400000 2432848351 2432848351 13.00000000
1.74951863 -9.73316193 2.64978933 40 15 16981 10.23800000 2432848356 2432848356 15.00000000
0.35234535 -1.97406399 -0.53730834 4 0 16988 2.07600000 2432848376 2432848376 -15.00000000
0.40599209 -2.27922654 -0.53448373 4 2 16990 2.37600000 2432848381 2432848381 -13.00000000
0.47534186 -2.67125440 -0.52739608 3 4 16991 2.76400000 2432848386 2432848386 -11.00000000
0.57888538 -3.25972915 -0.52436835 1 6 16993 3.35200000 2432848390 2432848390 -9.00000000
0.73231822 -4.13209343 -0.51526356 2 8 16995 4.22800000 2432848395 2432848395 -7.00000000
1.02223492 -5.77380848 -0.51299870 3 10 16996 5.88600000 2432848399 2432848399 -5.00000000
2.01036334 -11.38971233 2.67016912 51 13 16999 11.87000000 2432848406 2432848406 13.00000000
1.71857452 -9.74652004 2.65186000 38 15 17000 10.24600000 2432848411 2432848411 15.00000000
0.34545243 -1.97528183 -0.53730834 4 0 17008 2.07600000 2432848432 2432848432 -15.00000000
0.39870372 -2.28446937 -0.53538352 4 2 17010 2.38000000 2432848436 2432848436 -13.00000000
0.46736336 -2.68063354 -0.52892256 3 4 17011 2.77200000 2432848441 2432848441 -11.00000000
0.56953496 -3.27340674 -0.52624553 1 6 17013 3.36400000 2432848445 2432848445 -9.00000000
0.72060674 -4.15027142 -0.51721346 2 8 17015 4.24400000 2432848450 2432848450 -7.00000000
1.00071239 -5.76948929 -0.51230145 3 10 17016 5.87800000 2432848455 2432848455 -5.00000000
1.97026145 -11.39474010 2.66971922 48 13 17019 11.86800000 2432848462 2432848462 13.00000000
1.68349719 -9.75656128 2.65289521 38 15 17021 10.25000000 2432848466 2432848466 15.00000000
0.33826470 -1.97064531 -0.53575540 4 0 17026 2.07000000 2432848487 2432848487 -15.00000000
0.39284092 -2.29339361 -0.53718311 4 2 17028 2.38800000 2432848492 2432848492 -13.00000000
0.45960185 -2.68595886 -0.52968580 2 4 17029 2.77600000 2432848496 2432848496 -11.00000000
0.55924845 -3.27517986 -0.52624553 1 6 17031 3.36400000 2432848501 2432848501 -9.00000000
0.70823163 -4.15642834 -0.51770097 2 8 17033 4.24800000 2432848505 2432848505 -7.00000000
0.97990745 -5.75689125 -0.51090693 3 10 17034 5.86200000 2432848510 2432848510 -5.00000000
1.52578437 -8.98283577 -0.47751325 4 12 17036 9.12400000 2432848515 2432848515 -3.00000000
1.93641019 -11.41240120 2.67241859 48 13 17037 11.88000000 2432848517 2432848517 13.00000000
1.65325010 -9.75389481 2.65082455 38 15 17038 10.24200000 2432848522 2432848522 15.00000000
0.33170399 -1.97371924 -0.53627306 4 0 17046 2.07200000 2432848542 2432848542 -15.00000000
0.38354388 -2.28706336 -0.53538352 4 2 17048 2.38000000 2432848547 2432848547 -13.00000000
0.45022333 -2.68754673 -0.52968580 3 4 17049 2.77600000 2432848551 2432848551 -11.00000000
0.54520696 -3.26152515 -0.52374262 1 6 17051 3.34800000 2432848556 2432848556 -9.00000000
0.69502515 -4.16670752 -0.51867592 2 8 17053 4.25600000 2432848561 2432848561 -7.00000000
0.95784140 -5.74848509 -0.50986111 3 10 17054 5.85000000 2432848565 2432848565 -5.00000000
1.48786747 -8.94870281 -0.47541982 4 12 17056 9.08400000 2432848570 2432848570 -3.00000000
1.89656162 -11.41909027 2.67241859 47 13 17057 11.88000000 2432848572 2432848572 13.00000000
1.61875260 -9.76751137 2.65289521 38 15 17059 10.25000000 2432848577 2432848577 15.00000000
0.32349733 -1.97116566 -0.53523779 4 0 17068 2.06800000 2432848598 2432848598 -15.00000000
0.37349969 -2.28082657 -0.53358388 4 2 17070 2.37200000 2432848602 2432848602 -13.00000000
0.43926671 -2.68538070 -0.52892256 3 4 17071 2.77200000 2432848607 2432848607 -11.00000000
0.53299785 -3.26554418 -0.52405548 1 6 17073 3.35000000 2432848611 2432848611 -9.00000000
0.68029737 -4.17718267 -0.51965088 2 8 17075 4.26400000 2432848616 2432848616 -7.00000000
0.93448210 -5.74425459 -0.50916386 3 10 17076 5.84200000 2432848621 2432848621 -5.00000000
1.85332537 -11.43013573 2.67331839 48 13 17079 11.88400000 2432848628 2432848628 13.00000000
1.58386862 -9.77910042 2.65444803 42 15 17080 10.25600000 2432848632 2432848632 15.00000000
0.31753331 -1.97800517 -0.53679073 4 0 17088 2.07400000 2432848653 2432848653 -15.00000000
0.36615226 -2.28596497 -0.53448373 4 2 17090 2.37600000 2432848657 2432848657 -13.00000000
0.42802933 -2.67526603 -0.52663285 3 4 17091 2.76000000 2432848662 2432848662 -11.00000000
0.52159572 -3.26738477 -0.52405548 1 6 17093 3.35000000 2432848667 2432848667 -9.00000000
0.66009170 -4.14424515 -0.51526356 2 8 17095 4.22800000 2432848671 2432848671 -7.00000000
1.81280518 -11.43268681 2.67241859 48 13 17099 11.88000000 2432848683 2432848683 13.00000000
1.55043077 -9.80010509 2.65858912 40 15 17101 10.27200000 2432848687 2432848687 15.00000000
0.30972821 -1.97337604 -0.53523779 4 0 17108 2.06800000 2432848708 2432848708 -15.00000000
0.35907498 -2.29300499 -0.53583342 3 2 17110 2.38200000 2432848713 2432848713 -13.00000000
0.41868830 -2.67674398 -0.52663285 3 4 17111 2.76000000 2432848717 2432848717 -11.00000000
0.51171017 -3.27894449 -0.52561980 1 6 17113 3.36000000 2432848722 2432848722 -9.00000000
0.64562154 -4.14652395 -0.51526356 2 8 17115 4.22800000 2432848727 2432848727 -7.00000000
1.77348351 -11.44279575 2.67331839 47 13 17119 11.88400000 2432848738 2432848738 13.00000000
1.47359204 -9.51882553 2.58094358 27 15 17120 9.97200000 2432848743 2432848743 15.00000000
0.30225220 -1.97062612 -0.53420252 4 0 17128 2.06400000 2432848763 2432848763 -15.00000000
0.35136348 -2.29617071 -0.53628331 4 2 17130 2.38400000 2432848768 2432848768 -13.00000000
0.41112190 -2.68983340 -0.52892256 3 4 17131 2.77200000 2432848773 2432848773 -11.00000000
0.49847478 -3.26899385 -0.52374262 1 6 17133 3.34800000 2432848777 2432848777 -9.00000000
0.63114357 -4.14875221 -0.51526356 2 8 17135 4.22800000 2432848782 2432848782 -7.00000000
1.36563528 -9.00857353 -0.47751325 4 12 17138 9.12400000 2432848791 2432848791 -3.00000000
1.73703074 -11.47203827 2.67871714 48 13 17139 11.90800000 2432848793 2432848793 13.00000000
1.48024464 -9.79922867 2.65548348 40 15 17141 10.26000000 2432848798 2432848798 15.00000000
0.29600224 -1.97352803 -0.53472012 4 0 17147 2.06600000 2432848819 2432848819 -15.00000000
0.34259367 -2.28961420 -0.53448373 4 2 17149 2.37600000 2432848823 2432848823 -13.00000000
0.40103909 -2.68341517 -0.52739608 3 4 17150 2.76400000 2432848828 2432848828 -11.00000000
0.48792294 -3.27258253 -0.52405548 1 6 17152 3.35000000 2432848833 2432848833 -9.00000000
0.61738235 -4.15082216 -0.51526356 2 8 17154 4.22800000 2432848837 2432848837 -7.00000000
0.85285127 -5.74082661 -0.50776935 3 10 17155 5.82600000 2432848842 2432848842 -5.00000000
1.70011997 -11.48544598 2.68051672 48 13 17158 11.91600000 2432848849 2432848849 13.00000000
1.45058239 -9.81147480 2.65755391 38 15 17159 10.26800000 2432848853 2432848853 15.00000000
0.28995118 -1.98028374 -0.53627306 4 0 17167 2.07200000 2432848874 2432848874 -15.00000000
0.33459935 -2.29079604 -0.53448373 4 2 17169 2.37600000 2432848879 2432848879 -13.00000000
0.39337021 -2.69645476 -0.52968580 3 4 17170 2.77600000 2432848883 2432848883 -11.00000000
0.47621205 -3.27231097 -0.52374262 1 6 17172 3.34800000 2432848888 2432848888 -9.00000000
0.60117835 -4.14116526 -0.51380116 2 8 17174 4.21600000 2432848892 2432848892 -7.00000000
0.83280683 -5.74376869 -0.50776935 3 10 17175 5.82600000 2432848897 2432848897 -5.00000000
1.66085374 -11.49709702 2.68186641 51 13 17178 11.92200000 2432848904 2432848904 13.00000000
1.41626501 -9.82819843 2.66065979 40 15 17180 10.28000000 2432848909 2432848909 15.00000000
0.28310919 -1.97932196 -0.53575540 4 0 17186 2.07000000 2432848929 2432848929 -15.00000000
0.32755145 -2.29575133 -0.53538352 4 2 17188 2.38000000 2432848934 2432848934 -13.00000000
0.38442630 -2.69774461 -0.52968580 3 4 17189 2.77600000 2432848939 2432848939 -11.00000000
0.46508008 -3.27191663 -0.52342969 1 6 17191 3.34600000 2432848943 2432848943 -9.00000000
0.58577043 -4.13134336 -0.51233870 2 8 17193 4.20400000 2432848948 2432848948 -7.00000000
0.81710744 -5.77017117 -0.50986111 3 10 17194 5.85000000 2432848952 2432848952 -5.00000000
1.62081337 -11.48903370 2.67871714 50 13 17197 11.90800000 2432848959 2432848959 13.00000000
1.38619041 -9.83833790 2.66221261 42 15 17198 10.28600000 2432848964 2432848964 15.00000000
0.27619833 -1.98029816 -0.53575540 4 0 17206 2.07000000 2432848985 2432848985 -15.00000000
0.31899875 -2.29302049 -0.53448373 4 2 17208 2.37600000 2432848989 2432848989 -13.00000000
0.37149474 -2.67379045 -0.52472472 3 4 17209 2.75000000 2432848994 2432848994 -11.00000000
0.45284262 -3.26765013 -0.52249110 1 6 17211 3.34000000 2432848998 2432848998 -9.00000000
0.57297665 -4.14516115 -0.51380116 2 8 17213 4.21600000 2432849003 2432849003 -7.00000000
0.79369122 -5.74930429 -0.50776935 3 10 17214 5.82600000 2432849008 2432849008 -5.00000000
1.58176124 -11.50234413 2.68051672 47 13 17217 11.91600000 2432849015 2432849015 13.00000000
1.35078847 -9.83546162 2.66014218 40 15 17218 10.27800000 2432849019 2432849019 15.00000000
0.26798323 -1.97167885 -0.53316724 4 0 17226 2.06000000 2432849040 2432849040 -15.00000000
0.31151623 -2.29798222 -0.53538352 4 2 17228 2.38000000 2432849045 2432849045 -13.00000000
0.36268601 -2.67896199 -0.52548796 3 4 17229 2.75400000 2432849049 2432849049 -11.00000000
0.44301963 -3.28095651 -0.52436835 1 6 17231 3.35200000 2432849054 2432849054 -9.00000000
0.56009352 -4.15894032 -0.51526356 2 8 17233 4.22800000 2432849058 2432849058 -7.00000000
0.76936841 -5.72044611 -0.50498039 3 10 17234 5.79400000 2432849063 2432849063 -5.00000000
1.54367089 -11.52324677 2.68411589 47 13 17237 11.93200000 2432849070 2432849070 13.00000000
1.31619191 -9.83820152 2.65962458 40 15 17238 10.27600000 2432849074 2432849074 15.00000000
0.26211312 -1.98026288 -0.53523779 4 0 17246 2.06800000 2432849095 2432849095 -15.00000000
0.30196267 -2.28746367 -0.53268409 4 2 17248 2.36800000 2432849100 2432849100 -13.00000000
0.35487205 -2.69189024 -0.52777767 3 4 17249 2.76600000 2432849104 2432849104 -11.00000000
0.43104926 -3.27856588 -0.52374262 1 6 17251 3.34800000 2432849109 2432849109 -9.00000000
0.54608881 -4.16480637 -0.51575106 2 8 17253 4.23200000 2432849114 2432849114 -7.00000000
0.76439905 -5.83767748 -0.51509047 3 10 17254 5.91000000 2432849118 2432849118 -5.00000000
1.17982829 -9.03478622 -0.47751325 4 12 17256 9.12400000 2432849123 2432849123 -3.00000000
1.50343776 -11.52856541 2.68411589 47 13 17257 11.93200000 2432849125 2432849125 13.00000000
1.28087163 -9.84870720 2.66117740 42 15 17259 10.28200000 2432849130 2432849130 15.00000000
0.25618637 -1.98882985 -0.53730834 4 0 17266 2.07600000 2432849151 2432849151 -15.00000000
0.29298294 -2.28077245 -0.53088450 4 2 17268 2.36000000 2432849155 2432849155 -13.00000000
0.34422442 -2.68337607 -0.52586961 3 4 17269 2.75600000 2432849160 2432849160 -11.00000000
0.42035428 -3.28592873 -0.52468121 1 6 17271 3.35400000 2432849164 2432849164 -9.00000000
0.52702594 -4.13124275 -0.51136374 2 8 17273 4.19600000 2432849169 2432849169 -7.00000000
0.73344225 -5.75730038 -0.50776935 3 10 17274 5.82600000 2432849174 2432849174 -5.00000000
1.13569856 -8.93978310 -0.47227967 4 12 17276 9.02400000 2432849178 2432849178 -3.00000000
1.46367693 -11.53761005 2.68501568 48 13 17277 11.93600000 2432849180 2432849180 13.00000000
1.24869072 -9.85673332 2.66221261 40 15 17278 10.28600000 2432849185 2432849185 15.00000000
0.24924248 -1.98971200 -0.53730834 4 0 17286 2.07600000 2432849206 2432849206 -15.00000000
0.28574437 -2.28758240 -0.53223419 3 2 17288 2.36600000 2432849210 2432849210 -13.00000000
0.33558461 -2.69040561 -0.52701443 3 4 17289 2.76200000 2432849215 2432849215 -11.00000000
0.40741879 -3.27561450 -0.52280396 1 6 17291 3.34200000 2432849220 2432849220 -9.00000000
0.51309067 -4.13699722 -0.51185125 2 8 17293 4.20000000 2432849224 2432849224 -7.00000000
0.70893317 -5.72423458 -0.50463176 3 10 17294 5.79000000 2432849229 2432849229 -5.00000000
1.10203803 -8.92387104 -0.47123295 4 12 17296 9.00400000 2432849233 2432849233 -3.00000000
1.42267871 -11.53684616 2.68366599 51 13 17297 11.93000000 2432849236 2432849236 13.00000000
1.21616554 -9.87637138 2.66635370 42 15 17298 10.30200000 2432849240 2432849240 15.00000000
0.24182872 -1.98673451 -0.53627306 4 0 17306 2.07200000 2432849261 2432849261 -15.00000000
0.19182406 -1.58052266 -0.36757001 1 2 17308 1.63400000 2432849266 2432849266 -13.00000000
0.32430169 -2.67596865 -0.52396148 3 4 17309 2.74600000 2432849270 2432849270 -11.00000000
0.39740410 -3.28878331 -0.52468121 3 6 17311 3.35400000 2432849275 2432849275 -9.00000000
0.49912161 -4.14270496 -0.51233870 2 8 17313 4.20400000 2432849279 2432849279 -7.00000000
0.69323117 -5.76228046 -0.50776935 3 10 17314 5.82600000 2432849284 2432849284 -5.00000000
1.38355768 -11.55141640 2.68591547 48 13 17317 11.94000000 2432849291 2432849291 13.00000000
1.18030667 -9.86904716 2.66324806 40 15 17318 10.29000000 2432849296 2432849296 15.00000000
0.23262496 -1.96838152 -0.53109670 4 0 17326 2.05200000 2432849316 2432849316 -15.00000000
0.18949835 -1.60827756 -0.37386864 10 2 17328 1.66200000 2432849321 2432849321 -13.00000000
0.31633520 -2.68878341 -0.52625120 3 4 17329 2.75800000 2432849326 2432849326 -11.00000000
0.38293007 -3.26464534 -0.52061391 3 6 17331 3.32800000 2432849330 2432849330 -9.00000000
0.48650241 -4.16019487 -0.51428860 2 8 17333 4.22000000 2432849335 2432849335 -7.00000000
0.66756707 -5.71717072 -0.50358588 3 10 17334 5.77800000 2432849339 2432849339 -5.00000000
1.34412730 -11.56391811 2.68771529 47 13 17337 11.94800000 2432849346 2432849346 13.00000000
1.14501643 -9.88098240 2.66531849 45 15 17339 10.29800000 2432849351 2432849351 15.00000000
0.22663273 -1.97685874 -0.53316724 4 0 17346 2.06000000 2432849372 2432849372 -15.00000000
0.18388326 -1.60892916 -0.37386864 24 2 17348 1.66200000 2432849376 2432849376 -13.00000000
0.30672508 -2.68792057 -0.52586961 3 4 17349 2.75600000 2432849381 2432849381 -11.00000000
0.37287164 -3.27773857 -0.52249110 3 6 17351 3.34000000 2432849385 2432849385 -9.00000000
0.46929342 -4.13819838 -0.51136374 2 8 17353 4.19600000 2432849390 2432849390 -7.00000000
0.64312315 -5.67987108 -0.50009966 3 10 17354 5.73800000 2432849395 2432849395 -5.00000000
1.30462646 -11.57628632 2.68951488 50 13 17357 11.95600000 2432849402 2432849402 13.00000000
1.11159551 -9.87896633 2.66376567 40 15 17358 10.29200000 2432849406 2432849406 15.00000000
0.21951750 -1.97571766 -0.53264958 4 0 17366 2.05800000 2432849427 2432849427 -15.00000000
0.17569169 -1.58631849 -0.36846983 29 2 17368 1.63800000 2432849431 2432849431 -13.00000000
0.18772595 -1.69768369 -0.33200765 1 4 17369 1.74000000 2432849436 2432849436 -11.00000000
0.36056224 -3.27116609 -0.52123964 3 6 17371 3.33200000 2432849441 2432849441 -9.00000000
0.45788074 -4.16743660 -0.51477611 2 8 17373 4.22400000 2432849445 2432849445 -7.00000000
0.62546527 -5.70188665 -0.50184274 3 10 17374 5.75800000 2432849450 2432849450 -5.00000000
1.26505566 -11.58851814 2.69131446 47 13 17377 11.96400000 2432849457 2432849457 13.00000000
1.07898855 -9.90007019 2.66842437 42 15 17378 10.31000000 2432849461 2432849461 15.00000000
0.21220636 -1.97263038 -0.53161430 4 0 17386 2.05400000 2432849482 2432849482 -15.00000000
0.16849127 -1.57142103 -0.36487061 30 2 17388 1.62200000 2432849487 2432849487 -13.00000000
0.17302229 -1.61634040 -0.31597969 3 4 17389 1.65600000 2432849491 2432849491 -11.00000000
0.34914154 -3.27240491 -0.52123964 3 6 17391 3.33200000 2432849496 2432849496 -9.00000000
0.43745339 -4.11373854 -0.50795144 2 8 17393 4.16800000 2432849501 2432849501 -7.00000000
0.60682017 -5.71592283 -0.50288862 3 10 17394 5.77000000 2432849505 2432849505 -5.00000000
1.22357285 -11.58317375 2.68906498 51 13 17397 11.95400000 2432849512 2432849512 13.00000000
1.04188657 -9.89627361 2.66635370 42 15 17399 10.30200000 2432849517 2432849517 15.00000000
0.17073290 -1.64094317 -0.44206291 5 0 17406 1.70800000 2432849537 2432849537 -15.00000000
0.16340695 -1.57587636 -0.36577040 32 2 17408 1.62600000 2432849542 2432849542 -13.00000000
0.16616626 -1.60521758 -0.31368998 6 4 17409 1.64400000 2432849547 2432849547 -11.00000000
0.33933827 -3.28932333 -0.52374262 3 6 17411 3.34800000 2432849551 2432849551 -9.00000000
0.42593336 -4.14288616 -0.51136374 2 8 17413 4.19600000 2432849556 2432849556 -7.00000000
0.58401632 -5.69025850 -0.50044829 3 10 17414 5.74200000 2432849561 2432849561 -5.00000000
1.18451822 -11.60094452 2.69221425 48 13 17417 11.96800000 2432849567 2432849567 13.00000000
1.00733578 -9.89984989 2.66635370 42 15 17419 10.30200000 2432849572 2432849572 15.00000000
0.15929039 -1.58191431 -0.42601615 25 0 17425 1.64600000 2432849593 2432849593 -15.00000000
0.15895851 -1.58416557 -0.36757001 39 2 17427 1.63400000 2432849597 2432849597 -13.00000000
0.16221195 -1.61943412 -0.31636131 16 4 17428 1.65800000 2432849602 2432849602 -11.00000000
0.32646668 -3.27077436 -0.52061391 3 6 17430 3.32800000 2432849607 2432849607 -9.00000000
0.41022801 -4.12452221 -0.50892639 2 8 17432 4.17600000 2432849611 2432849611 -7.00000000
0.56593090 -5.70009422 -0.50114554 3 10 17433 5.75000000 2432849616 2432849616 -5.00000000
1.14680767 -11.61256599 2.69401383 47 13 17436 11.97600000 2432849623 2432849623 13.00000000
0.97412282 -9.89929104 2.66531849 42 15 17438 10.29800000 2432849627 2432849627 15.00000000
0.15320700 -1.57669234 -0.42446324 30 0 17445 1.64000000 2432849648 2432849648 -15.00000000
0.15136205 -1.56337440 -0.36262110 32 2 17447 1.61200000 2432849653 2432849653 -13.00000000
0.15599152 -1.61412799 -0.31521645 21 4 17448 1.65200000 2432849657 2432849657 -11.00000000
0.31410089 -3.26206255 -0.51904953 3 6 17450 3.31800000 2432849662 2432849662 -9.00000000
0.39829269 -4.15161705 -0.51209497 2 8 17452 4.20200000 2432849667 2432849667 -7.00000000
0.54451102 -5.68616867 -0.49975103 3 10 17453 5.73400000 2432849671 2432849671 -5.00000000
1.10737371 -11.62813854 2.69671321 47 13 17456 11.98800000 2432849678 2432849678 13.00000000
