# .PCD v0.7 - Point Cloud Data file format
VERSION 0.7
FIELDS x y z intensity laser_id azimuth distance_m adjustedtime timestamp vertical_angle
SIZE 4 4 4 1 1 2 8 8 4 8
TYPE F F F U U U F U U F
COUNT 1 1 1 1 1 1 1 1 1 1
WIDTH 539
HEIGHT 1
VIEWPOINT 0 0 0 1 0 0 0
POINTS 539
DATA ascii
4.97216797 2.30589437 -0.67296249 9 8 6512 5.52200000 2432319266 2432319266 -7.00000000
7.61551952 3.53016090 -0.73437428 13 10 6513 8.42600000 2432319270 2432319270 -5.00000000
8.20444107 3.79967570 -0.47384974 17 12 6515 9.05400000 2432319275 2432319275 -3.00000000
8.24628830 3.81730866 2.09789348 75 13 6516 9.32600000 2432319277 2432319277 13.00000000
8.19218349 3.79052663 -0.15756032 16 14 6517 9.02800000 2432319280 2432319280 -1.00000000
8.01132298 3.70514512 2.36508846 45 15 6518 9.13800000 2432319282 2432319282 15.00000000
2.05598879 0.94825900 -0.60667187 4 0 6524 2.34400000 2432319303 2432319303 -15.00000000
8.20110035 3.78075886 0.15763013 12 1 6525 9.03200000 2432319305 2432319305 1.00000000
8.17860317 3.76865721 -2.07899761 10 2 6526 9.24200000 2432319307 2432319307 -13.00000000
8.21963692 3.78582621 0.47426844 13 3 6527 9.06200000 2432319310 2432319310 3.00000000
2.92445278 1.34695351 -0.62585348 5 4 6527 3.28000000 2432319312 2432319312 -11.00000000
8.20206451 3.77599764 0.78997964 78 5 6528 9.06400000 2432319314 2432319314 5.00000000
3.71102977 1.70766771 -0.64701295 4 6 6529 4.13600000 2432319317 2432319317 -9.00000000
8.23465538 3.78751850 1.11291087 97 7 6530 9.13200000 2432319319 2432319319 7.00000000
4.96716213 2.28358912 -0.67125636 9 8 6531 5.50800000 2432319321 2432319321 -7.00000000
7.62356329 3.50322366 -0.73402566 13 10 6532 8.42200000 2432319326 2432319326 -5.00000000
8.20610523 3.76744795 -0.47322172 17 12 6534 9.04200000 2432319330 2432319330 -3.00000000
8.25181675 3.78669095 2.09609389 78 13 6535 9.31800000 2432319333 2432319333 13.00000000
8.18471432 3.75416875 -0.15717638 14 14 6536 9.00600000 2432319335 2432319335 -1.00000000
8.00887585 3.67351532 2.36094737 45 15 6536 9.12200000 2432319337 2432319337 15.00000000
2.05928636 0.94107646 -0.60667187 4 0 6544 2.34400000 2432319358 2432319358 -15.00000000
8.19060135 3.74130750 0.15717638 12 1 6545 9.00600000 2432319360 2432319360 1.00000000
8.17575455 3.73280120 -2.07494855 8 2 6546 9.22400000 2432319363 2432319363 -13.00000000
8.21826649 3.75047755 0.47343105 13 3 6547 9.04600000 2432319365 2432319365 3.00000000
2.92556453 1.33510697 -0.62509024 5 4 6547 3.27600000 2432319367 2432319367 -11.00000000
8.20975780 3.74486351 0.78945673 78 5 6548 9.05800000 2432319370 2432319370 5.00000000
3.68821001 1.68159163 -0.64200705 6 6 6549 4.10400000 2432319372 2432319372 -9.00000000
8.21892452 3.74557996 1.10901105 97 7 6550 9.10000000 2432319374 2432319374 7.00000000
4.99316788 2.27446532 -0.67369372 6 8 6551 5.52800000 2432319376 2432319376 -7.00000000
8.33281326 3.79396939 1.45014751 2 9 6552 9.27000000 2432319379 2432319379 9.00000000
7.63211870 3.47493982 -0.73367703 13 10 6552 8.41800000 2432319381 2432319381 -5.00000000
8.20102596 3.73051047 -0.47217500 17 12 6554 9.02200000 2432319386 2432319386 -3.00000000
8.26321125 3.75705695 2.09564400 71 13 6555 9.31600000 2432319388 2432319388 13.00000000
8.19230747 3.72309375 -0.15707166 16 14 6556 9.00000000 2432319390 2432319390 -1.00000000
8.02580452 3.64573455 2.36198258 45 15 6557 9.12600000 2432319393 2432319393 15.00000000
2.07663774 0.94025713 -0.61081296 4 0 6564 2.36000000 2432319413 2432319413 -15.00000000
8.18903637 3.70609832 0.15689713 12 1 6565 8.99000000 2432319416 2432319416 1.00000000
8.17453003 3.69781446 -2.07134938 8 2 6566 9.20800000 2432319418 2432319418 -13.00000000
8.21492863 3.71436191 0.47248900 13 3 6567 9.02800000 2432319420 2432319420 3.00000000
2.93557382 1.32731318 -0.62623513 5 4 6567 3.28200000 2432319423 2432319423 -11.00000000
8.20825481 3.70961905 0.78806221 78 5 6568 9.04200000 2432319425 2432319425 5.00000000
3.69045687 1.66708064 -0.64138132 6 6 6569 4.10000000 2432319427 2432319427 -9.00000000
8.21385670 3.70869875 1.10657358 97 7 6570 9.08000000 2432319429 2432319429 7.00000000
5.00469589 2.25865531 -0.67418122 9 8 6571 5.53200000 2432319432 2432319432 -7.00000000
7.64056969 3.44663906 -0.73332840 13 10 6572 8.41400000 2432319436 2432319436 -5.00000000
8.20125198 3.69611645 -0.47144228 17 12 6574 9.00800000 2432319441 2432319441 -3.00000000
8.25317669 3.71778512 2.08979535 70 13 6575 9.29000000 2432319443 2432319443 13.00000000
8.20343018 3.69365358 -0.15703675 14 14 6576 8.99800000 2432319446 2432319446 -1.00000000
8.04313469 3.62147927 2.36353540 42 15 6576 9.13200000 2432319448 2432319448 15.00000000
2.07814455 0.93221188 -0.61029530 4 0 6584 2.35800000 2432319469 2432319469 -15.00000000
8.19462490 3.67421818 0.15675752 12 1 6585 8.98200000 2432319471 2432319471 1.00000000
8.17494011 3.66367865 -2.06820011 8 2 6586 9.19400000 2432319473 2432319473 -13.00000000
8.20597172 3.67586589 0.47123295 13 3 6587 9.00400000 2432319476 2432319476 3.00000000
2.93839741 1.31625545 -0.62585348 6 4 6587 3.28000000 2432319478 2432319478 -11.00000000
8.21388054 3.67768764 0.78736496 82 5 6588 9.03400000 2432319480 2432319480 5.00000000
3.70707202 1.65902996 -0.64325851 6 6 6589 4.11200000 2432319482 2432319482 -9.00000000
8.21225643 3.67351985 1.10462368 92 7 6590 9.06400000 2432319485 2432319485 7.00000000
4.99080324 2.23144889 -0.67125636 9 8 6591 5.50800000 2432319487 2432319487 -7.00000000
7.65619230 3.42157340 -0.73367703 13 10 6592 8.41800000 2432319492 2432319492 -5.00000000
8.20133781 3.66176629 -0.47070959 12 12 6594 8.99400000 2432319496 2432319496 -3.00000000
8.24474907 3.67942333 2.08439636 68 13 6595 9.26600000 2432319499 2432319499 13.00000000
8.19801140 3.65684962 -0.15668771 14 14 6596 8.97800000 2432319501 2432319501 -1.00000000
7.12771273 3.17942643 2.09125781 42 15 6596 8.08000000 2432319503 2432319503 15.00000000
2.07785511 0.92338306 -0.60926002 4 0 6604 2.35400000 2432319524 2432319524 -15.00000000
8.20557213 3.64477944 0.15672261 12 1 6605 8.98000000 2432319526 2432319526 1.00000000
8.18411636 3.63353896 -2.06730008 8 2 6606 9.19000000 2432319529 2432319529 -13.00000000
8.21692657 3.64638925 0.47112828 13 3 6607 9.00200000 2432319531 2432319531 3.00000000
2.93938494 1.30439782 -0.62509024 5 4 6607 3.27600000 2432319533 2432319533 -11.00000000
8.21027660 3.64172292 0.78579617 86 5 6608 9.01600000 2432319535 2432319535 5.00000000
3.71645212 1.64768100 -0.64388424 6 6 6609 4.11600000 2432319538 2432319538 -9.00000000
8.21413994 3.64000583 1.10316133 95 7 6610 9.05200000 2432319540 2432319540 7.00000000
5.00219202 2.21562195 -0.67174381 9 8 6611 5.51200000 2432319542 2432319542 -7.00000000
7.66991091 3.39563417 -0.73385137 13 10 6612 8.42000000 2432319547 2432319547 -5.00000000
8.19762993 3.62584496 -0.46976754 17 12 6614 8.97600000 2432319552 2432319552 -3.00000000
8.25041294 3.64746952 2.08259678 70 13 6615 9.25800000 2432319554 2432319554 13.00000000
8.18877697 3.61851192 -0.15626885 18 14 6616 8.95400000 2432319556 2432319556 -1.00000000
7.12639856 3.14906096 2.08763433 45 15 6616 8.06600000 2432319558 2432319558 15.00000000
2.06692076 0.90989757 -0.60511893 4 0 6624 2.33800000 2432319579 2432319579 -15.00000000
8.19628143 3.60645008 0.15630375 12 1 6625 8.95600000 2432319582 2432319582 1.00000000
8.18604755 3.60024166 -2.06460071 8 2 6626 9.17800000 2432319584 2432319584 -13.00000000
8.20583630 3.60723591 0.46976754 13 3 6627 8.97600000 2432319586 2432319586 3.00000000
2.94392037 1.29412961 -0.62509024 5 4 6627 3.27600000 2432319588 2432319588 -11.00000000
8.20287323 3.60422516 0.78387874 93 5 6628 8.99400000 2432319591 2432319591 5.00000000
3.70952058 1.62913787 -0.64169419 6 6 6629 4.10200000 2432319593 2432319593 -9.00000000
8.23043156 3.61290669 1.10364878 97 7 6630 9.05600000 2432319595 2432319595 7.00000000
5.00989532 2.19814754 -0.67174381 9 8 6631 5.51200000 2432319598 2432319598 -7.00000000
7.68171692 3.36884046 -0.73385137 13 10 6632 8.42000000 2432319602 2432319602 -5.00000000
8.21023655 3.59720778 -0.46976754 17 12 6634 8.97600000 2432319607 2432319607 -3.00000000
8.25595474 3.61552119 2.08079720 62 13 6635 9.25000000 2432319609 2432319609 13.00000000
8.18120766 3.58108544 -0.15588489 20 14 6636 8.93200000 2432319611 2432319611 -1.00000000
7.13081312 3.11982298 2.08556390 45 15 6637 8.05800000 2432319614 2432319614 15.00000000
2.07716751 0.90576583 -0.60718948 4 0 6644 2.34600000 2432319635 2432319635 -15.00000000
8.18315601 3.56663203 0.15581508 15 1 6645 8.92800000 2432319637 2432319637 1.00000000
8.18069839 3.56386209 -2.06010175 8 2 6646 9.15800000 2432319639 2432319639 -13.00000000
8.21654606 3.57777286 0.46966287 13 3 6647 8.97400000 2432319641 2432319641 3.00000000
2.95561981 1.28698063 -0.62661672 6 4 6647 3.28400000 2432319644 2432319644 -11.00000000
8.19165516 3.56523371 0.78161269 75 5 6648 8.96800000 2432319646 2432319646 5.00000000
3.71337318 1.61539137 -0.64138132 6 6 6649 4.10000000 2432319648 2432319648 -9.00000000
8.21022415 3.56990719 1.09926152 90 7 6650 9.02000000 2432319651 2432319651 7.00000000
5.02664089 2.18460250 -0.67296249 9 8 6651 5.52200000 2432319653 2432319653 -7.00000000
7.68063784 3.33644891 -0.73263115 13 10 6652 8.40600000 2432319658 2432319658 -5.00000000
8.19159698 3.55500960 -0.46798813 17 12 6654 8.94200000 2432319662 2432319662 -3.00000000
8.26494980 3.58512950 2.07989740 62 13 6655 9.24600000 2432319664 2432319664 13.00000000
8.20099640 3.55568767 -0.15602452 16 14 6656 8.94000000 2432319667 2432319667 -1.00000000
7.14111948 3.09615922 2.08556390 45 15 6656 8.05800000 2432319669 2432319669 15.00000000
2.09273124 0.90387160 -0.61081296 4 0 6664 2.36000000 2432319690 2432319690 -15.00000000
8.18821239 3.53487539 0.15567547 18 1 6665 8.92000000 2432319692 2432319692 1.00000000
8.17161751 3.52601957 -2.05470300 8 2 6666 9.13400000 2432319694 2432319694 -13.00000000
8.20514393 3.53878736 0.46830213 13 3 6667 8.94800000 2432319697 2432319697 3.00000000
2.97091055 1.28132069 -0.62890643 6 4 6667 3.29600000 2432319699 2432319699 -11.00000000
8.18758392 3.52951908 0.78004390 75 5 6668 8.95000000 2432319701 2432319701 5.00000000
3.72261763 1.60398269 -0.64200705 6 6 6669 4.10400000 2432319704 2432319704 -9.00000000
8.20804977 3.53494477 1.09731162 97 7 6670 9.00400000 2432319706 2432319706 7.00000000
5.03241253 2.16625810 -0.67271876 9 8 6671 5.52000000 2432319708 2432319708 -7.00000000
7.70870876 3.31670523 -0.73420000 13 10 6672 8.42400000 2432319713 2432319713 -5.00000000
8.18744183 3.51929545 -0.46704608 17 12 6674 8.92400000 2432319717 2432319717 -3.00000000
8.25950909 3.54856491 2.07539845 62 13 6675 9.22600000 2432319720 2432319720 13.00000000
8.20784569 3.52467203 -0.15591981 18 14 6676 8.93400000 2432319722 2432319722 -1.00000000
7.15188360 3.07121301 2.08556390 45 15 6676 8.05800000 2432319724 2432319724 15.00000000
2.09926915 0.89844710 -0.61184824 4 0 6683 2.36400000 2432319745 2432319745 -15.00000000
8.19437408 3.50534344 0.15557075 18 1 6684 8.91400000 2432319747 2432319747 1.00000000
8.17072296 3.49353933 -2.05155373 8 2 6685 9.12000000 2432319750 2432319750 -13.00000000
8.19234657 3.50278497 0.46694142 10 3 6685 8.92200000 2432319752 2432319752 3.00000000
2.96070075 1.26528966 -0.62585348 6 4 6686 3.28000000 2432319754 2432319754 -11.00000000
8.21939754 3.51095796 0.78196132 86 5 6687 8.97200000 2432319757 2432319757 5.00000000
3.73518300 1.59473181 -0.64325851 6 6 6688 4.11200000 2432319759 2432319759 -9.00000000
8.21607590 3.50614834 1.09682405 95 7 6689 9.00000000 2432319761 2432319761 7.00000000
5.03956842 2.14955807 -0.67271876 6 8 6690 5.52000000 2432319763 2432319763 -7.00000000
7.70866871 3.28643560 -0.73315412 13 10 6691 8.41200000 2432319768 2432319768 -5.00000000
8.18804169 3.48742986 -0.46641803 17 12 6693 8.91200000 2432319773 2432319773 -3.00000000
8.25330067 3.51352286 2.07089949 66 13 6694 9.20600000 2432319775 2432319775 13.00000000
8.18636799 3.48334146 -0.15529151 20 14 6695 8.89800000 2432319777 2432319777 -1.00000000
7.17091656 3.05126166 2.08815217 42 15 6695 8.06800000 2432319780 2432319780 15.00000000
2.08460569 0.88357472 -0.60667187 4 0 6703 2.34400000 2432319800 2432319800 -15.00000000
8.19367123 3.47125793 0.15532641 15 1 6704 8.90000000 2432319803 2432319803 1.00000000
2.47998309 1.05013716 -0.62176472 4 2 6705 2.76400000 2432319805 2432319805 -13.00000000
8.19961262 3.47039962 0.46662739 13 3 6706 8.91600000 2432319807 2432319807 3.00000000
2.95967555 1.25265157 -0.62470865 5 4 6706 3.27400000 2432319810 2432319810 -11.00000000
8.20591354 3.47137809 0.77952099 86 5 6707 8.94400000 2432319812 2432319812 5.00000000
3.74072695 1.58168387 -0.64325851 6 6 6708 4.11200000 2432319814 2432319814 -9.00000000
8.21363640 3.47126532 1.09487414 92 7 6709 8.98400000 2432319816 2432319816 7.00000000
5.05069828 2.13349843 -0.67320627 6 8 6710 5.52400000 2432319819 2432319819 -7.00000000
7.71825790 3.25873232 -0.73297977 13 10 6711 8.41000000 2432319823 2432319823 -5.00000000
8.19280434 3.45572209 -0.46599936 17 12 6713 8.90400000 2432319828 2432319828 -3.00000000
8.26192379 3.48317790 2.06999969 68 13 6714 9.20200000 2432319830 2432319830 13.00000000
8.18189240 3.44775558 -0.15497737 16 14 6715 8.88000000 2432319833 2432319833 -1.00000000
7.17849112 3.02345872 2.08711672 42 15 6716 8.06400000 2432319835 2432319835 15.00000000
2.08589602 0.87554502 -0.60615420 4 0 6723 2.34200000 2432319856 2432319856 -15.00000000
8.19651794 3.43876743 0.15515189 15 1 6724 8.89000000 2432319858 2432319858 1.00000000
2.48722792 1.04298127 -0.62266451 4 2 6725 2.76800000 2432319860 2432319860 -13.00000000
8.20370770 3.44010019 0.46620870 13 3 6725 8.90800000 2432319863 2432319863 3.00000000
2.96403003 1.24231267 -0.62470865 6 4 6726 3.27400000 2432319865 2432319865 -11.00000000
8.18674088 3.42962575 0.77655768 75 5 6727 8.91000000 2432319867 2432319867 5.00000000
3.74986959 1.57014263 -0.64388424 6 6 6728 4.11600000 2432319869 2432319869 -9.00000000
8.21471596 3.43797493 1.09341180 90 7 6729 8.97200000 2432319872 2432319872 7.00000000
5.06177759 2.11738729 -0.67369372 6 8 6730 5.52800000 2432319874 2432319874 -7.00000000
7.73142385 3.23253942 -0.73315412 13 10 6731 8.41200000 2432319879 2432319879 -5.00000000
8.19375992 3.42248392 -0.46537131 17 12 6733 8.89200000 2432319883 2432319883 -3.00000000
8.26324177 3.44981265 2.06730008 68 13 6734 9.19000000 2432319886 2432319886 13.00000000
8.18834114 3.41686416 -0.15487266 18 14 6735 8.87400000 2432319888 2432319888 -1.00000000
7.17421532 2.99368572 2.08297563 45 15 6735 8.04800000 2432319890 2432319890 15.00000000
2.09250736 0.86974150 -0.60718948 4 0 6743 2.34600000 2432319911 2432319911 -15.00000000
8.18261814 3.39939475 0.15466322 12 1 6744 8.86200000 2432319913 2432319913 1.00000000
2.48365450 1.03130352 -0.62086493 4 2 6745 2.76000000 2432319915 2432319915 -13.00000000
8.20459843 3.40684748 0.46558067 10 3 6745 8.89600000 2432319918 2432319918 3.00000000
2.97741485 1.23572159 -0.62661672 6 4 6746 3.28400000 2432319920 2432319920 -11.00000000
8.19130135 3.39797401 0.77586043 75 5 6747 8.90200000 2432319922 2432319922 5.00000000
3.73160577 1.54720795 -0.63981694 6 6 6748 4.09000000 2432319925 2432319925 -9.00000000
8.20832825 3.40167952 1.09097433 90 7 6749 8.95200000 2432319927 2432319927 7.00000000
5.06546974 2.09818625 -0.67320627 6 8 6750 5.52400000 2432319929 2432319929 -7.00000000
7.74450159 3.20629406 -0.73332840 13 10 6751 8.41400000 2432319934 2432319934 -5.00000000
8.18350887 3.38470149 -0.46411526 17 12 6753 8.86800000 2432319939 2432319939 -3.00000000
8.27163124 3.41945839 2.06640029 66 13 6754 9.18600000 2432319941 2432319941 13.00000000
8.18728161 3.38291526 -0.15462832 16 14 6755 8.86000000 2432319943 2432319943 -1.00000000
7.19354868 2.97231340 2.08556390 45 15 6755 8.05800000 2432319945 2432319945 15.00000000
2.10982227 0.86831391 -0.61133057 4 0 6763 2.36200000 2432319966 2432319966 -15.00000000
8.19258499 3.37005067 0.15462832 12 1 6764 8.86000000 2432319968 2432319968 1.00000000
2.48183227 1.02040458 -0.61951518 4 2 6765 2.75400000 2432319971 2432319971 -13.00000000
8.20225143 3.37067986 0.46474329 10 3 6766 8.88000000 2432319973 2432319973 3.00000000
2.97626257 1.22308230 -0.62547189 5 4 6766 3.27800000 2432319975 2432319975 -11.00000000
8.20495510 3.37011743 0.77603471 78 5 6767 8.90400000 2432319978 2432319978 5.00000000
3.74977541 1.53942430 -0.64200705 6 6 6768 4.10400000 2432319980 2432319980 -9.00000000
8.20546055 3.36697769 1.08902442 92 7 6769 8.93600000 2432319982 2432319982 7.00000000
5.07276297 2.08049178 -0.67320627 6 8 6770 5.52400000 2432319985 2432319985 -7.00000000
7.76855087 3.18453121 -0.73454863 13 10 6771 8.42800000 2432319989 2432319989 -5.00000000
8.18788052 3.35308743 -0.46369657 17 12 6773 8.86000000 2432319994 2432319994 -3.00000000
8.26908970 3.38465858 2.06280112 68 13 6774 9.17000000 2432319996 2432319996 13.00000000
8.19533825 3.35280132 -0.15455851 16 14 6775 8.85600000 2432319998 2432319998 -1.00000000
7.20975876 2.94812131 2.08711672 42 15 6776 8.06400000 2432320001 2432320001 15.00000000
2.10568428 0.85802794 -0.60926002 4 0 6783 2.35400000 2432320021 2432320021 -15.00000000
8.18948269 3.33539844 0.15434909 12 1 6784 8.84400000 2432320024 2432320024 1.00000000
2.47815943 1.00879622 -0.61771560 4 2 6785 2.74600000 2432320026 2432320026 -13.00000000
8.19858551 3.33743739 0.46390593 13 3 6785 8.86400000 2432320028 2432320028 3.00000000
2.98233223 1.21342564 -0.62585348 8 4 6786 3.28000000 2432320031 2432320031 -11.00000000
8.19821358 3.33395052 0.77429163 78 5 6787 8.88400000 2432320033 2432320033 5.00000000
3.76610613 1.53078866 -0.64388424 6 6 6788 4.11600000 2432320035 2432320035 -9.00000000
8.20612907 3.33383179 1.08756196 97 7 6789 8.92400000 2432320038 2432320038 7.00000000
5.06160164 2.05530334 -0.67076886 6 8 6790 5.50400000 2432320040 2432320040 -7.00000000
7.77777338 3.15664506 -0.73437428 13 10 6791 8.42600000 2432320045 2432320045 -5.00000000
8.17732430 3.31548047 -0.46244052 17 12 6793 8.83600000 2432320049 2432320049 -3.00000000
8.26279259 3.34845448 2.05830216 66 13 6794 9.15000000 2432320051 2432320051 13.00000000
8.18475056 3.31516528 -0.15413965 16 14 6795 8.83200000 2432320054 2432320054 -1.00000000
7.22000551 2.92293668 2.08711672 42 15 6796 8.06400000 2432320056 2432320056 15.00000000
2.10135221 0.84814829 -0.60718948 4 0 6802 2.34600000 2432320077 2432320077 -15.00000000
8.19678974 3.30672646 0.15427928 12 1 6803 8.84000000 2432320079 2432320079 1.00000000
2.49414253 1.00567400 -0.62086493 4 2 6804 2.76000000 2432320081 2432320081 -13.00000000
8.19849300 3.30575037 0.46327788 13 3 6804 8.85200000 2432320084 2432320084 3.00000000
2.97723508 1.19985986 -0.62394542 6 4 6805 3.27000000 2432320086 2432320086 -11.00000000
8.19813538 3.30227947 0.77324575 78 5 6806 8.87200000 2432320088 2432320088 5.00000000
3.76749682 1.51681590 -0.64325851 6 6 6807 4.11200000 2432320091 2432320091 -9.00000000
8.21345615 3.30511904 1.08707452 95 7 6808 8.92000000 2432320093 2432320093 7.00000000
5.07944012 2.04295158 -0.67223132 6 8 6809 5.51600000 2432320095 2432320095 -7.00000000
7.77340984 3.12489057 -0.73297977 13 10 6810 8.41000000 2432320100 2432320100 -5.00000000
8.18827438 3.28834534 -0.46244052 17 12 6812 8.83600000 2432320104 2432320104 -3.00000000
8.27023411 3.31958389 2.05740237 64 13 6813 9.14600000 2432320107 2432320107 13.00000000
8.17899609 3.28130436 -0.15382551 18 14 6814 8.81400000 2432320109 2432320109 -1.00000000
7.22427940 2.89682126 2.08556390 40 15 6815 8.05800000 2432320111 2432320111 15.00000000
2.09891820 0.83865762 -0.60563654 4 0 6822 2.34000000 2432320132 2432320132 -15.00000000
8.18971157 3.27067780 0.15393023 12 1 6823 8.82000000 2432320134 2432320134 1.00000000
2.50125742 0.99840659 -0.62176472 4 2 6824 2.76400000 2432320137 2432320137 -13.00000000
8.19885254 3.27266955 0.46264985 13 3 6824 8.84000000 2432320139 2432320139 3.00000000
2.99781656 1.19600749 -0.62737995 6 4 6825 3.28800000 2432320141 2432320141 -11.00000000
8.18925476 3.26552486 0.77132833 82 5 6826 8.85000000 2432320144 2432320144 5.00000000
3.75441837 1.49634218 -0.64012980 6 6 6827 4.09200000 2432320146 2432320146 -9.00000000
8.21387768 3.27202082 1.08561206 95 7 6828 8.90800000 2432320148 2432320148 7.00000000
5.08285141 2.02374005 -0.67174381 6 8 6829 5.51200000 2432320151 2432320151 -7.00000000
7.80463362 3.10584092 -0.73489720 13 10 6830 8.43200000 2432320155 2432320155 -5.00000000
8.19784641 3.25900507 -0.46233582 12 12 6832 8.83400000 2432320160 2432320160 -3.00000000
8.27814960 3.28925586 2.05650258 62 13 6833 9.14200000 2432320162 2432320162 13.00000000
8.17553234 3.24682975 -0.15354627 18 14 6834 8.79800000 2432320164 2432320164 -1.00000000
7.22896051 2.86944795 2.08401084 42 15 6835 8.05200000 2432320167 2432320167 15.00000000
2.11081505 0.83487862 -0.60822475 4 0 6842 2.35000000 2432320187 2432320187 -15.00000000
8.18248177 3.23471880 0.15358117 12 1 6843 8.80000000 2432320190 2432320190 1.00000000
2.49747777 0.98680508 -0.61996508 4 2 6844 2.75600000 2432320192 2432320192 -13.00000000
8.20651150 3.24256229 0.46244052 10 3 6844 8.83600000 2432320194 2432320194 3.00000000
2.99832106 1.18409371 -0.62661672 6 4 6845 3.28400000 2432320197 2432320197 -11.00000000
8.18948460 3.23253012 0.77028245 82 5 6846 8.83800000 2432320199 2432320199 5.00000000
3.75778127 1.48250270 -0.63981694 6 6 6847 4.09000000 2432320201 2432320201 -9.00000000
8.20493603 3.23531890 1.08293104 99 7 6848 8.88600000 2432320203 2432320203 7.00000000
5.10465956 2.01180816 -0.67369372 6 8 6849 5.52800000 2432320206 2432320206 -7.00000000
7.80245113 3.07346725 -0.73367703 13 10 6850 8.41800000 2432320210 2432320210 -5.00000000
8.18501186 3.22086191 -0.46097511 17 12 6852 8.80800000 2432320215 2432320215 -3.00000000
8.28958035 3.26033974 2.05650258 64 13 6853 9.14200000 2432320217 2432320217 13.00000000
8.18495464 3.21754050 -0.15351136 16 14 6854 8.79600000 2432320220 2432320220 -1.00000000
7.24203205 2.84687352 2.08504629 40 15 6854 8.05600000 2432320222 2432320222 15.00000000
2.11011863 0.82609689 -0.60718948 4 0 6862 2.34600000 2432320243 2432320243 -15.00000000
8.18441200 3.20249343 0.15340665 15 1 6863 8.79000000 2432320245 2432320245 1.00000000
2.49727726 0.97666168 -0.61906528 4 2 6864 2.75200000 2432320247 2432320247 -13.00000000
8.20103931 3.20734930 0.46149847 13 3 6864 8.81800000 2432320250 2432320250 3.00000000
2.99877906 1.17219090 -0.62585348 5 4 6865 3.28000000 2432320252 2432320252 -11.00000000
8.19700718 3.20247364 0.76993382 82 5 6866 8.83400000 2432320254 2432320254 5.00000000
3.76293325 1.46937656 -0.63981694 6 6 6867 4.09000000 2432320256 2432320256 -9.00000000
8.19213867 3.19727612 1.07976234 95 7 6868 8.86000000 2432320259 2432320259 7.00000000
5.10425329 1.99109161 -0.67271876 6 8 6869 5.52000000 2432320261 2432320261 -7.00000000
7.81127548 3.04548907 -0.73350275 13 10 6870 8.41600000 2432320266 2432320266 -5.00000000
8.18131638 3.18647242 -0.46013772 17 12 6872 8.79200000 2432320270 2432320270 -3.00000000
8.29001522 3.22714233 2.05380321 60 13 6873 9.13000000 2432320273 2432320273 13.00000000
8.19054508 3.18677473 -0.15340665 14 14 6874 8.79000000 2432320275 2432320275 -1.00000000
7.25241756 2.82031107 2.08504629 42 15 6875 8.05600000 2432320277 2432320277 15.00000000
2.11659217 0.82012212 -0.60822475 4 0 6882 2.35000000 2432320298 2432320298 -15.00000000
8.18808174 3.17101645 0.15326703 15 1 6883 8.78200000 2432320300 2432320300 1.00000000
2.50067139 0.96793860 -0.61906528 4 2 6884 2.75200000 2432320303 2432320303 -13.00000000
8.18479919 3.16646004 0.45992839 13 3 6885 8.78800000 2432320305 2432320305 3.00000000
2.99735951 1.15959096 -0.62470865 6 4 6885 3.27400000 2432320307 2432320307 -11.00000000
8.19884396 3.17024851 0.76906228 86 5 6886 8.82400000 2432320309 2432320309 5.00000000
3.77356720 1.45836890 -0.64075559 6 6 6887 4.09600000 2432320312 2432320312 -9.00000000
8.19769382 3.16651487 1.07903111 99 7 6888 8.85400000 2432320314 2432320314 7.00000000
5.11487627 1.97469223 -0.67320627 6 8 6889 5.52400000 2432320316 2432320316 -7.00000000
7.83487034 3.02322483 -0.73472291 13 10 6890 8.43000000 2432320321 2432320321 -5.00000000
8.18679810 3.15573978 -0.45982370 17 12 6892 8.78600000 2432320326 2432320326 -3.00000000
8.29395485 3.19538260 2.05200362 56 13 6893 9.12200000 2432320328 2432320328 13.00000000
8.18295860 3.15097904 -0.15305761 16 14 6894 8.77000000 2432320330 2432320330 -1.00000000
7.25812483 2.79485726 2.08401084 45 15 6894 8.05200000 2432320333 2432320333 15.00000000
2.11763835 0.81203717 -0.60770714 4 0 6902 2.34800000 2432320353 2432320353 -15.00000000
8.18976498 3.13883710 0.15309250 15 1 6903 8.77200000 2432320356 2432320356 1.00000000
2.51495361 0.96338630 -0.62176472 4 2 6904 2.76400000 2432320358 2432320358 -13.00000000
8.20326328 3.14072704 0.46034706 13 3 6905 8.79600000 2432320360 2432320360 3.00000000
2.99772191 1.14771724 -0.62394542 5 4 6905 3.27000000 2432320362 2432320362 -11.00000000
8.19497395 3.13591337 0.76766777 86 5 6906 8.80800000 2432320365 2432320365 5.00000000
3.79339504 1.45083296 -0.64325851 4 6 6907 4.11200000 2432320367 2432320367 -9.00000000
8.19942665 3.13433647 1.07781243 97 7 6908 8.84400000 2432320369 2432320369 7.00000000
5.09948587 1.94832420 -0.67028141 6 8 6909 5.50000000 2432320372 2432320372 -7.00000000
7.82304001 2.98732853 -0.73263115 13 10 6910 8.40600000 2432320376 2432320376 -5.00000000
8.18843365 3.12358403 -0.45930034 17 12 6912 8.77600000 2432320381 2432320381 -3.00000000
8.31598377 3.17057729 2.05470300 55 13 6913 9.13400000 2432320383 2432320383 13.00000000
8.16587830 3.11171508 -0.15253404 16 14 6914 8.74000000 2432320386 2432320386 -1.00000000
7.26831961 2.76823616 2.08401084 40 15 6915 8.05200000 2432320388 2432320388 15.00000000
2.10406494 0.79883903 -0.60304838 4 0 6921 2.33000000 2432320409 2432320409 -15.00000000
8.17395401 3.10172939 0.15260383 18 1 6922 8.74400000 2432320411 2432320411 1.00000000
2.51449037 0.95365900 -0.62086493 4 2 6923 2.76000000 2432320413 2432320413 -13.00000000
8.20803070 3.11138296 0.46003306 13 3 6924 8.79000000 2432320415 2432320415 3.00000000
3.00334740 1.13846600 -0.62432700 5 4 6924 3.27200000 2432320418 2432320418 -11.00000000
8.17738056 3.09813237 0.76505309 78 5 6925 8.77800000 2432320420 2432320420 5.00000000
3.77601695 1.42985129 -0.63950408 4 6 6926 4.08800000 2432320422 2432320422 -9.00000000
8.19863605 3.10291290 1.07635009 97 7 6927 8.83200000 2432320425 2432320425 7.00000000
5.12077236 1.93702161 -0.67223132 9 8 6928 5.51600000 2432320427 2432320427 -7.00000000
7.82358503 2.95784712 -0.73175961 13 10 6929 8.39600000 2432320432 2432320432 -5.00000000
8.19500923 3.09500170 -0.45909101 17 12 6931 8.77200000 2432320436 2432320436 -3.00000000
8.33556843 3.14642406 2.05695248 54 13 6932 9.14400000 2432320439 2432320439 13.00000000
8.18176460 3.08673668 -0.15263875 14 14 6933 8.74600000 2432320441 2432320441 -1.00000000
7.26252031 2.73993301 2.07986975 45 15 6933 8.03600000 2432320443 2432320443 15.00000000
2.11407423 0.79420722 -0.60511893 4 0 6941 2.33800000 2432320464 2432320464 -15.00000000
8.17162704 3.06825757 0.15235952 18 1 6942 8.73000000 2432320466 2432320466 1.00000000
2.50868130 0.94145250 -0.61861539 4 2 6943 2.75000000 2432320468 2432320468 -13.00000000
8.19827080 3.07499695 0.45888168 13 3 6944 8.76800000 2432320471 2432320471 3.00000000
3.01649404 1.13142276 -0.62623513 5 4 6944 3.28200000 2432320473 2432320473 -11.00000000
8.17508602 3.06467342 0.76383293 75 5 6945 8.76400000 2432320475 2432320475 5.00000000
3.77728534 1.41527557 -0.63887835 4 6 6946 4.08400000 2432320478 2432320478 -9.00000000
8.19640350 3.06940222 1.07464385 99 7 6947 8.81800000 2432320480 2432320480 7.00000000
5.14237547 1.92470169 -0.67418122 9 8 6948 5.53200000 2432320482 2432320482 -7.00000000
7.85625553 2.93889642 -0.73385137 13 10 6949 8.42000000 2432320487 2432320487 -5.00000000
8.18892479 3.06008482 -0.45814896 17 12 6951 8.75400000 2432320491 2432320491 -3.00000000
8.36293030 3.12344480 2.06100154 55 13 6952 9.16200000 2432320494 2432320494 13.00000000
8.18499565 3.05536079 -0.15249912 14 14 6953 8.73800000 2432320496 2432320496 -1.00000000
7.28337383 2.71734786 2.08297563 42 15 6954 8.04800000 2432320498 2432320498 15.00000000
2.12393904 0.78988588 -0.60718948 4 0 6960 2.34600000 2432320519 2432320519 -15.00000000
8.20050049 3.04810977 0.15270856 12 1 6961 8.75000000 2432320521 2432320521 1.00000000
2.50996280 0.93244958 -0.61816549 6 2 6962 2.74800000 2432320524 2432320524 -13.00000000
8.19157124 3.04153681 0.45793962 10 3 6963 8.75000000 2432320526 2432320526 3.00000000
3.02391028 1.12278020 -0.62699836 5 4 6963 3.28600000 2432320528 2432320528 -11.00000000
8.18333626 3.03685379 0.76365864 78 5 6964 8.76200000 2432320531 2432320531 5.00000000
3.78566217 1.40411580 -0.63950408 4 6 6965 4.08800000 2432320533 2432320533 -9.00000000
8.19350815 3.03737521 1.07293773 95 7 6966 8.80400000 2432320535 2432320535 7.00000000
5.11894703 1.89660358 -0.67028141 6 8 6967 5.50000000 2432320538 2432320538 -7.00000000
8.21876526 3.04510665 1.38819945 10 9 6967 8.87400000 2432320540 2432320540 9.00000000
7.87156296 2.91490364 -0.73437428 13 10 6968 8.42600000 2432320542 2432320542 -5.00000000
8.21173286 3.03924155 1.70201623 21 11 6969 8.92000000 2432320544 2432320544 11.00000000
8.18029594 3.02598333 -0.45710224 12 12 6970 8.73400000 2432320547 2432320547 -3.00000000
8.22336102 3.04028225 2.02410960 70 13 6971 8.99800000 2432320549 2432320549 13.00000000
8.18195248 3.02334976 -0.15225479 12 14 6972 8.72400000 2432320551 2432320551 -1.00000000
7.29187489 2.69445324 2.08297563 45 15 6972 8.04800000 2432320554 2432320554 15.00000000
2.12305737 0.78113300 -0.60615420 4 0 6980 2.34200000 2432320574 2432320574 -15.00000000
8.17918396 3.00773335 0.15211518 12 1 6981 8.71600000 2432320577 2432320577 1.00000000
2.51503158 0.92435479 -0.61861539 10 2 6982 2.75000000 2432320579 2432320579 -13.00000000
8.18526554 3.00672626 0.45699757 13 3 6983 8.73200000 2432320581 2432320581 3.00000000
3.01491117 1.10747933 -0.62432700 5 4 6983 3.27200000 2432320584 2432320584 -11.00000000
8.18266487 3.00415015 0.76261276 75 5 6984 8.75000000 2432320586 2432320586 5.00000000
3.79424930 1.39225376 -0.64012980 6 6 6985 4.09200000 2432320588 2432320588 -9.00000000
8.19660568 3.00602198 1.07196271 95 7 6986 8.79600000 2432320591 2432320591 7.00000000
5.11808062 1.87599087 -0.66930646 9 8 6987 5.49200000 2432320593 2432320593 -7.00000000
7.90601063 2.89631867 -0.73664033 13 10 6988 8.45200000 2432320597 2432320597 -5.00000000
8.21676064 3.00853372 1.70087135 81 11 6989 8.91400000 2432320600 2432320600 11.00000000
8.17955494 2.99329209 -0.45647421 12 12 6990 8.72200000 2432320602 2432320602 -3.00000000
8.20098019 2.99950981 2.01601124 90 13 6991 8.96200000 2432320604 2432320604 13.00000000
8.17930889 2.98996520 -0.15201046 10 14 6992 8.71000000 2432320607 2432320607 -1.00000000
7.30170155 2.66770887 2.08297563 42 15 6993 8.04800000 2432320609 2432320609 15.00000000
2.13121700 0.77569956 -0.60770714 4 0 7000 2.34800000 2432320630 2432320630 -15.00000000
8.18211651 2.97642970 0.15197556 12 1 7001 8.70800000 2432320632 2432320632 1.00000000
2.52190566 0.91690177 -0.61951518 11 2 7002 2.75400000 2432320634 2432320634 -13.00000000
8.18444824 2.97404337 0.45636955 13 3 7003 8.72000000 2432320637 2432320637 3.00000000
3.01137781 1.09426653 -0.62280059 5 4 7003 3.26400000 2432320639 2432320639 -11.00000000
8.19122887 2.97488904 0.76243842 86 5 7004 8.74800000 2432320641 2432320641 5.00000000
3.79908609 1.37900090 -0.64012980 4 6 7005 4.09200000 2432320644 2432320644 -9.00000000
8.19958401 2.97468424 1.07098782 97 7 7006 8.78800000 2432320646 2432320646 7.00000000
5.13952780 1.86352730 -0.67125636 6 8 7007 5.50800000 2432320648 2432320648 -7.00000000
8.20639610 2.97553492 1.38256776 100 9 7007 8.83800000 2432320650 2432320650 9.00000000
7.91232586 2.86734629 -0.73629171 13 10 7008 8.44800000 2432320653 2432320653 -5.00000000
8.21613693 2.97582197 1.69858170 84 11 7009 8.90200000 2432320655 2432320655 11.00000000
8.16366196 2.95520425 -0.45500880 12 12 7010 8.69400000 2432320657 2432320657 -3.00000000
8.21140099 2.97086477 2.01601124 104 13 7011 8.96200000 2432320660 2432320660 13.00000000
8.16336918 2.95187569 -0.15152179 16 14 7012 8.68200000 2432320662 2432320662 -1.00000000
7.30505753 2.64151025 2.08142281 45 15 7012 8.04200000 2432320664 2432320664 15.00000000
2.12118840 0.76367480 -0.60408366 4 0 7020 2.33400000 2432320685 2432320685 -15.00000000
8.17364025 2.94108033 0.15162651 15 1 7021 8.68800000 2432320687 2432320687 1.00000000
2.52509093 0.90809309 -0.61951518 6 2 7022 2.75400000 2432320690 2432320690 -13.00000000
8.18726158 2.94275403 0.45595086 10 3 7023 8.71200000 2432320692 2432320692 3.00000000
3.02256918 1.08640444 -0.62432700 5 4 7023 3.27200000 2432320694 2432320694 -11.00000000
8.18093777 2.93886852 0.76052099 82 5 7024 8.72600000 2432320697 2432320697 5.00000000
3.80015802 1.36439621 -0.63950408 4 6 7025 4.08800000 2432320699 2432320699 -9.00000000
8.19870758 2.94202137 1.06952536 90 7 7026 8.77600000 2432320701 2432320701 7.00000000
5.14600134 1.84557569 -0.67125636 6 8 7027 5.50800000 2432320703 2432320703 -7.00000000
8.20051193 2.93943810 1.37975204 94 9 7028 8.82000000 2432320706 2432320706 9.00000000
7.91853571 2.83836508 -0.73594308 13 10 7028 8.44400000 2432320708 2432320708 -5.00000000
8.20614433 2.93984079 1.69438386 90 11 7029 8.88000000 2432320710 2432320710 11.00000000
8.17016697 2.92534328 -0.45479947 12 12 7030 8.69000000 2432320713 2432320713 -3.00000000
8.21071243 2.93824410 2.01331186 106 13 7031 8.95000000 2432320715 2432320715 13.00000000
8.16609192 2.92066860 -0.15138218 14 14 7032 8.67400000 2432320717 2432320717 -1.00000000
7.29649878 2.60821533 2.07624626 45 15 7033 8.02200000 2432320720 2432320720 15.00000000
2.13671327 0.76042920 -0.60770714 4 0 7041 2.34800000 2432320740 2432320740 -15.00000000
8.16552448 2.90440130 0.15127745 12 1 7042 8.66800000 2432320743 2432320743 1.00000000
2.51922131 0.89556837 -0.61726570 4 2 7043 2.74400000 2432320745 2432320745 -13.00000000
8.19234657 2.91072035 0.45563683 13 3 7044 8.70600000 2432320747 2432320747 3.00000000
3.02653074 1.07531893 -0.62432700 5 4 7044 3.27200000 2432320750 2432320750 -11.00000000
8.18038845 2.90486407 0.75947517 78 5 7045 8.71400000 2432320752 2432320752 5.00000000
3.80513334 1.35045874 -0.63950408 6 6 7046 4.08800000 2432320754 2432320754 -9.00000000
8.19072628 2.90531564 1.06708801 92 7 7047 8.75600000 2432320756 2432320756 7.00000000
5.17144108 1.83333516 -0.67369372 6 8 7048 5.52800000 2432320759 2432320759 -7.00000000
8.20513630 2.90881491 1.37881339 86 9 7048 8.81400000 2432320761 2432320761 9.00000000
7.95142174 2.81730795 -0.73803484 13 10 7049 8.46800000 2432320763 2432320763 -5.00000000
8.19650650 2.90253520 1.69018602 81 11 7050 8.85800000 2432320766 2432320766 11.00000000
8.14882565 2.88405013 -0.45302004 12 12 7051 8.65600000 2432320768 2432320768 -3.00000000
8.21775246 2.90683079 2.01241207 104 13 7052 8.94600000 2432320770 2432320770 13.00000000
8.16543007 2.88671970 -0.15117274 14 14 7053 8.66200000 2432320773 2432320773 -1.00000000
7.31648731 2.58659339 2.07935214 45 15 7053 8.03400000 2432320775 2432320775 15.00000000
2.13571000 0.75168329 -0.60667187 4 0 7061 2.34400000 2432320796 2432320796 -15.00000000
8.16429520 2.87189913 0.15106803 12 1 7062 8.65600000 2432320798 2432320798 1.00000000
2.51865530 0.88547653 -0.61636591 4 2 7063 2.74000000 2432320800 2432320800 -13.00000000
8.17796040 2.87349868 0.45427611 13 3 7064 8.68000000 2432320803 2432320803 3.00000000
3.03211832 1.06539857 -0.62470865 5 4 7064 3.27400000 2432320805 2432320805 -11.00000000
8.18671894 2.87497115 0.75912654 82 5 7065 8.71000000 2432320807 2432320807 5.00000000
3.80982423 1.33716810 -0.63950408 4 6 7066 4.08800000 2432320809 2432320809 -9.00000000
8.19332504 2.87407875 1.06611300 92 7 7067 8.74800000 2432320812 2432320812 7.00000000
5.14783621 1.80476415 -0.66979390 6 8 7068 5.49600000 2432320814 2432320814 -7.00000000
8.20778370 2.87754178 1.37756193 86 9 7068 8.80600000 2432320816 2432320816 9.00000000
7.97436953 2.79414701 -0.73925501 13 10 7069 8.48200000 2432320819 2432320819 -5.00000000
8.20102978 2.87195992 1.68904126 90 11 7070 8.85200000 2432320821 2432320821 11.00000000
8.15130329 2.85294867 -0.45260134 12 12 7071 8.64800000 2432320823 2432320823 -3.00000000
8.20209599 2.86911941 2.00611353 106 13 7072 8.91800000 2432320826 2432320826 13.00000000
8.17168140 2.85687947 -0.15110293 14 14 7073 8.65800000 2432320828 2432320828 -1.00000000
7.32182407 2.55976343 2.07831693 45 15 7073 8.03000000 2432320830 2432320830 15.00000000
2.14196992 0.74549371 -0.60770714 4 0 7081 2.34800000 2432320851 2432320851 -15.00000000
8.17615891 2.84403992 0.15110293 12 1 7082 8.65800000 2432320853 2432320853 1.00000000
2.52357149 0.87731928 -0.61681581 3 2 7083 2.74200000 2432320856 2432320856 -13.00000000
8.17850780 2.84165716 0.45375273 13 3 7084 8.67000000 2432320858 2432320858 3.00000000
3.03396416 1.05416369 -0.62432700 5 4 7084 3.27200000 2432320860 2432320860 -11.00000000
8.19294071 2.84506941 0.75877792 78 5 7085 8.70600000 2432320862 2432320862 5.00000000
3.82566547 1.32774734 -0.64138132 4 6 7086 4.10000000 2432320865 2432320865 -9.00000000
8.19205475 2.84155798 1.06465054 97 7 7087 8.73600000 2432320867 2432320867 7.00000000
5.14660215 1.78418303 -0.66881895 6 8 7088 5.48800000 2432320869 2432320869 -7.00000000
8.20334339 2.84226584 1.37505889 89 9 7089 8.79000000 2432320872 2432320872 9.00000000
8.02549171 2.78064442 -0.74308985 13 10 7089 8.52600000 2432320874 2432320874 -5.00000000
8.20729446 2.84203053 1.68827796 96 11 7090 8.84800000 2432320876 2432320876 11.00000000
8.16309929 2.82513118 -0.45270601 12 12 7091 8.65000000 2432320879 2432320879 -3.00000000
8.18996143 2.83282709 2.00071478 108 13 7092 8.89400000 2432320881 2432320881 13.00000000
8.16459370 2.82245755 -0.15078880 14 14 7093 8.64000000 2432320883 2432320883 -1.00000000
7.33436632 2.53545213 2.07935214 45 15 7093 8.03400000 2432320885 2432320885 15.00000000
2.13542557 0.73486912 -0.60511893 4 0 7101 2.33800000 2432320906 2432320906 -15.00000000
8.17658138 2.81223059 0.15092841 12 1 7102 8.64800000 2432320909 2432320909 1.00000000
2.52661848 0.86850500 -0.61681581 3 2 7103 2.74200000 2432320911 2432320911 -13.00000000
8.18271065 2.81114483 0.45343873 13 3 7104 8.66400000 2432320913 2432320913 3.00000000
3.02091479 1.03782594 -0.62089247 5 4 7104 3.25400000 2432320915 2432320915 -11.00000000
8.18774605 2.81127715 0.75738341 78 5 7105 8.69000000 2432320918 2432320918 5.00000000
3.83027697 1.31438518 -0.64138132 4 6 7106 4.10000000 2432320920 2432320920 -9.00000000
8.20567894 2.81423306 1.06513810 92 7 7107 8.74000000 2432320922 2432320922 7.00000000
5.15279913 1.76620722 -0.66881895 6 8 7108 5.48800000 2432320925 2432320925 -7.00000000
8.20200157 2.80977225 1.37318170 86 9 7109 8.77800000 2432320927 2432320927 9.00000000
8.04268837 2.75519586 -0.74378711 13 10 7109 8.53400000 2432320929 2432320929 -5.00000000
8.21345043 2.81209254 1.68751478 75 11 7110 8.84400000 2432320932 2432320932 11.00000000
8.15968323 2.79209304 -0.45197332 12 12 7111 8.63600000 2432320934 2432320934 -3.00000000
8.19242477 2.80169916 1.99891508 106 13 7112 8.88600000 2432320936 2432320936 13.00000000
8.16304302 2.79006004 -0.15057936 14 14 7113 8.62800000 2432320938 2432320938 -1.00000000
7.32898521 2.50355744 2.07521105 45 15 7114 8.01800000 2432320941 2432320941 15.00000000
2.14346433 0.72927737 -0.60667187 4 0 7121 2.34400000 2432320962 2432320962 -15.00000000
8.16362953 2.77594662 0.15050955 12 1 7122 8.62400000 2432320964 2432320964 1.00000000
2.54439569 0.86469656 -0.62041503 3 2 7123 2.75800000 2432320966 2432320966 -13.00000000
8.18680000 2.78063774 0.45312470 13 3 7124 8.65800000 2432320968 2432320968 3.00000000
3.03753161 1.03169429 -0.62356383 5 4 7124 3.26800000 2432320971 2432320971 -11.00000000
8.17675686 2.77563477 0.75546598 78 5 7125 8.66800000 2432320973 2432320973 5.00000000
3.83110046 1.29973769 -0.64075559 4 6 7126 4.09600000 2432320975 2432320975 -9.00000000
8.20041275 2.78047323 1.06318820 90 7 7127 8.72400000 2432320978 2432320978 7.00000000
5.17021322 1.75203240 -0.67028141 6 8 7128 5.50000000 2432320980 2432320980 -7.00000000
8.20053387 2.77732301 1.37130451 86 9 7129 8.76600000 2432320982 2432320982 9.00000000
8.04093361 2.72327018 -0.74274123 13 10 7129 8.52200000 2432320985 2432320985 -5.00000000
8.20276070 2.77648115 1.68331695 78 11 7130 8.82200000 2432320987 2432320987 11.00000000
8.16559601 2.76231337 -0.45176399 12 12 7131 8.63200000 2432320989 2432320989 -3.00000000
8.20215416 2.77308536 1.99891508 106 13 7132 8.88600000 2432320991 2432320991 13.00000000
8.16136551 2.75770783 -0.15036993 12 14 7133 8.61600000 2432320994 2432320994 -1.00000000
7.33358669 2.47800303 2.07417583 45 15 7133 8.01400000 2432320996 2432320996 15.00000000
2.14233494 0.72055912 -0.60563654 4 0 7141 2.34000000 2432321017 2432321017 -15.00000000
8.16189671 2.74361038 0.15030013 12 1 7142 8.61200000 2432321019 2432321019 1.00000000
2.53816199 0.85270667 -0.61816549 4 2 7143 2.74800000 2432321021 2432321021 -13.00000000
8.18509579 2.74822927 0.45249668 13 3 7144 8.64600000 2432321024 2432321024 3.00000000
3.04297566 1.02171004 -0.62394542 4 4 7144 3.27000000 2432321026 2432321026 -11.00000000
8.17883968 2.74454021 0.75476873 76 5 7145 8.66000000 2432321028 2432321028 5.00000000
3.81313968 1.27881944 -0.63700116 4 6 7146 4.07200000 2432321031 2432321031 -9.00000000
8.19124699 2.74552274 1.06075072 97 7 7147 8.70400000 2432321033 2432321033 7.00000000
5.17629766 1.73397434 -0.67028141 6 8 7148 5.50000000 2432321035 2432321035 -7.00000000
8.20268631 2.74617243 1.37005305 86 9 7149 8.75800000 2432321038 2432321038 9.00000000
8.05416965 2.69645071 -0.74308985 13 10 7149 8.52600000 2432321040 2432321040 -5.00000000
8.19378471 2.74160194 1.67950082 78 11 7150 8.80200000 2432321042 2432321042 11.00000000
8.16571808 2.73062634 -0.45124063 12 12 7151 8.62200000 2432321044 2432321044 -3.00000000
8.20439148 2.74196672 1.99711549 103 13 7152 8.87800000 2432321047 2432321047 13.00000000
8.16714859 2.72793555 -0.15030013 12 14 7153 8.61200000 2432321049 2432321049 -1.00000000
7.34219170 2.45238900 2.07417583 45 15 7153 8.01400000 2432321051 2432321051 15.00000000
2.13908911 0.71199489 -0.60408366 4 0 7159 2.33400000 2432321073 2432321073 -15.00000000
8.17047596 2.71795559 0.15030013 12 1 7160 8.61200000 2432321075 2432321075 1.00000000
2.52973318 0.84103984 -0.61546606 4 2 7161 2.73600000 2432321078 2432321078 -13.00000000
8.18563366 2.72141099 0.45207798 15 3 7161 8.63800000 2432321080 2432321080 3.00000000
3.04989672 1.01338327 -0.62470865 5 4 7162 3.27400000 2432321082 2432321082 -11.00000000
8.18174934 2.71694851 0.75424582 79 5 7163 8.65400000 2432321085 2432321085 5.00000000
3.82463765 1.26932275 -0.63825262 4 6 7164 4.08000000 2432321087 2432321087 -9.00000000
8.18099022 2.71352625 1.05831337 95 7 7165 8.68400000 2432321089 2432321089 7.00000000
5.17795086 1.71645474 -0.66979390 6 8 7166 5.49600000 2432321091 2432321091 -7.00000000
8.20892239 2.72120094 1.36974013 94 9 7166 8.75600000 2432321094 2432321094 9.00000000
8.07773113 2.67614722 -0.74448436 13 10 7167 8.54200000 2432321096 2432321096 -5.00000000
8.19862938 2.71461272 1.67873752 78 11 7168 8.79800000 2432321098 2432321098 11.00000000
8.16287899 2.70119476 -0.45061257 12 12 7169 8.61000000 2432321101 2432321101 -3.00000000
8.19446278 2.71005940 1.99261642 101 13 7170 8.85800000 2432321103 2432321103 13.00000000
8.16998291 2.70038152 -0.15019540 14 14 7171 8.60600000 2432321105 2432321105 -1.00000000
7.35719681 2.43173575 2.07624626 45 15 7171 8.02200000 2432321108 2432321108 15.00000000
2.15073681 0.70754230 -0.60667187 4 0 7179 2.34400000 2432321128 2432321128 -15.00000000
8.16851521 2.68567109 0.15009069 12 1 7180 8.60000000 2432321131 2432321131 1.00000000
2.53820753 0.83402932 -0.61681581 4 2 7181 2.74200000 2432321133 2432321133 -13.00000000
8.18037224 2.68640566 0.45124063 13 3 7182 8.62200000 2432321135 2432321135 3.00000000
3.05528069 1.00334358 -0.62509024 5 4 7182 3.27600000 2432321138 2432321138 -11.00000000
8.18361092 2.68588710 0.75354856 79 5 7183 8.64600000 2432321140 2432321140 5.00000000
3.84406090 1.26088989 -0.64075559 6 6 7184 4.09600000 2432321142 2432321142 -9.00000000
8.18098068 2.68186092 1.05709469 99 7 7185 8.67400000 2432321144 2432321144 7.00000000
5.15750074 1.68971729 -0.66638160 9 8 7186 5.46800000 2432321147 2432321147 -7.00000000
8.20006847 2.68494844 1.36661148 97 9 7187 8.73600000 2432321149 2432321149 9.00000000
8.10595798 2.65413404 -0.74622744 13 10 7187 8.56200000 2432321151 2432321151 -5.00000000
8.20432377 2.68475628 1.67797434 81 11 7188 8.79400000 2432321154 2432321154 11.00000000
8.17225838 2.67268443 -0.45061257 12 12 7189 8.61000000 2432321156 2432321156 -3.00000000
8.18905449 2.67659545 1.98901725 90 13 7190 8.84200000 2432321158 2432321158 13.00000000
8.16225147 2.66625834 -0.14988127 12 14 7191 8.58800000 2432321161 2432321161 -1.00000000
7.36238718 2.40355492 2.07521105 45 15 7192 8.01800000 2432321163 2432321163 15.00000000
2.15147853 0.69905770 -0.60615420 4 0 7200 2.34200000 2432321184 2432321184 -15.00000000
8.17830372 2.65571404 0.15009069 12 1 7201 8.60000000 2432321186 2432321186 1.00000000
2.54495454 0.82592380 -0.61771560 4 2 7202 2.74600000 2432321188 2432321188 -13.00000000
8.18210125 2.65536857 0.45082194 13 3 7202 8.61400000 2432321191 2432321191 3.00000000
3.05146766 0.98971581 -0.62356383 5 4 7203 3.26800000 2432321193 2432321193 -11.00000000
8.18202877 2.65218854 0.75250268 90 5 7204 8.63400000 2432321195 2432321195 5.00000000
3.83738112 1.24313951 -0.63887835 6 6 7205 4.08400000 2432321197 2432321197 -9.00000000
8.18509007 2.65002370 1.05636346 97 7 7206 8.66800000 2432321200 2432321200 7.00000000
5.16743660 1.67202497 -0.66686904 6 8 7207 5.47200000 2432321202 2432321202 -7.00000000
8.19105816 2.64879775 1.36348283 97 9 7208 8.71600000 2432321204 2432321204 9.00000000
8.10804844 2.62195420 -0.74553025 17 10 7208 8.55400000 2432321207 2432321207 -5.00000000
8.20663548 2.65225291 1.67644787 87 11 7209 8.78600000 2432321209 2432321209 11.00000000
8.17439651 2.64025831 -0.45019388 12 12 7210 8.60200000 2432321211 2432321211 -3.00000000
8.19510078 2.64536595 1.98811746 106 13 7211 8.83800000 2432321214 2432321214 13.00000000
8.16055012 2.63264060 -0.14967184 12 14 7212 8.57600000 2432321216 2432321216 -1.00000000
7.35970116 2.37428188 2.07210517 45 15 7212 8.00600000 2432321218 2432321218 15.00000000
2.14286923 0.68800002 -0.60304838 4 0 7220 2.33000000 2432321239 2432321239 -15.00000000
8.17229176 2.62226248 0.14981146 12 1 7221 8.58400000 2432321241 2432321241 1.00000000
2.55338907 0.81882042 -0.61906528 4 2 7222 2.75200000 2432321243 2432321243 -13.00000000
8.17990875 2.62313199 0.45019388 13 3 7222 8.60200000 2432321246 2432321246 3.00000000
3.05116463 0.97785980 -0.62280059 5 4 7223 3.26400000 2432321248 2432321248 -11.00000000
8.16087723 2.61388779 0.74971372 76 5 7224 8.60200000 2432321250 2432321250 5.00000000
3.83417177 1.22732806 -0.63762689 6 6 7225 4.07600000 2432321253 2432321253 -9.00000000
8.18672752 2.61901689 1.05538857 97 7 7226 8.66000000 2432321255 2432321255 7.00000000
5.18836832 1.65881324 -0.66881895 6 8 7227 5.48800000 2432321257 2432321257 -7.00000000
8.19272804 2.61778450 1.36223137 97 9 7228 8.70800000 2432321260 2432321260 9.00000000
8.09058189 2.58514619 -0.74308985 17 10 7228 8.52600000 2432321262 2432321262 -5.00000000
8.20275211 2.61940980 1.67377651 90 11 7229 8.77200000 2432321264 2432321264 11.00000000
8.18166065 2.61110091 -0.45008922 17 12 7230 8.60000000 2432321267 2432321267 -3.00000000
8.19685841 2.61437488 1.98631775 92 13 7231 8.83000000 2432321269 2432321269 13.00000000
8.16587925 2.60292411 -0.14960203 12 14 7232 8.57200000 2432321271 2432321271 -1.00000000
7.35321903 2.34388375 2.06796408 47 15 7232 7.99000000 2432321273 2432321273 15.00000000
2.15802813 0.68498147 -0.60667187 4 0 7239 2.34400000 2432321294 2432321294 -15.00000000
