# .PCD v0.7 - Point Cloud Data file format
VERSION 0.7
FIELDS x y z intensity laser_id azimuth distance_m adjustedtime timestamp vertical_angle
SIZE 4 4 4 1 1 2 8 8 4 8
TYPE F F F U U U F U U F
COUNT 1 1 1 1 1 1 1 1 1 1
WIDTH 528
HEIGHT 1
VIEWPOINT 0 0 0 1 0 0 0
POINTS 528
DATA ascii
1.80879438 -1.13729584 -0.57250774 4 0 12216 2.21200000 2433235172 2433235172 -15.00000000
4.70228243 -2.95774794 0.09696557 25 1 12217 5.55600000 2433235174 2433235174 1.00000000
2.11614561 -1.33157659 -0.57722443 3 2 12218 2.56600000 2433235176 2433235176 -13.00000000
4.80538845 -3.02494335 0.29758224 23 3 12219 5.68600000 2433235179 2433235179 3.00000000
2.50716567 -1.57823551 -0.57586157 5 4 12219 3.01800000 2433235181 2433235181 -11.00000000
4.91116142 -3.09272337 0.50776935 39 5 12220 5.82600000 2433235183 2433235183 5.00000000
3.10539889 -1.95633113 -0.58131045 4 6 12221 3.71600000 2433235185 2433235185 -9.00000000
7.88143444 -4.96704721 1.14386570 6 7 12222 9.38600000 2433235188 2433235188 7.00000000
4.03683853 -2.54508591 -0.58594781 6 8 12223 4.80800000 2433235190 2433235190 -7.00000000
5.73152590 -3.61352706 1.07314038 7 9 12223 6.86000000 2433235192 2433235192 9.00000000
5.97405052 -3.76788759 -0.61793423 16 10 12224 7.09000000 2433235195 2433235195 -5.00000000
4.99441957 -3.15124416 1.14790690 3 11 12225 6.01600000 2433235197 2433235197 11.00000000
4.46220970 -2.81653380 -0.27654320 44 12 12226 5.28400000 2433235199 2433235199 -3.00000000
8.02284908 -5.06595707 2.19057345 23 13 12227 9.73800000 2433235202 2433235202 13.00000000
4.43116522 -2.79910183 -0.09148552 42 14 12228 5.24200000 2433235204 2433235204 -1.00000000
7.81524801 -4.93677759 2.47689819 40 15 12228 9.57000000 2433235206 2433235206 15.00000000
1.80501306 -1.14328778 -0.57250774 4 0 12235 2.21200000 2433235227 2433235227 -15.00000000
4.51677704 -2.86201262 0.09333547 47 1 12236 5.34800000 2433235229 2433235229 1.00000000
2.11830187 -1.34275997 -0.57902402 3 2 12237 2.57400000 2433235232 2433235232 -13.00000000
4.80882454 -3.04941893 0.29841962 21 3 12238 5.70200000 2433235234 2433235234 3.00000000
2.49528646 -1.58233535 -0.57433510 6 4 12238 3.01000000 2433235236 2433235236 -11.00000000
4.91433811 -3.11753082 0.50916386 39 5 12239 5.84200000 2433235238 2433235238 5.00000000
3.09555864 -1.96450126 -0.58068472 3 6 12240 3.71200000 2433235241 2433235241 -9.00000000
7.84816122 -4.98251629 1.14142823 6 7 12241 9.36600000 2433235243 2433235243 7.00000000
4.03843069 -2.56484413 -0.58741021 6 8 12242 4.82000000 2433235245 2433235245 -7.00000000
5.72387934 -3.63668990 1.07407904 10 9 12243 6.86600000 2433235248 2433235248 9.00000000
5.93461609 -3.77058220 -0.61514521 16 10 12243 7.05800000 2433235250 2433235250 -5.00000000
5.00382471 -3.18042636 1.15248632 3 11 12244 6.04000000 2433235252 2433235252 11.00000000
4.43093491 -2.81738400 -0.27518246 44 12 12245 5.25800000 2433235255 2433235255 -3.00000000
7.99942875 -5.08835030 2.18877387 39 13 12246 9.73000000 2433235257 2433235257 13.00000000
4.38811684 -2.79230952 -0.09078742 40 14 12247 5.20200000 2433235259 2433235259 -1.00000000
7.80698347 -4.96785212 2.47948647 42 15 12247 9.58000000 2433235261 2433235261 15.00000000
1.78798401 -1.14126623 -0.56836665 4 0 12255 2.19600000 2433235282 2433235282 -15.00000000
4.36687136 -2.78843713 0.09043837 52 1 12256 5.18200000 2433235285 2433235285 1.00000000
2.11031723 -1.34804785 -0.57812423 3 2 12257 2.57000000 2433235287 2433235287 -13.00000000
2.49636507 -1.59526455 -0.57586157 5 4 12258 3.01800000 2433235291 2433235291 -11.00000000
4.90342569 -3.13466597 0.50916386 42 5 12259 5.84200000 2433235294 2433235294 5.00000000
3.06871247 -1.96252358 -0.57693028 5 6 12260 3.68800000 2433235296 2433235296 -9.00000000
7.85078669 -5.02271843 1.14435315 6 7 12261 9.39000000 2433235298 2433235298 7.00000000
4.02945328 -2.57892513 -0.58741021 8 8 12262 4.82000000 2433235301 2433235301 -7.00000000
5.71780491 -3.66090846 1.07533050 10 9 12263 6.87400000 2433235303 2433235303 9.00000000
5.91470671 -3.78697777 -0.61444801 16 10 12263 7.05000000 2433235305 2433235305 -5.00000000
5.11833668 -3.27834988 1.18148935 3 11 12264 6.19200000 2433235308 2433235308 11.00000000
4.40425730 -2.82205844 -0.27413574 47 12 12265 5.23800000 2433235310 2433235310 -3.00000000
7.95208693 -5.09731293 2.18067551 15 13 12266 9.69400000 2433235312 2433235312 13.00000000
4.36150980 -2.79681563 -0.09043837 42 14 12267 5.18200000 2433235314 2433235314 -1.00000000
7.77083635 -4.98495865 2.47379231 40 15 12268 9.55800000 2433235317 2433235317 15.00000000
1.78418958 -1.14718914 -0.56836665 4 0 12274 2.19600000 2433235338 2433235338 -15.00000000
4.32228231 -2.78018522 0.08970537 49 1 12275 5.14000000 2433235340 2433235340 1.00000000
2.09928036 -1.35082054 -0.57632458 3 2 12276 2.56200000 2433235342 2433235342 -13.00000000
4.81146812 -3.09721518 0.29988503 9 3 12277 5.73000000 2433235344 2433235344 3.00000000
2.49106121 -1.60353398 -0.57586157 5 4 12277 3.01800000 2433235347 2433235347 -11.00000000
4.90640497 -3.15953875 0.51055837 40 5 12278 5.85800000 2433235349 2433235349 5.00000000
3.07215142 -1.97910774 -0.57880753 5 6 12279 3.70000000 2433235351 2433235351 -9.00000000
7.84409952 -5.05517721 1.14581561 6 7 12280 9.40200000 2433235354 2433235354 7.00000000
4.01420546 -2.58797050 -0.58643526 8 8 12281 4.81200000 2433235356 2433235356 -7.00000000
5.73385429 -3.69805026 1.08064926 22 9 12282 6.90800000 2433235358 2433235358 9.00000000
5.89876747 -3.80441093 -0.61409938 16 10 12282 7.04600000 2433235361 2433235361 -5.00000000
5.40933037 -3.49008536 1.25132537 9 11 12283 6.55800000 2433235363 2433235363 11.00000000
4.38145018 -2.82798290 -0.27329835 81 12 12284 5.22200000 2433235365 2433235365 -3.00000000
7.93514013 -5.12365532 2.18067551 9 13 12285 9.69400000 2433235367 2433235367 13.00000000
4.33373404 -2.79932857 -0.09005442 72 14 12286 5.16000000 2433235370 2433235370 -1.00000000
7.77298784 -5.02087736 2.47948647 42 15 12286 9.58000000 2433235372 2433235372 15.00000000
1.78665948 -1.15761197 -0.57043719 4 0 12294 2.20400000 2433235393 2433235393 -15.00000000
4.29073668 -2.78111649 0.08925161 52 1 12295 5.11400000 2433235395 2433235395 1.00000000
2.09455228 -1.35814011 -0.57632458 3 2 12296 2.56200000 2433235397 2433235397 -13.00000000
4.81905937 -3.12594748 0.30103642 21 3 12297 5.75200000 2433235400 2433235400 3.00000000
2.48380160 -1.61115122 -0.57547992 5 4 12297 3.01600000 2433235402 2433235402 -11.00000000
4.90370274 -3.18206882 0.51142991 37 5 12298 5.86800000 2433235404 2433235404 5.00000000
3.06191063 -1.98766828 -0.57818180 5 6 12299 3.69600000 2433235407 2433235407 -9.00000000
7.83306503 -5.08685207 1.14679050 4 7 12300 9.41000000 2433235409 2433235409 7.00000000
4.00181818 -2.59980416 -0.58594781 8 8 12301 4.80800000 2433235411 2433235411 -7.00000000
5.72753620 -3.72234845 1.08190072 27 9 12302 6.91600000 2433235414 2433235414 9.00000000
5.86206341 -3.80977821 -0.61165899 16 10 12302 7.01800000 2433235416 2433235416 -5.00000000
5.43661785 -3.53462934 1.26048422 12 11 12303 6.60600000 2433235418 2433235418 11.00000000
4.36987734 -2.84217095 -0.27319369 68 12 12304 5.22000000 2433235420 2433235420 -3.00000000
4.35960913 -2.83657527 1.20078874 12 13 12305 5.33800000 2433235423 2433235423 13.00000000
4.34404755 -2.82752943 -0.09047327 60 14 12306 5.18400000 2433235425 2433235425 -1.00000000
7.75703335 -5.04903316 2.48000407 40 15 12306 9.58200000 2433235427 2433235427 15.00000000
1.79837382 -1.17503047 -0.57561356 7 0 12316 2.22400000 2433235449 2433235449 -15.00000000
4.26663542 -2.78881860 0.08897237 51 1 12317 5.09800000 2433235451 2433235451 1.00000000
2.08606005 -1.36403966 -0.57542479 3 2 12318 2.55800000 2433235454 2433235454 -13.00000000
4.81759930 -3.15014744 0.30166444 28 3 12318 5.76400000 2433235456 2433235456 3.00000000
2.47923994 -1.62175119 -0.57586157 5 4 12319 3.01800000 2433235458 2433235458 -11.00000000
4.90978718 -3.21287465 0.51334733 34 5 12320 5.89000000 2433235461 2433235461 5.00000000
3.05095053 -1.99724662 -0.57755607 3 6 12321 3.69200000 2433235463 2433235463 -9.00000000
5.95351934 -3.89884281 0.87380320 10 7 12322 7.17000000 2433235465 2433235465 7.00000000
3.98018265 -2.60753608 -0.58424163 8 8 12323 4.79400000 2433235467 2433235467 -7.00000000
5.71550703 -3.74439836 1.08221364 25 9 12323 6.91800000 2433235470 2433235470 9.00000000
5.85072422 -3.83444309 -0.61200762 12 10 12324 7.02200000 2433235472 2433235472 -5.00000000
5.39345264 -3.53610229 1.25361514 15 11 12325 6.57000000 2433235474 2433235474 11.00000000
4.30143452 -2.82229161 1.18774152 37 13 12327 5.28000000 2433235479 2433235479 13.00000000
7.74727964 -5.08514118 2.48310995 40 15 12328 9.59400000 2433235484 2433235484 15.00000000
1.77812576 -1.17067766 -0.57043719 4 0 12336 2.20400000 2433235504 2433235504 -15.00000000
4.23683453 -2.79049587 0.08855351 51 1 12337 5.07400000 2433235507 2433235507 1.00000000
2.08779502 -1.37560177 -0.57722443 3 2 12338 2.56600000 2433235509 2433235509 -13.00000000
4.81102419 -3.17108130 0.30197847 23 3 12339 5.77000000 2433235511 2433235511 3.00000000
2.47356391 -1.63039553 -0.57586157 5 4 12339 3.01800000 2433235514 2433235514 -11.00000000
4.89854240 -3.22999358 0.51334733 34 5 12340 5.89000000 2433235516 2433235516 5.00000000
3.05055594 -2.01223516 -0.57880753 5 6 12341 3.70000000 2433235518 2433235518 -9.00000000
5.91004992 -3.89992070 0.86941588 27 7 12342 7.13400000 2433235520 2433235520 7.00000000
3.97602654 -2.62469435 -0.58497286 8 8 12343 4.80000000 2433235523 2433235523 -7.00000000
5.71163464 -3.77185297 1.08409083 25 9 12344 6.93000000 2433235525 2433235525 9.00000000
5.81070280 -3.83727574 -0.60921866 12 10 12344 6.99000000 2433235527 2433235527 -5.00000000
5.41547585 -3.57763290 1.26162910 15 11 12345 6.61200000 2433235530 2433235530 11.00000000
4.27204990 -2.82439232 1.18234277 42 13 12347 5.25600000 2433235534 2433235534 13.00000000
7.72536707 -5.11137009 2.48207474 38 15 12349 9.59000000 2433235539 2433235539 15.00000000
1.76799846 -1.17198849 -0.56836665 4 0 12354 2.19600000 2433235560 2433235560 -15.00000000
4.21471453 -2.79495120 0.08827427 67 1 12355 5.05800000 2433235562 2433235562 1.00000000
2.08995867 -1.38646305 -0.57902402 3 2 12356 2.57400000 2433235564 2433235564 -13.00000000
4.82323027 -3.19969535 0.30333921 26 3 12356 5.79600000 2433235567 2433235567 3.00000000
2.45861483 -1.63164485 -0.57357186 5 4 12357 3.00600000 2433235569 2433235569 -11.00000000
3.03434610 -2.01525140 -0.57693028 5 6 12359 3.68800000 2433235573 2433235573 -9.00000000
5.87462091 -3.90308881 0.86600357 42 7 12360 7.10600000 2433235576 2433235576 7.00000000
3.97106767 -2.63937020 -0.58546031 8 8 12361 4.80400000 2433235578 2433235578 -7.00000000
5.71456146 -3.79962158 1.08690667 17 9 12362 6.94800000 2433235580 2433235580 9.00000000
5.77539158 -3.84006739 -0.60677826 8 10 12362 6.96200000 2433235583 2433235583 -5.00000000
5.40584421 -3.59571576 1.26201069 15 11 12363 6.61400000 2433235585 2433235585 11.00000000
4.29830551 -2.86011481 -0.27057689 5 12 12364 5.17000000 2433235587 2433235587 -3.00000000
4.25666666 -2.83348012 1.18054318 43 13 12365 5.24800000 2433235590 2433235590 13.00000000
4.44402552 -2.95931625 -0.09319585 2 14 12366 5.34000000 2433235592 2433235592 -1.00000000
7.70534372 -5.13105726 2.48052168 38 15 12366 9.58400000 2433235594 2433235594 15.00000000
1.76710951 -1.18029881 -0.56940192 4 0 12374 2.20000000 2433235615 2433235615 -15.00000000
4.19163132 -2.80075836 0.08799503 63 1 12375 5.04200000 2433235617 2433235617 1.00000000
2.08186603 -1.39158404 -0.57812423 3 2 12376 2.57000000 2433235619 2433235619 -13.00000000
4.80705070 -3.21318221 0.30302519 21 3 12376 5.79000000 2433235622 2433235622 3.00000000
2.45943236 -1.64458227 -0.57509834 5 4 12377 3.01400000 2433235624 2433235624 -11.00000000
4.23778439 -2.83480763 0.44606310 47 5 12378 5.11800000 2433235626 2433235626 5.00000000
3.02072644 -2.02143669 -0.57567883 5 6 12379 3.68000000 2433235629 2433235629 -9.00000000
5.84281540 -3.91142392 0.86332244 72 7 12380 7.08400000 2433235631 2433235631 7.00000000
3.98492169 -2.66867995 -0.58887267 8 8 12381 4.83200000 2433235633 2433235633 -7.00000000
5.72259808 -3.83383894 1.09097397 5 9 12382 6.97400000 2433235636 2433235636 9.00000000
4.26725435 -2.85883522 -0.44937500 9 10 12382 5.15600000 2433235638 2433235638 -5.00000000
4.23045540 -2.83525205 0.98991704 18 11 12383 5.18800000 2433235640 2433235640 11.00000000
4.24350500 -2.84507132 -0.26775074 10 12 12384 5.11600000 2433235643 2433235643 -3.00000000
4.24675035 -2.84832144 1.18054318 40 13 12385 5.24800000 2433235645 2433235645 13.00000000
7.69380283 -5.16222811 2.48259234 40 15 12386 9.59200000 2433235649 2433235649 15.00000000
1.76297879 -1.18646002 -0.56940192 4 0 12394 2.20000000 2433235670 2433235670 -15.00000000
4.16192389 -2.80197167 0.08757617 54 1 12395 5.01800000 2433235672 2433235672 1.00000000
2.05113435 -1.38142514 -0.57092577 3 2 12396 2.53800000 2433235675 2433235675 -13.00000000
4.81511831 -3.24417114 0.30428123 21 3 12397 5.81400000 2433235677 2433235677 3.00000000
2.45856118 -1.65644813 -0.57624316 5 4 12397 3.02000000 2433235679 2433235679 -11.00000000
4.18490744 -2.82063079 0.44153100 26 5 12398 5.06600000 2433235682 2433235682 5.00000000
3.00546265 -2.02644706 -0.57411450 5 6 12399 3.67000000 2433235684 2433235684 -9.00000000
3.95748115 -2.67035985 -0.58619153 8 8 12401 4.81000000 2433235689 2433235689 -7.00000000
4.17554522 -2.81750131 0.79781580 29 9 12401 5.10000000 2433235691 2433235691 9.00000000
4.23082685 -2.85587811 -0.44658601 12 10 12402 5.12400000 2433235693 2433235693 -5.00000000
4.19450045 -2.83242273 0.98381120 31 11 12403 5.15600000 2433235696 2433235696 11.00000000
4.19382763 -2.83303428 -0.26523861 10 12 12404 5.06800000 2433235698 2433235698 -3.00000000
4.22709417 -2.85658121 1.17784369 35 13 12405 5.23600000 2433235700 2433235700 13.00000000
4.42325735 -2.99026895 -0.09319585 2 14 12406 5.34000000 2433235702 2433235702 -1.00000000
7.68123150 -5.19472122 2.48466277 45 15 12407 9.60000000 2433235705 2433235705 15.00000000
1.76202440 -1.19477510 -0.57043719 4 0 12414 2.20400000 2433235725 2433235725 -15.00000000
4.14218807 -2.80974722 0.08736674 49 1 12415 5.00600000 2433235728 2433235728 1.00000000
2.05597496 -1.39514196 -0.57362521 3 2 12416 2.55000000 2433235730 2433235730 -13.00000000
4.10194540 -2.78349495 0.25979570 40 3 12416 4.96400000 2433235732 2433235732 3.00000000
2.44139361 -1.65730143 -0.57357186 5 4 12417 3.00600000 2433235735 2433235735 -11.00000000
4.12558842 -2.80164218 0.43630165 47 5 12418 5.00600000 2433235737 2433235737 5.00000000
3.00327253 -2.04025578 -0.57505310 5 6 12419 3.67600000 2433235739 2433235739 -9.00000000
4.12592220 -2.80397367 0.61251533 63 7 12420 5.02600000 2433235742 2433235742 7.00000000
3.94649410 -2.68304181 -0.58594781 8 8 12421 4.80800000 2433235744 2433235744 -7.00000000
4.14558935 -2.81945562 0.79406136 40 9 12422 5.07600000 2433235746 2433235746 9.00000000
4.19776773 -2.85494256 -0.44414568 12 10 12422 5.09600000 2433235749 2433235749 -5.00000000
4.17647171 -2.84152532 0.98190308 47 11 12423 5.14600000 2433235751 2433235751 11.00000000
4.20702839 -2.86338902 -0.26670402 28 12 12424 5.09600000 2433235753 2433235753 -3.00000000
4.21548605 -2.87022233 1.17739379 33 13 12425 5.23400000 2433235755 2433235755 13.00000000
4.41279268 -3.00569081 -0.09319585 2 14 12426 5.34000000 2433235758 2433235758 -1.00000000
7.64229774 -5.20736074 2.47793365 45 15 12427 9.57400000 2433235760 2433235760 15.00000000
1.75784314 -1.20091844 -0.57043719 4 0 12434 2.20400000 2433235781 2433235781 -15.00000000
4.11584568 -2.81290579 0.08701770 49 1 12435 4.98600000 2433235783 2433235783 1.00000000
2.05752730 -1.40670955 -0.57542479 3 2 12436 2.55800000 2433235785 2433235785 -13.00000000
4.07241917 -2.78426981 0.25853962 44 3 12436 4.94000000 2433235788 2433235788 3.00000000
2.43073225 -1.66248846 -0.57242697 5 4 12437 3.00000000 2433235790 2433235790 -11.00000000
4.07796383 -2.79014969 0.43229249 54 5 12438 4.96000000 2433235792 2433235792 5.00000000
3.00265288 -2.05518961 -0.57630455 5 6 12439 3.68400000 2433235795 2433235795 -9.00000000
4.09809208 -2.80602217 0.60983419 63 7 12440 5.00400000 2433235797 2433235797 7.00000000
3.94201779 -2.70016670 -0.58667904 8 8 12441 4.81400000 2433235799 2433235799 -7.00000000
4.11177111 -2.81644273 0.78936833 60 9 12441 5.04600000 2433235802 2433235802 9.00000000
4.18120241 -2.86507320 -0.44344842 12 10 12442 5.08800000 2433235804 2433235804 -5.00000000
4.15681171 -2.84942627 0.97961336 55 11 12443 5.13400000 2433235806 2433235806 11.00000000
4.18547726 -2.87015009 -0.26597133 15 12 12444 5.08200000 2433235808 2433235808 -3.00000000
4.21026230 -2.88822675 1.17874348 41 13 12445 5.24000000 2433235811 2433235811 13.00000000
4.34951258 -2.98486829 -0.09207889 2 14 12446 5.27600000 2433235813 2433235813 -1.00000000
7.57629442 -5.20120430 2.46240449 45 15 12447 9.51400000 2433235815 2433235815 15.00000000
1.74568379 -1.20157051 -0.56784898 4 0 12454 2.19400000 2433235836 2433235836 -15.00000000
4.08294344 -2.81137848 0.08652903 49 1 12455 4.95800000 2433235838 2433235838 1.00000000
2.04939485 -1.41167212 -0.57452500 3 2 12456 2.55400000 2433235841 2433235841 -13.00000000
4.04458284 -2.78600526 0.25738823 46 3 12456 4.91800000 2433235843 2433235843 3.00000000
2.42814755 -1.67319107 -0.57319021 5 4 12457 3.00400000 2433235845 2433235845 -11.00000000
4.03867197 -2.78401303 0.42915487 54 5 12458 4.92400000 2433235848 2433235848 5.00000000
2.98570347 -2.05892992 -0.57442737 5 6 12459 3.67200000 2433235850 2433235850 -9.00000000
4.06049395 -2.80114722 0.60569066 51 7 12460 4.97000000 2433235852 2433235852 7.00000000
3.92603326 -2.70940042 -0.58570409 8 8 12461 4.80600000 2433235855 2433235855 -7.00000000
4.10679245 -2.83414435 0.79030693 81 9 12461 5.05200000 2433235857 2433235857 9.00000000
4.11870813 -2.84342885 -0.43787044 12 10 12462 5.02400000 2433235859 2433235859 -5.00000000
4.16460991 -2.87619138 0.98381120 55 11 12463 5.15600000 2433235861 2433235861 11.00000000
4.16886044 -2.88020158 -0.26555264 10 12 12464 5.07400000 2433235864 2433235864 -3.00000000
4.39170122 -3.03642440 -0.09319585 2 14 12466 5.34000000 2433235868 2433235868 -1.00000000
7.51519394 -5.19794750 2.44842815 40 15 12467 9.46000000 2433235871 2433235871 15.00000000
1.74327731 -1.20845342 -0.56836665 4 0 12473 2.19600000 2433235891 2433235891 -15.00000000
4.04894972 -2.80780959 0.08600546 47 1 12474 4.92800000 2433235894 2433235894 1.00000000
2.05110693 -1.42290354 -0.57632458 3 2 12475 2.56200000 2433235896 2433235896 -13.00000000
4.02547550 -2.79257178 0.25676021 46 3 12475 4.90600000 2433235898 2433235898 3.00000000
2.42581153 -1.68347251 -0.57395345 5 4 12476 3.00800000 2433235901 2433235901 -11.00000000
4.01468801 -2.78716445 0.42758608 74 5 12477 4.90600000 2433235903 2433235903 5.00000000
2.98210430 -2.07107306 -0.57505310 5 6 12478 3.67600000 2433235905 2433235905 -9.00000000
4.05281305 -2.81572962 0.60593438 59 7 12479 4.97200000 2433235907 2433235907 7.00000000
3.92028713 -2.72467041 -0.58619153 8 8 12480 4.81000000 2433235910 2433235910 -7.00000000
4.08926105 -2.84211063 0.78874260 40 9 12480 5.04200000 2433235912 2433235912 9.00000000
4.09780550 -2.84910989 -0.43665028 9 10 12481 5.01000000 2433235914 2433235914 -5.00000000
5.29454470 -3.68254590 1.25361514 15 11 12482 6.57000000 2433235917 2433235917 11.00000000
4.07731390 -2.83697414 -0.26031905 7 12 12483 4.97400000 2433235919 2433235919 -3.00000000
4.21750307 -2.93670249 -0.08970537 2 14 12485 5.14000000 2433235924 2433235924 -1.00000000
7.47504663 -5.20497274 2.44066358 45 15 12485 9.43000000 2433235926 2433235926 15.00000000
1.74379992 -1.21784961 -0.56991953 4 0 12493 2.20200000 2433235947 2433235947 -15.00000000
4.02437067 -2.81161857 0.08569132 49 1 12494 4.91000000 2433235949 2433235949 1.00000000
2.03015471 -1.41889095 -0.57182556 3 2 12495 2.54200000 2433235951 2433235951 -13.00000000
3.99114728 -2.78944397 0.25519013 64 3 12495 4.87600000 2433235954 2433235954 3.00000000
2.42635632 -1.69642973 -0.57547992 5 4 12496 3.01600000 2433235956 2433235956 -11.00000000
4.01473045 -2.80801296 0.42863193 90 5 12497 4.91800000 2433235958 2433235958 5.00000000
2.97485685 -2.08147001 -0.57505310 3 6 12498 3.67600000 2433235960 2433235960 -9.00000000
4.04621220 -2.83213615 0.60642183 29 7 12499 4.97600000 2433235963 2433235963 7.00000000
3.90262175 -2.73264527 -0.58497286 8 8 12500 4.80000000 2433235965 2433235965 -7.00000000
5.64081478 -3.94974089 1.09066105 40 9 12500 6.97200000 2433235967 2433235967 9.00000000
4.11394501 -2.88168573 -0.43943927 12 10 12501 5.04200000 2433235970 2433235970 -5.00000000
5.26718760 -3.69086528 1.25018048 25 11 12502 6.55200000 2433235972 2433235972 11.00000000
4.04612494 -2.83628559 -0.25895831 22 12 12503 4.94800000 2433235974 2433235974 -3.00000000
4.22337770 -2.96163726 1.19089091 2 13 12504 5.29400000 2433235977 2433235977 13.00000000
4.07298803 -2.85723710 -0.08684318 2 14 12505 4.97600000 2433235979 2433235979 -1.00000000
7.41796732 -5.20570183 2.42824030 45 15 12506 9.38200000 2433235981 2433235981 15.00000000
1.74406385 -1.22756851 -0.57147247 4 0 12514 2.20800000 2433236002 2433236002 -15.00000000
4.00422812 -2.81944227 0.08548189 49 1 12515 4.89800000 2433236004 2433236004 1.00000000
2.02812696 -1.42856669 -0.57272536 3 2 12516 2.54600000 2433236007 2433236007 -13.00000000
3.97387648 -2.80014658 0.25477144 72 3 12517 4.86800000 2433236009 2433236009 3.00000000
2.41049314 -1.69852638 -0.57319021 5 4 12517 3.00400000 2433236011 2433236011 -11.00000000
4.06140804 -2.86288571 0.43473285 42 5 12518 4.98800000 2433236013 2433236013 5.00000000
2.96397901 -2.09008265 -0.57442737 3 6 12519 3.67200000 2433236016 2433236016 -9.00000000
7.57686663 -5.34489155 1.13850343 42 7 12520 9.34200000 2433236018 2433236018 7.00000000
3.88284850 -2.74006343 -0.58351040 8 8 12521 4.78800000 2433236020 2433236020 -7.00000000
5.60693264 -3.95672154 1.08690667 42 9 12521 6.94800000 2433236023 2433236023 9.00000000
4.05452538 -2.86227322 -0.43420991 9 10 12522 4.98200000 2433236025 2433236025 -5.00000000
5.23919153 -3.69995284 1.24674594 25 11 12523 6.53400000 2433236027 2433236027 11.00000000
4.04875231 -2.86031580 -0.25979570 10 12 12524 4.96400000 2433236030 2433236030 -3.00000000
4.20294619 -2.97034860 1.18819141 2 13 12525 5.28200000 2433236032 2433236032 13.00000000
4.06575394 -2.87445498 -0.08691298 2 14 12526 4.98000000 2433236034 2433236034 -1.00000000
7.36504745 -5.20702839 2.41685224 45 15 12526 9.33800000 2433236037 2433236037 15.00000000
1.72716117 -1.22470951 -0.56733137 4 0 12534 2.19200000 2433236057 2433236057 -15.00000000
3.97805190 -2.82183266 0.08513284 48 1 12535 4.87800000 2433236060 2433236060 1.00000000
2.02312803 -1.43563747 -0.57272536 3 2 12536 2.54600000 2433236062 2433236062 -13.00000000
3.97222114 -2.81978154 0.25529480 26 3 12537 4.87800000 2433236064 2433236064 3.00000000
2.39494419 -1.70011163 -0.57090050 5 4 12537 2.99200000 2433236066 2433236066 -11.00000000
4.15373087 -2.94972110 0.44571447 32 5 12538 5.11400000 2433236069 2433236069 5.00000000
2.95988607 -2.10270405 -0.57505310 3 6 12539 3.67600000 2433236071 2433236071 -9.00000000
3.87649608 -2.75590086 -0.58399791 8 8 12541 4.79200000 2433236076 2433236076 -7.00000000
5.56824589 -3.96007252 1.08221364 45 9 12542 6.91800000 2433236078 2433236078 9.00000000
4.02177858 -2.86024261 -0.43176955 9 10 12542 4.95400000 2433236080 2433236080 -5.00000000
5.22944403 -3.72049475 1.24750924 28 11 12543 6.53800000 2433236083 2433236083 11.00000000
4.01433516 -2.85705948 -0.25822562 5 12 12544 4.93400000 2433236085 2433236085 -3.00000000
4.21318913 -2.99969482 1.19404018 3 13 12545 5.30800000 2433236087 2433236087 13.00000000
4.02311945 -2.86542773 -0.08621489 2 14 12546 4.94000000 2433236090 2433236090 -1.00000000
7.29713964 -5.19923639 2.40080547 42 15 12547 9.27600000 2433236092 2433236092 15.00000000
1.71973169 -1.22848511 -0.56629604 4 0 12554 2.18800000 2433236113 2433236113 -15.00000000
3.95841575 -2.82872558 0.08492341 48 1 12555 4.86600000 2433236115 2433236115 1.00000000
2.02444553 -1.44722402 -0.57452500 3 2 12556 2.55400000 2433236117 2433236117 -13.00000000
4.80713654 -3.43776584 0.30972418 16 3 12557 5.91800000 2433236119 2433236119 3.00000000
2.39538264 -1.71302927 -0.57242697 5 4 12557 3.00000000 2433236122 2433236122 -11.00000000
4.16285419 -2.97811341 0.44780621 37 5 12558 5.13800000 2433236124 2433236124 5.00000000
2.94931555 -2.11072397 -0.57442737 3 6 12559 3.67200000 2433236126 2433236126 -9.00000000
3.97547913 -2.84616351 0.60032839 14 7 12560 4.92600000 2433236129 2433236129 7.00000000
3.86685252 -2.76941538 -0.58399791 8 8 12561 4.79200000 2433236131 2433236131 -7.00000000
5.54223537 -3.96931410 1.07971072 45 9 12561 6.90200000 2433236133 2433236133 9.00000000
3.99557400 -2.86266017 -0.43002644 36 10 12562 4.93400000 2433236136 2433236136 -5.00000000
5.20046759 -3.72728944 1.24369299 28 11 12563 6.51800000 2433236138 2433236138 11.00000000
3.96375871 -2.84196019 -0.25560880 9 12 12564 4.88400000 2433236140 2433236140 -3.00000000
4.21219397 -3.02119803 1.19673955 2 13 12565 5.32000000 2433236143 2433236143 13.00000000
4.03258944 -2.89344287 -0.08663374 2 14 12566 4.96400000 2433236145 2433236145 -1.00000000
7.24532700 -5.19862938 2.38941741 42 15 12566 9.23200000 2433236147 2433236147 15.00000000
1.72484124 -1.24125099 -0.56940192 4 0 12574 2.20000000 2433236168 2433236168 -15.00000000
3.92904282 -2.82850599 0.08450455 48 1 12575 4.84200000 2433236170 2433236170 1.00000000
2.01938152 -1.45428181 -0.57452500 3 2 12576 2.55400000 2433236172 2433236172 -13.00000000
4.81293297 -3.46736717 0.31087559 21 3 12577 5.94000000 2433236175 2433236175 3.00000000
2.39735317 -1.72711813 -0.57433510 5 4 12577 3.01000000 2433236177 2433236177 -11.00000000
4.05383492 -2.92156744 0.43717322 26 5 12578 5.01600000 2433236179 2433236179 5.00000000
2.93872499 -2.11869574 -0.57380164 3 6 12579 3.66800000 2433236182 2433236182 -9.00000000
3.95585990 -2.85305595 0.59886593 19 7 12580 4.91400000 2433236184 2433236184 7.00000000
3.85716200 -2.78289652 -0.58399791 8 8 12581 4.79200000 2433236186 2433236186 -7.00000000
5.51483583 -3.98035216 1.07720768 45 9 12582 6.88600000 2433236189 2433236189 9.00000000
5.16832495 -3.73162866 1.23911357 28 11 12583 6.49400000 2433236193 2433236193 11.00000000
3.95705247 -2.85811782 -0.25581816 9 12 12584 4.88800000 2433236195 2433236195 -3.00000000
4.19530392 -3.03131771 1.19493997 2 13 12585 5.31200000 2433236198 2433236198 13.00000000
4.00301743 -2.89344430 -0.08621489 2 14 12586 4.94000000 2433236200 2433236200 -1.00000000
7.17926025 -5.19119072 2.37388825 42 15 12587 9.17200000 2433236202 2433236202 15.00000000
1.71758711 -1.24469674 -0.56836665 4 0 12593 2.19600000 2433236223 2433236223 -15.00000000
3.91802239 -2.84034586 0.08446965 44 1 12594 4.84000000 2433236225 2433236225 1.00000000
2.00823760 -1.45639408 -0.57272536 3 2 12595 2.54600000 2433236228 2433236228 -13.00000000
4.80949116 -3.48917246 0.31139895 23 3 12596 5.95000000 2433236230 2433236230 3.00000000
2.39002347 -1.73390567 -0.57395345 5 4 12596 3.00800000 2433236232 2433236232 -11.00000000
3.93931270 -2.85892797 0.42584297 22 5 12597 4.88600000 2433236235 2433236235 5.00000000
2.93488002 -2.13075018 -0.57442737 3 6 12598 3.67200000 2433236237 2433236237 -9.00000000
3.93031526 -2.85449314 0.59642857 21 7 12599 4.89400000 2433236239 2433236239 7.00000000
3.84951830 -2.79683876 -0.58424163 8 8 12600 4.79400000 2433236242 2433236242 -7.00000000
5.48152876 -3.98256373 1.07314038 35 9 12600 6.86000000 2433236244 2433236244 9.00000000
4.01467609 -2.91790366 -0.43420991 3 10 12601 4.98200000 2433236246 2433236246 -5.00000000
5.14956999 -3.74412894 1.23758709 25 11 12602 6.48600000 2433236248 2433236248 11.00000000
3.91686392 -2.84890294 -0.25382939 4 12 12603 4.85000000 2433236251 2433236251 -3.00000000
4.19310760 -3.05094576 1.19718957 2 13 12604 5.32200000 2433236253 2433236253 13.00000000
3.97723269 -2.89493489 -0.08586584 2 14 12605 4.92000000 2433236255 2433236255 -1.00000000
7.13011599 -5.18984509 2.36301780 45 15 12605 9.13000000 2433236258 2433236258 15.00000000
1.71635246 -1.25296283 -0.56940192 4 0 12613 2.20000000 2433236278 2433236278 -15.00000000
3.91454363 -2.85872245 0.08460927 34 1 12614 4.84800000 2433236281 2433236281 1.00000000
1.99212658 -1.45534825 -0.56957608 4 2 12615 2.53200000 2433236283 2433236283 -13.00000000
4.79889488 -3.50711799 0.31150362 19 3 12616 5.95200000 2433236285 2433236285 3.00000000
2.37444615 -1.73528743 -0.57166374 5 4 12616 2.99600000 2433236288 2433236288 -11.00000000
3.92770076 -2.87148547 0.42566866 22 5 12617 4.88400000 2433236290 2433236290 5.00000000
2.92104650 -2.13631749 -0.57317591 3 6 12618 3.66400000 2433236292 2433236292 -9.00000000
3.92192936 -2.86936736 0.59667230 25 7 12619 4.89600000 2433236295 2433236295 7.00000000
3.81570363 -2.79267287 -0.58058554 8 8 12620 4.76400000 2433236297 2433236297 -7.00000000
7.30619431 -5.34928417 1.43419123 21 9 12621 9.16800000 2433236299 2433236299 9.00000000
3.90801191 -2.86127996 -0.42375124 8 10 12621 4.86200000 2433236301 2433236301 -5.00000000
5.13330173 -3.75976133 1.23682392 25 11 12622 6.48200000 2433236304 2433236304 11.00000000
3.88756251 -2.84839272 -0.25257331 7 12 12623 4.82600000 2433236306 2433236306 -3.00000000
4.19186258 -3.07247615 1.19988894 2 13 12624 5.33400000 2433236308 2433236308 13.00000000
3.83486629 -2.81184030 -0.08300365 20 14 12625 4.75600000 2433236311 2433236311 -1.00000000
7.07833385 -5.19194889 2.35214758 42 15 12626 9.08800000 2433236313 2433236313 15.00000000
1.71508098 -1.26123536 -0.57043719 4 0 12633 2.20400000 2433236334 2433236334 -15.00000000
3.90615177 -2.87355423 0.08464417 23 1 12634 4.85000000 2433236336 2433236336 1.00000000
1.99959064 -1.47153366 -0.57317531 4 2 12635 2.54800000 2433236338 2433236338 -13.00000000
4.80431604 -3.53687286 0.31265500 9 3 12636 5.97400000 2433236341 2433236341 3.00000000
2.36046910 -1.73774564 -0.56975567 5 4 12636 2.98600000 2433236343 2433236343 -11.00000000
3.91925788 -2.88635969 0.42584297 24 5 12637 4.88600000 2433236345 2433236345 5.00000000
2.91039085 -2.14415741 -0.57255012 3 6 12638 3.66000000 2433236348 2433236348 -9.00000000
3.91987944 -2.88892841 0.59789097 27 7 12639 4.90600000 2433236350 2433236350 7.00000000
3.81551886 -2.81304312 -0.58204800 6 8 12640 4.77600000 2433236352 2433236352 -7.00000000
7.23753643 -5.33597183 1.42417932 36 9 12640 9.10400000 2433236354 2433236354 9.00000000
3.86593127 -2.85125184 -0.42026499 8 10 12641 4.82200000 2433236357 2433236357 -5.00000000
5.12014627 -3.77765703 1.23682392 28 11 12642 6.48200000 2433236359 2433236359 11.00000000
3.85670543 -2.84652686 -0.25121260 7 12 12643 4.80000000 2433236361 2433236361 -3.00000000
4.20306015 -3.10329485 1.20618761 2 13 12644 5.36200000 2433236364 2433236364 13.00000000
3.80411720 -2.80976462 -0.08254988 39 14 12645 4.73000000 2433236366 2433236366 -1.00000000
7.02999926 -5.19243813 2.34179473 42 15 12645 9.04800000 2433236368 2433236368 15.00000000
1.69514465 -1.25571525 -0.56526077 4 0 12653 2.18400000 2433236389 2433236389 -15.00000000
3.91216373 -2.89907765 0.08499322 25 1 12654 4.87000000 2433236391 2433236391 1.00000000
1.99600732 -1.47966504 -0.57362521 3 2 12655 2.55000000 2433236394 2433236394 -13.00000000
4.17269421 -3.09439898 0.27225164 8 3 12656 5.20200000 2433236396 2433236396 3.00000000
2.36858153 -1.75649953 -0.57319021 5 4 12656 3.00400000 2433236398 2433236398 -11.00000000
3.90595841 -2.89764881 0.42549434 27 5 12657 4.88200000 2433236401 2433236401 5.00000000
2.90288854 -2.15430355 -0.57255012 3 6 12658 3.66000000 2433236403 2433236403 -9.00000000
3.92570996 -2.91442657 0.60032839 27 7 12659 4.92600000 2433236405 2433236405 7.00000000
3.80886364 -2.82871175 -0.58253545 6 8 12660 4.78000000 2433236407 2433236407 -7.00000000
7.18304586 -5.33654594 1.41729629 49 9 12661 9.06000000 2433236410 2433236410 9.00000000
3.84635901 -2.85759997 -0.41921914 8 10 12661 4.81000000 2433236412 2433236412 -5.00000000
5.09274721 -3.78496671 1.23338938 28 11 12662 6.46400000 2433236414 2433236414 11.00000000
3.84995151 -2.86235523 -0.25142193 7 12 12663 4.80400000 2433236417 2433236417 -3.00000000
4.19532967 -3.12027335 1.20708740 2 13 12664 5.36600000 2433236419 2433236419 13.00000000
3.78947306 -2.81944537 -0.08244517 50 14 12665 4.72400000 2433236421 2433236421 -1.00000000
6.96597910 -5.18471956 2.32678318 45 15 12666 8.99000000 2433236424 2433236424 15.00000000
1.69075108 -1.26162469 -0.56526077 4 0 12673 2.18400000 2433236444 2433236444 -15.00000000
3.89400792 -2.90673518 0.08481870 25 1 12674 4.86000000 2433236447 2433236447 1.00000000
1.98146164 -1.47962761 -0.57092577 4 2 12675 2.53800000 2433236449 2433236449 -13.00000000
4.81950998 -3.60020900 0.31527179 10 3 12676 6.02400000 2433236451 2433236451 3.00000000
2.35142565 -1.75653219 -0.57051891 5 4 12676 2.99000000 2433236454 2433236454 -11.00000000
3.90220380 -2.91603613 0.42619157 24 5 12677 4.89000000 2433236456 2433236456 5.00000000
2.89218664 -2.16205788 -0.57192439 3 6 12678 3.65600000 2433236458 2433236458 -9.00000000
3.91392303 -2.92692327 0.60008466 25 7 12679 4.92400000 2433236460 2433236460 7.00000000
3.80691409 -2.84793544 -0.58375418 4 8 12680 4.79000000 2433236463 2433236463 -7.00000000
7.13525677 -5.33785391 1.41135180 44 9 12680 9.02200000 2433236465 2433236465 9.00000000
3.82678962 -2.86384630 -0.41817325 8 10 12681 4.79800000 2433236467 2433236467 -5.00000000
5.06535959 -3.79213142 1.22995484 28 11 12682 6.44600000 2433236470 2433236470 11.00000000
3.82235146 -2.86260676 -0.25027055 4 12 12683 4.78200000 2433236472 2433236472 -3.00000000
4.20312738 -3.14892006 1.21248615 2 13 12684 5.39000000 2433236474 2433236474 13.00000000
3.77640796 -2.83025742 -0.08237536 50 14 12685 4.72000000 2433236477 2433236477 -1.00000000
6.91010046 -5.17882681 2.31384230 45 15 12685 8.94000000 2433236479 2433236479 15.00000000
1.68788123 -1.26867962 -0.56577843 4 0 12693 2.18600000 2433236500 2433236500 -15.00000000
3.89342737 -2.92752075 0.08502813 23 1 12694 4.87200000 2433236502 2433236502 1.00000000
1.97784197 -1.48770654 -0.57137567 4 2 12695 2.54000000 2433236504 2433236504 -13.00000000
3.80946279 -2.86646867 0.24985185 2 3 12696 4.77400000 2433236507 2433236507 3.00000000
2.35155487 -1.76945114 -0.57204539 5 4 12696 2.99800000 2433236509 2433236509 -11.00000000
3.90155220 -2.93682885 0.42723745 29 5 12697 4.90200000 2433236511 2433236511 5.00000000
2.87515402 -2.16501093 -0.57004720 3 6 12698 3.64400000 2433236513 2433236513 -9.00000000
3.91319585 -2.94773388 0.60154706 25 7 12699 4.93600000 2433236516 2433236516 7.00000000
3.78743744 -2.85403895 -0.58229172 4 8 12700 4.77800000 2433236518 2433236518 -7.00000000
7.07714033 -5.33300781 1.40353000 44 9 12700 8.97200000 2433236520 2433236520 9.00000000
3.82631564 -2.88438272 -0.41921914 2 10 12701 4.81000000 2433236523 2433236523 -5.00000000
5.04111910 -3.80151534 1.22728348 28 11 12702 6.43200000 2433236525 2433236525 11.00000000
3.81393027 -2.87713480 -0.25037521 2 12 12703 4.78400000 2433236527 2433236527 -3.00000000
4.19833231 -3.16826797 1.21428585 2 13 12704 5.39800000 2433236530 2433236530 13.00000000
3.76171756 -2.83980775 -0.08227064 54 14 12705 4.71400000 2433236532 2433236532 -1.00000000
6.86576986 -5.18312836 2.30504251 45 15 12705 8.90600000 2433236534 2433236534 15.00000000
1.69422376 -1.28272641 -0.56940192 4 0 12713 2.20000000 2433236555 2433236555 -15.00000000
3.89912558 -2.95316696 0.08537717 27 1 12714 4.89200000 2433236557 2433236557 1.00000000
1.96487057 -1.48871720 -0.56912619 3 2 12715 2.53000000 2433236560 2433236560 -13.00000000
3.77237463 -2.85923934 0.24807243 8 3 12716 4.74000000 2433236562 2433236562 3.00000000
2.33597636 -1.77053356 -0.56975567 5 4 12716 2.98600000 2433236564 2433236564 -11.00000000
3.89603972 -2.95404124 0.42776039 9 5 12717 4.90800000 2433236566 2433236566 5.00000000
2.86757922 -2.17503381 -0.57004720 3 6 12718 3.64400000 2433236569 2433236569 -9.00000000
3.92185926 -2.97577453 0.60447192 21 7 12719 4.96000000 2433236571 2433236571 7.00000000
3.78852034 -2.87564349 -0.58399791 6 8 12720 4.79200000 2433236573 2433236573 -7.00000000
7.02136183 -5.33143568 1.39633405 47 9 12721 8.92600000 2433236576 2433236576 9.00000000
3.82574463 -2.90495086 -0.42026499 2 10 12721 4.82200000 2433236578 2433236578 -5.00000000
5.02000189 -3.81315136 1.22537541 31 11 12722 6.42200000 2433236580 2433236580 11.00000000
3.80068350 -2.88801360 -0.25016588 2 12 12723 4.78000000 2433236583 2433236583 -3.00000000
4.20276117 -3.19469643 1.21878481 2 13 12724 5.41800000 2433236585 2433236585 13.00000000
3.74541497 -2.84807968 -0.08213103 65 14 12725 4.70600000 2433236587 2433236587 -1.00000000
6.81841803 -5.18484545 2.29520726 42 15 12725 8.86800000 2433236589 2433236589 15.00000000
1.67898309 -1.28043222 -0.56577843 4 0 12733 2.18600000 2433236610 2433236610 -15.00000000
3.89992237 -2.97524977 0.08562151 27 1 12734 4.90600000 2433236613 2433236613 1.00000000
1.96895695 -1.50266039 -0.57182556 3 2 12735 2.54200000 2433236615 2433236615 -13.00000000
3.71633363 -2.83724260 0.24503694 10 3 12736 4.68200000 2433236617 2433236617 3.00000000
2.32822132 -1.77748549 -0.56937402 5 4 12736 2.98400000 2433236619 2433236619 -11.00000000
3.58010507 -2.73422790 0.39411828 2 5 12737 4.52200000 2433236622 2433236622 5.00000000
2.86938763 -2.19222569 -0.57192439 5 6 12738 3.65600000 2433236624 2433236624 -9.00000000
3.91775680 -2.99426794 0.60544688 21 7 12739 4.96800000 2433236626 2433236626 7.00000000
3.75953555 -2.87438178 -0.58107305 4 8 12740 4.76800000 2433236629 2433236629 -7.00000000
6.96191359 -5.32471037 1.38819945 52 9 12741 8.87400000 2433236631 2433236631 9.00000000
3.80608582 -2.91102505 -0.41921914 2 10 12741 4.81000000 2433236633 2433236633 -5.00000000
5.00510168 -3.82945824 1.22499371 37 11 12742 6.42000000 2433236636 2433236636 11.00000000
3.80009532 -2.90854645 -0.25079390 2 12 12743 4.79200000 2433236638 2433236638 -3.00000000
4.38189983 -3.35506511 1.27412271 4 13 12744 5.66400000 2433236640 2433236640 13.00000000
3.71798754 -2.84776068 -0.08174707 46 14 12745 4.68400000 2433236642 2433236642 -1.00000000
6.77176666 -5.18865204 2.28588986 45 15 12746 8.83200000 2433236645 2433236645 15.00000000
1.66859889 -1.28128660 -0.56370789 4 0 12752 2.17800000 2433236666 2433236666 -15.00000000
3.90272117 -2.99791121 0.08590075 27 1 12753 4.92200000 2433236668 2433236668 1.00000000
1.96705353 -1.51155627 -0.57272536 3 2 12754 2.54600000 2433236670 2433236670 -13.00000000
3.68948627 -2.83616114 0.24388556 9 3 12755 4.66000000 2433236672 2433236672 3.00000000
2.32854033 -1.78998244 -0.57090050 5 4 12755 2.99200000 2433236675 2433236675 -11.00000000
3.57101846 -2.74608493 0.39411828 2 5 12756 4.52200000 2433236677 2433236677 5.00000000
2.85897064 -2.19932008 -0.57129866 5 6 12757 3.65200000 2433236679 2433236679 -9.00000000
3.92353773 -3.01934958 0.60788429 21 7 12758 4.98800000 2433236682 2433236682 7.00000000
3.75470185 -2.89046597 -0.58180422 4 8 12759 4.77400000 2433236684 2433236684 -7.00000000
6.90978622 -5.32125187 1.38131630 49 9 12760 8.83000000 2433236686 2433236686 9.00000000
3.79483294 -2.92241478 -0.41904482 2 10 12760 4.80800000 2433236689 2433236689 -5.00000000
4.97837782 -3.83525133 1.22155917 46 11 12761 6.40200000 2433236691 2433236691 11.00000000
3.81257701 -2.93820024 -0.25225931 2 12 12762 4.82000000 2433236693 2433236693 -3.00000000
4.51891088 -3.48380065 1.31731343 13 13 12763 5.85600000 2433236695 2433236695 13.00000000
3.70535660 -2.85763192 -0.08167727 48 14 12764 4.68000000 2433236698 2433236698 -1.00000000
6.71106958 -5.17568684 2.27087831 45 15 12764 8.77400000 2433236700 2433236700 15.00000000
1.67481291 -1.29537666 -0.56733137 4 0 12772 2.19200000 2433236721 2433236721 -15.00000000
3.88748813 -3.00784492 0.08579603 24 1 12773 4.91600000 2433236723 2433236723 1.00000000
1.96484733 -1.52079892 -0.57362521 3 2 12774 2.55000000 2433236725 2433236725 -13.00000000
3.55006838 -2.74875665 0.23530246 3 3 12775 4.49600000 2433236728 2433236728 3.00000000
2.32072544 -1.79689765 -0.57051891 5 4 12775 2.99000000 2433236730 2433236730 -11.00000000
3.58346319 -2.77561402 0.39655864 2 5 12776 4.55000000 2433236732 2433236732 5.00000000
2.83566141 -2.19718719 -0.56816995 3 6 12777 3.63200000 2433236735 2433236735 -9.00000000
3.91611218 -3.03545928 0.60837173 21 7 12778 4.99200000 2433236737 2433236737 7.00000000
3.74615812 -2.90477109 -0.58204800 6 8 12779 4.77600000 2433236739 2433236739 -7.00000000
6.87243938 -5.33081007 1.37756193 47 9 12780 8.80600000 2433236742 2433236742 9.00000000
3.80979753 -2.95518184 -0.42183378 2 10 12780 4.84000000 2433236744 2433236744 -5.00000000
4.96340895 -3.85140228 1.22117758 34 11 12781 6.40000000 2433236746 2433236746 11.00000000
3.80229759 -2.95149088 -0.25225931 2 12 12782 4.82000000 2433236748 2433236748 -3.00000000
4.55443716 -3.53660464 1.33126032 14 13 12783 5.91800000 2433236751 2433236751 13.00000000
3.70799279 -2.88036251 -0.08195650 43 14 12784 4.69600000 2433236753 2433236753 -1.00000000
6.65482092 -5.16945362 2.25793743 45 15 12784 8.72400000 2433236755 2433236755 15.00000000
1.66853011 -1.30031896 -0.56681371 4 0 12793 2.19000000 2433236776 2433236776 -15.00000000
3.88590002 -3.02944994 0.08600546 24 1 12794 4.92800000 2433236778 2433236778 1.00000000
1.95004010 -1.52079964 -0.57092577 3 2 12795 2.53800000 2433236781 2433236781 -13.00000000
3.56359076 -2.78017783 0.23687254 7 3 12796 4.52600000 2433236783 2433236783 3.00000000
2.31102824 -1.80297625 -0.56975567 3 4 12796 2.98600000 2433236785 2433236785 -11.00000000
3.89525247 -3.04002166 0.43229249 9 5 12797 4.96000000 2433236788 2433236788 5.00000000
2.83070326 -2.20999694 -0.56879574 3 6 12798 3.63600000 2433236790 2433236790 -9.00000000
3.90808940 -3.05223584 0.60885924 21 7 12799 4.99600000 2433236792 2433236792 7.00000000
3.71984386 -2.90626049 -0.57961059 6 8 12800 4.75600000 2433236794 2433236794 -7.00000000
6.82483959 -5.33406734 1.37193024 49 9 12801 8.77000000 2433236797 2433236797 9.00000000
3.85335827 -3.01274014 -0.42793471 2 10 12802 4.91000000 2433236799 2433236799 -5.00000000
4.93688631 -3.85989428 1.21812463 31 11 12802 6.38400000 2433236801 2433236801 11.00000000
4.03373003 -3.15489793 -0.26837879 2 12 12803 5.12800000 2433236804 2433236804 -3.00000000
4.53223562 -3.54606867 1.32856095 16 13 12804 5.90600000 2433236806 2433236806 13.00000000
6.61514902 -5.17948580 2.25120807 45 15 12806 8.69800000 2433236811 2433236811 15.00000000
1.66527247 -1.30761874 -0.56733137 4 0 12814 2.19200000 2433236831 2433236831 -15.00000000
3.88631105 -3.05164075 0.08624979 22 1 12814 4.94200000 2433236834 2433236834 1.00000000
1.95084953 -1.53241241 -0.57272536 3 2 12815 2.54600000 2433236836 2433236836 -13.00000000
3.59155440 -2.82221675 0.23938467 16 3 12816 4.57400000 2433236838 2433236838 3.00000000
2.30440450 -1.81143451 -0.56975567 3 4 12817 2.98600000 2433236841 2433236841 -11.00000000
3.91227508 -3.07644606 0.43543008 28 5 12818 4.99600000 2433236843 2433236843 5.00000000
2.82879448 -2.22524238 -0.57004720 5 6 12819 3.64400000 2433236845 2433236845 -9.00000000
3.91925430 -3.08304143 0.61227161 22 7 12819 5.02400000 2433236847 2433236847 7.00000000
3.70967627 -2.91922736 -0.57961059 6 8 12820 4.75600000 2433236850 2433236850 -7.00000000
6.77047873 -5.32975531 1.36473429 52 9 12821 8.72400000 2433236852 2433236852 9.00000000
5.32672548 -4.19473124 -0.59318197 12 10 12822 6.80600000 2433236854 2433236854 -5.00000000
4.91807938 -3.87431812 1.21697974 34 11 12823 6.37800000 2433236857 2433236857 11.00000000
4.17900944 -3.29328275 -0.27884597 2 12 12824 5.32800000 2433236859 2433236859 -3.00000000
4.51308632 -3.55783057 1.32676136 18 13 12825 5.89800000 2433236861 2433236861 13.00000000
3.70770168 -2.92291641 -0.08241026 9 14 12825 4.72200000 2433236864 2433236864 -1.00000000
6.57427502 -5.18460131 2.24344349 45 15 12826 8.66800000 2433236866 2433236866 15.00000000
1.65532184 -1.30776358 -0.56526077 4 0 12831 2.18400000 2433236887 2433236887 -15.00000000
3.94102907 -3.11467147 0.08768089 33 1 12832 5.02400000 2433236889 2433236889 1.00000000
1.94296825 -1.53611648 -0.57182556 3 2 12833 2.54200000 2433236891 2433236891 -13.00000000
3.56073904 -2.81614065 0.23791926 28 3 12834 4.54600000 2433236894 2433236894 3.00000000
2.29593992 -1.81582808 -0.56899244 3 4 12834 2.98200000 2433236896 2433236896 -11.00000000
3.90781736 -3.09174919 0.43595302 30 5 12835 5.00200000 2433236898 2433236898 5.00000000
2.82217956 -2.23362589 -0.57004720 5 6 12836 3.64400000 2433236900 2433236900 -9.00000000
3.91577482 -3.10026789 0.61324656 22 7 12837 5.03200000 2433236903 2433236903 7.00000000
3.69893098 -2.92963481 -0.57936686 4 8 12838 4.75400000 2433236905 2433236905 -7.00000000
6.71189737 -5.31787729 1.35628676 49 9 12839 8.67000000 2433236907 2433236907 9.00000000
5.30727530 -4.20649433 -0.59248471 12 10 12840 6.79800000 2433236910 2433236910 -5.00000000
4.89733076 -3.88157654 1.21469009 34 11 12840 6.36600000 2433236912 2433236912 11.00000000
4.11600876 -3.26347804 -0.27528712 2 12 12841 5.26000000 2433236914 2433236914 -3.00000000
4.50556421 -3.57362747 1.32766116 19 13 12842 5.90200000 2433236917 2433236917 13.00000000
3.69850087 -2.93455005 -0.08241026 7 14 12843 4.72200000 2433236919 2433236919 -1.00000000
6.53374434 -5.18601322 2.23516130 45 15 12844 8.63600000 2433236921 2433236921 15.00000000
1.65051758 -1.31382191 -0.56526077 4 0 12852 2.18400000 2433236942 2433236942 -15.00000000
3.98332715 -3.17075229 0.08886766 51 1 12852 5.09200000 2433236944 2433236944 1.00000000
1.94674122 -1.55017281 -0.57452500 3 2 12853 2.55400000 2433236946 2433236946 -13.00000000
3.53526497 -2.81610870 0.23687254 24 3 12854 4.52600000 2433236949 2433236949 3.00000000
2.28312755 -1.81933701 -0.56746596 3 4 12855 2.97400000 2433236951 2433236951 -11.00000000
3.89334321 -3.10356736 0.43560439 28 5 12856 4.99800000 2433236953 2433236953 5.00000000
2.81397414 -2.24395466 -0.57004720 5 6 12857 3.64400000 2433236956 2433236956 -9.00000000
3.91734529 -3.12381887 0.61519647 22 7 12857 5.04800000 2433236958 2433236958 7.00000000
3.68247485 -2.93757701 -0.57839191 4 8 12858 4.74600000 2433236960 2433236960 -7.00000000
6.66858959 -5.32155991 1.35128093 50 9 12859 8.63800000 2433236963 2433236963 9.00000000
5.27387428 -4.21007872 -0.59039301 12 10 12860 6.77400000 2433236965 2433236965 -5.00000000
4.87386656 -3.89214945 1.21240032 34 11 12861 6.35400000 2433236967 2433236967 11.00000000
4.06968975 -3.25111699 -0.27298436 2 12 12862 5.21600000 2433236970 2433236970 -3.00000000
4.49395800 -3.59133363 1.32811105 19 13 12863 5.90400000 2433236972 2433236972 13.00000000
3.69760776 -2.95493269 -0.08261969 5 14 12863 4.73400000 2433236974 2433236974 -1.00000000
6.49296808 -5.19069433 2.22739673 45 15 12864 8.60600000 2433236976 2433236976 15.00000000
1.63838518 -1.31353331 -0.56267262 4 0 12872 2.17400000 2433236997 2433236997 -15.00000000
3.99195862 -3.20159507 0.08932142 45 1 12873 5.11800000 2433236999 2433236999 1.00000000
1.93192637 -1.54998052 -0.57182556 3 2 12874 2.54200000 2433237002 2433237002 -13.00000000
3.52024698 -2.82529688 0.23655853 24 3 12875 4.52000000 2433237004 2433237004 3.00000000
2.28901196 -1.83712626 -0.57051891 3 4 12875 2.99000000 2433237006 2433237006 -11.00000000
3.89802217 -3.12961245 0.43734753 28 5 12876 5.01800000 2433237009 2433237009 5.00000000
2.79380298 -2.24386787 -0.56754422 5 6 12877 3.62800000 2433237011 2433237011 -9.00000000
3.90586948 -3.13815570 0.61519647 22 7 12878 5.04800000 2433237013 2433237013 7.00000000
3.69179773 -2.96722102 -0.58156049 6 8 12879 4.77200000 2433237016 2433237016 -7.00000000
6.62440825 -5.32616091 1.34627497 45 9 12880 8.60600000 2433237018 2433237018 9.00000000
5.25219822 -4.22438526 -0.58969575 12 10 12881 6.76600000 2433237020 2433237020 -5.00000000
4.84036303 -3.89314294 1.20743930 31 11 12881 6.32800000 2433237023 2433237023 11.00000000
4.06142855 -3.26780725 -0.27319369 2 12 12882 5.22000000 2433237025 2433237025 -3.00000000
