# .PCD v0.7 - Point Cloud Data file format
VERSION 0.7
FIELDS x y z intensity laser_id azimuth distance_m adjustedtime timestamp vertical_angle
SIZE 4 4 4 1 1 2 8 8 4 8
TYPE F F F U U U F U U F
COUNT 1 1 1 1 1 1 1 1 1 1
WIDTH 522
HEIGHT 1
VIEWPOINT 0 0 0 1 0 0 0
POINTS 522
DATA ascii
-3.91892958 10.54895306 2.18743443 50 11 33962 11.46400000 2433495421 2433495421 11.00000000
-3.97798252 10.71363926 -0.59893268 8 12 33963 11.44400000 2433495423 2433495423 -3.00000000
-3.75476956 10.11788654 2.49155784 54 13 33964 11.07600000 2433495425 2433495425 13.00000000
-3.96170545 10.68122578 -0.19885272 17 14 33965 11.39400000 2433495427 2433495427 -1.00000000
-3.24398255 8.75084400 2.50070953 38 15 33966 9.66200000 2433495430 2433495430 15.00000000
-0.75160080 2.03511524 -0.58130759 4 0 33973 2.24600000 2433495451 2433495451 -15.00000000
-3.95530939 10.71557522 0.19937629 30 1 33974 11.42400000 2433495453 2433495453 1.00000000
-0.88560826 2.40054631 -0.59072149 3 2 33975 2.62600000 2433495455 2433495455 -13.00000000
-3.95711875 10.73200703 0.59945607 13 3 33976 11.45400000 2433495457 2433495457 3.00000000
-1.05818474 2.86987782 -0.59456080 4 4 33976 3.11600000 2433495460 2433495460 -11.00000000
-3.95180249 10.72335529 0.99985069 12 5 33977 11.47200000 2433495462 2433495462 5.00000000
-1.30403554 3.54045057 -0.59757966 2 6 33978 3.82000000 2433495464 2433495464 -9.00000000
-3.95622993 10.74692917 1.40612853 21 7 33979 11.53800000 2433495467 2433495467 7.00000000
-1.72596002 4.69102192 -0.61373401 2 8 33980 5.03600000 2433495469 2433495469 -7.00000000
-3.95085979 10.74390793 1.81307542 21 9 33981 11.59000000 2433495471 2433495471 9.00000000
-2.49132729 6.77487803 -0.63153052 4 10 33981 7.24600000 2433495474 2433495474 -5.00000000
-3.88750100 10.57731056 2.19048738 50 11 33982 11.48000000 2433495476 2433495476 11.00000000
-3.93573999 10.71433640 -0.59819996 8 12 33983 11.43000000 2433495478 2433495478 -3.00000000
-3.72010040 10.13276005 2.49200773 56 13 33984 11.07800000 2433495480 2433495480 13.00000000
-3.92646337 10.70062160 -0.19895743 6 14 33985 11.40000000 2433495483 2433495483 -1.00000000
-3.21228385 8.75429916 2.49863911 38 15 33985 9.65400000 2433495485 2433495485 15.00000000
-0.74979591 2.05224276 -0.58544868 4 0 33993 2.26200000 2433495506 2433495506 -15.00000000
-3.90965009 10.70677567 0.19895743 6 1 33994 11.40000000 2433495508 2433495508 1.00000000
-0.87722337 2.40362287 -0.59072149 3 2 33995 2.62600000 2433495510 2433495510 -13.00000000
-3.91894841 10.74387836 0.59935135 10 3 33996 11.45200000 2433495513 2433495513 3.00000000
-1.05085158 2.88093162 -0.59608728 2 4 33996 3.12400000 2433495515 2433495515 -11.00000000
-3.91025233 10.72585297 0.99880481 12 5 33997 11.46000000 2433495517 2433495517 5.00000000
-1.29640293 3.55797291 -0.59976971 2 6 33998 3.83400000 2433495520 2433495520 -9.00000000
-3.91189933 10.74202156 1.40369105 17 7 33999 11.51800000 2433495522 2433495522 7.00000000
-1.70685911 4.68955660 -0.61275905 2 8 34000 5.02800000 2433495524 2433495524 -7.00000000
-3.91400766 10.75949001 1.81338835 12 9 34001 11.59200000 2433495527 2433495527 9.00000000
-2.47719908 6.80974627 -0.63397086 4 10 34001 7.27400000 2433495529 2433495529 -5.00000000
-3.87202215 10.64985943 2.20269895 56 11 34002 11.54400000 2433495531 2433495531 11.00000000
-3.91468692 10.77306175 -0.60071212 4 12 34003 11.47800000 2433495533 2433495533 -3.00000000
-3.68404245 10.14385223 2.49155784 52 13 34004 11.07600000 2433495536 2433495536 13.00000000
-3.90546250 10.75937462 -0.19979514 6 14 34005 11.44800000 2433495538 2433495538 -1.00000000
-3.18038774 8.76182652 2.49760389 38 15 34005 9.65000000 2433495540 2433495540 15.00000000
-0.74394095 2.05848122 -0.58648396 4 0 34013 2.26600000 2433495561 2433495561 -15.00000000
-3.89399147 10.78054237 0.20007439 10 1 34014 11.46400000 2433495563 2433495563 1.00000000
-0.86618102 2.39933848 -0.58892184 3 2 34015 2.61800000 2433495566 2433495566 -13.00000000
-3.89754081 10.79626560 0.60154951 7 3 34015 11.49400000 2433495568 2433495568 3.00000000
-1.03945625 2.88088870 -0.59532404 4 4 34016 3.12000000 2433495570 2433495570 -11.00000000
-3.90117526 10.81815529 1.00612593 42 5 34017 11.54400000 2433495573 2433495573 5.00000000
-1.28196609 3.55690145 -0.59883112 2 6 34018 3.82800000 2433495575 2433495575 -9.00000000
-3.88716102 10.79109573 1.40832210 38 7 34019 11.55600000 2433495577 2433495577 7.00000000
-1.69854820 4.71789885 -0.61568391 2 8 34020 5.05200000 2433495579 2433495579 -7.00000000
-3.88499784 10.79099655 1.81651700 34 9 34020 11.61200000 2433495582 2433495582 9.00000000
-2.45611167 6.82585049 -0.63466811 4 10 34021 7.28200000 2433495584 2433495584 -5.00000000
-3.83814573 10.67254734 2.20460725 59 11 34022 11.55400000 2433495586 2433495586 11.00000000
-3.91961861 10.90507126 -0.60730642 4 12 34023 11.60400000 2433495589 2433495589 -3.00000000
-3.64334083 10.14197826 2.48795867 52 13 34024 11.06000000 2433495591 2433495591 13.00000000
-3.91383100 10.90092278 -0.20216867 8 14 34025 11.58400000 2433495593 2433495593 -1.00000000
-3.15108967 8.77651119 2.49863911 38 15 34025 9.65400000 2433495596 2433495596 15.00000000
-0.73935205 2.06834197 -0.58855450 4 0 34033 2.27400000 2433495616 2433495616 -15.00000000
-3.90073967 10.91835594 0.20237811 6 1 34034 11.59600000 2433495619 2433495619 1.00000000
-0.85911107 2.40601802 -0.58982164 3 2 34035 2.62200000 2433495621 2433495621 -13.00000000
-3.88748145 10.89324474 0.60615504 21 3 34036 11.58200000 2433495623 2433495623 3.00000000
-1.02411485 2.86970735 -0.59227115 4 4 34036 3.10400000 2433495626 2433495626 -11.00000000
-3.89350915 10.91615391 1.01396990 55 5 34037 11.63400000 2433495628 2433495628 5.00000000
-1.27020562 3.56321549 -0.59914398 2 6 34038 3.83000000 2433495630 2433495630 -9.00000000
-3.88677835 10.90931606 1.42197144 42 7 34039 11.66800000 2433495632 2433495632 7.00000000
-1.66608763 4.67891741 -0.60983419 2 8 34040 5.00400000 2433495635 2433495635 -7.00000000
-3.87588739 10.89077091 1.83090901 37 9 34041 11.70400000 2433495637 2433495637 9.00000000
-2.44162250 6.86066103 -0.63710850 4 10 34041 7.31000000 2433495639 2433495639 -5.00000000
-3.80284190 10.69142914 2.20575190 59 11 34042 11.56000000 2433495642 2433495642 11.00000000
-3.90895772 10.99584389 -0.61159796 4 12 34043 11.68600000 2433495644 2433495644 -3.00000000
-3.51005268 9.87919235 2.42047334 52 13 34044 10.76000000 2433495646 2433495646 13.00000000
-3.90519881 10.99743176 -0.20370449 6 14 34045 11.67200000 2433495649 2433495649 -1.00000000
-3.11373186 8.77343750 2.49449801 36 15 34046 9.63800000 2433495651 2433495651 15.00000000
-0.73019594 2.06544590 -0.58700162 4 0 34053 2.26800000 2433495672 2433495672 -15.00000000
-3.90057707 11.03937626 0.20436768 10 1 34054 11.71000000 2433495674 2433495674 1.00000000
-0.85330290 2.41635227 -0.59162128 3 2 34055 2.63000000 2433495676 2433495676 -13.00000000
-3.85200191 10.90795994 0.60625970 28 3 34055 11.58400000 2433495679 2433495679 3.00000000
-1.01409137 2.87326455 -0.59227115 4 4 34056 3.10400000 2433495681 2433495681 -11.00000000
-3.86532259 10.95786190 1.01658463 12 5 34057 11.66400000 2433495683 2433495683 5.00000000
-1.26104391 3.57694244 -0.60070837 2 6 34058 3.84000000 2433495685 2433495685 -9.00000000
-3.88231850 11.01830292 1.43440223 38 7 34059 11.77000000 2433495688 2433495688 7.00000000
-1.66029489 4.71466303 -0.61373401 2 8 34060 5.03600000 2433495690 2433495690 -7.00000000
-3.86998296 10.99553680 1.84623957 31 9 34061 11.80200000 2433495692 2433495692 9.00000000
-2.41765928 6.86914253 -0.63710850 4 10 34061 7.31000000 2433495695 2433495695 -5.00000000
-3.75702953 10.68056202 2.20079088 59 11 34062 11.53400000 2433495697 2433495697 11.00000000
-3.91095924 11.12435913 -0.61798298 8 12 34063 11.80800000 2433495699 2433495699 -3.00000000
-3.56857204 10.15613556 2.48525929 55 13 34064 11.04800000 2433495702 2433495702 13.00000000
-3.90190339 11.11099339 -0.20555444 6 14 34065 11.77800000 2433495704 2433495704 -1.00000000
-3.08206058 8.77642345 2.49242735 36 15 34065 9.63000000 2433495706 2433495706 15.00000000
-0.72043151 2.06068778 -0.58493102 4 0 34073 2.26000000 2433495727 2433495727 -15.00000000
-3.89104152 11.13598728 0.20590349 10 1 34074 11.79800000 2433495729 2433495729 1.00000000
-0.84871793 2.43035483 -0.59432071 3 2 34075 2.64200000 2433495731 2433495731 -13.00000000
-3.80665922 10.90059757 0.60510832 26 3 34075 11.56200000 2433495734 2433495734 3.00000000
-1.00146794 2.86937261 -0.59074467 2 4 34076 3.09600000 2433495736 2433495736 -11.00000000
-3.80801868 10.91673183 1.01152956 4 5 34077 11.60600000 2433495738 2433495738 5.00000000
-1.24855042 3.58132267 -0.60070837 2 6 34078 3.84000000 2433495741 2433495741 -9.00000000
-3.88237023 11.14238644 1.44878280 42 7 34079 11.88800000 2433495743 2433495743 7.00000000
-1.65949547 4.76542187 -0.61958373 2 8 34080 5.08400000 2433495745 2433495745 -7.00000000
-3.86404324 11.10225964 1.86188304 37 9 34081 11.90200000 2433495748 2433495748 9.00000000
-2.39366674 6.87753963 -0.63710850 4 10 34081 7.31000000 2433495750 2433495750 -5.00000000
-3.71585464 10.68248558 2.19850135 59 11 34082 11.52200000 2433495752 2433495752 11.00000000
-3.91079903 11.24924660 -0.62415862 8 12 34083 11.92600000 2433495755 2433495755 -3.00000000
-3.53629684 10.17773438 2.48750877 50 13 34084 11.05800000 2433495757 2433495757 13.00000000
-3.89917397 11.22844315 -0.20747420 8 14 34085 11.88800000 2433495759 2433495759 -1.00000000
-3.04887152 8.77982903 2.49035692 36 15 34085 9.62200000 2433495761 2433495761 15.00000000
-0.71386516 2.06501579 -0.58544868 4 0 34093 2.26200000 2433495782 2433495782 -15.00000000
-3.88936782 11.25723553 0.20789306 6 1 34094 11.91200000 2433495784 2433495784 1.00000000
-0.83768499 2.42593455 -0.59252107 3 2 34095 2.63400000 2433495787 2433495787 -13.00000000
-3.76212001 10.90126038 0.60437560 26 3 34096 11.54800000 2433495789 2433495789 3.00000000
-0.99656957 2.88769770 -0.59379756 2 4 34096 3.11200000 2433495791 2433495791 -11.00000000
-3.76014423 10.90170574 1.00891483 4 5 34097 11.57600000 2433495794 2433495794 5.00000000
-1.23990428 3.59686422 -0.60258555 2 6 34098 3.85200000 2433495796 2433495796 -9.00000000
-3.87513614 11.24783516 1.46072590 36 7 34099 11.98600000 2433495798 2433495798 7.00000000
-1.63509560 4.74866247 -0.61665887 2 8 34100 5.06000000 2433495801 2433495801 -7.00000000
-2.36964512 6.88585329 -0.63710850 4 10 34101 7.31000000 2433495805 2433495805 -5.00000000
-3.67151928 10.67496967 2.19430351 59 11 34102 11.50000000 2433495808 2433495808 11.00000000
-3.50011516 10.18817329 2.48705888 50 13 34104 11.05600000 2433495812 2433495812 13.00000000
-3.01667118 8.79094410 2.49035692 36 15 34106 9.62200000 2433495817 2433495817 15.00000000
-0.71102619 2.08029127 -0.58907217 4 0 34113 2.27600000 2433495837 2433495837 -15.00000000
-0.82669330 2.42146707 -0.59072149 3 2 34115 2.62600000 2433495842 2433495842 -13.00000000
-3.71562457 10.88343430 0.60270089 26 3 34115 11.51600000 2433495844 2433495844 3.00000000
-0.99282342 2.90973949 -0.59761375 2 4 34116 3.13200000 2433495847 2433495847 -11.00000000
-3.71370745 10.89024925 1.00664878 4 5 34117 11.55000000 2433495849 2433495849 5.00000000
-1.22479224 3.59369135 -0.60133410 2 6 34118 3.84400000 2433495851 2433495851 -9.00000000
-1.61339188 4.73930740 -0.61470896 2 8 34120 5.04400000 2433495856 2433495856 -7.00000000
-2.34559464 6.89408302 -0.63710850 4 10 34121 7.31000000 2433495861 2433495861 -5.00000000
-3.62791395 10.66913319 2.19048738 59 11 34122 11.48000000 2433495863 2433495863 11.00000000
-3.46077013 10.18925762 2.48435950 48 13 34124 11.04400000 2433495867 2433495867 13.00000000
-2.98596668 8.80142117 2.49035692 36 15 34126 9.62200000 2433495872 2433495872 15.00000000
-0.70128661 2.07543969 -0.58700162 4 0 34133 2.26800000 2433495893 2433495893 -15.00000000
-0.81574309 2.41695237 -0.58892184 3 2 34135 2.61800000 2433495897 2433495897 -13.00000000
-3.68208265 10.90958500 0.60343355 5 3 34135 11.53000000 2433495900 2433495900 3.00000000
-0.97638553 2.89458466 -0.59379756 2 4 34136 3.11200000 2433495902 2433495902 -11.00000000
-3.67758012 10.90881062 1.00717175 12 5 34137 11.55600000 2433495904 2433495904 5.00000000
-1.21602476 3.60917664 -0.60321128 2 6 34138 3.85600000 2433495907 2433495907 -9.00000000
-1.60950208 4.78253841 -0.61958373 2 8 34140 5.08400000 2433495911 2433495911 -7.00000000
-3.59002399 10.67987156 2.19010568 59 11 34142 11.47800000 2433495918 2433495918 11.00000000
-3.42146039 10.19019127 2.48166013 48 13 34144 11.03200000 2433495923 2433495923 13.00000000
-2.95522594 8.81179047 2.49035692 36 15 34146 9.62200000 2433495927 2433495927 15.00000000
-0.69281363 2.07421041 -0.58596629 4 0 34153 2.26400000 2433495948 2433495948 -15.00000000
-0.81100172 2.43087649 -0.59162128 3 2 34155 2.63000000 2433495953 2433495953 -13.00000000
-3.68632841 11.04930878 0.61044657 2 3 34155 11.66400000 2433495955 2433495955 3.00000000
-0.97000158 2.90914989 -0.59608728 2 4 34156 3.12400000 2433495957 2433495957 -11.00000000
-3.67979169 11.04255390 1.01832771 12 5 34157 11.68400000 2433495960 2433495960 5.00000000
-1.20341897 3.61339927 -0.60321128 2 6 34158 3.85600000 2433495962 2433495962 -9.00000000
-1.59279811 4.78812742 -0.61958373 2 8 34160 5.08400000 2433495967 2433495967 -7.00000000
-3.54838920 10.67929554 2.18743443 56 11 34162 11.46400000 2433495973 2433495973 11.00000000
-3.38586903 10.20207214 2.48166013 48 13 34164 11.03200000 2433495978 2433495978 13.00000000
-2.92080188 8.81104946 2.48725104 36 15 34166 9.61000000 2433495983 2433495983 15.00000000
-0.68496346 2.07478166 -0.58544868 4 0 34173 2.26200000 2433496003 2433496003 -15.00000000
-0.80373204 2.43739414 -0.59252107 3 2 34175 2.63400000 2433496008 2433496008 -13.00000000
-3.68401384 11.17212391 0.61651754 2 3 34175 11.78000000 2433496010 2433496010 3.00000000
-0.95492488 2.89760113 -0.59303439 2 4 34176 3.10800000 2433496013 2433496013 -11.00000000
-3.66927123 11.14048862 1.02617168 8 5 34177 11.77400000 2433496015 2433496015 5.00000000
-1.18956327 3.61382532 -0.60258555 2 6 34178 3.85200000 2433496017 2433496017 -9.00000000
-1.56863451 4.77102900 -0.61665887 2 8 34180 5.06000000 2433496022 2433496022 -7.00000000
-3.50741458 10.68042564 2.18514466 59 11 34182 11.45200000 2433496029 2433496029 11.00000000
-3.35084391 10.21568108 2.48211002 51 13 34184 11.03400000 2433496033 2433496033 13.00000000
-2.88795662 8.80967236 2.48414516 38 15 34185 9.59800000 2433496038 2433496038 15.00000000
-0.67771697 2.07715988 -0.58544868 4 0 34193 2.26200000 2433496059 2433496059 -15.00000000
-0.79763424 2.44759607 -0.59432071 3 2 34195 2.64200000 2433496063 2433496063 -13.00000000
-3.68459940 11.30644894 0.62321657 2 3 34195 11.90800000 2433496066 2433496066 3.00000000
-0.95088440 2.91958427 -0.59685051 2 4 34196 3.12800000 2433496068 2433496068 -11.00000000
-1.17083061 3.59917092 -0.59945685 2 6 34198 3.83200000 2433496072 2433496072 -9.00000000
-1.56914687 4.82933760 -0.62348354 2 8 34200 5.11600000 2433496077 2433496077 -7.00000000
-3.46162724 10.66646004 2.17980194 53 11 34202 11.42400000 2433496084 2433496084 11.00000000
-3.31937027 10.24029160 2.48525929 51 13 34204 11.04800000 2433496089 2433496089 13.00000000
-2.85802817 8.82754993 2.48621583 36 15 34206 9.60600000 2433496093 2433496093 15.00000000
-0.67356181 2.08663249 -0.58751923 4 0 34211 2.27000000 2433496114 2433496114 -15.00000000
-0.78874505 2.44638038 -0.59342086 3 2 34213 2.63800000 2433496119 2433496119 -13.00000000
-0.94291180 2.92629433 -0.59761375 2 4 34214 3.13200000 2433496123 2433496123 -11.00000000
-1.17041099 3.63667846 -0.60508853 2 6 34216 3.86800000 2433496128 2433496128 -9.00000000
-1.53452766 4.77376795 -0.61568391 2 8 34218 5.05200000 2433496132 2433496132 -7.00000000
-3.42690015 10.67354393 2.17903876 53 11 34220 11.42000000 2433496139 2433496139 11.00000000
-3.28242254 10.23582363 2.48166013 48 13 34222 11.03200000 2433496144 2433496144 13.00000000
-2.83182383 8.83599091 2.48621583 38 15 34223 9.60600000 2433496149 2433496149 15.00000000
-0.66627401 2.08897114 -0.58751923 4 0 34231 2.27000000 2433496169 2433496169 -15.00000000
-0.77665168 2.43797779 -0.59072149 3 2 34233 2.62600000 2433496174 2433496174 -13.00000000
-0.92911786 2.91834354 -0.59532404 2 4 34234 3.12000000 2433496178 2433496178 -11.00000000
-1.15531504 3.63321185 -0.60383701 2 6 34236 3.86000000 2433496183 2433496183 -9.00000000
-1.52746904 4.80936718 -0.61958373 2 8 34238 5.08400000 2433496188 2433496188 -7.00000000
-3.38605976 10.67421341 2.17674899 53 11 34240 11.40800000 2433496195 2433496195 11.00000000
-3.24196434 10.23235703 2.47806072 47 13 34242 11.01600000 2433496199 2433496199 13.00000000
-2.79941940 8.84631062 2.48621583 38 15 34244 9.60600000 2433496204 2433496204 15.00000000
-0.66013926 2.09496903 -0.58855450 4 0 34251 2.27400000 2433496225 2433496225 -15.00000000
-0.77047694 2.44810939 -0.59252107 3 2 34253 2.63400000 2433496229 2433496229 -13.00000000
-0.92245960 2.93280578 -0.59761375 2 4 34254 3.13200000 2433496234 2433496234 -11.00000000
-1.15091419 3.66360641 -0.60821718 2 6 34256 3.88800000 2433496238 2433496238 -9.00000000
-1.50472903 4.79572916 -0.61714637 2 8 34258 5.06400000 2433496243 2433496243 -7.00000000
-3.34760499 10.68222046 2.17598581 53 11 34260 11.40400000 2433496250 2433496250 11.00000000
-3.20913744 10.25291061 2.48031044 51 13 34262 11.02600000 2433496255 2433496255 13.00000000
-2.76949167 8.85370159 2.48569822 38 15 34263 9.60400000 2433496259 2433496259 15.00000000
-0.64937747 2.08619332 -0.58544868 4 0 34271 2.26200000 2433496280 2433496280 -15.00000000
-0.76424086 2.45822763 -0.59432071 3 2 34273 2.64200000 2433496284 2433496284 -13.00000000
-0.91105151 2.93225837 -0.59685051 4 4 34274 3.12800000 2433496289 2433496289 -11.00000000
-1.13343513 3.65250850 -0.60571426 2 6 34276 3.87200000 2433496294 2433496294 -9.00000000
-1.49385631 4.81991339 -0.61958373 2 8 34278 5.08400000 2433496298 2433496298 -7.00000000
-3.30565238 10.67883778 2.17293286 56 11 34280 11.38800000 2433496305 2433496305 11.00000000
-3.17275286 10.26218796 2.47986031 48 13 34282 11.02400000 2433496310 2433496310 13.00000000
-2.73645282 8.86194706 2.48518038 40 15 34284 9.60200000 2433496314 2433496314 15.00000000
-0.64131975 2.08464241 -0.58441341 4 0 34290 2.25800000 2433496335 2433496335 -15.00000000
-0.75608492 2.46074843 -0.59432071 3 2 34292 2.64200000 2433496340 2433496340 -13.00000000
-0.89901763 2.92775631 -0.59532404 4 4 34293 3.12000000 2433496344 2433496344 -11.00000000
-1.11320806 3.62980723 -0.60133410 2 6 34295 3.84400000 2433496349 2433496349 -9.00000000
-1.48135293 4.83622885 -0.62104619 2 8 34297 5.09600000 2433496354 2433496354 -7.00000000
-3.26390433 10.66908932 2.16873503 59 11 34299 11.36600000 2433496360 2433496360 11.00000000
-3.13870478 10.27265263 2.47986031 50 13 34301 11.02400000 2433496365 2433496365 13.00000000
-2.70972705 8.87419510 2.48621583 38 15 34302 9.60600000 2433496370 2433496370 15.00000000
-0.63965499 2.10535264 -0.58958977 4 0 34310 2.27800000 2433496390 2433496390 -15.00000000
-0.74183214 2.44472480 -0.58982164 3 2 34312 2.62200000 2433496395 2433496395 -13.00000000
-0.89562923 2.95342183 -0.59990346 2 4 34313 3.14400000 2433496400 2433496400 -11.00000000
-1.10282123 3.64123321 -0.60258555 2 6 34315 3.85200000 2433496404 2433496404 -9.00000000
-1.46561182 4.84517050 -0.62153363 2 8 34317 5.10000000 2433496409 2433496409 -7.00000000
-3.22493911 10.67477989 2.16759014 59 11 34319 11.36000000 2433496416 2433496416 11.00000000
-3.10057569 10.27608395 2.47806072 47 13 34321 11.01600000 2433496420 2433496420 13.00000000
-2.67829800 8.88776684 2.48725104 38 15 34323 9.61000000 2433496425 2433496425 15.00000000
-0.63489330 2.11889648 -0.59269559 4 0 34332 2.29000000 2433496446 2433496446 -15.00000000
-0.73467439 2.45502305 -0.59162128 3 2 34334 2.63000000 2433496450 2433496450 -13.00000000
-0.87978220 2.94179153 -0.59685051 2 4 34335 3.12800000 2433496455 2433496455 -11.00000000
-1.09731185 3.67383218 -0.60727859 2 6 34337 3.88200000 2433496460 2433496460 -9.00000000
-1.44813192 4.85456705 -0.62202114 2 8 34339 5.10400000 2433496464 2433496464 -7.00000000
-3.18168497 10.67955780 2.16606379 56 11 34341 11.35200000 2433496471 2433496471 11.00000000
-3.05887270 10.28044224 2.47626114 50 13 34343 11.00800000 2433496476 2433496476 13.00000000
-2.64405298 8.89196873 2.48569822 38 15 34344 9.60400000 2433496480 2433496480 15.00000000
-0.62420493 2.10998487 -0.58958977 4 0 34352 2.27800000 2433496501 2433496501 -15.00000000
-0.73106980 2.47439241 -0.59567040 3 2 34354 2.64800000 2433496506 2433496506 -13.00000000
-0.87173188 2.95237613 -0.59837699 2 4 34355 3.13600000 2433496510 2433496510 -11.00000000
-1.08336365 3.67385077 -0.60665286 2 6 34357 3.87800000 2433496515 2433496515 -9.00000000
-1.43005586 4.85578394 -0.62153363 2 8 34359 5.10000000 2433496519 2433496519 -7.00000000
-3.14327908 10.68683147 2.16530037 56 11 34361 11.34800000 2433496526 2433496526 11.00000000
-3.02187014 10.28731728 2.47536135 50 13 34363 11.00400000 2433496531 2433496531 13.00000000
-2.60600615 8.88306236 2.48052168 40 15 34365 9.58400000 2433496536 2433496536 15.00000000
-0.61431992 2.10081029 -0.58648396 4 0 34370 2.26600000 2433496556 2433496556 -15.00000000
-0.72493154 2.48228860 -0.59702009 3 2 34372 2.65400000 2433496561 2433496561 -13.00000000
-0.86135232 2.95133090 -0.59761375 2 4 34373 3.13200000 2433496566 2433496566 -11.00000000
-1.06905270 3.66775393 -0.60508853 2 6 34375 3.86800000 2433496570 2433496570 -9.00000000
-1.42367101 4.89074802 -0.62543344 2 8 34377 5.13200000 2433496575 2433496575 -7.00000000
-3.10530543 10.68157196 2.16224742 50 11 34379 11.33200000 2433496582 2433496582 11.00000000
-2.98953676 10.29676056 2.47536135 48 13 34381 11.00400000 2433496586 2433496586 13.00000000
-2.57694650 8.88147926 2.47793365 40 15 34382 9.57400000 2433496591 2433496591 15.00000000
-0.60805440 2.10665393 -0.58751923 4 0 34390 2.27000000 2433496612 2433496612 -15.00000000
-0.71302378 2.47356915 -0.59432071 3 2 34392 2.64200000 2433496616 2433496616 -13.00000000
-0.85539263 2.96941185 -0.60066670 2 4 34393 3.14800000 2433496621 2433496621 -11.00000000
-1.05842793 3.67905664 -0.60633999 2 6 34395 3.87600000 2433496625 2433496625 -9.00000000
-1.40659046 4.89568806 -0.62543344 2 8 34397 5.13200000 2433496630 2433496630 -7.00000000
-3.06258607 10.67347622 2.15843129 53 11 34399 11.31200000 2433496637 2433496637 11.00000000
-2.95464969 10.31087971 2.47626114 48 13 34401 11.00800000 2433496642 2433496642 13.00000000
-2.54752421 8.89599133 2.47948647 40 15 34402 9.58000000 2433496646 2433496646 15.00000000
-0.60175562 2.11247945 -0.58855450 4 0 34410 2.27400000 2433496667 2433496667 -15.00000000
-0.70438504 2.47604299 -0.59432071 3 2 34412 2.64200000 2433496672 2433496672 -13.00000000
-0.84824342 2.98371029 -0.60295641 2 4 34413 3.16000000 2433496676 2433496676 -11.00000000
-1.05097437 3.70173168 -0.60946870 2 6 34415 3.89600000 2433496681 2433496681 -9.00000000
-1.39165878 4.90820742 -0.62640840 2 8 34417 5.14000000 2433496685 2433496685 -7.00000000
-3.02317047 10.67654514 2.15690494 50 11 34419 11.30400000 2433496692 2433496692 11.00000000
-2.91598868 10.31175423 2.47401166 51 13 34421 10.99800000 2433496697 2433496697 13.00000000
-2.51593065 8.90297127 2.47896886 40 15 34422 9.57800000 2433496701 2433496701 15.00000000
-0.59751457 2.12572575 -0.59166032 4 0 34430 2.28600000 2433496722 2433496722 -15.00000000
-0.69468439 2.47473407 -0.59342086 3 2 34432 2.63800000 2433496727 2433496727 -13.00000000
-0.83252048 2.96775007 -0.59914023 2 4 34433 3.14000000 2433496731 2433496731 -11.00000000
-1.03484929 3.69396472 -0.60759145 2 6 34435 3.88400000 2433496736 2433496736 -9.00000000
-1.36382079 4.87480164 -0.62153363 2 8 34437 5.10000000 2433496741 2433496741 -7.00000000
-2.98535562 10.68514252 2.15652323 46 11 34439 11.30200000 2433496748 2433496748 11.00000000
-2.87840486 10.31623936 2.47266197 50 13 34441 10.99200000 2433496752 2433496752 13.00000000
-2.48380113 8.91399384 2.47948647 42 15 34443 9.58000000 2433496757 2433496757 15.00000000
-0.58802575 2.12035227 -0.58958977 4 0 34450 2.27800000 2433496778 2433496778 -15.00000000
-0.68708199 2.48090005 -0.59432071 3 2 34452 2.64200000 2433496782 2433496782 -13.00000000
-0.82425070 2.97820663 -0.60066670 4 4 34453 3.14800000 2433496787 2433496787 -11.00000000
-1.02300107 3.70136261 -0.60821718 2 6 34455 3.88800000 2433496791 2433496791 -9.00000000
-1.34996521 4.89101362 -0.62299609 2 8 34457 5.11200000 2433496796 2433496796 -7.00000000
-2.94856095 10.69739056 2.15690494 50 11 34459 11.30400000 2433496803 2433496803 11.00000000
-2.84082556 10.32058716 2.47131228 53 13 34461 10.98600000 2433496807 2433496807 13.00000000
-2.45012879 8.90727997 2.47534537 42 15 34462 9.56400000 2433496812 2433496812 15.00000000
-0.57756215 2.11121154 -0.58648396 4 0 34470 2.26600000 2433496833 2433496833 -15.00000000
-0.68149924 2.49456239 -0.59702009 3 2 34472 2.65400000 2433496837 2433496837 -13.00000000
-0.81178159 2.97348976 -0.59914023 2 4 34473 3.14000000 2433496842 2433496842 -11.00000000
-1.01371181 3.71825171 -0.61040729 2 6 34475 3.90200000 2433496847 2433496847 -9.00000000
-1.33392715 4.89952660 -0.62348354 2 8 34477 5.11600000 2433496851 2433496851 -7.00000000
-2.90656662 10.69056702 2.15347028 46 11 34479 11.28600000 2433496858 2433496858 11.00000000
-2.80580378 10.33420181 2.47221208 60 13 34481 10.99000000 2433496863 2433496863 13.00000000
-2.41446900 8.89899826 2.47068667 40 15 34482 9.54600000 2433496867 2433496867 15.00000000
-0.57384372 2.12823629 -0.59062505 4 0 34491 2.28200000 2433496888 2433496888 -15.00000000
-0.67032492 2.48951674 -0.59522051 3 2 34493 2.64600000 2433496893 2433496893 -13.00000000
-0.80189794 2.98023677 -0.59990346 4 4 34494 3.14400000 2433496897 2433496897 -11.00000000
-0.99905169 3.71812677 -0.60978156 2 6 34496 3.89800000 2433496902 2433496902 -9.00000000
-1.31801832 4.91205215 -0.62445849 2 8 34498 5.12400000 2433496906 2433496906 -7.00000000
-2.86533165 10.69356346 2.15194392 46 11 34500 11.27800000 2433496913 2433496913 11.00000000
-2.76891565 10.34818172 2.47311187 59 13 34502 10.99400000 2433496918 2433496918 13.00000000
-2.38233519 8.90965366 2.47120428 40 15 34503 9.54800000 2433496923 2433496923 15.00000000
-0.56541848 2.12649226 -0.58958977 4 0 34511 2.27800000 2433496943 2433496943 -15.00000000
-0.66063058 2.48807430 -0.59432071 3 2 34513 2.64200000 2433496948 2433496948 -13.00000000
-0.79551804 2.99819851 -0.60295641 4 4 34514 3.16000000 2433496953 2433496953 -11.00000000
-0.98859656 3.73113894 -0.61134589 2 6 34516 3.90800000 2433496957 2433496957 -9.00000000
-1.30289495 4.92429924 -0.62543344 2 8 34518 5.13200000 2433496962 2433496962 -7.00000000
-2.82898974 10.70729637 2.15270710 43 11 34520 11.28200000 2433496969 2433496969 11.00000000
-2.72780561 10.33894157 2.46861291 59 13 34522 10.97400000 2433496973 2433496973 13.00000000
-2.35015583 8.92019367 2.47172189 40 15 34524 9.55000000 2433496978 2433496978 15.00000000
-0.55971622 2.13199520 -0.59062505 4 0 34529 2.28200000 2433496999 2433496999 -15.00000000
-0.65478754 2.49767780 -0.59612030 3 2 34531 2.65000000 2433497003 2433497003 -13.00000000
-0.78310984 2.98928785 -0.60066670 4 4 34532 3.14800000 2433497008 2433497008 -11.00000000
-0.97637010 3.73231506 -0.61103302 2 6 34534 3.90600000 2433497012 2433497012 -9.00000000
-1.28541160 4.92068529 -0.62445849 2 8 34536 5.12400000 2433497017 2433497017 -7.00000000
-2.79632902 10.71993065 2.15347028 40 11 34538 11.28600000 2433497024 2433497024 11.00000000
-2.69432902 10.34368801 2.46771312 56 13 34540 10.97000000 2433497029 2433497029 13.00000000
-2.32173228 8.91964912 2.46965122 40 15 34541 9.54200000 2433497033 2433497033 15.00000000
-0.54936659 2.12271476 -0.58751923 4 0 34549 2.27000000 2433497054 2433497054 -15.00000000
-0.64411467 2.49240112 -0.59432071 3 2 34551 2.64200000 2433497058 2433497058 -13.00000000
-0.76776153 2.97299433 -0.59685051 2 4 34552 3.12800000 2433497063 2433497063 -11.00000000
-0.96333593 3.73570061 -0.61103302 2 6 34554 3.90600000 2433497068 2433497068 -9.00000000
-1.26624727 4.91745281 -0.62348354 2 8 34556 5.11600000 2433497072 2433497072 -7.00000000
-2.76035905 10.73533058 2.15461516 46 11 34558 11.29200000 2433497079 2433497079 11.00000000
-2.65723705 10.34925461 2.46681333 59 13 34560 10.96600000 2433497084 2433497084 13.00000000
-2.28578162 8.90898705 2.46447492 40 15 34561 9.52200000 2433497088 2433497088 15.00000000
-0.54195362 2.12461925 -0.58751923 4 0 34569 2.27000000 2433497109 2433497109 -15.00000000
-0.63733464 2.50218797 -0.59612030 3 2 34571 2.65000000 2433497114 2433497114 -13.00000000
-0.76222175 2.99468231 -0.60066670 2 4 34572 3.14800000 2433497118 2433497118 -11.00000000
-0.95029002 3.73904037 -0.61103302 2 6 34574 3.90600000 2433497123 2433497123 -9.00000000
-1.24712121 4.91414642 -0.62250859 2 8 34576 5.10800000 2433497128 2433497128 -7.00000000
-2.72045755 10.73538494 2.15270710 43 11 34578 11.28200000 2433497135 2433497135 11.00000000
-2.62013912 10.35468864 2.46591353 57 13 34580 10.96200000 2433497139 2433497139 13.00000000
-2.25169349 8.91168594 2.46292210 42 15 34582 9.51600000 2433497144 2433497144 15.00000000
-0.53735971 2.13773966 -0.59062505 4 0 34589 2.28200000 2433497164 2433497164 -15.00000000
-0.63239181 2.51951838 -0.59971952 3 2 34591 2.66600000 2433497169 2433497169 -13.00000000
-0.75462943 3.00875020 -0.60295641 2 4 34592 3.16000000 2433497174 2433497174 -11.00000000
-0.93723255 3.74233484 -0.61103302 2 6 34594 3.90600000 2433497178 2433497178 -9.00000000
-1.24151802 4.96468878 -0.62835836 2 8 34596 5.15600000 2433497183 2433497183 -7.00000000
-2.68011379 10.73338699 2.15041733 40 11 34598 11.27000000 2433497190 2433497190 11.00000000
-2.58303571 10.35999012 2.46501374 59 13 34600 10.95800000 2433497194 2433497194 13.00000000
-2.22010565 8.91761684 2.46240449 40 15 34602 9.51400000 2433497199 2433497199 15.00000000
-0.52896553 2.13585186 -0.58958977 4 0 34609 2.27800000 2433497220 2433497220 -15.00000000
-0.61704385 2.49522591 -0.59342086 3 2 34611 2.63800000 2433497224 2433497224 -13.00000000
-0.74506426 3.01517797 -0.60371965 4 4 34612 3.16400000 2433497229 2433497229 -11.00000000
-0.92700285 3.75709081 -0.61291021 2 6 34614 3.91800000 2433497234 2433497234 -9.00000000
-1.21848226 4.94586277 -0.62543344 2 8 34616 5.13200000 2433497238 2433497238 -7.00000000
-2.64122415 10.73695755 2.14927244 40 11 34618 11.26400000 2433497245 2433497245 11.00000000
-2.54592705 10.36515903 2.46411395 57 13 34620 10.95400000 2433497250 2433497250 13.00000000
-2.18666291 8.91593075 2.45981622 40 15 34622 9.50400000 2433497254 2433497254 15.00000000
-0.52516973 2.15269971 -0.59373087 4 0 34629 2.29400000 2433497275 2433497275 -15.00000000
-0.61109734 2.50872493 -0.59612030 3 2 34631 2.65000000 2433497280 2433497280 -13.00000000
-0.73174894 3.00631499 -0.60142994 2 4 34632 3.15200000 2433497284 2433497284 -11.00000000
-0.91154999 3.75070620 -0.61134589 2 6 34634 3.90800000 2433497289 2433497289 -9.00000000
-1.19746554 4.93465281 -0.62348354 2 8 34636 5.11600000 2433497294 2433497294 -7.00000000
-2.60604048 10.75565243 2.15118051 40 11 34638 11.27400000 2433497300 2433497300 11.00000000
-2.50423169 10.35125351 2.45871496 56 13 34640 10.93000000 2433497305 2433497305 13.00000000
-2.15779519 8.93289852 2.46240449 38 15 34642 9.51400000 2433497310 2433497310 15.00000000
-0.51351184 2.13564634 -0.58855450 4 0 34648 2.27400000 2433497330 2433497330 -15.00000000
-0.60641414 2.52589679 -0.59971952 3 2 34650 2.66600000 2433497335 2433497335 -13.00000000
-0.71902770 2.99727035 -0.59914023 2 4 34651 3.14000000 2433497340 2433497340 -11.00000000
-0.89864707 3.75178742 -0.61103302 2 6 34653 3.90600000 2433497344 2433497344 -9.00000000
-1.19217646 4.98493242 -0.62933332 2 8 34655 5.16400000 2433497349 2433497349 -7.00000000
-2.56990314 10.76232529 2.15079904 43 11 34657 11.27200000 2433497356 2433497356 11.00000000
-2.46898794 10.35570908 2.45781517 57 13 34659 10.92600000 2433497360 2433497360 13.00000000
-2.12434864 8.91708279 2.45619273 38 15 34660 9.49000000 2433497365 2433497365 15.00000000
-0.50738913 2.14306545 -0.59010744 4 0 34668 2.28000000 2433497386 2433497386 -15.00000000
-0.59759343 2.52799821 -0.59971952 3 2 34670 2.66600000 2433497390 2433497390 -13.00000000
-0.71397668 3.02269006 -0.60371965 2 4 34671 3.16400000 2433497395 2433497395 -11.00000000
-0.88645226 3.75874662 -0.61165875 2 6 34673 3.91000000 2433497399 2433497399 -9.00000000
-1.17112863 4.97360563 -0.62738335 2 8 34675 5.14800000 2433497404 2433497404 -7.00000000
-2.52737761 10.75020790 2.14660120 40 11 34677 11.25000000 2433497411 2433497411 11.00000000
-2.43282485 10.36426449 2.45781517 60 13 34679 10.92600000 2433497416 2433497416 13.00000000
-2.09077001 8.92104721 2.45515752 42 15 34681 9.48600000 2433497420 2433497420 15.00000000
-0.50034386 2.14670491 -0.59062505 4 0 34688 2.28200000 2433497441 2433497441 -15.00000000
-0.58523196 2.51488447 -0.59612030 3 2 34690 2.65000000 2433497446 2433497446 -13.00000000
-0.70608902 3.03663754 -0.60600936 2 4 34691 3.17600000 2433497450 2433497450 -11.00000000
-0.87466651 3.76759052 -0.61259735 2 6 34693 3.91600000 2433497455 2433497455 -9.00000000
-1.15824270 4.99700165 -0.62982076 2 8 34695 5.16800000 2433497459 2433497459 -7.00000000
-2.48673844 10.74557590 2.14392996 40 11 34697 11.23600000 2433497466 2433497466 11.00000000
-2.39575458 10.36889648 2.45691538 56 13 34699 10.92200000 2433497471 2433497471 13.00000000
-2.05856776 8.91663742 2.45205164 40 15 34700 9.47400000 2433497476 2433497476 15.00000000
-0.49543908 2.15973592 -0.59373087 4 0 34708 2.29400000 2433497496 2433497496 -15.00000000
-0.57383949 2.50551462 -0.59342086 3 2 34710 2.63800000 2433497501 2433497501 -13.00000000
-0.69548488 3.03908372 -0.60600936 2 4 34711 3.17600000 2433497505 2433497505 -11.00000000
-0.86370981 3.78024960 -0.61416173 2 6 34713 3.92600000 2433497510 2433497510 -9.00000000
-1.12578249 4.93521118 -0.62153363 6 8 34715 5.10000000 2433497515 2433497515 -7.00000000
-2.45052218 10.75993347 2.14507484 40 11 34717 11.24200000 2433497522 2433497522 11.00000000
-2.35781741 10.36959457 2.45511580 59 13 34719 10.91400000 2433497526 2433497526 13.00000000
-2.02587295 8.92412186 2.45205164 38 15 34721 9.47400000 2433497531 2433497531 15.00000000
-0.48704645 2.15768337 -0.59269559 4 0 34728 2.29000000 2433497552 2433497552 -15.00000000
-0.57280171 2.54172158 -0.60151911 3 2 34730 2.67400000 2433497556 2433497556 -13.00000000
-0.68228453 3.03000116 -0.60371965 2 4 34731 3.16400000 2433497561 2433497561 -11.00000000
-0.84530979 3.76011419 -0.61040729 2 6 34733 3.90200000 2433497565 2433497565 -9.00000000
-1.11289573 4.95847988 -0.62397105 2 8 34735 5.12000000 2433497570 2433497570 -7.00000000
-2.41294813 10.76842117 2.14507484 43 11 34737 11.24200000 2433497577 2433497577 11.00000000
-2.31862855 10.36444950 2.45196652 53 13 34739 10.90000000 2433497582 2433497582 13.00000000
-1.99711120 8.93456173 2.45308685 40 15 34740 9.47800000 2433497586 2433497586 15.00000000
-0.47951177 2.15937042 -0.59269559 4 0 34748 2.29000000 2433497607 2433497607 -15.00000000
-0.56223881 2.53609538 -0.59971952 3 2 34750 2.66600000 2433497611 2433497611 -13.00000000
-0.67255288 3.03619790 -0.60448289 2 4 34751 3.16800000 2433497616 2433497616 -11.00000000
-0.83815092 3.79004478 -0.61478746 2 6 34753 3.93000000 2433497621 2433497621 -9.00000000
-1.10585177 5.00885630 -0.62982076 2 8 34755 5.16800000 2433497625 2433497625 -7.00000000
-2.37534451 10.77677822 2.14507484 40 11 34757 11.24200000 2433497632 2433497632 11.00000000
-2.28159809 10.36867428 2.45106673 54 13 34759 10.89600000 2433497637 2433497637 13.00000000
-1.96186388 8.93050003 2.44998097 38 15 34761 9.46600000 2433497641 2433497641 15.00000000
-0.46826142 2.14404464 -0.58803689 4 0 34768 2.27200000 2433497662 2433497662 -15.00000000
-0.55421305 2.54185057 -0.60061932 3 2 34770 2.67000000 2433497667 2433497667 -13.00000000
-0.66278630 3.04236341 -0.60524613 2 4 34771 3.17200000 2433497671 2433497671 -11.00000000
-0.82659531 3.80066848 -0.61603892 2 6 34773 3.93800000 2433497676 2433497676 -9.00000000
-2.33313727 10.76389885 2.14087701 34 11 34777 11.22000000 2433497687 2433497687 11.00000000
-2.24703932 10.38419342 2.45286632 52 13 34779 10.90400000 2433497692 2433497692 13.00000000
-1.93101382 8.93129253 2.44842815 40 15 34780 9.46000000 2433497697 2433497697 15.00000000
-0.46199128 2.15133262 -0.58958977 4 0 34788 2.27800000 2433497717 2433497717 -15.00000000
-0.54697090 2.55139136 -0.60241890 3 2 34790 2.67800000 2433497722 2433497722 -13.00000000
-0.65216243 3.04465842 -0.60524613 2 4 34791 3.17200000 2433497727 2433497727 -11.00000000
-0.80836672 3.78035021 -0.61228448 2 6 34793 3.91400000 2433497731 2433497731 -9.00000000
-1.07748735 5.04751635 -0.63372058 2 8 34795 5.20000000 2433497736 2433497736 -7.00000000
-2.29309511 10.76045609 2.13858724 34 11 34797 11.20800000 2433497743 2433497743 11.00000000
-2.20956159 10.38625526 2.45151663 53 13 34799 10.89800000 2433497747 2433497747 13.00000000
-1.89826596 8.93830967 2.44842815 38 15 34801 9.46000000 2433497752 2433497752 15.00000000
-0.45722878 2.16222358 -0.59217799 4 0 34806 2.28800000 2433497773 2433497773 -15.00000000
-0.53412277 2.53021646 -0.59702009 3 2 34808 2.65400000 2433497777 2433497777 -13.00000000
-0.64259416 3.04669237 -0.60524613 2 4 34809 3.17200000 2433497782 2433497782 -11.00000000
-0.80137032 3.80606699 -0.61603892 2 6 34811 3.93800000 2433497787 2433497787 -9.00000000
-1.05835831 5.03533506 -0.63177067 2 8 34813 5.18400000 2433497791 2433497791 -7.00000000
-2.25847244 10.76376438 2.13782406 37 11 34815 11.20400000 2433497798 2433497798 11.00000000
-2.17532325 10.38551617 2.44971704 49 13 34817 10.89000000 2433497803 2433497803 13.00000000
-1.87134147 8.94201183 2.44791055 38 15 34818 9.45800000 2433497807 2433497807 15.00000000
-0.45007148 2.16569805 -0.59269559 4 0 34826 2.29000000 2433497828 2433497828 -15.00000000
-0.52568322 2.53397369 -0.59746999 3 2 34828 2.65600000 2433497833 2433497833 -13.00000000
-0.63195527 3.04891682 -0.60524613 2 4 34829 3.17200000 2433497837 2433497837 -11.00000000
-0.78647882 3.80110335 -0.61478746 2 6 34831 3.93000000 2433497842 2433497842 -9.00000000
-1.03113842 4.99234152 -0.62592095 2 8 34833 5.13600000 2433497846 2433497846 -7.00000000
-2.22088623 10.77158260 2.13782406 37 11 34835 11.20400000 2433497853 2433497853 11.00000000
-2.13748646 10.38541126 2.44791746 51 13 34837 10.88200000 2433497858 2433497858 13.00000000
-1.83972108 8.95448780 2.44946337 38 15 34839 9.46400000 2433497863 2433497863 15.00000000
-0.44173610 2.16347027 -0.59166032 4 0 34846 2.28600000 2433497883 2433497883 -15.00000000
-0.51800239 2.54152179 -0.59881973 3 2 34848 2.66200000 2433497888 2433497888 -13.00000000
-0.62209225 3.05495167 -0.60600936 2 4 34849 3.17600000 2433497893 2433497893 -11.00000000
-0.77477968 3.81156874 -0.61603892 2 6 34851 3.93800000 2433497897 2433497897 -9.00000000
-1.02554798 5.05427361 -0.63323313 2 8 34853 5.19600000 2433497902 2433497902 -7.00000000
-2.18366241 10.78119373 2.13820553 37 11 34855 11.20600000 2433497909 2433497909 11.00000000
-2.10160780 10.39472008 2.44836736 55 13 34857 10.88400000 2433497913 2433497913 13.00000000
-1.80772185 8.94917774 2.44635773 38 15 34858 9.45200000 2433497918 2433497918 15.00000000
-0.43342179 2.16121078 -0.59062505 4 0 34866 2.28200000 2433497939 2433497939 -15.00000000
-0.51218778 2.55860090 -0.60241890 3 2 34868 2.67800000 2433497943 2433497943 -13.00000000
-0.61219472 3.06095481 -0.60677260 2 4 34869 3.18000000 2433497948 2433497948 -11.00000000
-0.76069665 3.81037569 -0.61541319 2 6 34871 3.93400000 2433497952 2433497952 -9.00000000
-1.01100266 5.07339716 -0.63518304 2 8 34873 5.21200000 2433497957 2433497957 -7.00000000
-2.14524984 10.78489876 2.13744235 37 11 34875 11.20200000 2433497964 2433497964 11.00000000
-2.06531048 10.40199280 2.44836736 51 13 34877 10.88400000 2433497969 2433497969 13.00000000
-1.77459288 8.94595814 2.44376945 38 15 34878 9.44200000 2433497973 2433497973 15.00000000
-0.42549762 2.16278481 -0.59062505 4 0 34887 2.28200000 2433497994 2433497994 -15.00000000
-0.50280660 2.56046104 -0.60241890 3 2 34889 2.67800000 2433497999 2433497999 -13.00000000
-0.60248351 3.07088423 -0.60829908 2 4 34890 3.18800000 2433498003 2433498003 -11.00000000
-0.74748504 3.81701541 -0.61603892 2 6 34892 3.93800000 2433498008 2433498008 -9.00000000
-0.98706949 5.04979372 -0.63177067 2 8 34894 5.18400000 2433498012 2433498012 -7.00000000
-2.10232329 10.77534676 2.13400769 40 11 34896 11.18400000 2433498019 2433498019 11.00000000
-2.02754402 10.41140461 2.44881725 53 13 34898 10.88600000 2433498024 2433498024 13.00000000
-1.74363708 8.96188450 2.44635773 38 15 34899 9.45200000 2433498028 2433498028 15.00000000
-0.42087591 2.17943120 -0.59476614 4 0 34907 2.29800000 2433498049 2433498049 -15.00000000
-0.48943987 2.53923845 -0.59702009 3 2 34909 2.65400000 2433498054 2433498054 -13.00000000
-0.59250295 3.07682419 -0.60906231 2 4 34910 3.19200000 2433498058 2433498058 -11.00000000
-0.73564804 3.82736087 -0.61729038 2 6 34912 3.94600000 2433498063 2433498063 -9.00000000
-2.06580496 10.78840446 2.13515258 43 11 34916 11.19000000 2433498075 2433498075 11.00000000
-1.99009156 10.41267681 2.44746757 54 13 34918 10.88000000 2433498079 2433498079 13.00000000
-1.71077847 8.96821499 2.44635773 38 15 34920 9.45200000 2433498084 2433498084 15.00000000
-0.41222528 2.17125297 -0.59217799 4 0 34925 2.28800000 2433498105 2433498105 -15.00000000
-0.48291150 2.54842210 -0.59881973 3 2 34927 2.66200000 2433498109 2433498109 -13.00000000
-0.57918209 3.05938053 -0.60524613 2 4 34928 3.17200000 2433498114 2433498114 -11.00000000
-0.71811903 3.80053759 -0.61259735 2 6 34930 3.91600000 2433498118 2433498118 -9.00000000
-0.95355654 5.05622911 -0.63177067 2 8 34932 5.18400000 2433498123 2433498123 -7.00000000
-2.03480744 10.81027603 2.13820553 43 11 34934 11.20600000 2433498130 2433498130 11.00000000
-1.95629001 10.41313171 2.44611788 48 13 34936 10.87400000 2433498134 2433498134 13.00000000
-1.68344903 8.96945381 2.44532228 38 15 34937 9.44800000 2433498139 2433498139 15.00000000
-0.40428996 2.17077947 -0.59166032 4 0 34945 2.28600000 2433498160 2433498160 -15.00000000
-0.47401288 2.55009222 -0.59881973 3 2 34947 2.66200000 2433498164 2433498164 -13.00000000
-0.56849933 3.06138372 -0.60524613 2 4 34948 3.17200000 2433498169 2433498169 -11.00000000
-0.70988804 3.83021331 -0.61697751 2 6 34950 3.94400000 2433498174 2433498174 -9.00000000
-0.93590122 5.05952692 -0.63177067 2 8 34952 5.18400000 2433498178 2433498178 -7.00000000
-1.99777305 10.82117462 2.13896894 43 11 34954 11.21000000 2433498185 2433498185 11.00000000
-1.91922319 10.41606426 2.44521785 53 13 34956 10.87000000 2433498190 2433498190 13.00000000
-1.65108037 8.96957588 2.44376945 40 15 34957 9.44200000 2433498194 2433498194 15.00000000
-0.39601591 2.16837668 -0.59062505 4 0 34965 2.28200000 2433498216 2433498216 -15.00000000
-0.46790406 2.56706858 -0.60241890 3 2 34967 2.67800000 2433498221 2433498221 -13.00000000
-0.55851305 3.06721234 -0.60600936 2 4 34968 3.17600000 2433498225 2433498225 -11.00000000
-0.69898623 3.84627271 -0.61916763 2 6 34970 3.95800000 2433498230 2433498230 -9.00000000
-0.91610891 5.05104351 -0.63030827 2 8 34972 5.17200000 2433498234 2433498234 -7.00000000
-1.35160136 7.45958233 -0.66325521 4 10 34973 7.61000000 2433498239 2433498239 -5.00000000
-1.95998788 10.82808208 2.13896894 43 11 34974 11.21000000 2433498241 2433498241 11.00000000
-1.88285267 10.42269993 2.44521785 49 13 34976 10.87000000 2433498246 2433498246 13.00000000
-1.61770201 8.96387768 2.44066358 40 15 34977 9.43000000 2433498251 2433498251 15.00000000
-0.38912532 2.17354918 -0.59166032 4 0 34985 2.28600000 2433498271 2433498271 -15.00000000
-0.45688400 2.55717611 -0.59971952 3 2 34987 2.66600000 2433498276 2433498276 -13.00000000
-0.55056280 3.08460498 -0.60906231 2 4 34988 3.19200000 2433498281 2433498281 -11.00000000
-0.68105257 3.82340717 -0.61510032 2 6 34990 3.93200000 2433498285 2433498285 -9.00000000
-0.90472573 5.08939075 -0.63469553 2 8 34992 5.20800000 2433498290 2433498290 -7.00000000
-1.32555437 7.46425486 -0.66325521 4 10 34993 7.61000000 2433498294 2433498294 -5.00000000
-1.91737771 10.80779457 2.13362622 43 11 34994 11.18200000 2433498297 2433498297 11.00000000
-1.84679890 10.43112755 2.44566774 57 13 34996 10.87200000 2433498301 2433498301 13.00000000
-1.58550918 8.97355175 2.44169879 40 15 34998 9.43400000 2433498306 2433498306 15.00000000
-0.38287106 2.18250537 -0.59373087 4 0 35005 2.29400000 2433498327 2433498327 -15.00000000
-0.44795498 2.55875540 -0.59971952 3 2 35007 2.66600000 2433498331 2433498331 -13.00000000
-0.53979218 3.08650804 -0.60906231 2 4 35008 3.19200000 2433498336 2433498336 -11.00000000
-0.67211735 3.85105872 -0.61916763 2 6 35010 3.95800000 2433498340 2433498340 -9.00000000
-0.88491130 5.08078384 -0.63323313 2 8 35012 5.19600000 2433498345 2433498345 -7.00000000
-1.31656730 7.56698132 -0.67197078 4 10 35013 7.71000000 2433498350 2433498350 -5.00000000
-1.87896740 10.81055355 2.13286304 43 11 35014 11.17800000 2433498352 2433498352 11.00000000
-1.80904412 10.42983055 2.44386816 52 13 35016 10.86400000 2433498357 2433498357 13.00000000
-1.55409396 8.96924210 2.43911076 40 15 35017 9.42400000 2433498361 2433498361 15.00000000
-0.37655899 2.19144416 -0.59580141 4 0 35025 2.30200000 2433498382 2433498382 -15.00000000
-0.43934989 2.56222415 -0.60016942 3 2 35027 2.66800000 2433498386 2433498386 -13.00000000
-0.52768910 3.08063316 -0.60753584 2 4 35028 3.18400000 2433498391 2433498391 -11.00000000
-0.65966904 3.85922289 -0.62010622 2 6 35030 3.96400000 2433498396 2433498396 -9.00000000
-0.87518144 5.13080549 -0.63908285 2 8 35032 5.24400000 2433498400 2433498400 -7.00000000
-1.29014552 7.57153082 -0.67197078 4 10 35033 7.71000000 2433498405 2433498405 -5.00000000
-1.83924353 10.80543327 2.13057327 46 11 35034 11.16600000 2433498407 2433498407 11.00000000
-1.77132082 10.42839718 2.44206858 54 13 35036 10.85600000 2433498412 2433498412 13.00000000
-1.52406871 8.98223114 2.44118118 40 15 35037 9.43200000 2433498416 2433498416 15.00000000
-0.36800647 2.18506074 -0.59373087 4 0 35044 2.29400000 2433498437 2433498437 -15.00000000
-0.43278870 2.57519770 -0.60286885 3 2 35046 2.68000000 2433498442 2433498442 -13.00000000
-0.51422000 3.06300449 -0.60371965 2 4 35047 3.16400000 2433498446 2433498446 -11.00000000
-0.64131945 3.82826924 -0.61478746 2 6 35049 3.93000000 2433498451 2433498451 -9.00000000
-0.85685313 5.12584782 -0.63810790 2 8 35051 5.23600000 2433498456 2433498456 -7.00000000
-1.80533934 10.82309246 2.13286304 43 11 35053 11.17800000 2433498463 2433498463 11.00000000
-1.73704922 10.43613529 2.44251847 56 13 35055 10.85800000 2433498467 2433498467 13.00000000
-1.49017346 8.97224998 2.43704009 42 15 35057 9.41600000 2433498472 2433498472 15.00000000
-0.35912016 2.17870760 -0.59166032 4 0 35064 2.28600000 2433498492 2433498492 -15.00000000
-0.42284814 2.57092404 -0.60151911 3 2 35066 2.67400000 2433498497 2433498497 -13.00000000
-0.50607127 3.08027911 -0.60677260 4 4 35067 3.18000000 2433498502 2433498502 -11.00000000
-0.63114810 3.84997821 -0.61791611 2 6 35069 3.95000000 2433498506 2433498506 -9.00000000
-0.84151900 5.14448023 -0.64005780 2 8 35071 5.25200000 2433498511 2433498511 -7.00000000
-1.76881373 10.83707905 2.13438940 46 11 35073 11.18600000 2433498518 2433498518 11.00000000
-1.70029652 10.44021225 2.44206858 54 13 35075 10.85600000 2433498522 2433498522 13.00000000
-1.45698619 8.96595669 2.43393421 42 15 35077 9.40400000 2433498527 2433498527 15.00000000
-0.35075191 2.18007040 -0.59166032 4 0 35086 2.28600000 2433498548 2433498548 -15.00000000
-0.41297340 2.57252860 -0.60151911 3 2 35088 2.67400000 2433498552 2433498552 -13.00000000
-0.49548352 3.08995342 -0.60829908 2 4 35089 3.18800000 2433498557 2433498557 -11.00000000
-0.61636060 3.85237312 -0.61791611 2 6 35091 3.95000000 2433498562 2433498562 -9.00000000
