# .PCD v0.7 - Point Cloud Data file format
VERSION 0.7
FIELDS x y z intensity laser_id azimuth distance_m adjustedtime timestamp vertical_angle
SIZE 4 4 4 1 1 2 8 8 4 8
TYPE F F F U U U F U U F
COUNT 1 1 1 1 1 1 1 1 1 1
WIDTH 528
HEIGHT 1
VIEWPOINT 0 0 0 1 0 0 0
POINTS 528
DATA ascii
8.07486629 -1.54182386 -0.14349368 14 14 10081 8.22200000 2431929111 2431929111 -1.00000000
8.14789391 -1.55724180 2.22273803 47 15 10082 8.58800000 2431929113 2431929113 15.00000000
2.15695977 -0.41497457 -0.58855450 4 0 10089 2.27400000 2431929134 2431929134 -15.00000000
8.08814335 -1.55753100 0.14377293 15 1 10090 8.23800000 2431929136 2431929136 1.00000000
2.53349781 -0.48833337 -0.59567040 6 2 10091 2.64800000 2431929138 2431929138 -13.00000000
8.08362961 -1.55958819 0.43145761 15 3 10092 8.24400000 2431929141 2431929141 3.00000000
3.03035235 -0.58465099 -0.59990346 5 4 10092 3.14400000 2431929143 2431929143 -11.00000000
8.09886074 -1.56399298 0.72164953 76 5 10093 8.28000000 2431929145 2431929145 5.00000000
3.78973818 -0.73253280 -0.61134589 4 6 10094 3.90800000 2431929148 2431929148 -9.00000000
8.10373592 -1.56786883 1.01346540 90 7 10095 8.31600000 2431929150 2431929150 7.00000000
5.02617311 -0.97334808 -0.62860209 8 8 10096 5.15800000 2431929152 2431929152 -7.00000000
8.17240429 -1.58263433 1.31842971 7 9 10096 8.42800000 2431929154 2431929154 9.00000000
7.70657063 -1.49381840 -0.68678725 17 10 10097 7.88000000 2431929157 2431929157 -5.00000000
8.08171844 -1.56946301 -0.43145761 17 12 10099 8.24400000 2431929161 2431929161 -3.00000000
8.06354713 -1.56885529 -0.14338897 12 14 10101 8.21600000 2431929166 2431929166 -1.00000000
8.13889313 -1.58351469 2.22170258 49 15 10101 8.58400000 2431929168 2431929168 15.00000000
2.14791512 -0.42101488 -0.58648396 4 0 10109 2.26600000 2431929189 2431929189 -15.00000000
8.07677078 -1.58459949 0.14366820 15 1 10110 8.23200000 2431929191 2431929191 1.00000000
2.52986550 -0.49679846 -0.59522051 6 2 10111 2.64600000 2431929194 2431929194 -13.00000000
8.08989525 -1.59010708 0.43208566 13 3 10112 8.25600000 2431929196 2431929196 3.00000000
3.01480818 -0.59257483 -0.59723216 4 4 10112 3.13000000 2431929198 2431929198 -11.00000000
8.08944225 -1.59148455 0.72130090 72 5 10113 8.27600000 2431929201 2431929201 5.00000000
3.76777649 -0.74194038 -0.60821718 6 6 10114 3.88800000 2431929203 2431929203 -9.00000000
8.10795116 -1.59806597 1.01468420 90 7 10115 8.32600000 2431929205 2431929205 7.00000000
5.02663994 -0.99165517 -0.62908953 8 8 10116 5.16200000 2431929207 2431929207 -7.00000000
8.17042446 -1.61334240 1.31905544 7 9 10117 8.43200000 2431929210 2431929210 9.00000000
7.71890116 -1.52418399 -0.68835604 12 10 10117 7.89800000 2431929212 2431929212 -5.00000000
8.08206844 -1.59882677 -0.43177164 12 12 10119 8.25000000 2431929217 2431929217 -3.00000000
8.06194496 -1.59777033 -0.14345878 12 14 10121 8.22000000 2431929221 2431929221 -1.00000000
8.13303375 -1.61333466 2.22170258 47 15 10122 8.58400000 2431929224 2431929224 15.00000000
2.14082360 -0.42700168 -0.58493102 4 0 10128 2.26000000 2431929244 2431929244 -15.00000000
8.06362820 -1.60980833 0.14352860 12 1 10129 8.22400000 2431929247 2431929247 1.00000000
2.53011513 -0.50556690 -0.59567040 6 2 10130 2.64800000 2431929249 2431929249 -13.00000000
8.09241104 -1.61849213 0.43250436 13 3 10131 8.26400000 2431929251 2431929251 3.00000000
3.02052712 -0.60410911 -0.59875864 4 4 10131 3.13800000 2431929254 2431929254 -11.00000000
8.08802795 -1.61908352 0.72164953 76 5 10132 8.28000000 2431929256 2431929256 5.00000000
3.75754786 -0.75287837 -0.60696572 4 6 10133 3.88000000 2431929258 2431929258 -9.00000000
8.09871483 -1.62416351 1.01419663 85 7 10134 8.32200000 2431929260 2431929260 7.00000000
5.02721643 -1.00910008 -0.62957704 8 8 10135 5.16600000 2431929263 2431929263 -7.00000000
8.18080997 -1.64211261 1.32155836 7 9 10135 8.44800000 2431929265 2431929265 9.00000000
7.71771097 -1.55055726 -0.68870467 12 10 10136 7.90200000 2431929267 2431929267 -5.00000000
8.07280540 -1.62483084 -0.43156230 12 12 10138 8.24600000 2431929272 2431929272 -3.00000000
8.07620430 -1.62844837 -0.14380783 12 14 10140 8.24000000 2431929277 2431929277 -1.00000000
8.13550091 -1.64040470 2.22377324 47 15 10140 8.59200000 2431929279 2431929279 15.00000000
2.15446568 -0.43754786 -0.58907217 4 0 10148 2.27600000 2431929300 2431929300 -15.00000000
8.07363605 -1.64113247 0.14380783 12 1 10149 8.24000000 2431929302 2431929302 1.00000000
2.51878691 -0.51245302 -0.59342086 6 2 10150 2.63800000 2431929304 2431929304 -13.00000000
8.09062672 -1.64752710 0.43271369 13 3 10151 8.26800000 2431929307 2431929307 3.00000000
3.02609515 -0.61621606 -0.60028511 4 4 10151 3.14600000 2431929309 2431929309 -11.00000000
8.09403992 -1.64969361 0.72269541 72 5 10152 8.29200000 2431929311 2431929311 5.00000000
3.76457453 -0.76796430 -0.60853004 6 6 10153 3.89000000 2431929313 2431929313 -9.00000000
8.09299564 -1.65242338 1.01419663 90 7 10154 8.32200000 2431929316 2431929316 7.00000000
5.02366352 -1.02664208 -0.62957704 8 8 10155 5.16600000 2431929318 2431929318 -7.00000000
8.18083477 -1.67184556 1.32249701 5 9 10155 8.45400000 2431929320 2431929320 9.00000000
7.72201157 -1.57948399 -0.68957621 12 10 10156 7.91200000 2431929323 2431929323 -5.00000000
8.06317139 -1.65219855 -0.43135294 17 12 10158 8.24200000 2431929327 2431929327 -3.00000000
8.08026505 -1.65864015 -0.14398235 14 14 10160 8.25000000 2431929332 2431929332 -1.00000000
8.13729477 -1.67034662 2.22584391 47 15 10160 8.60000000 2431929334 2431929334 15.00000000
2.15686440 -0.44509500 -0.59010744 4 0 10166 2.28000000 2431929355 2431929355 -15.00000000
8.08410740 -1.66972435 0.14408706 15 1 10167 8.25600000 2431929357 2431929357 1.00000000
2.52861500 -0.52273053 -0.59612030 5 2 10168 2.65000000 2431929360 2431929360 -13.00000000
8.08541107 -1.67293644 0.43271369 13 3 10169 8.26800000 2431929362 2431929362 3.00000000
3.00876403 -0.62253743 -0.59723216 4 4 10169 3.13000000 2431929364 2431929364 -11.00000000
8.10247421 -1.67794180 0.72391558 76 5 10170 8.30600000 2431929366 2431929366 5.00000000
3.76407766 -0.78018814 -0.60884291 4 6 10171 3.89200000 2431929369 2431929369 -9.00000000
8.09554005 -1.67945302 1.01517165 90 7 10172 8.33000000 2431929371 2431929371 7.00000000
5.00097704 -1.03838360 -0.62713963 8 8 10173 5.14600000 2431929373 2431929373 -7.00000000
8.18298149 -1.70057273 1.32374847 5 9 10174 8.46200000 2431929376 2431929376 9.00000000
7.70335627 -1.60089779 -0.68835604 12 10 10174 7.89800000 2431929378 2431929378 -5.00000000
8.06185246 -1.67833567 -0.43156230 17 12 10176 8.24600000 2431929383 2431929383 -3.00000000
8.07109928 -1.68320036 -0.14391254 14 14 10178 8.24600000 2431929387 2431929387 -1.00000000
8.14524460 -1.69866323 2.22946715 47 15 10178 8.61400000 2431929389 2431929389 15.00000000
2.14584446 -0.45063597 -0.58751923 4 0 10186 2.27000000 2431929410 2431929410 -15.00000000
8.08214378 -1.69875562 0.14415687 12 1 10187 8.26000000 2431929413 2431929413 1.00000000
2.51914692 -0.52994919 -0.59432071 5 2 10188 2.64200000 2431929415 2431929415 -13.00000000
8.09124851 -1.70361865 0.43334171 15 3 10189 8.28000000 2431929417 2431929417 3.00000000
3.00657272 -0.63303620 -0.59723216 4 4 10189 3.13000000 2431929419 2431929419 -11.00000000
8.09656811 -1.70621455 0.72391558 76 5 10190 8.30600000 2431929422 2431929422 5.00000000
3.74973416 -0.79087651 -0.60696572 4 6 10191 3.88000000 2431929424 2431929424 -9.00000000
8.10516644 -1.71098149 1.01712155 85 7 10192 8.34600000 2431929426 2431929426 7.00000000
5.00120640 -1.05665469 -0.62762713 8 8 10193 5.15000000 2431929429 2431929429 -7.00000000
8.16539955 -1.72667420 1.32187128 5 9 10194 8.45000000 2431929431 2431929431 9.00000000
7.67822838 -1.62365580 -0.68661296 12 10 10194 7.87800000 2431929433 2431929433 -5.00000000
8.06766796 -1.70894992 -0.43219033 12 12 10196 8.25800000 2431929438 2431929438 -3.00000000
8.06517410 -1.71136355 -0.14391254 14 14 10198 8.24600000 2431929442 2431929442 -1.00000000
8.13707447 -1.72810435 2.22894955 47 15 10199 8.61200000 2431929445 2431929445 15.00000000
2.13859081 -0.45691273 -0.58596629 4 0 10206 2.26400000 2431929466 2431929466 -15.00000000
8.07616520 -1.72695720 0.14415687 12 1 10207 8.26000000 2431929468 2431929468 1.00000000
2.52490401 -0.54037070 -0.59612030 5 2 10208 2.65000000 2431929470 2431929470 -13.00000000
8.09696960 -1.73436189 0.43396974 13 3 10209 8.29200000 2431929472 2431929472 3.00000000
3.00626421 -0.64393842 -0.59761375 5 4 10209 3.13200000 2431929475 2431929475 -11.00000000
8.08471870 -1.73321342 0.72339267 76 5 10210 8.30000000 2431929477 2431929477 5.00000000
3.75853920 -0.80644715 -0.60884291 4 6 10211 3.89200000 2431929479 2431929479 -9.00000000
8.10302639 -1.74009705 1.01760900 85 7 10212 8.35000000 2431929482 2431929482 7.00000000
4.98584270 -1.07160294 -0.62616467 8 8 10213 5.13800000 2431929484 2431929484 -7.00000000
8.16318512 -1.75599706 1.32249701 5 9 10214 8.45400000 2431929486 2431929486 9.00000000
7.65693140 -1.64709592 -0.68521845 12 10 10214 7.86200000 2431929489 2431929489 -5.00000000
8.08508301 -1.74214935 -0.43344638 17 12 10216 8.28200000 2431929493 2431929493 -3.00000000
8.06110668 -1.73992765 -0.14394745 12 14 10218 8.24800000 2431929498 2431929498 -1.00000000
8.12941074 -1.75467074 2.22843194 45 15 10218 8.61000000 2431929500 2431929500 15.00000000
2.14453387 -0.46601591 -0.58803689 4 0 10226 2.27200000 2431929521 2431929521 -15.00000000
8.06617928 -1.75428784 0.14408706 12 1 10227 8.25600000 2431929523 2431929523 1.00000000
2.51348162 -0.54710859 -0.59387076 4 2 10228 2.64000000 2431929525 2431929525 -13.00000000
8.10452747 -1.76559091 0.43470246 10 3 10229 8.30600000 2431929528 2431929528 3.00000000
3.01167130 -0.65609992 -0.59914023 5 4 10229 3.14000000 2431929530 2431929530 -11.00000000
8.08835220 -1.76354611 0.72426420 79 5 10230 8.31000000 2431929532 2431929532 5.00000000
3.71903205 -0.81156009 -0.60289842 6 6 10231 3.85400000 2431929535 2431929535 -9.00000000
8.09302425 -1.76752412 1.01712155 85 7 10232 8.34600000 2431929537 2431929537 7.00000000
4.99952555 -1.09281540 -0.62835836 8 8 10233 5.15600000 2431929539 2431929539 -7.00000000
8.17630291 -1.78870285 1.32562566 5 9 10234 8.47400000 2431929542 2431929542 9.00000000
7.65113497 -1.67381346 -0.68521845 12 10 10234 7.86200000 2431929544 2431929544 -5.00000000
8.07114887 -1.76865089 -0.43302771 12 12 10236 8.27400000 2431929548 2431929548 -3.00000000
8.07060909 -1.77148545 -0.14422669 14 14 10238 8.26400000 2431929553 2431929553 -1.00000000
8.12701035 -1.78386533 2.22946715 47 15 10238 8.61400000 2431929555 2431929555 15.00000000
2.14478064 -0.47391570 -0.58855450 4 0 10246 2.27400000 2431929576 2431929576 -15.00000000
8.06781673 -1.78416049 0.14422669 12 1 10247 8.26400000 2431929578 2431929578 1.00000000
2.50775123 -0.55503672 -0.59297097 4 2 10248 2.63600000 2431929581 2431929581 -13.00000000
8.08692741 -1.78986716 0.43407443 10 3 10248 8.29400000 2431929583 2431929583 3.00000000
3.00744581 -0.66618401 -0.59875864 4 4 10249 3.13800000 2431929585 2431929585 -11.00000000
8.09770870 -1.79521883 0.72565871 76 5 10250 8.32600000 2431929588 2431929588 5.00000000
3.73353291 -0.82838798 -0.60571426 6 6 10251 3.87200000 2431929590 2431929590 -9.00000000
8.08680534 -1.79576325 1.01712155 85 7 10252 8.34600000 2431929592 2431929592 7.00000000
4.98017788 -1.10681498 -0.62640840 6 8 10253 5.14000000 2431929594 2431929594 -7.00000000
8.17418385 -1.81666374 1.32625139 5 9 10253 8.47800000 2431929597 2431929597 9.00000000
7.63357639 -1.69791520 -0.68417257 12 10 10254 7.85000000 2431929599 2431929599 -5.00000000
8.05907726 -1.79551065 -0.43271369 17 12 10256 8.26800000 2431929604 2431929604 -3.00000000
8.07803822 -1.80269504 -0.14447102 14 14 10258 8.27800000 2431929608 2431929608 -1.00000000
8.13581753 -1.81558907 2.23360825 45 15 10258 8.63000000 2431929611 2431929611 15.00000000
2.14311314 -0.48139951 -0.58855450 4 0 10266 2.27400000 2431929631 2431929631 -15.00000000
8.08104992 -1.81669760 0.14457573 12 1 10267 8.28400000 2431929634 2431929634 1.00000000
2.50960088 -0.56464255 -0.59387076 4 2 10268 2.64000000 2431929636 2431929636 -13.00000000
8.07836437 -1.81905651 0.43396974 13 3 10269 8.29200000 2431929638 2431929638 3.00000000
2.98977971 -0.67322767 -0.59570569 5 4 10269 3.12200000 2431929641 2431929641 -11.00000000
8.09527969 -1.82435012 0.72600734 79 5 10270 8.33000000 2431929643 2431929643 5.00000000
3.73254538 -0.84185004 -0.60602713 6 6 10271 3.87400000 2431929645 2431929645 -9.00000000
8.08823299 -1.82572889 1.01809645 87 7 10272 8.35400000 2431929647 2431929647 7.00000000
4.96660280 -1.12200511 -0.62518972 4 8 10273 5.13000000 2431929650 2431929650 -7.00000000
8.16746998 -1.84661138 1.32625139 5 9 10274 8.47800000 2431929652 2431929652 9.00000000
7.61594343 -1.72191477 -0.68312669 12 10 10274 7.83800000 2431929654 2431929654 -5.00000000
8.06639576 -1.82671905 -0.43344638 12 12 10276 8.28200000 2431929659 2431929659 -3.00000000
8.06779575 -1.82999694 -0.14440121 14 14 10278 8.27400000 2431929664 2431929664 -1.00000000
8.14041233 -1.84796226 2.23671412 45 15 10279 8.64200000 2431929666 2431929666 15.00000000
2.14141965 -0.48887742 -0.58855450 4 0 10286 2.27400000 2431929687 2431929687 -15.00000000
8.07660866 -1.84534001 0.14461064 12 1 10287 8.28600000 2431929689 2431929689 1.00000000
2.51521349 -0.57513684 -0.59567040 4 2 10288 2.64800000 2431929691 2431929691 -13.00000000
8.08202267 -1.84806132 0.43449309 10 3 10288 8.30200000 2431929694 2431929694 3.00000000
2.99123907 -0.68453580 -0.59646893 4 4 10289 3.12600000 2431929696 2431929696 -11.00000000
8.09274673 -1.85348642 0.72635597 79 5 10290 8.33400000 2431929698 2431929698 5.00000000
3.71610594 -0.85178453 -0.60383701 6 6 10291 3.86000000 2431929700 2431929700 -9.00000000
8.09341908 -1.85661411 1.01955891 83 7 10292 8.36600000 2431929703 2431929703 7.00000000
4.98006868 -1.14333272 -0.62738335 4 8 10293 5.14800000 2431929705 2431929705 -7.00000000
8.17060089 -1.87732160 1.32781577 7 9 10294 8.48800000 2431929707 2431929707 9.00000000
7.60600281 -1.74759662 -0.68277806 12 10 10294 7.83400000 2431929710 2431929710 -5.00000000
8.06386280 -1.85576081 -0.43365574 12 12 10296 8.28600000 2431929714 2431929714 -3.00000000
8.05941010 -1.85769856 -0.14436631 14 14 10298 8.27200000 2431929719 2431929719 -1.00000000
8.13423920 -1.87494659 2.23671412 45 15 10298 8.64200000 2431929721 2431929721 15.00000000
2.12840891 -0.49373013 -0.58544868 4 0 10306 2.26200000 2431929742 2431929742 -15.00000000
8.06622219 -1.87261701 0.14454083 12 1 10307 8.28200000 2431929744 2431929744 1.00000000
2.51319051 -0.58391303 -0.59567040 4 2 10308 2.64800000 2431929746 2431929746 -13.00000000
8.08330441 -1.87806964 0.43491179 10 3 10308 8.31000000 2431929749 2431929749 3.00000000
2.99648046 -0.69675153 -0.59799540 4 4 10309 3.13400000 2431929751 2431929751 -11.00000000
8.08816814 -1.88217568 0.72653025 83 5 10310 8.33600000 2431929753 2431929753 5.00000000
3.71888185 -0.86609513 -0.60477567 6 6 10311 3.86600000 2431929756 2431929756 -9.00000000
8.09655571 -1.88710713 1.02077758 76 7 10312 8.37600000 2431929758 2431929758 7.00000000
4.99344635 -1.16476786 -0.62957704 2 8 10313 5.16600000 2431929760 2431929760 -7.00000000
8.16592121 -1.90628004 1.32812858 5 9 10314 8.49000000 2431929763 2431929763 9.00000000
7.58045387 -1.76960647 -0.68103498 12 10 10314 7.81400000 2431929765 2431929765 -5.00000000
8.06900501 -1.88662589 -0.43428376 12 12 10316 8.29800000 2431929770 2431929770 -3.00000000
8.06261158 -1.88809955 -0.14454083 14 14 10318 8.28200000 2431929774 2431929774 -1.00000000
8.12388325 -1.90244806 2.23567891 45 15 10318 8.63800000 2431929776 2431929776 15.00000000
2.13410616 -0.50330156 -0.58751923 4 0 10327 2.27000000 2431929797 2431929797 -15.00000000
8.06514263 -1.90354669 0.14464554 12 1 10328 8.28800000 2431929799 2431929799 1.00000000
2.50724030 -0.59222448 -0.59477061 4 2 10329 2.64400000 2431929802 2431929802 -13.00000000
8.08380795 -1.91093123 0.43533048 10 3 10330 8.31800000 2431929804 2431929804 3.00000000
2.99008536 -0.70682621 -0.59723216 4 4 10330 3.13000000 2431929806 2431929806 -11.00000000
8.08703232 -1.91318369 0.72705323 79 5 10331 8.34200000 2431929809 2431929809 5.00000000
3.71760464 -0.88017482 -0.60508853 4 6 10332 3.86800000 2431929811 2431929811 -9.00000000
8.08572197 -1.91585445 1.02029014 80 7 10333 8.37200000 2431929813 2431929813 7.00000000
4.97948599 -1.18077183 -0.62835836 2 8 10334 5.15600000 2431929816 2431929816 -7.00000000
8.15921783 -1.93477273 1.32812858 5 9 10334 8.49000000 2431929818 2431929818 9.00000000
7.57779408 -1.79829848 -0.68138361 12 10 10335 7.81800000 2431929820 2431929820 -5.00000000
8.07369518 -1.91895866 -0.43491179 12 12 10337 8.31000000 2431929825 2431929825 -3.00000000
8.07120037 -1.92134261 -0.14482006 14 14 10339 8.29800000 2431929829 2431929829 -1.00000000
8.12215614 -1.93497050 2.23723173 45 15 10340 8.64400000 2431929832 2431929832 15.00000000
2.12482142 -0.50894797 -0.58544868 4 0 10347 2.26200000 2431929852 2431929852 -15.00000000
8.06039429 -1.93215382 0.14468046 12 1 10348 8.29000000 2431929855 2431929855 1.00000000
2.49189305 -0.59779060 -0.59162128 4 2 10349 2.63000000 2431929857 2431929857 -13.00000000
8.08325291 -1.93912530 0.43564451 13 3 10349 8.32400000 2431929859 2431929859 3.00000000
2.99141788 -0.71817589 -0.59799540 4 4 10350 3.13400000 2431929862 2431929862 -11.00000000
8.09386539 -1.94465923 0.72827339 83 5 10351 8.35600000 2431929864 2431929864 5.00000000
3.70682716 -0.89129907 -0.60383701 4 6 10352 3.86000000 2431929866 2431929866 -9.00000000
8.08284473 -1.94499600 1.02077758 78 7 10353 8.37600000 2431929869 2431929869 7.00000000
4.95989466 -1.19442821 -0.62640840 2 8 10354 5.14000000 2431929871 2431929871 -7.00000000
8.17511559 -1.97021866 1.33188307 5 9 10355 8.51400000 2431929873 2431929873 9.00000000
7.57147074 -1.82473898 -0.68138361 12 10 10355 7.81800000 2431929876 2431929876 -5.00000000
8.05918121 -1.94525492 -0.43449309 12 12 10357 8.30200000 2431929880 2431929880 -3.00000000
8.07416248 -1.95185399 -0.14499459 16 14 10359 8.30800000 2431929885 2431929885 -1.00000000
8.12849617 -1.96649015 2.24085522 45 15 10360 8.65800000 2431929887 2431929887 15.00000000
2.12696648 -0.51653254 -0.58648396 4 0 10365 2.26600000 2431929908 2431929908 -15.00000000
8.07954502 -1.96360600 0.14513421 18 1 10366 8.31600000 2431929910 2431929910 1.00000000
2.49000263 -0.60561615 -0.59162128 4 2 10367 2.63000000 2431929912 2431929912 -13.00000000
8.07129955 -1.96309400 0.43533048 10 3 10367 8.31800000 2431929915 2431929915 3.00000000
2.97770143 -0.72478431 -0.59570569 4 4 10368 3.12200000 2431929917 2431929917 -11.00000000
8.10320187 -1.97384953 0.72966790 83 5 10369 8.37200000 2431929919 2431929919 5.00000000
3.72320032 -0.90761840 -0.60696572 4 6 10370 3.88000000 2431929922 2431929922 -9.00000000
8.08440876 -1.97226131 1.02175260 73 7 10371 8.38400000 2431929924 2431929924 7.00000000
4.95611763 -1.21000421 -0.62640840 2 8 10372 5.14000000 2431929926 2431929926 -7.00000000
8.15388203 -1.99071789 1.32938004 5 9 10372 8.49800000 2431929929 2431929929 9.00000000
7.56957150 -1.84946215 -0.68173224 12 10 10373 7.82200000 2431929931 2431929931 -5.00000000
8.06467056 -1.97341228 -0.43512115 12 12 10375 8.31400000 2431929935 2431929935 -3.00000000
8.06022263 -1.97530615 -0.14485498 12 14 10377 8.30000000 2431929940 2431929940 -1.00000000
8.13353539 -1.99477780 2.24396110 45 15 10378 8.67000000 2431929942 2431929942 15.00000000
2.11952353 -0.52256656 -0.58493102 4 0 10385 2.26000000 2431929963 2431929963 -15.00000000
8.08817291 -1.99562907 0.14541344 12 1 10386 8.33200000 2431929965 2431929965 1.00000000
2.49165726 -0.61523849 -0.59252107 4 2 10387 2.63400000 2431929968 2431929968 -13.00000000
8.07603168 -1.99412882 0.43595850 10 3 10387 8.33000000 2431929970 2431929970 3.00000000
2.97134161 -0.73423207 -0.59494245 4 4 10388 3.11800000 2431929972 2431929972 -11.00000000
8.09046078 -2.00068808 0.72914493 79 5 10389 8.36600000 2431929975 2431929975 5.00000000
3.72384453 -0.92155838 -0.60759145 4 6 10390 3.88400000 2431929977 2431929977 -9.00000000
8.09288979 -2.00428677 1.02370250 87 7 10391 8.40000000 2431929979 2431929979 7.00000000
4.94800997 -1.22634184 -0.62592095 2 8 10392 5.13600000 2431929982 2431929982 -7.00000000
8.16222286 -2.02296972 1.33188307 5 9 10392 8.51400000 2431929984 2431929984 9.00000000
7.53793049 -1.86963832 -0.67946619 12 10 10393 7.79600000 2431929986 2431929986 -5.00000000
8.06548595 -2.00347710 -0.43553984 12 12 10395 8.32200000 2431929991 2431929991 -3.00000000
8.05327797 -2.00342941 -0.14485498 12 14 10397 8.30000000 2431929995 2431929995 -1.00000000
8.12839794 -2.02362370 2.24447870 47 15 10398 8.67200000 2431929998 2431929998 15.00000000
2.11956048 -0.53043085 -0.58544868 4 0 10405 2.26200000 2431930018 2431930018 -15.00000000
8.06175995 -2.01899195 0.14506440 12 1 10406 8.31200000 2431930021 2431930021 1.00000000
2.50083613 -0.62677479 -0.59522051 4 2 10407 2.64600000 2431930023 2431930023 -13.00000000
8.08645821 -2.02667713 0.43690056 13 3 10407 8.34800000 2431930025 2431930025 3.00000000
2.96876049 -0.74459952 -0.59494245 4 4 10408 3.11800000 2431930028 2431930028 -11.00000000
8.07956219 -2.02794671 0.72879630 72 5 10409 8.36200000 2431930030 2431930030 5.00000000
3.70144653 -0.92973912 -0.60446280 4 6 10410 3.86400000 2431930032 2431930032 -9.00000000
8.08584404 -2.03252411 1.02370250 78 7 10411 8.40000000 2431930034 2431930034 7.00000000
4.93599892 -1.24166906 -0.62494600 6 8 10412 5.12800000 2431930037 2431930037 -7.00000000
8.16277409 -2.05337644 1.33313453 5 9 10412 8.52200000 2431930039 2431930039 9.00000000
6.63679218 -1.67074168 -0.59875995 16 10 10413 6.87000000 2431930041 2431930041 -5.00000000
8.07200050 -2.03503656 -0.43627253 17 12 10415 8.33600000 2431930046 2431930046 -3.00000000
8.06174660 -2.03544474 -0.14513421 12 14 10417 8.31600000 2431930051 2431930051 -1.00000000
8.11602306 -2.04914856 2.24292588 45 15 10417 8.66600000 2431930053 2431930053 15.00000000
2.11582375 -0.53735077 -0.58493102 4 0 10425 2.26000000 2431930074 2431930074 -15.00000000
8.06629181 -2.05007577 0.14527383 12 1 10426 8.32400000 2431930076 2431930076 1.00000000
2.48919010 -0.63309878 -0.59297097 4 2 10427 2.63600000 2431930078 2431930078 -13.00000000
8.09094810 -2.05784583 0.43752858 10 3 10427 8.36000000 2431930081 2431930081 3.00000000
2.96994853 -0.75592643 -0.59570569 4 4 10428 3.12200000 2431930083 2431930083 -11.00000000
8.08981133 -2.06056333 0.73036510 83 5 10429 8.38000000 2431930085 2431930085 5.00000000
3.69435024 -0.94167805 -0.60383701 4 6 10430 3.86000000 2431930087 2431930087 -9.00000000
8.08062363 -2.06122732 1.02394617 83 7 10431 8.40200000 2431930090 2431930090 7.00000000
4.92394066 -1.25692737 -0.62397105 8 8 10432 5.12000000 2431930092 2431930092 -7.00000000
8.17086887 -2.08576608 1.33563745 5 9 10432 8.53800000 2431930094 2431930094 9.00000000
6.58072948 -1.68107688 -0.59422785 12 10 10433 6.81800000 2431930097 2431930097 -5.00000000
8.18467331 -2.09233332 1.64210224 6 11 10434 8.60600000 2431930099 2431930099 11.00000000
8.06871700 -2.06419063 -0.43648186 17 12 10435 8.34000000 2431930101 2431930101 -3.00000000
8.05652905 -2.06406927 -0.14516912 12 14 10437 8.31800000 2431930106 2431930106 -1.00000000
8.11968613 -2.08176017 2.24603176 45 15 10438 8.67800000 2431930108 2431930108 15.00000000
2.11580586 -0.54521513 -0.58544868 4 0 10445 2.26200000 2431930129 2431930129 -15.00000000
8.06489563 -2.07971787 0.14537854 12 1 10446 8.33000000 2431930131 2431930131 1.00000000
2.47375655 -0.63837522 -0.58982164 4 2 10447 2.62200000 2431930134 2431930134 -13.00000000
8.07754993 -2.08598852 0.43721458 10 3 10448 8.35400000 2431930136 2431930136 3.00000000
2.97109342 -0.76727062 -0.59646893 4 4 10448 3.12600000 2431930138 2431930138 -11.00000000
8.08256912 -2.08878946 0.73036510 76 5 10449 8.38000000 2431930140 2431930140 5.00000000
3.69869041 -0.95654637 -0.60508853 4 6 10450 3.86800000 2431930143 2431930143 -9.00000000
8.07530117 -2.08991861 1.02418995 78 7 10451 8.40400000 2431930145 2431930145 7.00000000
4.90991497 -1.27161896 -0.62275237 8 8 10452 5.11000000 2431930147 2431930147 -7.00000000
8.16353798 -2.11427498 1.33563745 5 9 10452 8.53800000 2431930150 2431930150 9.00000000
6.56324911 -1.70103848 -0.59318197 12 10 10453 6.80600000 2431930152 2431930152 -5.00000000
8.17351913 -2.11990476 1.64133894 6 11 10454 8.60200000 2431930154 2431930154 11.00000000
8.05566311 -2.09083796 -0.43616787 12 12 10455 8.33400000 2431930157 2431930157 -3.00000000
8.07250023 -2.09821582 -0.14558798 12 14 10457 8.34200000 2431930161 2431930161 -1.00000000
8.12395668 -2.11159039 2.24913740 47 15 10457 8.69000000 2431930164 2431930164 15.00000000
2.11762786 -0.55357456 -0.58648396 4 0 10465 2.26600000 2431930184 2431930184 -15.00000000
8.06919384 -2.11089349 0.14558798 12 1 10466 8.34200000 2431930187 2431930187 1.00000000
2.48282433 -0.64996749 -0.59252107 4 2 10467 2.63400000 2431930189 2431930189 -13.00000000
8.07021904 -2.11417174 0.43721458 10 3 10468 8.35400000 2431930191 2431930191 3.00000000
2.96839714 -0.77763700 -0.59646893 4 4 10468 3.12600000 2431930193 2431930193 -11.00000000
8.07908344 -2.11800075 0.73071373 76 5 10469 8.38400000 2431930196 2431930196 5.00000000
3.68386459 -0.96644378 -0.60321128 6 6 10470 3.85600000 2431930198 2431930198 -9.00000000
8.07371712 -2.11960626 1.02492118 83 7 10471 8.41000000 2431930200 2431930200 7.00000000
4.89968634 -1.28723681 -0.62202114 8 8 10472 5.10400000 2431930203 2431930203 -7.00000000
8.16719723 -2.14719534 1.33751464 5 9 10473 8.55000000 2431930205 2431930205 9.00000000
6.57654047 -1.72900403 -0.59492511 12 10 10473 6.82600000 2431930207 2431930207 -5.00000000
8.17556286 -2.15092039 1.64324713 6 11 10474 8.61200000 2431930210 2431930210 11.00000000
8.06569862 -2.12352133 -0.43710992 12 12 10475 8.35200000 2431930212 2431930212 -3.00000000
8.06512642 -2.12638140 -0.14558798 10 14 10477 8.34200000 2431930217 2431930217 -1.00000000
8.12176609 -2.14283061 2.25069046 45 15 10478 8.69600000 2431930219 2431930219 15.00000000
2.10821342 -0.55898261 -0.58441341 4 0 10485 2.25800000 2431930240 2431930240 -15.00000000
8.06950760 -2.14109874 0.14572759 12 1 10486 8.35000000 2431930242 2431930242 1.00000000
2.47677350 -0.65763003 -0.59162128 4 2 10487 2.63000000 2431930244 2431930244 -13.00000000
8.08209324 -2.14745808 0.43826130 13 3 10488 8.37400000 2431930246 2431930246 3.00000000
2.95048523 -0.78396070 -0.59341598 4 4 10488 3.11000000 2431930249 2431930249 -11.00000000
8.07549191 -2.14721298 0.73106235 76 5 10489 8.38800000 2431930251 2431930251 5.00000000
3.68428659 -0.98031288 -0.60383701 6 6 10490 3.86000000 2431930253 2431930253 -9.00000000
8.07777882 -2.15084052 1.02638364 83 7 10491 8.42200000 2431930256 2431930256 7.00000000
4.89324522 -1.30382097 -0.62177742 8 8 10492 5.10200000 2431930258 2431930258 -7.00000000
8.14857864 -2.17121530 1.33563745 5 9 10492 8.53800000 2431930260 2431930260 9.00000000
6.56661463 -1.75092328 -0.59457648 12 10 10493 6.82200000 2431930263 2431930263 -5.00000000
8.18128300 -2.18298817 1.64591837 3 11 10494 8.62600000 2431930265 2431930265 11.00000000
8.06209660 -2.15269327 -0.43731925 12 12 10495 8.35600000 2431930267 2431930267 -3.00000000
8.06151867 -2.15555406 -0.14565778 10 14 10497 8.34600000 2431930272 2431930272 -1.00000000
8.12581348 -2.17274570 2.25379634 47 15 10497 8.70800000 2431930274 2431930274 15.00000000
2.09878683 -0.56433177 -0.58234286 4 0 10505 2.25000000 2431930295 2431930295 -15.00000000
8.06777763 -2.17081237 0.14583232 12 1 10506 8.35600000 2431930297 2431930297 1.00000000
2.48575330 -0.66931158 -0.59432071 4 2 10507 2.64200000 2431930299 2431930299 -13.00000000
8.07647610 -2.17617631 0.43836597 15 3 10508 8.37600000 2431930302 2431930302 3.00000000
2.93825245 -0.79170114 -0.59150791 4 4 10508 3.10000000 2431930304 2431930304 -11.00000000
8.06794739 -2.17538881 0.73106235 72 5 10509 8.38800000 2431930306 2431930306 5.00000000
3.67893505 -0.99265283 -0.60352415 6 6 10510 3.85800000 2431930309 2431930309 -9.00000000
8.08747005 -2.18368125 1.02857721 92 7 10511 8.44000000 2431930311 2431930311 7.00000000
4.89249706 -1.32192922 -0.62226486 8 8 10512 5.10600000 2431930313 2431930313 -7.00000000
8.17107677 -2.20931625 1.34064341 5 9 10513 8.57000000 2431930316 2431930316 9.00000000
6.57200289 -1.77695465 -0.59562236 40 10 10513 6.83400000 2431930318 2431930318 -5.00000000
8.17740345 -2.21255851 1.64668167 3 11 10514 8.63000000 2431930320 2431930320 11.00000000
8.07959461 -2.18760800 -0.43867999 12 12 10515 8.38200000 2431930322 2431930322 -3.00000000
8.17072773 -2.21381354 1.95437479 2 13 10516 8.68800000 2431930325 2431930325 13.00000000
8.05394554 -2.18368077 -0.14565778 10 14 10517 8.34600000 2431930327 2431930327 -1.00000000
8.11220169 -2.20099616 2.25224328 45 15 10518 8.70200000 2431930329 2431930329 15.00000000
2.10798717 -0.57470328 -0.58544868 4 0 10525 2.26200000 2431930350 2431930350 -15.00000000
8.05629253 -2.19790816 0.14576250 12 1 10526 8.35200000 2431930352 2431930352 1.00000000
2.47588205 -0.67593145 -0.59252107 4 2 10527 2.63400000 2431930355 2431930355 -13.00000000
8.08424377 -2.20856595 0.43920335 13 3 10528 8.39200000 2431930357 2431930357 3.00000000
2.95630336 -0.80764401 -0.59570569 4 4 10528 3.12200000 2431930359 2431930359 -11.00000000
8.07760143 -2.20826650 0.73263115 76 5 10529 8.40600000 2431930362 2431930362 5.00000000
3.65448856 -0.99975497 -0.60008264 4 6 10530 3.83600000 2431930364 2431930364 -9.00000000
8.08171272 -2.21242261 1.02882099 87 7 10531 8.44200000 2431930366 2431930366 7.00000000
4.88402367 -1.33795023 -0.62177742 8 8 10532 5.10200000 2431930369 2431930369 -7.00000000
8.15989494 -2.23535657 1.34001768 5 9 10532 8.56600000 2431930371 2431930371 9.00000000
8.16773701 -2.24057007 1.64629996 3 11 10534 8.62800000 2431930375 2431930375 11.00000000
8.06227970 -2.21315408 -0.43815663 12 12 10535 8.37200000 2431930378 2431930378 -3.00000000
8.06555557 -2.21708131 -0.14600684 10 14 10537 8.36600000 2431930382 2431930382 -1.00000000
8.11789799 -2.23146915 2.25586677 47 15 10537 8.71600000 2431930385 2431930385 15.00000000
2.09852004 -0.57999945 -0.58337814 4 0 10545 2.25400000 2431930405 2431930405 -15.00000000
8.06206322 -2.22974801 0.14600684 12 1 10546 8.36600000 2431930408 2431930408 1.00000000
2.45472598 -0.67937183 -0.58802205 4 2 10547 2.61400000 2431930410 2431930410 -13.00000000
8.07071114 -2.23517275 0.43888932 10 3 10548 8.38600000 2431930412 2431930412 3.00000000
2.96103430 -0.82005453 -0.59723216 4 4 10548 3.13000000 2431930415 2431930415 -11.00000000
8.07560444 -2.23804545 0.73315412 72 5 10549 8.41200000 2431930417 2431930417 5.00000000
3.64716935 -1.01144958 -0.59945685 4 6 10550 3.83200000 2431930419 2431930419 -9.00000000
8.07011509 -2.23955774 1.02833354 85 7 10551 8.43800000 2431930422 2431930422 7.00000000
4.86593437 -1.35127246 -0.62007123 8 8 10552 5.08800000 2431930424 2431930424 -7.00000000
10.14055061 -2.81794238 1.66696560 12 9 10553 10.65600000 2431930426 2431930426 9.00000000
8.14851761 -2.26591134 1.64401031 3 11 10554 8.61600000 2431930431 2431930431 11.00000000
8.05835342 -2.24235415 -0.43836597 12 12 10555 8.37600000 2431930433 2431930433 -3.00000000
8.07703018 -2.25058937 -0.14635588 10 14 10557 8.38600000 2431930438 2431930438 -1.00000000
8.12082958 -2.26432109 2.25897264 47 15 10558 8.72800000 2431930440 2431930440 15.00000000
2.10774708 -0.59008008 -0.58648396 4 0 10564 2.26600000 2431930461 2431930461 -15.00000000
8.05847549 -2.25754929 0.14607663 12 1 10565 8.37000000 2431930463 2431930463 1.00000000
2.46371818 -0.69066441 -0.59072149 4 2 10566 2.62600000 2431930465 2431930465 -13.00000000
8.06325436 -2.26192379 0.43888932 10 3 10567 8.38600000 2431930468 2431930468 3.00000000
2.94695687 -0.82668751 -0.59494245 4 4 10567 3.11800000 2431930470 2431930470 -11.00000000
8.08348370 -2.26912069 0.73454863 76 5 10568 8.42800000 2431930472 2431930472 5.00000000
3.65330410 -1.02620947 -0.60102123 6 6 10569 3.84200000 2431930475 2431930475 -9.00000000
8.07793236 -2.27060437 1.03028345 85 7 10570 8.45400000 2431930477 2431930477 7.00000000
4.85378313 -1.36525095 -0.61909628 8 8 10571 5.08000000 2431930479 2431930479 -7.00000000
10.05178070 -2.82732129 1.65382516 11 9 10571 10.57200000 2431930481 2431930481 9.00000000
8.19009113 -2.30675864 1.65393233 3 11 10573 8.66800000 2431930486 2431930486 11.00000000
8.04895115 -2.26852250 -0.43826130 12 12 10574 8.37400000 2431930488 2431930488 -3.00000000
8.05797577 -2.27410245 -0.14614645 12 14 10576 8.37400000 2431930493 2431930493 -1.00000000
8.13226891 -2.29506922 2.26414895 47 15 10576 8.74800000 2431930495 2431930495 15.00000000
2.10567451 -0.59743392 -0.58648396 4 0 10584 2.26600000 2431930516 2431930516 -15.00000000
8.06401253 -2.28948808 0.14632097 12 1 10585 8.38400000 2431930518 2431930518 1.00000000
2.46129227 -0.69926018 -0.59072149 4 2 10586 2.62600000 2431930521 2431930521 -13.00000000
8.06491566 -2.29278684 0.43941268 10 3 10587 8.39600000 2431930523 2431930523 3.00000000
2.92894602 -0.83267438 -0.59188950 4 4 10587 3.10200000 2431930525 2431930525 -11.00000000
8.07743073 -2.29786849 0.73472291 76 5 10588 8.43000000 2431930528 2431930528 5.00000000
3.65159965 -1.03949654 -0.60133410 4 6 10589 3.84400000 2431930530 2431930530 -9.00000000
8.07759380 -2.30096316 1.03125834 85 7 10590 8.46200000 2431930532 2431930532 7.00000000
4.85089684 -1.38272977 -0.61934000 8 8 10591 5.08200000 2431930534 2431930534 -7.00000000
9.95396900 -2.83921957 1.63943315 11 9 10592 10.48000000 2431930537 2431930537 9.00000000
6.57561779 -1.87559581 -0.59823704 46 10 10592 6.86400000 2431930539 2431930539 -5.00000000
10.43798351 -2.97924733 2.10996580 9 11 10593 11.05800000 2431930541 2431930541 11.00000000
8.06594944 -2.30373526 -0.43962204 17 12 10594 8.40000000 2431930544 2431930544 -3.00000000
8.05191135 -2.30276608 -0.14618136 14 14 10596 8.37600000 2431930548 2431930548 -1.00000000
8.11822987 -2.32326555 2.26259613 47 15 10597 8.74200000 2431930551 2431930551 15.00000000
2.09429312 -0.60211152 -0.58389574 4 0 10604 2.25600000 2431930571 2431930571 -15.00000000
8.06750202 -2.32093978 0.14653040 21 1 10605 8.39600000 2431930574 2431930574 1.00000000
2.46445441 -0.70946473 -0.59207118 4 2 10606 2.63200000 2431930576 2431930576 -13.00000000
8.08373165 -2.32866478 0.44087809 10 3 10607 8.42400000 2431930578 2431930578 3.00000000
2.92602158 -0.84289324 -0.59188950 4 4 10607 3.10200000 2431930581 2431930581 -11.00000000
8.06361675 -2.32439446 0.73420000 76 5 10608 8.42400000 2431930583 2431930583 5.00000000
3.65364289 -1.05387902 -0.60227269 6 6 10609 3.85000000 2431930585 2431930585 -9.00000000
8.08858490 -2.33465004 1.03369582 90 7 10610 8.48200000 2431930587 2431930587 7.00000000
4.84222651 -1.39855242 -0.61885250 8 8 10611 5.07800000 2431930590 2431930590 -7.00000000
9.87617779 -2.85247970 1.62816989 11 9 10611 10.40800000 2431930592 2431930592 9.00000000
10.31436157 -2.98293900 2.08706880 12 11 10613 10.93800000 2431930597 2431930597 11.00000000
8.06936932 -2.33520794 -0.44025007 17 12 10614 8.41200000 2431930599 2431930599 -3.00000000
8.05534840 -2.33419776 -0.14639078 12 14 10616 8.38800000 2431930604 2431930604 -1.00000000
8.11233711 -2.35071135 2.26311374 47 15 10616 8.74400000 2431930606 2431930606 15.00000000
2.08290482 -0.60671693 -0.58130759 4 0 10624 2.24600000 2431930627 2431930627 -15.00000000
8.04975224 -2.34628868 0.14635588 18 1 10625 8.38600000 2431930629 2431930629 1.00000000
2.45447969 -0.71588039 -0.59027159 4 2 10626 2.62400000 2431930631 2431930631 -13.00000000
8.08514023 -2.35966587 0.44140145 10 3 10627 8.43400000 2431930634 2431930634 3.00000000
2.93813848 -0.85750210 -0.59494245 4 4 10627 3.11800000 2431930636 2431930636 -11.00000000
8.07075405 -2.35699582 0.73559445 72 5 10628 8.44000000 2431930638 2431930638 5.00000000
3.63666940 -1.06274760 -0.60008264 6 6 10629 3.83600000 2431930640 2431930640 -9.00000000
8.08038616 -2.36287022 1.03369582 90 7 10630 8.48200000 2431930643 2431930643 7.00000000
4.85065126 -1.41934884 -0.62055868 8 8 10631 5.09200000 2431930645 2431930645 -7.00000000
9.79790878 -2.86696553 1.61690664 17 9 10631 10.33600000 2431930647 2431930647 9.00000000
6.53559399 -1.91361809 -0.59579664 12 10 10632 6.83600000 2431930650 2431930650 -5.00000000
10.21345234 -2.99242830 2.06875110 12 11 10633 10.84200000 2431930652 2431930652 11.00000000
8.05925274 -2.36279917 -0.44014540 12 12 10634 8.41000000 2431930654 2431930654 -3.00000000
8.05674458 -2.36511827 -0.14656530 14 14 10636 8.39800000 2431930659 2431930659 -1.00000000
8.12261772 -2.38445592 2.26829004 47 15 10636 8.76400000 2431930661 2431930661 15.00000000
2.09363651 -0.61817652 -0.58493102 4 0 10645 2.26000000 2431930682 2431930682 -15.00000000
8.05452251 -2.37974310 0.14660022 15 1 10646 8.40000000 2431930684 2431930684 1.00000000
2.44249558 -0.72210926 -0.58802205 4 2 10647 2.61400000 2431930687 2431930687 -13.00000000
8.07835293 -2.38985014 0.44150612 10 3 10648 8.43600000 2431930689 2431930689 3.00000000
2.93121052 -0.86715132 -0.59417921 4 4 10648 3.11400000 2431930691 2431930691 -11.00000000
8.07734489 -2.39108515 0.73698896 76 5 10649 8.45600000 2431930693 2431930693 5.00000000
3.62896180 -1.07494748 -0.59945685 4 6 10650 3.83200000 2431930696 2431930696 -9.00000000
8.07167149 -2.39247060 1.03369582 85 7 10651 8.48200000 2431930698 2431930698 7.00000000
4.82067585 -1.42977977 -0.61739010 8 8 10652 5.06600000 2431930700 2431930700 -7.00000000
9.72433472 -2.88601851 1.60658193 25 9 10653 10.27000000 2431930703 2431930703 9.00000000
6.56291723 -1.94776309 -0.59893429 36 10 10653 6.87200000 2431930705 2431930705 -5.00000000
10.10078716 -2.99966145 2.04814386 12 11 10654 10.73400000 2431930707 2431930707 11.00000000
8.04479504 -2.39061522 -0.43983138 12 12 10655 8.40400000 2431930710 2431930710 -3.00000000
8.06335545 -2.39919424 -0.14684455 20 14 10657 8.41400000 2431930714 2431930714 -1.00000000
8.12123108 -2.41641450 2.27036071 47 15 10657 8.77200000 2431930716 2431930716 15.00000000
2.09701848 -0.62714148 -0.58648396 4 0 10665 2.26600000 2431930737 2431930737 -15.00000000
8.06149292 -2.41243029 0.14687945 12 1 10666 8.41600000 2431930740 2431930740 1.00000000
2.45116115 -0.73398483 -0.59072149 4 2 10667 2.62600000 2431930742 2431930742 -13.00000000
8.06613541 -2.41688776 0.44129679 10 3 10668 8.43200000 2431930744 2431930744 3.00000000
2.91500139 -0.87343329 -0.59150791 5 4 10668 3.10000000 2431930746 2431930746 -11.00000000
8.08421612 -2.42384338 0.73838347 76 5 10669 8.47200000 2431930749 2431930749 5.00000000
3.62897158 -1.08874369 -0.60008264 6 6 10670 3.83600000 2431930751 2431930751 -9.00000000
8.07467842 -2.42405605 1.03515816 85 7 10671 8.49400000 2431930753 2431930753 7.00000000
4.81375456 -1.44602728 -0.61714637 8 8 10672 5.06400000 2431930756 2431930756 -7.00000000
9.67258263 -2.90743518 1.59969878 8 9 10673 10.22600000 2431930758 2431930758 9.00000000
6.55989408 -1.97180712 -0.59928286 52 10 10673 6.87600000 2431930760 2431930760 -5.00000000
8.19327927 -2.46433759 1.66309118 3 11 10674 8.71600000 2431930763 2431930763 11.00000000
8.05552578 -2.42443824 -0.44087809 12 12 10675 8.42400000 2431930765 2431930765 -3.00000000
8.04918766 -2.42559505 -0.14673984 16 14 10677 8.40800000 2431930769 2431930769 -1.00000000
8.13081551 -2.45174122 2.27553701 47 15 10678 8.79200000 2431930772 2431930772 15.00000000
2.08568215 -0.63129371 -0.58389574 4 0 10684 2.25600000 2431930793 2431930793 -15.00000000
8.06493092 -2.44262791 0.14708889 12 1 10685 8.42800000 2431930795 2431930795 1.00000000
2.44871354 -0.74210912 -0.59072149 4 2 10686 2.62600000 2431930797 2431930797 -13.00000000
8.07336617 -2.44825959 0.44213417 13 3 10687 8.44800000 2431930799 2431930799 3.00000000
2.91021013 -0.88252527 -0.59112626 5 4 10687 3.09800000 2431930802 2431930802 -11.00000000
8.07994747 -2.45179534 0.73873210 76 5 10688 8.47600000 2431930804 2431930804 5.00000000
3.62156081 -1.09962392 -0.59945685 4 6 10689 3.83200000 2431930806 2431930806 -9.00000000
8.08368969 -2.45601273 1.03735185 80 7 10690 8.51200000 2431930809 2431930809 7.00000000
4.81083202 -1.46255970 -0.61739010 8 8 10691 5.06600000 2431930811 2431930811 -7.00000000
8.14910507 -2.47899485 1.34909081 2 9 10692 8.62400000 2431930813 2431930813 9.00000000
6.56856871 -1.99818850 -0.60067737 54 10 10692 6.89200000 2431930816 2431930816 -5.00000000
9.88292694 -3.00831604 2.00807381 6 11 10693 10.52400000 2431930818 2431930818 11.00000000
8.05699539 -2.45404768 -0.44140145 12 12 10694 8.43400000 2431930820 2431930820 -3.00000000
8.04492474 -2.45344043 -0.14680964 20 14 10696 8.41200000 2431930825 2431930825 -1.00000000
8.11937714 -2.47614574 2.27450180 47 15 10696 8.78800000 2431930827 2431930827 15.00000000
2.08346581 -0.63857025 -0.58389574 4 0 10704 2.25600000 2431930848 2431930848 -15.00000000
8.05253220 -2.46959233 0.14701907 12 1 10705 8.42400000 2431930850 2431930850 1.00000000
2.45356011 -0.75293905 -0.59252107 4 2 10706 2.63400000 2431930852 2431930852 -13.00000000
8.06859016 -2.47759843 0.44234350 13 3 10707 8.45200000 2431930855 2431930855 3.00000000
2.91274214 -0.89440727 -0.59227115 5 4 10707 3.10400000 2431930857 2431930857 -11.00000000
8.07133961 -2.47998452 0.73873210 72 5 10708 8.47600000 2431930859 2431930859 5.00000000
3.61392403 -1.11109781 -0.59883112 6 6 10709 3.82800000 2431930862 2431930862 -9.00000000
8.09214401 -2.48946857 1.03954554 85 7 10710 8.53000000 2431930864 2431930864 7.00000000
4.80000591 -1.47759163 -0.61665887 8 8 10711 5.06000000 2431930866 2431930866 -7.00000000
9.53552246 -2.93715358 1.58030093 40 9 10712 10.10200000 2431930869 2431930869 9.00000000
9.78793907 -3.01677394 1.99090111 9 11 10713 10.43400000 2431930873 2431930873 11.00000000
8.05410576 -2.48392272 -0.44171548 17 12 10714 8.44000000 2431930875 2431930875 -3.00000000
8.04968643 -2.48563743 -0.14705397 18 14 10716 8.42600000 2431930880 2431930880 -1.00000000
8.11437607 -2.50561261 2.27553701 47 15 10716 8.79200000 2431930882 2431930882 15.00000000
2.06830859 -0.64183116 -0.58027232 4 0 10724 2.24200000 2431930903 2431930903 -15.00000000
8.05150127 -2.50005770 0.14715870 12 1 10725 8.43200000 2431930905 2431930905 1.00000000
2.43975115 -0.75802976 -0.58982164 4 2 10726 2.62200000 2431930908 2431930908 -13.00000000
8.07558823 -2.50908208 0.44318089 13 3 10726 8.46800000 2431930910 2431930910 3.00000000
2.90772748 -0.90398639 -0.59188950 4 4 10727 3.10200000 2431930912 2431930912 -11.00000000
8.07404900 -2.51169467 0.73977792 76 5 10728 8.48800000 2431930915 2431930915 5.00000000
3.61002350 -1.12370598 -0.59883112 4 6 10729 3.82800000 2431930917 2431930917 -9.00000000
8.08719540 -2.51888084 1.04003298 83 7 10730 8.53400000 2431930919 2431930919 7.00000000
4.80429459 -1.49729109 -0.61787754 8 8 10731 5.07000000 2431930921 2431930921 -7.00000000
9.51441383 -2.96523190 1.57842374 48 9 10731 10.09000000 2431930924 2431930924 9.00000000
9.68551636 -3.02226663 1.97220182 18 11 10733 10.33600000 2431930928 2431930928 11.00000000
8.04347897 -2.51142645 -0.44161081 12 12 10734 8.43800000 2431930931 2431930931 -3.00000000
8.04668713 -2.51551080 -0.14715870 18 14 10736 8.43200000 2431930935 2431930935 -1.00000000
8.11479950 -2.53680396 2.27812529 45 15 10736 8.80200000 2431930938 2431930938 15.00000000
2.09001517 -0.65657383 -0.58700162 4 0 10744 2.26800000 2431930958 2431930958 -15.00000000
8.05035686 -2.53054619 0.14729831 12 1 10745 8.44000000 2431930961 2431930961 1.00000000
2.42779541 -0.76361793 -0.58757216 4 2 10746 2.61200000 2431930963 2431930963 -13.00000000
8.07776833 -2.54226136 0.44380891 13 3 10747 8.48000000 2431930965 2431930965 3.00000000
2.90455437 -0.91413075 -0.59188950 4 4 10747 3.10200000 2431930968 2431930968 -11.00000000
8.08423615 -2.54584765 0.74152106 76 5 10748 8.50800000 2431930970 2431930970 5.00000000
3.61738348 -1.13986254 -0.60070837 4 6 10749 3.84000000 2431930972 2431930972 -9.00000000
8.07456684 -2.54590130 1.03954554 85 7 10750 8.53000000 2431930974 2431930974 7.00000000
4.78389406 -1.50927401 -0.61592764 8 8 10751 5.05400000 2431930977 2431930977 -7.00000000
9.49971485 -2.99889469 1.57779801 63 9 10752 10.08600000 2431930979 2431930979 9.00000000
9.65056992 -3.04836941 1.96724069 37 11 10753 10.31000000 2431930984 2431930984 11.00000000
8.04418564 -2.54249763 -0.44213417 17 12 10754 8.44800000 2431930986 2431930986 -3.00000000
8.05310917 -2.54841018 -0.14743793 16 14 10756 8.44800000 2431930991 2431930991 -1.00000000
8.12386513 -2.57236075 2.28330159 47 15 10757 8.82200000 2431930993 2431930993 15.00000000
2.08046198 -0.66116059 -0.58493102 4 0 10763 2.26000000 2431931014 2431931014 -15.00000000
8.06478882 -2.56449986 0.14771716 18 1 10764 8.46400000 2431931016 2431931016 1.00000000
2.42896390 -0.77284634 -0.58847195 4 2 10765 2.61600000 2431931018 2431931018 -13.00000000
8.06403160 -2.56580901 0.44349489 13 3 10765 8.47400000 2431931021 2431931021 3.00000000
2.90150690 -0.92375755 -0.59188950 4 4 10766 3.10200000 2431931023 2431931023 -11.00000000
8.08713913 -2.57627058 0.74256694 76 5 10767 8.52000000 2431931025 2431931025 5.00000000
3.59852695 -1.14705253 -0.59820539 4 6 10768 3.82400000 2431931027 2431931027 -9.00000000
8.07742786 -2.57628274 1.04100788 83 7 10769 8.54200000 2431931030 2431931030 7.00000000
4.77318954 -1.52331901 -0.61519647 8 8 10770 5.04800000 2431931032 2431931032 -7.00000000
6.54039383 -2.08856368 -0.60067737 36 10 10771 6.89200000 2431931037 2431931037 -5.00000000
9.62544727 -3.07557464 1.96418774 50 11 10772 10.29400000 2431931039 2431931039 11.00000000
8.03951550 -2.57037568 -0.44234350 17 12 10773 8.45200000 2431931041 2431931041 -3.00000000
8.04842377 -2.57632065 -0.14750774 16 14 10775 8.45200000 2431931046 2431931046 -1.00000000
8.12678242 -2.60140371 2.28640747 45 15 10775 8.83400000 2431931048 2431931048 15.00000000
2.07078528 -0.66605264 -0.58286047 4 0 10783 2.25200000 2431931069 2431931069 -15.00000000
8.06530571 -2.59569883 0.14789169 21 1 10784 8.47400000 2431931071 2431931071 1.00000000
2.42996120 -0.78251499 -0.58937174 4 2 10785 2.62000000 2431931073 2431931073 -13.00000000
8.06643295 -2.59761548 0.44412291 15 3 10785 8.48600000 2431931076 2431931076 3.00000000
2.88331556 -0.92906314 -0.58883655 4 4 10786 3.08600000 2431931078 2431931078 -11.00000000
8.07620144 -2.60387278 0.74239260 76 5 10787 8.51800000 2431931080 2431931080 5.00000000
3.59450126 -1.15960681 -0.59820539 4 6 10788 3.82400000 2431931083 2431931083 -9.00000000
8.08349800 -2.60934091 1.04295778 85 7 10789 8.55800000 2431931085 2431931085 7.00000000
4.76028681 -1.53753078 -0.61422151 6 8 10790 5.04000000 2431931087 2431931087 -7.00000000
6.54443884 -2.11505747 -0.60172325 40 10 10791 6.90400000 2431931092 2431931092 -5.00000000
9.60531330 -3.10613465 1.96227968 53 11 10792 10.28400000 2431931094 2431931094 11.00000000
8.03999519 -2.60149741 -0.44286686 17 12 10793 8.46200000 2431931097 2431931097 -3.00000000
8.04508877 -2.60624790 -0.14761245 14 14 10795 8.45800000 2431931101 2431931101 -1.00000000
8.12132835 -2.63094640 2.28744268 45 15 10795 8.83800000 2431931103 2431931103 15.00000000
2.06109977 -0.67088521 -0.58078992 4 0 10803 2.24400000 2431931124 2431931124 -15.00000000
8.06190014 -2.62569380 0.14799641 21 1 10804 8.48000000 2431931126 2431931126 1.00000000
2.44389033 -0.79642665 -0.59342086 4 2 10805 2.63800000 2431931129 2431931129 -13.00000000
8.07015038 -2.63149714 0.44485563 18 3 10806 8.50000000 2431931131 2431931131 3.00000000
2.88752127 -0.94155669 -0.59036303 4 4 10806 3.09400000 2431931133 2431931133 -11.00000000
8.07274532 -2.63390207 0.74291557 83 5 10807 8.52400000 2431931136 2431931136 5.00000000
3.58855367 -1.17153382 -0.59789252 4 6 10808 3.82200000 2431931138 2431931138 -9.00000000
8.08377552 -2.64062357 1.04417658 80 7 10809 8.56800000 2431931140 2431931140 7.00000000
4.76055145 -1.55598807 -0.61495268 8 8 10810 5.04600000 2431931143 2431931143 -7.00000000
9.45009518 -3.08876705 1.57466936 186 9 10810 10.06600000 2431931145 2431931145 9.00000000
6.52754736 -2.13479233 -0.60085171 16 10 10811 6.89400000 2431931147 2431931147 -5.00000000
