# .PCD v0.7 - Point Cloud Data file format
VERSION 0.7
FIELDS x y z intensity laser_id azimuth distance_m adjustedtime timestamp vertical_angle
SIZE 4 4 4 1 1 2 8 8 4 8
TYPE F F F U U U F U U F
COUNT 1 1 1 1 1 1 1 1 1 1
WIDTH 528
HEIGHT 1
VIEWPOINT 0 0 0 1 0 0 0
POINTS 528
DATA ascii
-4.13931465 2.62790251 1.31376553 10 15 30241 5.07600000 2433385114 2433385114 15.00000000
-1.71748066 1.09373450 -0.54559052 4 0 30249 2.10800000 2433385135 2433385135 -15.00000000
-4.12692928 2.62914371 0.08541208 2 1 30250 4.89400000 2433385137 2433385137 1.00000000
-2.01148248 1.28194928 -0.55068016 4 2 30251 2.44800000 2433385139 2433385139 -13.00000000
-4.12940454 2.63274789 0.25665554 2 3 30252 4.90400000 2433385142 2433385142 3.00000000
-2.35070157 1.49871588 -0.54189754 3 4 30252 2.84000000 2433385144 2433385144 -11.00000000
-4.12223768 2.62919044 0.42776039 2 5 30253 4.90800000 2433385146 2433385146 5.00000000
-2.86760259 1.82968009 -0.53876030 1 6 30254 3.44400000 2433385148 2433385148 -9.00000000
-4.14638424 2.64662766 0.60398448 17 7 30255 4.95600000 2433385151 2433385151 7.00000000
-3.75776458 2.39949608 -0.54743707 8 8 30256 4.49200000 2433385153 2433385153 -7.00000000
-4.13229036 2.63864684 0.77654070 12 9 30256 4.96400000 2433385155 2433385155 9.00000000
-3.93234682 2.51194072 -0.40823749 24 10 30257 4.68400000 2433385158 2433385158 -5.00000000
-4.12752199 2.63763094 0.95213687 12 11 30258 4.99000000 2433385160 2433385160 11.00000000
-4.14133024 2.64747286 -0.25759757 22 12 30259 4.92200000 2433385162 2433385162 -3.00000000
-4.12728596 2.63950968 1.13105392 14 13 30260 5.02800000 2433385165 2433385165 13.00000000
-4.13534975 2.64568353 -0.08569132 20 14 30261 4.91000000 2433385167 2433385167 -1.00000000
-4.11872530 2.63504744 1.31014204 14 15 30261 5.06200000 2433385169 2433385169 15.00000000
-1.72340751 1.10598326 -0.54869640 4 0 30269 2.12000000 2433385190 2433385190 -15.00000000
-4.12782288 2.65001535 0.08562151 22 1 30270 4.90600000 2433385192 2433385192 1.00000000
-1.99879682 1.28369749 -0.54843068 3 2 30271 2.43800000 2433385195 2433385195 -13.00000000
-4.14539480 2.66333985 0.25822562 22 3 30272 4.93400000 2433385197 2433385197 3.00000000
-2.35206270 1.51115704 -0.54342401 3 4 30272 2.84800000 2433385199 2433385199 -11.00000000
-4.14152765 2.66187692 0.43072367 26 5 30273 4.94200000 2433385201 2433385201 5.00000000
-2.85621357 1.83647370 -0.53782171 1 6 30274 3.43800000 2433385204 2433385204 -9.00000000
-4.14546824 2.66645455 0.60520315 17 7 30275 4.96600000 2433385206 2433385206 7.00000000
-3.78609180 2.43623042 -0.55279934 8 8 30276 4.53600000 2433385208 2433385208 -7.00000000
-4.14584541 2.66874361 0.78092086 8 9 30277 4.99200000 2433385211 2433385211 9.00000000
-3.91182756 2.51810288 -0.40701732 30 10 30277 4.67000000 2433385213 2433385213 -5.00000000
-4.14381647 2.66948414 -0.25833029 20 12 30279 4.93600000 2433385218 2433385218 -3.00000000
-4.13281202 2.66443658 -0.08583093 18 14 30281 4.91800000 2433385222 2433385222 -1.00000000
-4.12736225 2.66092324 1.31583607 82 15 30281 5.08400000 2433385224 2433385224 15.00000000
-1.72602522 1.11618853 -0.55076694 4 0 30289 2.12800000 2433385245 2433385245 -15.00000000
-4.14037466 2.67852831 0.08607527 6 1 30290 4.93200000 2433385248 2433385248 1.00000000
-1.98775959 1.28643155 -0.54663104 3 2 30291 2.43000000 2433385250 2433385250 -13.00000000
-4.13607264 2.67779374 0.25822562 14 3 30292 4.93400000 2433385252 2433385252 3.00000000
-2.35336542 1.52362597 -0.54495049 3 4 30292 2.85600000 2433385254 2433385254 -11.00000000
-4.12384939 2.67090178 0.42985213 19 5 30293 4.93200000 2433385257 2433385257 5.00000000
-2.86802173 1.85824800 -0.54126322 1 6 30294 3.46000000 2433385259 2433385259 -9.00000000
-4.13280344 2.67874932 0.60471570 17 7 30295 4.96200000 2433385261 2433385261 7.00000000
-3.78089571 2.45159149 -0.55328679 8 8 30296 4.54000000 2433385264 2433385264 -7.00000000
-4.14147615 2.68642426 0.78185946 8 9 30297 4.99800000 2433385266 2433385266 9.00000000
-3.89465618 2.52632117 -0.40614575 33 10 30297 4.66000000 2433385268 2433385268 -5.00000000
-4.11230135 2.66851926 0.95290011 67 11 30298 4.99400000 2433385271 2433385271 11.00000000
-4.15457582 2.69698238 -0.25958633 10 12 30299 4.96000000 2433385273 2433385273 -3.00000000
-4.11693001 2.67356563 1.13330340 60 13 30300 5.03800000 2433385275 2433385275 13.00000000
-4.16373158 2.70499229 -0.08666865 8 14 30301 4.96600000 2433385277 2433385277 -1.00000000
-4.11272240 2.67287469 1.31428313 65 15 30302 5.07800000 2433385280 2433385280 15.00000000
-1.72211850 1.12220669 -0.55076694 4 0 30309 2.12800000 2433385301 2433385301 -15.00000000
-4.15110159 2.70606899 0.08649413 9 1 30310 4.95600000 2433385303 2433385303 1.00000000
-1.99305093 1.29974926 -0.54933047 4 2 30311 2.44200000 2433385305 2433385305 -13.00000000
-4.14008236 2.70094538 0.25906298 8 3 30312 4.95000000 2433385307 2433385307 3.00000000
-2.34145546 1.52754056 -0.54342401 3 4 30312 2.84800000 2433385310 2433385310 -11.00000000
-4.14119720 2.70270324 0.43264112 11 5 30313 4.96400000 2433385312 2433385312 5.00000000
-2.86151767 1.86824787 -0.54126322 1 6 30314 3.46000000 2433385314 2433385314 -9.00000000
-4.14004755 2.70401430 0.60715306 14 7 30315 4.98200000 2433385317 2433385317 7.00000000
-3.76899147 2.46260262 -0.55279934 8 8 30316 4.53600000 2433385319 2433385319 -7.00000000
-4.13538074 2.70302582 0.78248519 9 9 30317 5.00200000 2433385321 2433385321 9.00000000
-3.87580752 2.53336000 -0.40509990 30 10 30317 4.64800000 2433385324 2433385324 -5.00000000
-4.11939287 2.69360209 0.95671630 70 11 30318 5.01400000 2433385326 2433385326 11.00000000
-4.14680767 2.71256137 -0.25969100 15 12 30319 4.96200000 2433385328 2433385328 -3.00000000
-4.10757256 2.68792009 1.13330340 62 13 30320 5.03800000 2433385330 2433385330 13.00000000
-4.14087963 2.71074796 -0.08638941 16 14 30321 4.95000000 2433385333 2433385333 -1.00000000
-4.11353397 2.69284678 1.31738889 76 15 30321 5.09000000 2433385335 2433385335 15.00000000
-1.71173143 1.12396979 -0.54869640 4 0 30329 2.12000000 2433385356 2433385356 -15.00000000
-4.15165854 2.72712994 0.08670355 9 1 30330 4.96800000 2433385358 2433385358 1.00000000
-1.98850179 1.30669844 -0.54933047 4 2 30331 2.44200000 2433385360 2433385360 -13.00000000
-4.13062906 2.71538043 0.25906298 8 3 30332 4.95000000 2433385363 2433385363 3.00000000
-2.32626605 1.52923381 -0.54113430 2 4 30332 2.83600000 2433385365 2433385365 -11.00000000
-4.15171385 2.73027921 0.43473285 21 5 30333 4.98800000 2433385367 2433385367 5.00000000
-2.85332870 1.87713945 -0.54095036 1 6 30334 3.45800000 2433385370 2433385370 -9.00000000
-4.13721657 2.72281456 0.60812801 12 7 30335 4.99000000 2433385372 2433385372 7.00000000
-3.75539851 2.47246909 -0.55206811 10 8 30336 4.53000000 2433385374 2433385374 -7.00000000
-4.12427044 2.71635795 0.78217232 8 9 30337 5.00000000 2433385377 2433385377 9.00000000
-3.85695744 2.54029822 -0.40405402 30 10 30337 4.63600000 2433385379 2433385379 -5.00000000
-4.12635946 2.71876645 0.96053249 65 11 30338 5.03400000 2433385381 2433385381 11.00000000
-4.15065479 2.73581338 -0.26052839 15 12 30339 4.97800000 2433385383 2433385383 -3.00000000
-4.10792637 2.70867848 1.13600278 60 13 30340 5.05000000 2433385386 2433385386 13.00000000
-4.13806915 2.72959018 -0.08652903 14 14 30341 4.95800000 2433385388 2433385388 -1.00000000
-4.10088396 2.70506191 1.31635368 72 15 30341 5.08600000 2433385390 2433385390 15.00000000
-1.70115650 1.12597096 -0.54662585 4 0 30350 2.11200000 2433385412 2433385412 -15.00000000
-4.14496994 2.74453616 0.08677337 9 1 30351 4.97200000 2433385414 2433385414 1.00000000
-1.98694849 1.31613016 -0.55023026 3 2 30352 2.44600000 2433385417 2433385417 -13.00000000
-4.14610195 2.74632668 0.26063305 8 3 30352 4.98000000 2433385419 2433385419 3.00000000
-2.33046484 1.54425645 -0.54342401 2 4 30353 2.84800000 2433385421 2433385421 -11.00000000
-4.13171482 2.73887253 0.43368697 21 5 30354 4.97600000 2433385424 2433385424 5.00000000
-2.84313679 1.88540137 -0.54032463 1 6 30355 3.45400000 2433385426 2433385426 -9.00000000
-4.14705944 2.75112844 0.61105287 11 7 30356 5.01400000 2433385428 2433385428 7.00000000
-3.75954318 2.49499798 -0.55401802 10 8 30357 4.54600000 2433385430 2433385430 -7.00000000
-4.12957668 2.74056840 0.78498816 18 9 30357 5.01800000 2433385433 2433385433 9.00000000
-3.83268189 2.54449987 -0.40248522 33 10 30358 4.61800000 2433385435 2433385435 -5.00000000
-4.11963797 2.73604441 0.96129572 70 11 30359 5.03800000 2433385437 2433385437 11.00000000
-4.15557146 2.76095510 -0.26147044 17 12 30360 4.99600000 2433385440 2433385440 -3.00000000
-4.11095476 2.73234606 1.13960207 67 13 30361 5.06600000 2433385442 2433385442 13.00000000
-4.13469744 2.74916744 -0.08666865 16 14 30362 4.96600000 2433385444 2433385444 -1.00000000
-4.09737682 2.72435260 1.31842422 72 15 30362 5.09400000 2433385447 2433385447 15.00000000
-1.71007347 1.14047730 -0.55076694 4 0 30370 2.12800000 2433385467 2433385467 -15.00000000
-4.14035463 2.76231766 0.08687808 9 1 30371 4.97800000 2433385470 2433385470 1.00000000
-1.98882568 1.32738507 -0.55202991 3 2 30372 2.45400000 2433385472 2433385472 -13.00000000
-4.14431334 2.76704955 0.26115641 8 3 30373 4.99000000 2433385474 2433385474 3.00000000
-2.32179475 1.55020154 -0.54266077 2 4 30373 2.84400000 2433385477 2433385477 -11.00000000
-4.12875652 2.75770473 0.43438423 21 5 30374 4.98400000 2433385479 2433385479 5.00000000
-2.83161092 1.89202189 -0.53938603 3 6 30375 3.44800000 2433385481 2433385481 -9.00000000
-4.14073181 2.76779389 0.61154038 11 7 30376 5.01800000 2433385483 2433385483 7.00000000
-3.74421048 2.50369239 -0.55304307 10 8 30377 4.53800000 2433385486 2433385486 -7.00000000
-4.13099718 2.76337385 0.78717822 31 9 30378 5.03200000 2433385488 2433385488 9.00000000
-3.81880856 2.55453944 -0.40196228 28 10 30378 4.61200000 2433385490 2433385490 -5.00000000
-4.11495686 2.75368357 0.96244055 72 11 30379 5.04400000 2433385493 2433385493 11.00000000
-4.15586710 2.78211045 -0.26209846 20 12 30380 5.00800000 2433385495 2433385495 -3.00000000
-4.11110687 2.75318551 1.14230144 62 13 30381 5.07800000 2433385497 2433385497 13.00000000
-4.14501190 2.77693939 -0.08708750 14 14 30382 4.99000000 2433385500 2433385500 -1.00000000
-4.09699249 2.74580503 1.32153010 76 15 30383 5.10600000 2433385502 2433385502 15.00000000
-1.70608211 1.14643955 -0.55076694 4 0 30390 2.12800000 2433385523 2433385523 -15.00000000
-4.14064455 2.78344703 0.08708750 9 1 30391 4.99000000 2433385525 2433385525 1.00000000
-1.96800923 1.32344472 -0.54753089 3 2 30392 2.43400000 2433385527 2433385527 -13.00000000
-4.13345718 2.77966285 0.26105174 8 3 30392 4.98800000 2433385530 2433385530 3.00000000
-2.33591676 1.57144690 -0.54724020 3 4 30393 2.86800000 2433385532 2433385532 -11.00000000
-4.12902260 2.77877450 0.43543008 16 5 30394 4.99600000 2433385534 2433385534 5.00000000
-2.82826638 1.90410089 -0.54001176 3 6 30395 3.45200000 2433385536 2433385536 -9.00000000
-4.13598442 2.78555775 0.61227161 9 7 30396 5.02400000 2433385539 2433385539 7.00000000
-3.73215556 2.51452851 -0.55255562 14 8 30397 4.53400000 2433385541 2433385541 -7.00000000
-4.12787819 2.78219318 0.78842968 47 9 30398 5.04000000 2433385543 2433385543 9.00000000
-3.80821609 2.56674051 -0.40178797 36 10 30398 4.61000000 2433385546 2433385546 -5.00000000
-4.11508656 2.77461600 0.96473026 77 11 30399 5.05600000 2433385548 2433385548 11.00000000
-4.14613008 2.79660010 -0.26209846 10 12 30400 5.00800000 2433385550 2433385550 -3.00000000
-4.10147142 2.76751924 1.14230144 65 13 30401 5.07800000 2433385553 2433385553 13.00000000
-4.15021038 2.80146050 -0.08740165 16 14 30402 5.00800000 2433385555 2433385555 -1.00000000
-4.09747171 2.76586127 1.32463586 76 15 30402 5.11800000 2433385557 2433385557 15.00000000
-1.70526922 1.15455413 -0.55180222 4 0 30410 2.13200000 2433385578 2433385578 -15.00000000
-4.15077162 2.81134033 0.08750637 20 1 30411 5.01400000 2433385580 2433385580 1.00000000
-1.96660411 1.33249247 -0.54843068 3 2 30412 2.43800000 2433385582 2433385582 -13.00000000
-4.12868977 2.79743552 0.26136577 8 3 30412 4.99400000 2433385585 2433385585 3.00000000
-2.32716680 1.57738817 -0.54647696 3 4 30413 2.86400000 2433385587 2433385587 -11.00000000
-4.12754297 2.79876137 0.43630165 9 5 30414 5.00600000 2433385589 2433385589 5.00000000
-2.81996799 1.91285288 -0.53969890 3 6 30415 3.45000000 2433385592 2433385592 -9.00000000
-4.12952137 2.80220723 0.61275905 9 7 30416 5.02800000 2433385594 2433385594 7.00000000
-3.73156762 2.53311539 -0.55377430 14 8 30417 4.54400000 2433385596 2433385596 -7.00000000
-4.12467813 2.80102420 0.78968120 63 9 30418 5.04800000 2433385599 2433385599 9.00000000
-3.79593682 2.57777929 -0.40143934 44 10 30418 4.60600000 2433385601 2433385601 -5.00000000
-4.11511993 2.79558277 0.96701998 70 11 30419 5.06800000 2433385603 2433385603 11.00000000
-4.14460230 2.81666899 -0.26262182 10 12 30420 5.01800000 2433385606 2433385606 -3.00000000
-4.10145569 2.78839302 1.14500082 67 13 30421 5.09000000 2433385608 2433385608 13.00000000
-4.14205933 2.81705475 -0.08743656 14 14 30422 5.01000000 2433385610 2433385610 -1.00000000
-4.10696125 2.79318428 1.33084750 72 15 30422 5.14200000 2433385612 2433385612 15.00000000
-1.69803691 1.15832222 -0.55076694 4 0 30430 2.12800000 2433385633 2433385633 -15.00000000
-4.15579844 2.83595657 0.08782051 22 1 30431 5.03200000 2433385635 2433385635 1.00000000
-1.96998823 1.34484267 -0.55068016 4 2 30432 2.44800000 2433385638 2433385638 -13.00000000
-4.12830496 2.81930733 0.26199380 8 3 30433 5.00600000 2433385640 2433385640 3.00000000
-2.31191897 1.57885861 -0.54418725 3 4 30433 2.85200000 2433385642 2433385642 -11.00000000
-4.13090944 2.82214332 0.43769613 9 5 30434 5.02200000 2433385645 2433385645 5.00000000
-2.83936787 1.94051838 -0.54470479 1 6 30435 3.48200000 2433385647 2433385647 -9.00000000
-4.13446283 2.82668829 0.61495268 9 7 30436 5.04600000 2433385649 2433385649 7.00000000
-3.72597957 2.54836702 -0.55426174 16 8 30437 4.54800000 2433385652 2433385652 -7.00000000
-4.11047554 2.81134129 0.78874260 76 9 30437 5.04200000 2433385654 2433385654 9.00000000
-3.77211642 2.58088851 -0.39987054 44 10 30438 4.58800000 2433385656 2433385656 -5.00000000
-4.12153769 2.82101917 0.97083616 72 11 30439 5.08800000 2433385659 2433385659 11.00000000
-4.15122509 2.84240294 -0.26366854 10 12 30440 5.03800000 2433385661 2433385661 -3.00000000
-4.09652042 2.80599642 1.14635062 69 13 30441 5.09600000 2433385663 2433385663 13.00000000
-4.13549995 2.83375692 -0.08750637 14 14 30442 5.01400000 2433385665 2433385665 -1.00000000
-4.09988308 2.81040263 1.33188283 74 15 30443 5.14600000 2433385668 2433385668 15.00000000
-1.68761492 1.15986562 -0.54869640 4 0 30450 2.12000000 2433385688 2433385688 -15.00000000
-4.14257812 2.84817982 0.08775070 18 1 30451 5.02800000 2433385691 2433385691 1.00000000
-1.96046495 1.34839809 -0.54933047 3 2 30452 2.44200000 2433385693 2433385693 -13.00000000
-4.13374329 2.84316826 0.26293585 8 3 30452 5.02400000 2433385695 2433385695 3.00000000
-2.30639362 1.58691919 -0.54418725 3 4 30453 2.85200000 2433385698 2433385698 -11.00000000
-4.11446857 2.83202720 0.43699890 9 5 30454 5.01400000 2433385700 2433385700 5.00000000
-2.82769585 1.94705689 -0.54376620 3 6 30455 3.47600000 2433385702 2433385702 -9.00000000
-4.13601398 2.84898543 0.61665887 9 7 30456 5.06000000 2433385705 2433385705 7.00000000
-3.72523427 2.56698942 -0.55548048 18 8 30457 4.55800000 2433385707 2433385707 -7.00000000
-4.11478138 2.83647823 0.79155838 81 9 30458 5.06000000 2433385709 2433385709 9.00000000
-3.75980377 2.59177828 -0.39952192 47 10 30458 4.58400000 2433385712 2433385712 -5.00000000
-4.11489773 2.83761787 0.97159940 72 11 30459 5.09200000 2433385714 2433385714 11.00000000
-4.14456558 2.85914445 -0.26387790 10 12 30460 5.04200000 2433385716 2433385716 -3.00000000
-4.09472036 2.82581306 1.14860010 65 13 30461 5.10600000 2433385718 2433385718 13.00000000
-4.14533091 2.86180830 -0.08792523 14 14 30462 5.03800000 2433385721 2433385721 -1.00000000
-4.09640646 2.82908821 1.33395338 74 15 30463 5.15400000 2433385723 2433385723 15.00000000
-1.68375933 1.16545558 -0.54869640 4 0 30469 2.12000000 2433385744 2433385744 -15.00000000
-4.13311052 2.86190152 0.08775070 15 1 30470 5.02800000 2433385746 2433385746 1.00000000
-1.96239054 1.35933042 -0.55113006 4 2 30471 2.45000000 2433385748 2433385748 -13.00000000
-4.14892006 2.87391996 0.26450592 8 3 30471 5.05400000 2433385751 2433385751 3.00000000
-2.31080079 1.60126793 -0.54647696 3 4 30472 2.86400000 2433385753 2433385753 -11.00000000
-4.12634134 2.86041164 0.43926495 9 5 30473 5.04000000 2433385755 2433385755 5.00000000
-2.80823755 1.94741774 -0.54126322 3 6 30474 3.46000000 2433385758 2433385758 -9.00000000
-4.13306808 2.86721134 0.61763382 11 7 30475 5.06800000 2433385760 2433385760 7.00000000
-3.73301005 2.59064627 -0.55791783 8 8 30476 4.57800000 2433385762 2433385762 -7.00000000
-4.11883307 2.85840106 0.79406136 83 9 30476 5.07600000 2433385765 2433385765 9.00000000
-3.75609827 2.60764074 -0.40004486 44 10 30477 4.59000000 2433385767 2433385767 -5.00000000
-4.10707760 2.85236764 0.97198105 80 11 30478 5.09400000 2433385769 2433385769 11.00000000
-4.14490318 2.87970996 -0.26450592 10 12 30479 5.05400000 2433385771 2433385771 -3.00000000
-4.10612965 2.85383439 1.15444887 69 13 30480 5.13200000 2433385774 2433385774 13.00000000
-4.14238501 2.88010502 -0.08806484 10 14 30481 5.04600000 2433385776 2433385776 -1.00000000
-4.09176016 2.84596610 1.33550632 70 15 30482 5.16000000 2433385778 2433385778 15.00000000
-1.68601930 1.17574596 -0.55076694 4 0 30489 2.12800000 2433385799 2433385799 -15.00000000
-4.13457584 2.88432002 0.08799503 13 1 30490 5.04200000 2433385801 2433385801 1.00000000
-1.94484901 1.35725021 -0.54753089 3 2 30491 2.43400000 2433385804 2433385804 -13.00000000
-4.13394928 2.88495564 0.26419190 8 3 30491 5.04800000 2433385806 2433385806 3.00000000
-2.30841660 1.61157203 -0.54724020 3 4 30492 2.86800000 2433385808 2433385808 -11.00000000
-4.13429928 2.88734651 0.44118237 9 5 30493 5.06200000 2433385811 2433385811 5.00000000
-2.78361011 1.94476378 -0.53782171 1 6 30494 3.43800000 2433385813 2433385813 -9.00000000
-4.12303448 2.88162088 0.61763382 11 7 30495 5.06800000 2433385815 2433385815 7.00000000
-3.71092916 2.59456158 -0.55596793 18 8 30496 4.56200000 2433385818 2433385818 -7.00000000
-4.12178183 2.88181639 0.79656428 83 9 30496 5.09200000 2433385820 2433385820 9.00000000
-3.76656508 2.63443923 -0.40213659 21 10 30497 4.61400000 2433385822 2433385822 -5.00000000
-4.10031319 2.86893773 0.97274429 75 11 30498 5.09800000 2433385824 2433385824 11.00000000
-4.14300728 2.89988732 -0.26502928 10 12 30499 5.06400000 2433385827 2433385827 -3.00000000
-4.10412455 2.87373900 1.15669835 65 13 30500 5.14200000 2433385829 2433385829 13.00000000
-4.15032291 2.90716696 -0.08844879 8 14 30501 5.06800000 2433385831 2433385831 -1.00000000
-4.10236788 2.87464356 1.34223557 72 15 30502 5.18600000 2433385834 2433385834 15.00000000
-1.69138932 1.18828738 -0.55387276 4 0 30509 2.14000000 2433385854 2433385854 -15.00000000
-4.13920689 2.90908337 0.08830918 11 1 30510 5.06000000 2433385857 2433385857 1.00000000
-1.94647622 1.36851394 -0.54933047 3 2 30511 2.44200000 2433385859 2433385859 -13.00000000
-4.13529062 2.90740943 0.26492462 12 3 30511 5.06200000 2433385861 2433385861 3.00000000
-2.30277729 1.61962008 -0.54724020 3 4 30512 2.86800000 2433385864 2433385864 -11.00000000
-4.13560200 2.90978575 0.44240254 9 5 30513 5.07600000 2433385866 2433385866 5.00000000
-2.79941964 1.97038627 -0.54220188 1 6 30514 3.46600000 2433385868 2433385868 -9.00000000
-4.12268925 2.90285254 0.61909628 9 7 30515 5.08000000 2433385870 2433385870 7.00000000
-3.67426038 2.58806586 -0.55182439 20 8 30516 4.52800000 2433385873 2433385873 -7.00000000
-4.12138700 2.90301180 0.79844153 83 9 30516 5.10400000 2433385875 2433385875 9.00000000
-3.76874685 2.65560436 -0.40335679 27 10 30517 4.62800000 2433385877 2433385877 -5.00000000
-4.10632038 2.89454436 0.97656041 76 11 30518 5.11800000 2433385880 2433385880 11.00000000
-4.13938856 2.91893554 -0.26544797 10 12 30519 5.07200000 2433385882 2433385882 -3.00000000
-4.09566069 2.88917089 1.15714824 69 13 30520 5.14400000 2433385884 2433385884 13.00000000
-4.14505148 2.92509556 -0.08855351 8 14 30521 5.07400000 2433385887 2433385887 -1.00000000
-4.10701847 2.89825654 1.34689426 46 15 30521 5.20400000 2433385889 2433385889 15.00000000
-1.68092382 1.18971992 -0.55180222 4 0 30529 2.13200000 2433385910 2433385910 -15.00000000
-4.14045143 2.93160295 0.08855351 13 1 30530 5.07400000 2433385912 2433385912 1.00000000
-1.95440924 1.38431108 -0.55292970 3 2 30531 2.45800000 2433385914 2433385914 -13.00000000
-4.13652563 2.92990756 0.26565731 12 3 30531 5.07600000 2433385917 2433385917 3.00000000
-2.28109074 1.61629796 -0.54342401 3 4 30532 2.84800000 2433385919 2433385919 -11.00000000
-4.13354683 2.92996478 0.44327411 10 5 30533 5.08600000 2433385921 2433385921 5.00000000
-2.82314110 2.00185561 -0.54814637 3 6 30534 3.50400000 2433385923 2433385923 -9.00000000
-4.13034153 2.92985940 0.62177742 9 7 30535 5.10200000 2433385926 2433385926 7.00000000
-3.66034722 2.59742928 -0.55109316 34 8 30536 4.52200000 2433385928 2433385928 -7.00000000
-4.10800648 2.91509390 0.79781580 83 9 30536 5.10000000 2433385930 2433385930 9.00000000
-3.76432800 2.67220330 -0.40387970 24 10 30537 4.63400000 2433385933 2433385933 -5.00000000
-4.11700058 2.92363763 0.98152149 76 11 30538 5.14400000 2433385935 2433385935 11.00000000
-4.14871311 2.94724727 -0.26670402 10 12 30539 5.09600000 2433385937 2433385937 -3.00000000
-4.10302401 2.91586733 1.16209710 67 13 30540 5.16600000 2433385940 2433385940 13.00000000
-4.13155603 2.93722939 -0.08848370 8 14 30541 5.07000000 2433385942 2433385942 -1.00000000
-4.09794283 2.91440964 1.34741199 31 15 30542 5.20600000 2433385944 2433385944 15.00000000
-1.67046881 1.19109404 -0.54973167 4 0 30549 2.12400000 2433385965 2433385965 -15.00000000
-4.13344908 2.94836044 0.08862332 15 1 30550 5.07800000 2433385967 2433385967 1.00000000
-1.95273781 1.39338863 -0.55382949 3 2 30551 2.46200000 2433385970 2433385970 -13.00000000
-4.13713837 2.95317149 0.26639003 10 3 30552 5.09000000 2433385972 2433385972 3.00000000
-2.28502250 1.63109446 -0.54571372 3 4 30552 2.86000000 2433385974 2433385974 -11.00000000
-4.12005138 2.94206023 0.44292548 10 5 30553 5.08200000 2433385976 2433385976 5.00000000
-2.78398848 1.98873353 -0.54188901 3 6 30554 3.46400000 2433385979 2433385979 -9.00000000
-4.13300991 2.95349240 0.62372732 9 7 30555 5.11800000 2433385981 2433385981 7.00000000
-3.66094756 2.61711717 -0.55255562 42 8 30556 4.53400000 2433385983 2433385983 -7.00000000
-4.12030363 2.94549894 0.80219597 81 9 30556 5.12800000 2433385986 2433385986 9.00000000
-3.80521679 2.72125506 -0.40928337 8 10 30557 4.69600000 2433385988 2433385988 -5.00000000
-4.10996342 2.94027543 0.98228472 76 11 30558 5.14800000 2433385990 2433385990 11.00000000
-4.15301752 2.97217226 -0.26764607 10 12 30559 5.11400000 2433385993 2433385993 -3.00000000
-4.10232782 2.93697810 1.16479659 67 13 30560 5.17800000 2433385995 2433385995 13.00000000
-4.13916111 2.96444106 -0.08886766 8 14 30561 5.09200000 2433385997 2433385997 -1.00000000
-4.08982611 2.92910767 1.34792960 19 15 30561 5.20800000 2433386000 2433386000 15.00000000
-1.67571509 1.20368004 -0.55283749 4 0 30569 2.13600000 2433386020 2433386020 -15.00000000
-4.13287544 2.96977234 0.08883275 11 1 30570 5.09000000 2433386023 2433386023 1.00000000
-1.94153273 1.39564669 -0.55202991 4 2 30571 2.45400000 2433386025 2433386025 -13.00000000
-4.14950609 2.98391962 0.26785544 10 3 30572 5.11800000 2433386027 2433386027 3.00000000
-2.27931499 1.63906074 -0.54571372 3 4 30572 2.86000000 2433386029 2433386029 -11.00000000
-4.12754774 2.96922231 0.44484290 10 5 30573 5.10400000 2433386032 2433386032 5.00000000
-2.78183961 2.00190091 -0.54282761 1 6 30574 3.47000000 2433386034 2433386034 -9.00000000
-4.13073015 2.97370028 0.62494600 11 7 30575 5.12800000 2433386036 2433386036 7.00000000
-3.66950917 2.64264107 -0.55523676 28 8 30576 4.55600000 2433386039 2433386039 -7.00000000
-4.12069941 2.96866345 0.80438602 78 9 30577 5.14200000 2433386041 2433386041 9.00000000
-3.90885401 2.81604433 -0.42148519 25 10 30577 4.83600000 2433386043 2433386043 -5.00000000
-4.11560249 2.96608257 0.98610091 39 11 30578 5.16800000 2433386046 2433386046 11.00000000
-4.14261723 2.98665094 -0.26764607 10 12 30579 5.11400000 2433386048 2433386048 -3.00000000
-4.10469532 2.96039939 1.16839576 67 13 30580 5.19400000 2433386050 2433386050 13.00000000
-4.13689661 2.98472166 -0.08904218 8 14 30581 5.10200000 2433386053 2433386053 -1.00000000
-4.09002829 2.95199227 1.35155308 23 15 30582 5.22200000 2433386055 2433386055 15.00000000
-1.66545320 1.20470130 -0.55076694 4 0 30588 2.12800000 2433386076 2433386076 -15.00000000
-4.13434505 2.99166703 0.08907709 9 1 30589 5.10400000 2433386078 2433386078 1.00000000
-1.93057966 1.39750659 -0.55023026 3 2 30590 2.44600000 2433386080 2433386080 -13.00000000
-4.12988234 2.99063492 0.26722738 12 3 30591 5.10600000 2433386082 2433386082 3.00000000
-2.28022766 1.65121603 -0.54724020 3 4 30591 2.86800000 2433386085 2433386085 -11.00000000
-4.12897348 2.99107528 0.44606310 10 5 30592 5.11800000 2433386087 2433386087 5.00000000
-2.79118109 2.02270627 -0.54595625 1 6 30593 3.49000000 2433386089 2433386089 -9.00000000
-4.12727547 2.99204254 0.62592095 9 7 30594 5.13600000 2433386092 2433386092 7.00000000
-3.71054220 2.69092250 -0.56279260 64 8 30595 4.61800000 2433386094 2433386094 -7.00000000
-4.12414598 2.99087214 0.80688900 76 9 30595 5.15800000 2433386096 2433386096 9.00000000
-4.15591240 3.01501656 -0.44920069 12 10 30596 5.15400000 2433386099 2433386099 -5.00000000
-4.09938812 2.97510171 0.98457444 15 11 30597 5.16000000 2433386101 2433386101 11.00000000
-4.14562035 3.00975895 -0.26848346 10 12 30598 5.13000000 2433386103 2433386103 -3.00000000
-4.10116243 2.97857547 1.17019534 63 13 30599 5.20200000 2433386106 2433386106 13.00000000
-4.13830042 3.00665140 -0.08928651 8 14 30600 5.11600000 2433386108 2433386108 -1.00000000
-4.09011126 2.97163987 1.35465884 68 15 30600 5.23400000 2433386110 2433386110 15.00000000
-1.66748321 1.21505833 -0.55283749 4 0 30608 2.13600000 2433386131 2433386131 -15.00000000
-4.13195658 3.01197004 0.08925161 9 1 30609 5.11400000 2433386133 2433386133 1.00000000
-1.92568970 1.40423703 -0.55023026 3 2 30610 2.44600000 2433386135 2433386135 -13.00000000
-4.13232660 3.01444912 0.26806477 12 3 30611 5.12200000 2433386138 2433386138 3.00000000
-2.27444983 1.65916550 -0.54724020 3 4 30611 2.86800000 2433386140 2433386140 -11.00000000
-4.13138247 3.01486564 0.44745758 10 5 30612 5.13400000 2433386142 2433386142 5.00000000
-2.77453065 2.02544856 -0.54407907 1 6 30613 3.47800000 2433386145 2433386145 -9.00000000
-4.12161541 3.00994325 0.62665218 9 7 30614 5.14200000 2433386147 2433386147 7.00000000
-3.67868590 2.68746424 -0.55938029 38 8 30615 4.59000000 2433386149 2433386149 -7.00000000
-4.11634588 3.00829887 0.80751473 76 9 30616 5.16200000 2433386152 2433386152 9.00000000
-4.16305733 3.04243660 -0.45111811 12 10 30616 5.17600000 2433386154 2433386154 -5.00000000
-4.15121031 3.03600192 -0.26953018 10 12 30618 5.15000000 2433386158 2433386158 -3.00000000
-4.09703159 2.99747586 1.17199504 63 13 30619 5.21000000 2433386161 2433386161 13.00000000
-4.14068937 3.03052664 -0.08956575 8 14 30620 5.13200000 2433386163 2433386163 -1.00000000
-4.09945583 3.00144696 1.36138821 34 15 30621 5.26000000 2433386165 2433386165 15.00000000
-1.65367579 1.21430135 -0.54973167 4 0 30629 2.12400000 2433386186 2433386186 -15.00000000
-4.13378239 3.03656507 0.08953085 9 1 30630 5.13000000 2433386188 2433386188 1.00000000
-1.93623340 1.42282522 -0.55472928 3 2 30631 2.46600000 2433386191 2433386191 -13.00000000
-4.13412380 3.03903842 0.26890215 12 3 30632 5.13800000 2433386193 2433386193 3.00000000
-2.25886250 1.66051364 -0.54495049 3 4 30632 2.85600000 2433386195 2433386195 -11.00000000
-4.12191010 3.03116798 0.44763190 10 5 30633 5.13600000 2433386198 2433386198 5.00000000
-2.76708841 2.03560424 -0.54407907 1 6 30634 3.47800000 2433386200 2433386200 -9.00000000
-4.13134003 3.04032540 0.62982076 9 7 30635 5.16800000 2433386202 2433386202 7.00000000
-3.66721249 2.69975233 -0.55913657 30 8 30636 4.58800000 2433386205 2433386205 -7.00000000
-4.11218309 3.02733374 0.80876619 74 9 30636 5.17000000 2433386207 2433386207 9.00000000
-4.15829563 3.06240058 -0.45181537 12 10 30637 5.18400000 2433386209 2433386209 -5.00000000
-4.11434841 3.03114295 0.99335164 65 11 30638 5.20600000 2433386211 2433386211 11.00000000
-4.14970160 3.05830598 -0.27015820 10 12 30639 5.16200000 2433386214 2433386214 -3.00000000
-4.09542894 3.01941061 1.17469442 62 13 30640 5.22200000 2433386216 2433386216 13.00000000
-4.13760090 3.05161738 -0.08974028 8 14 30641 5.14200000 2433386218 2433386218 -1.00000000
-4.08895397 3.01573849 1.36138821 12 15 30641 5.26000000 2433386221 2433386221 15.00000000
-1.65563953 1.22466171 -0.55180222 4 0 30649 2.13200000 2433386241 2433386241 -15.00000000
-4.13280249 3.05811286 0.08974028 9 1 30650 5.14200000 2433386244 2433386244 1.00000000
-1.92812240 1.42725635 -0.55382949 3 2 30651 2.46200000 2433386246 2433386246 -13.00000000
-4.12830591 3.05701637 0.26921615 8 3 30652 5.14400000 2433386248 2433386248 3.00000000
-2.26251888 1.67539847 -0.54724020 3 4 30652 2.86800000 2433386251 2433386251 -11.00000000
-4.11930895 3.05146742 0.44850346 10 5 30653 5.14600000 2433386253 2433386253 5.00000000
-2.78059816 2.06054020 -0.54814637 3 6 30654 3.50400000 2433386255 2433386255 -9.00000000
-4.13505459 3.06536746 0.63201439 9 7 30655 5.18600000 2433386258 2433386258 7.00000000
-3.67690015 2.72672629 -0.56206143 10 8 30656 4.61200000 2433386260 2433386260 -7.00000000
-4.10899210 3.04826999 0.81033051 69 9 30657 5.18000000 2433386262 2433386262 9.00000000
-4.14758062 3.07689691 -0.45181537 12 10 30657 5.18400000 2433386264 2433386264 -5.00000000
-4.11004877 3.05016613 0.99487811 68 11 30658 5.21400000 2433386267 2433386267 11.00000000
-4.15343332 3.08348727 -0.27110025 10 12 30659 5.18000000 2433386269 2433386269 -3.00000000
-4.10050917 3.04530668 1.17919338 62 13 30660 5.24200000 2433386271 2433386271 13.00000000
-4.13976526 3.07558203 -0.09001951 10 14 30661 5.15800000 2433386274 2433386274 -1.00000000
-4.08407545 3.03531432 1.36345875 19 15 30662 5.26800000 2433386276 2433386276 15.00000000
-1.65156925 1.23014522 -0.55180222 4 0 30668 2.13200000 2433386297 2433386297 -15.00000000
-4.13546658 3.08135939 0.09001951 9 1 30669 5.15800000 2433386299 2433386299 1.00000000
-1.91712904 1.42898393 -0.55202991 3 2 30670 2.45400000 2433386301 2433386301 -13.00000000
-4.13896084 3.08621001 0.27057689 10 3 30671 5.17000000 2433386304 2433386304 3.00000000
-2.25380301 1.68054497 -0.54647696 3 4 30671 2.86400000 2433386306 2433386306 -11.00000000
-4.13152599 3.08178854 0.45094383 12 5 30672 5.17400000 2433386308 2433386308 5.00000000
-2.76266766 2.06148005 -0.54595625 3 6 30673 3.49000000 2433386311 2433386311 -9.00000000
-4.12009430 3.07550049 0.63128322 9 7 30674 5.18000000 2433386313 2433386313 7.00000000
-3.58671904 2.67833018 -0.54963076 6 8 30675 4.51000000 2433386315 2433386315 -7.00000000
-4.11997128 3.07652855 0.81439781 72 9 30675 5.20600000 2433386317 2433386317 9.00000000
-4.15012407 3.10017300 -0.45320988 12 10 30676 5.20000000 2433386320 2433386320 -5.00000000
-4.10305691 3.06612921 0.99564135 60 11 30677 5.21800000 2433386322 2433386322 11.00000000
-4.14478540 3.09843946 -0.27120492 10 12 30678 5.18200000 2433386324 2433386324 -3.00000000
-4.09975147 3.06589007 1.18189287 63 13 30679 5.25400000 2433386327 2433386327 13.00000000
-4.13915062 3.09648037 -0.09022894 14 14 30680 5.17000000 2433386329 2433386329 -1.00000000
-4.09153509 3.06085944 1.36915278 65 15 30680 5.29000000 2433386331 2433386331 15.00000000
-1.65190101 1.23938096 -0.55335510 4 0 30688 2.13800000 2433386352 2433386352 -15.00000000
-4.12948370 3.09937716 0.09012423 9 1 30689 5.16400000 2433386354 2433386354 1.00000000
-1.91212928 1.43566728 -0.55202991 3 2 30690 2.45400000 2433386357 2433386357 -13.00000000
-4.12816238 3.10063887 0.27057689 8 3 30691 5.17000000 2433386359 2433386359 3.00000000
-2.26048136 1.69783437 -0.54952991 3 4 30691 2.88000000 2433386361 2433386361 -11.00000000
-4.12711477 3.10097861 0.45164105 10 5 30692 5.18200000 2433386364 2433386364 5.00000000
-2.74913859 2.06636333 -0.54470479 1 6 30693 3.48200000 2433386366 2433386366 -9.00000000
-4.11885357 3.09702158 0.63274562 9 7 30694 5.19200000 2433386368 2433386368 7.00000000
-3.57417536 2.68844724 -0.54914325 12 8 30695 4.50600000 2433386370 2433386370 -7.00000000
-4.11498165 3.09635925 0.81564927 78 9 30696 5.21400000 2433386373 2433386373 9.00000000
-4.14405298 3.11823440 -0.45373279 9 10 30696 5.20600000 2433386375 2433386375 -5.00000000
-4.10487747 3.08987832 0.99869430 57 11 30697 5.23400000 2433386377 2433386377 11.00000000
-4.14032650 3.11769438 -0.27162361 10 12 30698 5.19000000 2433386380 2433386380 -3.00000000
-4.09213781 3.08252740 1.18279266 63 13 30699 5.25800000 2433386382 2433386382 13.00000000
-4.13949585 3.11933398 -0.09047327 12 14 30700 5.18400000 2433386384 2433386384 -1.00000000
-4.08800220 3.08164954 1.37174094 48 15 30701 5.30000000 2433386387 2433386387 15.00000000
-1.64910591 1.24630439 -0.55387276 4 0 30708 2.14000000 2433386407 2433386407 -15.00000000
-4.12980556 3.12221456 0.09036856 9 1 30709 5.17800000 2433386410 2433386410 1.00000000
-1.91332340 1.44703507 -0.55382949 4 2 30710 2.46200000 2433386412 2433386412 -13.00000000
-4.11572123 3.11382508 0.27047223 8 3 30711 5.16800000 2433386414 2433386414 3.00000000
-2.25140953 1.70334554 -0.54876667 3 4 30711 2.87600000 2433386417 2433386417 -11.00000000
-4.12579727 3.12258029 0.45268694 10 5 30712 5.19400000 2433386419 2433386419 5.00000000
-2.74978328 2.08190894 -0.54626918 3 6 30713 3.49200000 2433386421 2433386421 -9.00000000
-4.12700701 3.12576246 0.63567048 9 7 30714 5.21600000 2433386423 2433386423 7.00000000
-3.56160450 2.69850945 -0.54865581 14 8 30715 4.50200000 2433386426 2433386426 -7.00000000
-4.11098862 3.11475968 0.81690079 74 9 30715 5.22200000 2433386428 2433386428 9.00000000
-3.95371747 2.99668670 -0.43403560 12 10 30716 4.98000000 2433386430 2433386430 -5.00000000
-4.10658169 3.11367750 1.00174725 18 11 30717 5.25000000 2433386433 2433386433 11.00000000
-4.14374018 3.14299059 -0.27256566 10 12 30718 5.20800000 2433386435 2433386435 -3.00000000
-4.08445740 3.09914851 1.18369246 63 13 30719 5.26200000 2433386437 2433386437 13.00000000
-4.13495350 3.13860059 -0.09061290 12 14 30720 5.19200000 2433386440 2433386440 -1.00000000
-4.08391571 3.09986091 1.37381148 17 15 30720 5.30800000 2433386442 2433386442 15.00000000
-1.64474547 1.25205326 -0.55387276 4 0 30728 2.14000000 2433386463 2433386463 -15.00000000
-4.13160896 3.14630342 0.09064780 9 1 30729 5.19400000 2433386465 2433386465 1.00000000
-1.90516031 1.45134318 -0.55292970 3 2 30730 2.45800000 2433386467 2433386467 -13.00000000
-4.12230110 3.14148903 0.27162361 8 3 30731 5.19000000 2433386470 2433386470 3.00000000
-2.23295808 1.70167410 -0.54571372 3 4 30731 2.86000000 2433386472 2433386472 -11.00000000
-4.12913227 3.14783430 0.45425573 12 5 30732 5.21200000 2433386474 2433386474 5.00000000
-2.74092865 2.09029698 -0.54595625 1 6 30733 3.49000000 2433386476 2433386476 -9.00000000
-4.12238407 3.14496565 0.63664544 9 7 30734 5.22400000 2433386479 2433386479 7.00000000
-3.55374146 2.71212959 -0.54889953 16 8 30735 4.50400000 2433386481 2433386481 -7.00000000
-4.10794306 3.13508296 0.81846511 81 9 30735 5.23200000 2433386483 2433386483 9.00000000
-4.04616880 3.08905602 -0.44536585 9 10 30736 5.11000000 2433386486 2433386486 -5.00000000
-4.10817003 3.13752627 1.00480020 39 11 30737 5.26600000 2433386488 2433386488 11.00000000
-4.14861441 3.16956115 -0.27361238 10 12 30738 5.22800000 2433386490 2433386490 -3.00000000
-4.08290434 3.12048721 1.18639183 65 13 30739 5.27400000 2433386493 2433386493 13.00000000
-4.13191557 3.15908790 -0.09078742 12 14 30740 5.20200000 2433386495 2433386495 -1.00000000
-4.08381319 3.12231112 1.37743497 12 15 30740 5.32200000 2433386497 2433386497 15.00000000
-1.63423276 1.25308478 -0.55180222 4 0 30748 2.13200000 2433386518 2433386518 -15.00000000
-4.12694788 3.16557431 0.09078742 9 1 30749 5.20200000 2433386520 2433386520 1.00000000
-1.91399693 1.46866143 -0.55697882 4 2 30750 2.47600000 2433386523 2433386523 -13.00000000
-4.12556887 3.16680455 0.27256566 8 3 30751 5.20800000 2433386525 2433386525 3.00000000
-2.22700453 1.70945823 -0.54571372 3 4 30751 2.86000000 2433386527 2433386527 -11.00000000
-4.12444019 3.16708231 0.45495299 12 5 30752 5.22000000 2433386529 2433386529 5.00000000
-2.73988175 2.10466528 -0.54720777 1 6 30753 3.49800000 2433386532 2433386532 -9.00000000
-4.11767721 3.16417456 0.63762039 9 7 30754 5.23200000 2433386534 2433386534 7.00000000
-3.54582644 2.72572780 -0.54914325 14 8 30755 4.50600000 2433386536 2433386536 -7.00000000
-4.10895205 3.15975165 0.82096809 81 9 30756 5.24800000 2433386539 2433386539 9.00000000
-4.14276028 3.18575001 -0.45721903 9 10 30756 5.24600000 2433386541 2433386541 -5.00000000
-4.11119795 3.16262078 1.00823474 76 11 30757 5.28400000 2433386543 2433386543 11.00000000
-4.15651941 3.19864011 -0.27486843 10 12 30758 5.25200000 2433386546 2433386546 -3.00000000
-4.08897305 3.14779639 1.19134080 69 13 30759 5.29600000 2433386548 2433386548 13.00000000
-4.13353777 3.18325257 -0.09106666 10 14 30760 5.21800000 2433386550 2433386550 -1.00000000
-4.08972597 3.14951301 1.38312900 23 15 30760 5.34400000 2433386552 2433386552 15.00000000
-1.63290656 1.26114345 -0.55283749 4 0 30768 2.13600000 2433386573 2433386573 -15.00000000
-4.12220287 3.18485117 0.09092703 11 1 30769 5.21000000 2433386576 2433386576 1.00000000
-1.89806545 1.46699166 -0.55382949 3 2 30770 2.46200000 2433386578 2433386578 -13.00000000
-4.12555027 3.18973780 0.27329835 8 3 30771 5.22200000 2433386580 2433386580 3.00000000
-2.23344898 1.72682834 -0.54876667 3 4 30771 2.87600000 2433386582 2433386582 -11.00000000
-4.11020803 3.17902207 0.45460436 10 5 30772 5.21600000 2433386585 2433386585 5.00000000
-2.73095608 2.11300778 -0.54689491 3 6 30773 3.49600000 2433386587 2433386587 -9.00000000
-4.11916542 3.18824887 0.63957030 9 7 30774 5.24800000 2433386589 2433386589 7.00000000
-3.50803757 2.71621299 -0.54475594 6 8 30775 4.47000000 2433386592 2433386592 -7.00000000
-4.10570574 3.18012333 0.82253242 78 9 30776 5.25800000 2433386594 2433386594 9.00000000
-4.15051651 3.21483207 -0.45931077 9 10 30776 5.27000000 2433386596 2433386596 -5.00000000
-4.09547758 3.17334485 1.00708985 73 11 30777 5.27800000 2433386599 2433386599 11.00000000
-4.14217138 3.21068239 -0.27465910 10 12 30778 5.24800000 2433386601 2433386601 -3.00000000
-4.09336042 3.17399168 1.19583976 69 13 30779 5.31600000 2433386603 2433386603 13.00000000
-4.13030148 3.20378995 -0.09124118 8 14 30780 5.22800000 2433386605 2433386605 -1.00000000
-4.07815504 3.16448140 1.38312900 42 15 30781 5.34400000 2433386608 2433386608 15.00000000
-1.63154411 1.26920795 -0.55387276 4 0 30788 2.14000000 2433386629 2433386629 -15.00000000
-4.11895084 3.20536160 0.09110156 11 1 30789 5.22000000 2433386631 2433386631 1.00000000
-1.89447081 1.47480536 -0.55427939 4 2 30790 2.46400000 2433386633 2433386633 -13.00000000
-4.12699699 3.21393657 0.27413574 8 3 30791 5.23800000 2433386635 2433386635 3.00000000
-2.23360348 1.73943913 -0.55029315 3 4 30791 2.88400000 2433386638 2433386638 -11.00000000
-4.11323166 3.20437002 0.45617315 7 5 30792 5.23400000 2433386640 2433386640 5.00000000
-2.71888924 2.11888480 -0.54595625 1 6 30793 3.49000000 2433386642 2433386642 -9.00000000
-4.11270809 3.20626950 0.64030153 9 7 30794 5.25400000 2433386645 2433386645 7.00000000
-3.46096683 2.69914293 -0.53890622 8 8 30795 4.42200000 2433386647 2433386647 -7.00000000
-4.11171198 3.20780134 0.82597399 83 9 30796 5.28000000 2433386649 2433386649 9.00000000
-4.14869452 3.23665380 -0.46035662 13 10 30796 5.28200000 2433386652 2433386652 -5.00000000
-4.09056616 3.19245291 1.00861633 65 11 30797 5.28600000 2433386654 2433386654 11.00000000
-4.12779045 3.22266340 -0.27444977 10 12 30798 5.24400000 2433386656 2433386656 -3.00000000
-4.08993530 3.19425845 1.19808936 65 13 30799 5.32600000 2433386658 2433386658 13.00000000
-4.13800192 3.23296165 -0.09166004 12 14 30800 5.25200000 2433386661 2433386661 -1.00000000
-4.08133936 3.18869185 1.38778770 65 15 30800 5.36200000 2433386663 2433386663 15.00000000
-1.63318634 1.27966142 -0.55594331 4 0 30808 2.14800000 2433386684 2433386684 -15.00000000
-4.12347555 3.23205590 0.09145061 9 1 30809 5.24000000 2433386686 2433386686 1.00000000
-1.88471067 1.47780192 -0.55292970 3 2 30810 2.45800000 2433386688 2433386688 -13.00000000
-4.11103868 3.22462487 0.27382171 8 3 30811 5.23200000 2433386691 2433386691 3.00000000
-2.21516037 1.73753190 -0.54724020 3 4 30811 2.86800000 2433386693 2433386693 -11.00000000
-4.12710047 3.23838711 0.45896214 10 5 30812 5.26600000 2433386695 2433386695 5.00000000
-2.72390723 2.13812017 -0.54845923 1 6 30813 3.50600000 2433386698 2433386698 -9.00000000
-4.10929728 3.22673583 0.64152020 9 7 30814 5.26400000 2433386700 2433386700 7.00000000
-3.44684076 2.70752883 -0.53817505 12 8 30815 4.41600000 2433386702 2433386702 -7.00000000
-4.10670280 3.22701645 0.82722545 81 9 30816 5.28800000 2433386705 2433386705 9.00000000
-4.15303755 3.26342583 -0.46209976 13 10 30816 5.30200000 2433386707 2433386707 -5.00000000
-4.09791946 3.22127175 1.01319575 73 11 30817 5.31000000 2433386709 2433386709 11.00000000
-4.13692570 3.25310206 -0.27581048 10 12 30818 5.27000000 2433386711 2433386711 -3.00000000
-4.08488703 3.21333480 1.19988894 67 13 30819 5.33400000 2433386714 2433386714 13.00000000
-4.12669182 3.24738622 -0.09166004 8 14 30820 5.25200000 2433386716 2433386716 -1.00000000
-4.09599304 3.22322845 1.39658761 68 15 30820 5.39600000 2433386718 2433386718 15.00000000
-1.61961067 1.27817369 -0.55283749 4 0 30828 2.13600000 2433386739 2433386739 -15.00000000
-4.12943316 3.26005983 0.09183456 9 1 30829 5.26200000 2433386741 2433386741 1.00000000
-1.89330459 1.49524188 -0.55697882 4 2 30830 2.47600000 2433386744 2433386744 -13.00000000
-4.12069893 3.25433207 0.27518246 8 3 30830 5.25800000 2433386746 2433386746 3.00000000
-2.22140574 1.75499010 -0.55029315 3 4 30831 2.88400000 2433386748 2433386748 -11.00000000
-4.12358713 3.25895071 0.45983371 10 5 30832 5.27600000 2433386751 2433386751 5.00000000
-2.71797681 2.14884043 -0.54877210 1 6 30833 3.50800000 2433386753 2433386753 -9.00000000
-4.11824989 3.25706863 0.64468884 9 7 30834 5.29000000 2433386755 2433386755 7.00000000
-3.43736863 2.71954417 -0.53817505 12 8 30835 4.41600000 2433386757 2433386757 -7.00000000
-4.09752798 3.24184275 0.82753831 78 9 30835 5.29000000 2433386760 2433386760 9.00000000
-4.15411901 3.28779459 -0.46349424 9 10 30836 5.31800000 2433386762 2433386762 -5.00000000
-4.10512066 3.25018048 1.01777518 70 11 30837 5.33400000 2433386764 2433386764 11.00000000
-4.14589882 3.28364348 -0.27717122 11 12 30838 5.29600000 2433386767 2433386767 -3.00000000
-4.08739233 3.23846579 1.20393801 69 13 30839 5.35200000 2433386769 2433386769 13.00000000
-4.12943554 3.27295017 -0.09197418 8 14 30840 5.27000000 2433386771 2433386771 -1.00000000
-4.08774471 3.23990655 1.39762282 68 15 30840 5.40000000 2433386774 2433386774 15.00000000
-1.61513913 1.28381944 -0.55283749 4 0 30848 2.13600000 2433386794 2433386794 -15.00000000
-4.12272406 3.27818823 0.09193928 11 1 30849 5.26800000 2433386797 2433386797 1.00000000
-1.88349843 1.49820232 -0.55562907 3 2 30850 2.47000000 2433386799 2433386799 -13.00000000
-4.11968374 3.27811861 0.27591518 8 3 30851 5.27200000 2433386801 2433386801 3.00000000
-2.21219349 1.76028872 -0.54952991 3 4 30851 2.88000000 2433386804 2433386804 -11.00000000
-4.11842155 3.27828813 0.46053094 10 5 30852 5.28400000 2433386806 2433386806 5.00000000
-2.72900295 2.17308092 -0.55252653 1 6 30853 3.53200000 2433386808 2433386808 -9.00000000
-4.12238216 3.28379250 0.64712620 14 7 30854 5.31000000 2433386810 2433386810 7.00000000
-3.43716955 2.73894882 -0.53963745 12 8 30855 4.42800000 2433386813 2433386813 -7.00000000
-4.10106516 3.26915240 0.83066702 74 9 30856 5.31000000 2433386815 2433386815 9.00000000
-4.13950109 3.29979134 -0.46314561 13 10 30856 5.31400000 2433386817 2433386817 -5.00000000
-4.09835529 3.26816225 1.01892006 79 11 30857 5.34000000 2433386820 2433386820 11.00000000
-4.14377975 3.30556822 -0.27779925 11 12 30858 5.30800000 2433386822 2433386822 -3.00000000
-4.09281826 3.26608443 1.20888698 67 13 30859 5.37400000 2433386824 2433386824 13.00000000
-4.12267399 3.29108739 -0.09207889 8 14 30860 5.27600000 2433386827 2433386827 -1.00000000
-4.08188057 3.25968909 1.39969337 68 15 30861 5.40800000 2433386829 2433386829 15.00000000
-1.61366415 1.29186416 -0.55387276 4 0 30868 2.14000000 2433386850 2433386850 -15.00000000
-4.12374258 3.30255938 0.09221852 16 1 30869 5.28400000 2433386852 2433386852 1.00000000
-1.87521553 1.50233090 -0.55472928 4 2 30870 2.46600000 2433386854 2433386854 -13.00000000
-4.12593651 3.30549836 0.27706656 10 3 30870 5.29400000 2433386857 2433386857 3.00000000
-2.19990778 1.76308894 -0.54800344 3 4 30871 2.87200000 2433386859 2433386859 -11.00000000
-4.11627960 3.30012178 0.46157682 7 5 30872 5.29600000 2433386861 2433386861 5.00000000
-2.70907283 2.17270660 -0.55002356 1 6 30873 3.51600000 2433386863 2433386863 -9.00000000
-4.11553955 3.30188894 0.64785743 23 7 30874 5.31600000 2433386866 2433386866 7.00000000
-3.42913604 2.75217271 -0.53988117 8 8 30875 4.43000000 2433386868 2433386868 -7.00000000
-4.10965347 3.29952502 0.83473432 81 9 30876 5.33600000 2433386870 2433386870 9.00000000
-4.14815426 3.33043647 -0.46541166 13 10 30876 5.34000000 2433386873 2433386873 -5.00000000
-4.09151459 3.28613639 1.02006483 74 11 30877 5.34600000 2433386875 2433386875 11.00000000
-4.13377285 3.32126355 -0.27790391 11 12 30878 5.31000000 2433386877 2433386877 -3.00000000
-4.09961987 3.29500103 1.21428585 63 13 30879 5.39800000 2433386880 2433386880 13.00000000
-4.12518692 3.31673527 -0.09239304 6 14 30880 5.29400000 2433386882 2433386882 -1.00000000
-4.08008194 3.28047013 1.40279925 68 15 30880 5.42000000 2433386884 2433386884 15.00000000
-1.61215258 1.29991424 -0.55490804 4 0 30888 2.14400000 2433386905 2433386905 -15.00000000
-4.12464142 3.32697749 0.09249775 19 1 30889 5.30000000 2433386907 2433386907 1.00000000
-1.86389363 1.50397253 -0.55292970 3 2 30890 2.45800000 2433386909 2433386909 -13.00000000
-4.12525320 3.32865977 0.27779925 17 3 30890 5.30800000 2433386912 2433386912 3.00000000
-2.21207213 1.78555465 -0.55258286 3 4 30891 2.89600000 2433386914 2433386914 -11.00000000
-4.11713600 3.32448363 0.46297130 7 5 30892 5.31200000 2433386916 2433386916 5.00000000
-2.69686222 2.17842603 -0.54908496 1 6 30893 3.51000000 2433386919 2433386919 -9.00000000
-4.10862064 3.31997776 0.64858866 33 7 30894 5.32200000 2433386921 2433386921 7.00000000
-3.41950822 2.76412582 -0.53988117 8 8 30895 4.43000000 2433386923 2433386923 -7.00000000
-4.11500692 3.32751298 0.83817589 74 9 30896 5.35800000 2433386926 2433386926 9.00000000
-4.15199614 3.35742354 -0.46715477 13 10 30896 5.36000000 2433386928 2433386928 -5.00000000
-4.09222984 3.31027627 1.02311778 74 11 30897 5.36200000 2433386930 2433386930 11.00000000
-4.12991714 3.34195471 -0.27842727 11 12 30898 5.32000000 2433386933 2433386933 -3.00000000
-4.09415197 3.31419587 1.21608543 62 13 30899 5.40600000 2433386935 2433386935 13.00000000
-4.13378668 3.34747458 -0.09284680 8 14 30900 5.32000000 2433386937 2433386937 -1.00000000
-4.08361959 3.30684996 1.40797555 63 15 30900 5.44000000 2433386939 2433386939 15.00000000
-1.61406112 1.30984187 -0.55697858 4 0 30906 2.15200000 2433386960 2433386960 -15.00000000
-4.12348413 3.34748101 0.09270718 11 1 30907 5.31200000 2433386962 2433386962 1.00000000
