# .PCD v0.7 - Point Cloud Data file format
VERSION 0.7
FIELDS x y z intensity laser_id azimuth distance_m adjustedtime timestamp vertical_angle
SIZE 4 4 4 1 1 2 8 8 4 8
TYPE F F F U U U F U U F
COUNT 1 1 1 1 1 1 1 1 1 1
WIDTH 538
HEIGHT 1
VIEWPOINT 0 0 0 1 0 0 0
POINTS 538
DATA ascii
1.58147943 2.18232155 -0.62221462 3 2 3593 2.76600000 2433511104 2433511104 -13.00000000
1.92204988 2.65130877 -0.63653880 2 4 3594 3.33600000 2433511108 2433511108 -11.00000000
2.43596077 3.35773945 -0.65702474 4 6 3596 4.20000000 2433511113 2433511113 -9.00000000
3.33313489 4.59103584 -0.69660515 9 8 3598 5.71600000 2433511117 2433511117 -7.00000000
3.48903108 4.80400229 -0.51944822 15 10 3599 5.96000000 2433511122 2433511122 -5.00000000
4.97589254 6.84370375 1.95347500 12 13 3602 8.68400000 2433511129 2433511129 13.00000000
5.17837143 7.11696291 2.35835910 42 15 3604 9.11200000 2433511134 2433511134 15.00000000
1.34426141 1.84344244 -0.61133057 4 0 3610 2.36200000 2433511154 2433511154 -15.00000000
1.61283112 2.21012259 -0.63166255 3 2 3612 2.80800000 2433511159 2433511159 -13.00000000
2.45407367 3.35921335 -0.65890199 4 6 3615 4.21200000 2433511168 2433511168 -9.00000000
3.35185575 4.58476496 -0.69733638 15 8 3617 5.72200000 2433511173 2433511173 -7.00000000
3.48612404 4.76667452 -0.51665926 15 10 3618 5.92800000 2433511177 2433511177 -5.00000000
3.51046729 4.79644537 -0.31150362 12 12 3620 5.95200000 2433511182 2433511182 -3.00000000
5.00316477 6.83345509 1.95527458 18 13 3621 8.69200000 2433511184 2433511184 13.00000000
5.19842100 7.09754229 2.35732388 42 15 3622 9.10800000 2433511189 2433511189 15.00000000
1.34611332 1.83251119 -0.60926002 4 0 3630 2.35400000 2433511210 2433511210 -15.00000000
1.61591923 2.19819880 -0.62986296 3 2 3632 2.80000000 2433511214 2433511214 -13.00000000
2.45875955 3.34108067 -0.65702474 6 6 3635 4.20000000 2433511223 2433511223 -9.00000000
3.37137055 4.57783222 -0.69806761 15 8 3637 5.72800000 2433511228 2433511228 -7.00000000
3.49210572 4.74004030 -0.51509047 22 10 3638 5.91000000 2433511233 2433511233 -5.00000000
3.50941062 4.76004887 -0.30993354 31 12 3640 5.92200000 2433511237 2433511237 -3.00000000
5.04433775 6.83947420 1.96202314 23 13 3641 8.72200000 2433511240 2433511240 13.00000000
5.21857691 7.07313490 2.35525322 42 15 3642 9.10000000 2433511244 2433511244 15.00000000
1.36399281 1.84333050 -0.61443639 4 0 3650 2.37400000 2433511265 2433511265 -15.00000000
1.62126303 2.18941259 -0.62896317 3 2 3652 2.79600000 2433511270 2433511270 -13.00000000
3.49883223 4.72322607 -1.14256430 138 4 3653 5.98800000 2433511274 2433511274 -11.00000000
2.46334887 3.32295632 -0.65514755 6 6 3655 4.18800000 2433511279 2433511279 -9.00000000
3.39324331 4.57400751 -0.69928628 13 8 3657 5.73800000 2433511283 2433511283 -7.00000000
3.49675655 4.71182203 -0.51334733 37 10 3658 5.89000000 2433511288 2433511288 -5.00000000
3.51290584 4.73013163 -0.30878213 50 12 3660 5.90000000 2433511293 2433511293 -3.00000000
5.08096504 6.83903122 1.96697199 21 13 3661 8.74400000 2433511295 2433511295 13.00000000
3.54150772 4.76516819 -0.10363239 2 14 3662 5.93800000 2433511297 2433511297 -1.00000000
5.24323511 7.05487537 2.35525322 42 15 3662 9.10000000 2433511299 2433511299 15.00000000
1.36580086 1.83236241 -0.61236584 4 0 3670 2.36600000 2433511320 2433511320 -15.00000000
1.62773049 2.18217802 -0.62851322 3 2 3672 2.79400000 2433511325 2433511325 -13.00000000
3.51177549 4.70626354 -1.14141941 175 4 3673 5.98200000 2433511329 2433511329 -11.00000000
2.48084259 3.32225132 -0.65671188 6 6 3675 4.19800000 2433511334 2433511334 -9.00000000
3.40681219 4.55895472 -0.69879884 11 8 3677 5.73400000 2433511339 2433511339 -7.00000000
3.50960398 4.69479990 -0.51282442 60 10 3678 5.88400000 2433511343 2433511343 -5.00000000
3.52461004 4.71144342 -0.30836347 84 12 3680 5.89200000 2433511348 2433511348 -3.00000000
5.11648321 6.83685589 1.97147107 20 13 3681 8.76400000 2433511350 2433511350 13.00000000
3.54014325 4.72876501 -0.10310882 6 14 3682 5.90800000 2433511352 2433511352 -1.00000000
5.27021503 7.03715706 2.35577106 45 15 3683 9.10200000 2433511355 2433511355 15.00000000
1.38146806 1.83994269 -0.61650699 4 0 3690 2.38200000 2433511376 2433511376 -15.00000000
1.62831414 2.16713500 -0.62581384 3 2 3692 2.78200000 2433511380 2433511380 -13.00000000
3.52582288 4.69083786 -1.14065623 175 4 3693 5.97800000 2433511385 2433511385 -11.00000000
2.49836159 3.32146454 -0.65827620 6 6 3695 4.20800000 2433511389 2433511389 -9.00000000
3.41792989 4.54069090 -0.69782388 11 8 3697 5.72600000 2433511394 2433511394 -7.00000000
3.54754329 4.71116972 -0.51596200 30 10 3698 5.92000000 2433511399 2433511399 -5.00000000
3.54223657 4.70070648 -0.30846813 96 12 3700 5.89400000 2433511403 2433511403 -3.00000000
5.14735508 6.82829142 1.97417045 18 13 3701 8.77600000 2433511405 2433511405 13.00000000
3.55422020 4.71318531 -0.10303900 11 14 3702 5.90400000 2433511408 2433511408 -1.00000000
5.30050135 7.02889633 2.35887671 45 15 3702 9.11400000 2433511410 2433511410 15.00000000
1.37739444 1.82124197 -0.61184824 4 0 3710 2.36400000 2433511431 2433511431 -15.00000000
1.63351691 2.15833020 -0.62491405 3 2 3712 2.77800000 2433511435 2433511435 -13.00000000
3.54217553 4.67850208 -1.14065623 154 4 3713 5.97800000 2433511440 2433511440 -11.00000000
2.50039697 3.30012751 -0.65577328 4 6 3715 4.19200000 2433511445 2433511445 -9.00000000
3.44095516 4.53822327 -0.69928628 11 8 3717 5.73800000 2433511449 2433511449 -7.00000000
3.56035471 4.69399548 -0.51543903 30 10 3718 5.91400000 2433511454 2433511454 -5.00000000
3.56466126 4.69626760 -0.30899149 71 12 3720 5.90400000 2433511458 2433511458 -3.00000000
5.18647909 6.83045816 1.98001921 8 13 3721 8.80200000 2433511461 2433511461 13.00000000
5.32383585 7.00881290 2.35835910 45 15 3722 9.11200000 2433511465 2433511465 15.00000000
1.38459671 1.81820130 -0.61236584 4 0 3729 2.36600000 2433511487 2433511487 -15.00000000
1.65011466 2.16530108 -0.62851322 3 2 3731 2.79400000 2433511492 2433511492 -13.00000000
3.56005096 4.66985273 -1.14141941 125 4 3732 5.98200000 2433511496 2433511496 -11.00000000
2.51372313 3.29495859 -0.65639901 4 6 3734 4.19600000 2433511501 2433511501 -9.00000000
3.46321321 4.53625441 -0.70074874 11 8 3736 5.75000000 2433511505 2433511505 -7.00000000
3.57469153 4.68057966 -0.51526475 26 10 3737 5.91200000 2433511510 2433511510 -5.00000000
3.59113026 4.69870281 -0.30993354 53 12 3739 5.92200000 2433511515 2433511515 -3.00000000
3.59229350 4.69682550 -0.10321353 33 14 3741 5.91400000 2433511519 2433511519 -1.00000000
5.33531237 6.97577524 2.35318279 45 15 3741 9.09200000 2433511522 2433511522 15.00000000
1.39093506 1.81335700 -0.61236584 4 0 3749 2.36600000 2433511542 2433511542 -15.00000000
1.65528977 2.15643620 -0.62761343 3 2 3751 2.79000000 2433511547 2433511547 -13.00000000
2.52761650 3.28929663 -0.65702474 4 6 3754 4.20000000 2433511556 2433511556 -9.00000000
3.47539616 4.51941729 -0.70001751 9 8 3756 5.74400000 2433511561 2433511561 -7.00000000
3.59951186 4.67912769 -0.51648492 15 10 3757 5.92600000 2433511565 2433511565 -5.00000000
5.37263632 6.97147512 2.35835910 45 15 3762 9.11200000 2433511577 2433511577 15.00000000
1.39371300 1.80390453 -0.61081296 4 0 3769 2.36000000 2433511598 2433511598 -15.00000000
1.65803909 2.14447832 -0.62581384 3 2 3771 2.78200000 2433511602 2433511602 -13.00000000
2.53666472 3.27732944 -0.65639901 4 6 3774 4.19600000 2433511611 2433511611 -9.00000000
3.48385715 4.49784231 -0.69855505 9 8 3776 5.73200000 2433511616 2433511616 -7.00000000
3.64144993 4.69960785 -0.52014548 7 10 3777 5.96800000 2433511621 2433511621 -5.00000000
6.20250130 7.99621677 2.33634162 59 13 3780 10.38600000 2433511628 2433511628 13.00000000
5.39335632 6.95056772 2.35732388 45 15 3781 9.10800000 2433511632 2433511632 15.00000000
1.40593350 1.80665159 -0.61340111 4 0 3789 2.37000000 2433511653 2433511653 -15.00000000
1.66311991 2.13560271 -0.62491405 3 2 3791 2.77800000 2433511657 2433511657 -13.00000000
2.02215910 2.59570789 -0.63959175 2 4 3792 3.35200000 2433511662 2433511662 -11.00000000
2.54566026 3.26533914 -0.65577328 4 6 3794 4.19200000 2433511667 2433511667 -9.00000000
3.48976803 4.47313261 -0.69660515 9 8 3796 5.71600000 2433511671 2433511671 -7.00000000
5.18887568 6.64863062 -0.73786050 8 10 3797 8.46600000 2433511676 2433511676 -5.00000000
6.22197723 7.96376753 2.33319235 55 13 3800 10.37200000 2433511683 2433511683 13.00000000
5.42591286 6.94235420 2.36094737 45 15 3801 9.12200000 2433511687 2433511687 15.00000000
1.40953386 1.79893804 -0.61236584 4 0 3808 2.36600000 2433511708 2433511708 -15.00000000
1.68221712 2.14541101 -0.62941307 3 2 3810 2.79800000 2433511713 2433511713 -13.00000000
2.01621556 2.57045102 -0.63501233 4 4 3811 3.32800000 2433511717 2433511717 -11.00000000
2.56135321 3.26309490 -0.65702474 4 6 3813 4.20000000 2433511722 2433511722 -9.00000000
3.47024775 4.41782570 -0.68978047 6 8 3815 5.66000000 2433511727 2433511727 -7.00000000
5.20104647 6.61885452 -0.73646605 8 10 3816 8.45000000 2433511731 2433511731 -5.00000000
6.25799084 7.95534420 2.33679152 57 13 3819 10.38800000 2433511738 2433511738 13.00000000
5.44533348 6.91730022 2.35887671 45 15 3821 9.11400000 2433511743 2433511743 15.00000000
1.40862405 1.78490806 -0.60926002 3 0 3828 2.35400000 2433511763 2433511763 -15.00000000
1.68728018 2.13646722 -0.62851322 3 2 3830 2.79400000 2433511768 2433511768 -13.00000000
2.03612924 2.57726192 -0.63844693 4 4 3831 3.34600000 2433511773 2433511773 -11.00000000
2.57027769 3.25103498 -0.65639901 4 6 3833 4.19600000 2433511777 2433511777 -9.00000000
3.47333074 4.39011765 -0.68734312 6 8 3835 5.64000000 2433511782 2433511782 -7.00000000
5.21917295 6.59440994 -0.73576880 8 10 3836 8.44200000 2433511787 2433511787 -5.00000000
6.29661369 7.94719839 2.34084058 62 13 3839 10.40600000 2433511793 2433511793 13.00000000
5.46464539 6.89219522 2.35680628 45 15 3841 9.10600000 2433511798 2433511798 15.00000000
1.42205846 1.78905392 -0.61236584 4 0 3848 2.36600000 2433511819 2433511819 -15.00000000
1.69715381 2.13361478 -0.62941307 3 2 3850 2.79800000 2433511823 2433511823 -13.00000000
2.05122542 2.57782006 -0.64035499 4 4 3851 3.35600000 2433511828 2433511828 -11.00000000
2.59022403 3.25286031 -0.65858912 4 6 3853 4.21000000 2433511833 2433511833 -9.00000000
3.49605656 4.38728142 -0.68880552 6 8 3855 5.65200000 2433511837 2433511837 -7.00000000
5.24215984 6.57615137 -0.73576880 8 10 3856 8.44200000 2433511842 2433511842 -5.00000000
6.32917833 7.93126345 2.34264016 60 13 3859 10.41400000 2433511849 2433511849 13.00000000
5.49108124 6.87609720 2.35784149 45 15 3861 9.11000000 2433511853 2433511853 15.00000000
1.42950201 1.78558719 -0.61288351 4 0 3868 2.36800000 2433511874 2433511874 -15.00000000
1.69971740 2.12159419 -0.62761343 3 2 3870 2.79000000 2433511879 2433511879 -13.00000000
2.06021118 2.57064414 -0.64035499 4 4 3871 3.35600000 2433511883 2433511883 -11.00000000
2.59043980 3.22992992 -0.65577328 4 6 3873 4.19200000 2433511888 2433511888 -9.00000000
3.49395466 4.35337734 -0.68539321 6 8 3875 5.62400000 2433511893 2433511893 -7.00000000
5.27256727 6.56713438 -0.73681468 8 10 3876 8.45400000 2433511897 2433511897 -5.00000000
6.35682487 7.90912199 2.34264016 60 13 3879 10.41400000 2433511904 2433511904 13.00000000
5.51626062 6.85839319 2.35835910 45 15 3881 9.11200000 2433511909 2433511909 15.00000000
1.44178927 1.78810585 -0.61547166 4 0 3888 2.37800000 2433511929 2433511929 -15.00000000
1.70711291 2.11564803 -0.62761343 3 2 3890 2.79000000 2433511934 2433511934 -13.00000000
2.06423926 2.55732632 -0.63882852 2 4 3891 3.34800000 2433511939 2433511939 -11.00000000
2.61411119 3.23623466 -0.65890199 4 6 3893 4.21200000 2433511943 2433511943 -9.00000000
3.51162529 4.34424210 -0.68588066 6 8 3895 5.62800000 2433511948 2433511948 -7.00000000
5.30046988 6.55488682 -0.73751187 8 10 3896 8.46200000 2433511952 2433511952 -5.00000000
6.37948990 7.88082552 2.34084058 62 13 3899 10.40600000 2433511959 2433511959 13.00000000
5.54140520 6.84306526 2.35939431 45 15 3900 9.11600000 2433511964 2433511964 15.00000000
1.44071507 1.77406430 -0.61236584 4 0 3908 2.36600000 2433511985 2433511985 -15.00000000
1.71940351 2.11572552 -0.62941307 3 2 3910 2.79800000 2433511989 2433511989 -13.00000000
2.06819963 2.54401183 -0.63730204 4 4 3911 3.34000000 2433511994 2433511994 -11.00000000
2.62289858 3.22402549 -0.65827620 4 6 3913 4.20800000 2433511998 2433511998 -9.00000000
3.52676821 4.33195782 -0.68588066 6 8 3915 5.62800000 2433512003 2433512003 -7.00000000
5.32080221 6.53325510 -0.73716325 8 10 3916 8.45800000 2433512008 2433512008 -5.00000000
6.40696001 7.85850906 2.34084058 59 13 3919 10.40600000 2433512015 2433512015 13.00000000
5.56278515 6.81821871 2.35784149 45 15 3921 9.11000000 2433512019 2433512019 15.00000000
1.43956041 1.76005232 -0.60926002 4 0 3928 2.35400000 2433512040 2433512040 -15.00000000
1.72677827 2.10971093 -0.62941307 3 2 3930 2.79800000 2433512045 2433512045 -13.00000000
2.63413644 3.21485019 -0.65827620 4 6 3933 4.20800000 2433512054 2433512054 -9.00000000
3.54186797 4.31962061 -0.68588066 6 8 3935 5.62800000 2433512058 2433512058 -7.00000000
5.34610224 6.51772308 -0.73751187 8 10 3936 8.46200000 2433512063 2433512063 -5.00000000
5.66008377 6.89805937 1.73445380 31 11 3937 9.09000000 2433512065 2433512065 11.00000000
5.66020203 6.89329529 2.05920196 49 13 3939 9.15400000 2433512070 2433512070 13.00000000
5.58291245 6.79674864 2.35680628 45 15 3940 9.10600000 2433512075 2433512075 15.00000000
1.45306516 1.76396310 -0.61236584 4 0 3948 2.36600000 2433512095 2433512095 -15.00000000
1.72917390 2.09765553 -0.62761343 3 2 3950 2.79000000 2433512100 2433512100 -13.00000000
2.08840775 2.53254056 -0.63806528 2 4 3951 3.34400000 2433512104 2433512104 -11.00000000
2.63528395 3.19344687 -0.65577328 4 6 3953 4.19200000 2433512109 2433512109 -9.00000000
3.56450868 4.31641483 -0.68734312 6 8 3955 5.64000000 2433512114 2433512114 -7.00000000
5.37135839 6.50209379 -0.73786050 8 10 3956 8.46600000 2433512118 2433512118 -5.00000000
6.45918226 7.81058550 2.33994079 51 13 3959 10.40200000 2433512125 2433512125 13.00000000
5.59670115 6.76284599 2.35214758 33 15 3961 9.08800000 2433512130 2433512130 15.00000000
1.46168065 1.76185381 -0.61340111 4 0 3968 2.37000000 2433512151 2433512151 -15.00000000
1.72901678 2.08261085 -0.62491405 3 2 3970 2.77800000 2433512155 2433512155 -13.00000000
2.09974384 2.52825594 -0.63882852 4 4 3971 3.34800000 2433512160 2433512160 -11.00000000
2.65651608 3.19638228 -0.65827620 4 6 3973 4.20800000 2433512164 2433512164 -9.00000000
3.57955408 4.30394602 -0.68734312 6 8 3975 5.64000000 2433512169 2433512169 -7.00000000
5.37235975 6.45726728 -0.73489720 8 10 3976 8.43200000 2433512174 2433512174 -5.00000000
6.48391294 7.78499603 2.33904099 51 13 3979 10.39800000 2433512181 2433512181 13.00000000
5.60549402 6.72792292 2.34645343 22 15 3980 9.06600000 2433512185 2433512185 15.00000000
1.47277641 1.76267076 -0.61547166 4 0 3988 2.37800000 2433512206 2433512206 -15.00000000
1.74127591 2.08254266 -0.62671363 3 2 3990 2.78600000 2433512210 2433512210 -13.00000000
2.10855651 2.52091098 -0.63882852 4 4 3991 3.34800000 2433512215 2433512215 -11.00000000
2.66258574 3.18103051 -0.65702474 4 6 3993 4.20000000 2433512220 2433512220 -9.00000000
3.58690786 4.28229427 -0.68588066 6 8 3995 5.62800000 2433512224 2433512224 -7.00000000
5.42173862 6.47054529 -0.73855776 4 10 3996 8.47400000 2433512229 2433512229 -5.00000000
6.50854301 7.75932980 2.33814120 53 13 3999 10.39400000 2433512236 2433512236 13.00000000
5.62390518 6.69993448 2.34386516 13 15 4001 9.05600000 2433512240 2433512240 15.00000000
1.46866488 1.74595022 -0.61133057 4 0 4007 2.36200000 2433512261 2433512261 -15.00000000
1.75319219 2.08272028 -0.62851322 3 2 4009 2.79400000 2433512266 2433512266 -13.00000000
2.11184621 2.50789785 -0.63730204 4 4 4010 3.34000000 2433512270 2433512270 -11.00000000
2.68584895 3.18728924 -0.66015345 4 6 4012 4.22000000 2433512275 2433512275 -9.00000000
3.59596992 4.26430559 -0.68490571 6 8 4014 5.62000000 2433512280 2433512280 -7.00000000
5.45087433 6.46166801 -0.73960364 4 10 4015 8.48600000 2433512284 2433512284 -5.00000000
6.54429674 7.74961472 2.34174037 59 13 4018 10.41000000 2433512291 2433512291 13.00000000
5.64741945 6.68518496 2.34490061 13 15 4019 9.06000000 2433512296 2433512296 15.00000000
1.47475052 1.74081302 -0.61133057 4 0 4027 2.36200000 2433512316 2433512316 -15.00000000
1.75793123 2.07361507 -0.62761343 3 2 4029 2.79000000 2433512321 2433512321 -13.00000000
2.11804795 2.49751639 -0.63653880 4 4 4030 3.33600000 2433512326 2433512326 -11.00000000
2.69951463 3.18090677 -0.66077918 6 6 4032 4.22400000 2433512330 2433512330 -9.00000000
3.61340332 4.25475359 -0.68539321 6 8 4034 5.62400000 2433512335 2433512335 -7.00000000
5.47081661 6.43956470 -0.73925501 4 10 4035 8.48200000 2433512339 2433512339 -5.00000000
5.63958359 6.63117695 2.00971270 50 13 4038 8.93400000 2433512346 2433512346 13.00000000
5.63682604 6.62324810 2.33040667 24 15 4040 9.00400000 2433512351 2433512351 15.00000000
1.48302233 1.73885274 -0.61236584 4 0 4046 2.36600000 2433512372 2433512372 -15.00000000
1.76732814 2.07073855 -0.62851322 3 2 4048 2.79400000 2433512376 2433512376 -13.00000000
2.13906598 2.50540972 -0.64035499 4 4 4049 3.35600000 2433512381 2433512381 -11.00000000
2.69208360 3.15091133 -0.65639901 6 6 4051 4.19600000 2433512386 2433512386 -9.00000000
3.63265276 4.24878311 -0.68636817 6 8 4053 5.63200000 2433512390 2433512390 -7.00000000
5.49602556 6.42593002 -0.73977792 4 10 4054 8.48800000 2433512395 2433512395 -5.00000000
6.59435987 7.70192957 2.34084058 53 13 4057 10.40600000 2433512402 2433512402 13.00000000
5.71415663 6.67153263 2.35370040 24 15 4058 9.09400000 2433512406 2433512406 15.00000000
1.49411798 1.73952734 -0.61443639 4 0 4066 2.37400000 2433512427 2433512427 -15.00000000
1.76184309 2.04977846 -0.62401420 3 2 4068 2.77400000 2433512432 2433512432 -13.00000000
2.14267850 2.49197316 -0.63882852 2 4 4069 3.34800000 2433512436 2433512436 -11.00000000
2.70564270 3.14448977 -0.65702474 4 6 4071 4.20000000 2433512441 2433512441 -9.00000000
3.65005207 4.23908520 -0.68685561 6 8 4073 5.63600000 2433512445 2433512445 -7.00000000
5.51452208 6.40217733 -0.73925501 4 10 4074 8.48200000 2433512450 2433512450 -5.00000000
6.62883997 7.68771935 2.34354019 59 13 4077 10.41800000 2433512457 2433512457 13.00000000
5.76381159 6.67979670 2.36405325 42 15 4079 9.13400000 2433512462 2433512462 15.00000000
1.49512553 1.72845697 -0.61236584 4 0 4086 2.36600000 2433512482 2433512482 -15.00000000
1.77663982 2.05245638 -0.62671363 3 2 4088 2.78600000 2433512487 2433512487 -13.00000000
2.14365315 2.47557378 -0.63653880 2 4 4089 3.33600000 2433512492 2433512492 -11.00000000
2.71142817 3.12905455 -0.65577328 6 6 4091 4.19200000 2433512496 2433512496 -9.00000000
3.65962505 4.22031927 -0.68588066 6 8 4093 5.62800000 2433512501 2433512501 -7.00000000
5.54205847 6.38890886 -0.73995227 4 10 4094 8.49000000 2433512505 2433512505 -5.00000000
6.65052366 7.65864754 2.34174037 60 13 4097 10.41000000 2433512512 2433512512 13.00000000
5.79099846 6.66648006 2.36612368 45 15 4098 9.14200000 2433512517 2433512517 15.00000000
1.50368774 1.72614086 -0.61340111 4 0 4106 2.37000000 2433512538 2433512538 -15.00000000
1.78763497 2.05064893 -0.62806332 3 2 4108 2.79200000 2433512542 2433512542 -13.00000000
2.14970088 2.46511674 -0.63577557 2 4 4109 3.33200000 2433512547 2433512547 -11.00000000
2.73532224 3.13445425 -0.65890199 4 6 4111 4.21200000 2433512551 2433512551 -9.00000000
3.67172289 4.20452881 -0.68539321 6 8 4113 5.62400000 2433512556 2433512556 -7.00000000
5.57350159 6.38002825 -0.74117243 4 10 4114 8.50400000 2433512561 2433512561 -5.00000000
6.68234825 7.64125395 2.34354019 60 13 4117 10.41800000 2433512568 2433512568 13.00000000
5.81168985 6.64331722 2.36508846 45 15 4118 9.13800000 2433512572 2433512572 15.00000000
1.50235868 1.71190596 -0.61029530 4 0 4127 2.35800000 2433512593 2433512593 -15.00000000
1.79256713 2.04115486 -0.62716353 3 2 4129 2.78800000 2433512598 2433512598 -13.00000000
2.16390443 2.46312070 -0.63730204 2 4 4130 3.34000000 2433512602 2433512602 -11.00000000
2.74940085 3.12737489 -0.65952772 6 6 4132 4.21600000 2433512607 2433512607 -9.00000000
3.69497585 4.19998550 -0.68685561 6 8 4134 5.63600000 2433512611 2433512611 -7.00000000
5.58500147 6.34609652 -0.73960364 13 10 4135 8.48600000 2433512616 2433512616 -5.00000000
6.71288633 7.61963511 2.34443998 59 13 4138 10.42200000 2433512623 2433512623 13.00000000
5.82322645 6.60747862 2.35991216 47 15 4139 9.11800000 2433512627 2433512627 15.00000000
1.50832522 1.70665133 -0.61029530 4 0 4147 2.35800000 2433512648 2433512648 -15.00000000
1.79839015 2.03342533 -0.62671363 3 2 4149 2.78600000 2433512653 2433512653 -13.00000000
2.74982524 3.10592651 -0.65702474 6 6 4152 4.20000000 2433512662 2433512662 -9.00000000
3.71224689 4.19003391 -0.68734312 6 8 4154 5.64000000 2433512667 2433512667 -7.00000000
5.59390450 6.31165171 -0.73786050 8 10 4155 8.46600000 2433512671 2433512671 -5.00000000
6.74202967 7.59907198 2.34533978 57 13 4158 10.42600000 2433512678 2433512678 13.00000000
5.85510063 6.59475851 2.36301780 45 15 4160 9.13000000 2433512683 2433512683 15.00000000
1.51753092 1.70623493 -0.61184824 3 0 4165 2.36400000 2433512704 2433512704 -15.00000000
1.80217826 2.02485418 -0.62581384 3 2 4167 2.78200000 2433512708 2433512708 -13.00000000
2.76482534 3.10317206 -0.65827620 6 6 4170 4.20800000 2433512717 2433512717 -9.00000000
3.72539186 4.17835093 -0.68734312 6 8 4172 5.64000000 2433512722 2433512722 -7.00000000
5.61901045 6.29999447 -0.73855776 8 10 4173 8.47400000 2433512727 2433512727 -5.00000000
5.62549782 6.30505228 1.64248383 9 11 4174 8.60800000 2433512729 2433512729 11.00000000
6.76327372 7.57494640 2.34443998 57 13 4176 10.42200000 2433512733 2433512733 13.00000000
5.87206841 6.57447577 2.36198258 45 15 4177 9.12600000 2433512738 2433512738 15.00000000
1.53249991 1.71100056 -0.61547166 4 0 4185 2.37800000 2433512759 2433512759 -15.00000000
1.81183672 2.02145338 -0.62671363 3 2 4187 2.78600000 2433512763 2433512763 -13.00000000
2.77036381 3.08762097 -0.65702474 6 6 4190 4.20000000 2433512773 2433512773 -9.00000000
3.73199701 4.15645885 -0.68588066 6 8 4192 5.62800000 2433512777 2433512777 -7.00000000
5.64229870 6.28182459 -0.73873210 8 10 4193 8.47600000 2433512782 2433512782 -5.00000000
5.62254143 6.25763083 1.63523304 18 11 4194 8.57000000 2433512784 2433512784 11.00000000
6.78706837 7.54839373 2.34354019 57 13 4196 10.41800000 2433512789 2433512789 13.00000000
5.90273285 6.56255627 2.36508846 47 15 4197 9.13800000 2433512793 2433512793 15.00000000
1.52940559 1.69559908 -0.61184824 4 0 4205 2.36400000 2433512814 2433512814 -15.00000000
1.82149339 2.01800966 -0.62761343 3 2 4207 2.79000000 2433512819 2433512819 -13.00000000
2.18934059 2.42469215 -0.63501233 4 4 4208 3.32800000 2433512823 2433512823 -11.00000000
2.79436827 3.09258842 -0.66015345 6 6 4210 4.22000000 2433512828 2433512828 -9.00000000
3.73849487 4.13457203 -0.68441826 6 8 4212 5.61600000 2433512832 2433512832 -7.00000000
5.66820145 6.26652384 -0.73925501 8 10 4213 8.48200000 2433512837 2433512837 -5.00000000
5.63776398 6.23068714 1.63332498 31 11 4214 8.56000000 2433512839 2433512839 11.00000000
6.81075954 7.52176762 2.34264016 59 13 4216 10.41400000 2433512844 2433512844 13.00000000
5.92041683 6.53618431 2.36301780 45 15 4217 9.13000000 2433512849 2433512849 15.00000000
1.52622271 1.68024015 -0.60822475 4 0 4225 2.35000000 2433512869 2433512869 -15.00000000
1.82852638 2.01163936 -0.62761343 3 2 4227 2.79000000 2433512874 2433512874 -13.00000000
2.20835710 2.42865539 -0.63806528 2 4 4228 3.34400000 2433512879 2433512879 -11.00000000
2.79716969 3.07404923 -0.65827620 6 6 4230 4.20800000 2433512883 2433512883 -9.00000000
3.75557733 4.12443256 -0.68490571 6 8 4232 5.62000000 2433512888 2433512888 -7.00000000
5.68199110 6.23786211 -0.73820913 8 10 4233 8.47000000 2433512892 2433512892 -5.00000000
5.65947914 6.21096992 1.63332498 18 11 4234 8.56000000 2433512895 2433512895 11.00000000
6.84222603 7.50370741 2.34443998 59 13 4236 10.42200000 2433512899 2433512899 13.00000000
5.94433355 6.51444101 2.36301780 45 15 4238 9.13000000 2433512904 2433512904 15.00000000
1.54250968 1.68630600 -0.61236584 4 0 4245 2.36600000 2433512925 2433512925 -15.00000000
1.83027399 1.99949443 -0.62581384 3 2 4247 2.78200000 2433512929 2433512929 -13.00000000
2.23007989 2.43541121 -0.64188147 4 4 4248 3.36400000 2433512934 2433512934 -11.00000000
2.79987574 3.05552816 -0.65639901 6 6 4250 4.19600000 2433512938 2433512938 -9.00000000
3.77531791 4.11715031 -0.68588066 6 8 4252 5.62800000 2433512943 2433512943 -7.00000000
5.70911789 6.22386312 -0.73890638 8 10 4253 8.47800000 2433512948 2433512948 -5.00000000
6.87101364 7.48264885 2.34533978 57 13 4256 10.42600000 2433512955 2433512955 13.00000000
5.96851730 6.49753857 2.36405325 45 15 4257 9.13400000 2433512959 2433512959 15.00000000
1.55362201 1.68659496 -0.61443639 4 0 4265 2.37400000 2433512980 2433512980 -15.00000000
1.83988404 1.99595916 -0.62671363 3 2 4267 2.78600000 2433512984 2433512984 -13.00000000
2.23324394 2.42183876 -0.64035499 4 4 4268 3.35600000 2433512989 2433512989 -11.00000000
2.81856227 3.05444646 -0.65827620 6 6 4270 4.20800000 2433512994 2433512994 -9.00000000
3.78697300 4.10102987 -0.68539321 6 8 4272 5.62400000 2433512998 2433512998 -7.00000000
5.74703169 6.22145891 -0.74099815 8 10 4273 8.50200000 2433513003 2433513003 -5.00000000
6.89444494 7.45575714 2.34443998 60 13 4276 10.42200000 2433513010 2433513010 13.00000000
5.99378538 6.47950125 2.36508846 47 15 4277 9.13800000 2433513014 2433513014 15.00000000
1.55949986 1.68116152 -0.61443639 4 0 4285 2.37400000 2433513035 2433513035 -15.00000000
1.84684002 1.98952460 -0.62671363 3 2 4287 2.78600000 2433513040 2433513040 -13.00000000
2.23634028 2.40827417 -0.63882852 4 4 4288 3.34800000 2433513044 2433513044 -11.00000000
2.82786226 3.04314232 -0.65796334 6 6 4290 4.20600000 2433513049 2433513049 -9.00000000
3.79856157 4.08487892 -0.68490571 6 8 4292 5.62000000 2433513054 2433513054 -7.00000000
5.78771162 6.22178364 -0.74343848 8 10 4293 8.53000000 2433513058 2433513058 -5.00000000
6.91511583 7.42594099 2.34264016 59 13 4296 10.41400000 2433513065 2433513065 13.00000000
6.02276182 6.46314287 2.36715889 45 15 4298 9.14600000 2433513070 2433513070 15.00000000
1.56272125 1.67288411 -0.61340111 4 0 4305 2.37000000 2433513090 2433513090 -15.00000000
1.85643506 1.98591292 -0.62761343 3 2 4307 2.79000000 2433513095 2433513095 -13.00000000
2.24473310 2.40045309 -0.63882852 4 4 4308 3.34800000 2433513100 2433513100 -11.00000000
2.84116697 3.03613734 -0.65858912 6 6 4310 4.21000000 2433513104 2433513104 -9.00000000
3.81551099 4.07449245 -0.68539321 6 8 4312 5.62400000 2433513109 2433513109 -7.00000000
5.78760099 6.17827797 -0.74064952 13 10 4313 8.49800000 2433513114 2433513114 -5.00000000
6.94366121 7.40460062 2.34354019 57 13 4316 10.41800000 2433513120 2433513120 13.00000000
6.03470993 6.43081045 2.36301780 47 15 4318 9.13000000 2433513125 2433513125 15.00000000
1.56060910 1.65897644 -0.61029530 4 0 4325 2.35800000 2433513146 2433513146 -15.00000000
1.87137032 1.98793435 -0.63031286 3 2 4327 2.80200000 2433513150 2433513150 -13.00000000
2.25309873 2.39260292 -0.63882852 2 4 4328 3.34800000 2433513155 2433513155 -11.00000000
2.84768367 3.02188849 -0.65765047 6 6 4330 4.20400000 2433513160 2433513160 -9.00000000
3.83515811 4.06692553 -0.68636817 6 8 4332 5.63200000 2433513164 2433513164 -7.00000000
5.78725719 6.13484907 -0.73786050 8 10 4333 8.46600000 2433513169 2433513169 -5.00000000
6.97481775 7.38598490 2.34533978 56 13 4336 10.42600000 2433513176 2433513176 13.00000000
6.05446720 6.40689802 2.36198258 45 15 4338 9.12600000 2433513180 2433513180 15.00000000
1.56639051 1.65351880 -0.61029530 4 0 4345 2.35800000 2433513201 2433513201 -15.00000000
1.87025404 1.97290432 -0.62761343 3 2 4347 2.79000000 2433513206 2433513206 -13.00000000
2.26143670 2.38472366 -0.63882852 4 4 4348 3.34800000 2433513210 2433513210 -11.00000000
2.85821462 3.01192975 -0.65765047 6 6 4350 4.20400000 2433513215 2433513215 -9.00000000
3.85479879 4.05927181 -0.68734312 6 8 4352 5.64000000 2433513220 2433513220 -7.00000000
5.84294224 6.15072298 -0.74221832 4 10 4353 8.51600000 2433513224 2433513224 -5.00000000
7.00324297 7.36441755 2.34623957 59 13 4356 10.43000000 2433513231 2433513231 13.00000000
6.07413101 6.38292599 2.36094737 45 15 4358 9.12200000 2433513236 2433513236 15.00000000
1.58519745 1.66229594 -0.61547166 4 0 4364 2.37800000 2433513256 2433513256 -15.00000000
1.87947679 1.96951115 -0.62851322 3 2 4366 2.79400000 2433513261 2433513261 -13.00000000
2.27746606 2.38573170 -0.64111823 4 4 4367 3.36000000 2433513266 2433513266 -11.00000000
2.86682224 3.00100660 -0.65733761 6 6 4369 4.20200000 2433513270 2433513270 -9.00000000
8.14136791 8.51052952 2.28932643 46 11 4373 11.99800000 2433513282 2433513282 11.00000000
7.02223539 7.33552265 2.34443998 60 13 4375 10.42200000 2433513286 2433513286 13.00000000
6.10751486 6.37776470 2.36612368 45 15 4376 9.14200000 2433513291 2433513291 15.00000000
1.58831406 1.65396559 -0.61443639 4 0 4384 2.37400000 2433513312 2433513312 -15.00000000
1.88363969 1.96012831 -0.62761343 3 2 4386 2.79000000 2433513316 2433513316 -13.00000000
2.26945281 2.36078334 -0.63653880 4 4 4387 3.33600000 2433513321 2433513321 -11.00000000
2.89508367 3.00948811 -0.66140491 9 6 4389 4.22800000 2433513325 2433513325 -9.00000000
2.98196745 3.09764028 -0.52793801 6 8 4391 4.33200000 2433513330 2433513330 -7.00000000
2.98794341 3.10276413 -0.37686142 2 10 4392 4.32400000 2433513335 2433513335 -5.00000000
2.98247290 3.09492040 -0.22525395 2 12 4394 4.30400000 2433513339 2433513339 -3.00000000
7.04779863 7.31096601 2.34443998 59 13 4395 10.42200000 2433513342 2433513342 13.00000000
2.99274492 3.10341096 -0.07525478 1 14 4396 4.31200000 2433513344 2433513344 -1.00000000
6.13353205 6.35811758 2.36715889 45 15 4397 9.14600000 2433513346 2433513346 15.00000000
1.59004891 1.64424515 -0.61288351 4 0 4404 2.36800000 2433513367 2433513367 -15.00000000
3.00456786 3.10589242 0.07542930 5 1 4405 4.32200000 2433513369 2433513369 1.00000000
1.89589107 1.95914280 -0.62941307 3 2 4406 2.79800000 2433513372 2433513372 -13.00000000
2.98254156 3.08097029 0.22473060 1 3 4407 4.29400000 2433513374 2433513374 3.00000000
2.28587294 2.36131048 -0.63882852 4 4 4407 3.34800000 2433513376 2433513376 -11.00000000
2.99243832 3.09011436 0.37633851 1 5 4408 4.31800000 2433513378 2433513378 5.00000000
2.90694547 3.00078273 -0.66171777 9 6 4409 4.23000000 2433513381 2433513381 -9.00000000
2.98309016 3.07723546 -0.52623183 24 8 4411 4.31800000 2433513385 2433513385 -7.00000000
2.98627257 3.07944274 -0.37529263 28 10 4412 4.30600000 2433513390 2433513390 -5.00000000
2.98769426 3.07875752 -0.22483526 20 12 4414 4.29600000 2433513395 2433513395 -3.00000000
2.98405600 3.07286119 -0.07476611 21 14 4416 4.28400000 2433513399 2433513399 -1.00000000
1.59712660 1.64006889 -0.61340111 4 0 4424 2.37000000 2433513422 2433513422 -15.00000000
2.99725127 3.07676458 0.07497554 18 1 4425 4.29600000 2433513425 2433513425 1.00000000
1.89999807 1.94972169 -0.62851322 3 2 4426 2.79400000 2433513427 2433513427 -13.00000000
3.00721955 3.08484221 0.22577731 22 3 4427 4.31400000 2433513429 2433513429 3.00000000
2.29410148 2.35331702 -0.63882852 4 4 4427 3.34800000 2433513431 2433513431 -11.00000000
3.00320649 3.07964993 0.37633851 22 5 4428 4.31800000 2433513434 2433513434 5.00000000
2.91188478 2.98496151 -0.66046631 9 6 4429 4.22200000 2433513436 2433513436 -9.00000000
3.03209782 3.10710621 0.53305650 30 7 4430 4.37400000 2433513438 2433513438 7.00000000
2.98549342 3.05828071 -0.52476937 6 8 4431 4.30600000 2433513441 2433513441 -7.00000000
2.98029947 3.05189443 -0.37320089 9 10 4432 4.28200000 2433513445 2433513445 -5.00000000
2.99144340 3.06116748 -0.22431190 6 12 4434 4.28600000 2433513450 2433513450 -3.00000000
3.02282500 3.09220076 0.99833280 49 13 4435 4.43800000 2433513452 2433513452 13.00000000
3.03012013 3.09749937 1.16106224 44 15 4437 4.48600000 2433513457 2433513457 15.00000000
1.59878385 1.63034594 -0.61184824 4 0 4444 2.36400000 2433513478 2433513478 -15.00000000
2.99116850 3.04915333 0.07455668 5 1 4445 4.27200000 2433513480 2433513480 1.00000000
1.90406239 1.94029570 -0.62761343 3 2 4446 2.79000000 2433513482 2433513482 -13.00000000
3.00537705 3.06149864 0.22483526 5 3 4447 4.29600000 2433513484 2433513484 3.00000000
2.30505276 2.34809685 -0.63959175 4 4 4447 3.35200000 2433513487 2433513487 -11.00000000
2.99718642 3.05208945 0.37424675 5 5 4448 4.29400000 2433513489 2433513489 5.00000000
2.92090225 2.97336960 -0.66015345 9 6 4449 4.22000000 2433513491 2433513491 -9.00000000
3.02901149 3.08234453 0.53061914 61 7 4450 4.35400000 2433513494 2433513494 7.00000000
2.99615073 3.04784083 -0.52476937 8 8 4451 4.30600000 2433513496 2433513496 -7.00000000
3.02857018 3.08081961 0.68424433 66 9 4451 4.37400000 2433513498 2433513498 9.00000000
2.99512553 3.04573441 -0.37372383 9 10 4452 4.28800000 2433513501 2433513501 -5.00000000
3.01380682 3.06366181 0.83536178 44 11 4453 4.37800000 2433513503 2433513503 11.00000000
2.98950267 3.03789473 -0.22336987 8 12 4454 4.26800000 2433513505 2433513505 -3.00000000
3.02403069 3.07190895 0.99518347 49 13 4455 4.42400000 2433513508 2433513508 13.00000000
2.99701691 3.04340506 -0.07455668 5 14 4456 4.27200000 2433513510 2433513510 -1.00000000
3.02139807 3.06816363 1.15381527 50 15 4456 4.45800000 2433513512 2433513512 15.00000000
1.60310769 1.62338066 -0.61133057 4 0 4464 2.36200000 2433513533 2433513533 -15.00000000
2.99757791 3.03442574 0.07445197 7 1 4465 4.26600000 2433513535 2433513535 1.00000000
1.90808415 1.93086529 -0.62671363 3 2 4466 2.78600000 2433513537 2433513537 -13.00000000
3.00902462 3.04388738 0.22431190 5 3 4467 4.28600000 2433513540 2433513540 3.00000000
2.32427669 2.35120583 -0.64264470 4 4 4467 3.36800000 2433513542 2433513542 -11.00000000
3.01762843 3.05152535 0.37546694 7 5 4468 4.30800000 2433513544 2433513544 5.00000000
2.93820953 2.97017741 -0.66171777 11 6 4469 4.23000000 2433513547 2433513547 -9.00000000
3.02439308 3.05623150 0.52793801 60 7 4470 4.33200000 2433513549 2433513549 7.00000000
2.99140930 3.02184534 -0.52208829 8 8 4471 4.28400000 2433513551 2433513551 -7.00000000
3.03567171 3.06548786 0.68330574 62 9 4472 4.36800000 2433513554 2433513554 9.00000000
3.00013113 3.02959824 -0.37302658 9 10 4472 4.28000000 2433513556 2433513556 -5.00000000
3.02724600 3.05591249 0.83612502 59 11 4473 4.38200000 2433513558 2433513558 11.00000000
3.00008869 3.02744079 -0.22336987 8 12 4474 4.26800000 2433513560 2433513560 -3.00000000
3.02375960 3.05026269 0.99158424 52 13 4475 4.40800000 2433513563 2433513563 13.00000000
3.00199008 3.02724528 -0.07441706 7 14 4476 4.26400000 2433513565 2433513565 -1.00000000
3.02582049 3.05021143 1.15122712 52 15 4477 4.44800000 2433513567 2433513567 15.00000000
1.62102449 1.63010335 -0.61598933 4 0 4484 2.38000000 2433513588 2433513588 -15.00000000
3.00533128 3.02110839 0.07438216 7 1 4485 4.26200000 2433513590 2433513590 1.00000000
1.90931416 1.91866767 -0.62491405 3 2 4486 2.77800000 2433513593 2433513593 -13.00000000
3.01399517 3.02770352 0.22389323 7 3 4487 4.27800000 2433513595 2433513595 3.00000000
2.31723404 2.32777309 -0.63844693 4 4 4487 3.34600000 2433513597 2433513597 -11.00000000
3.02545023 3.03814983 0.37511832 7 5 4488 4.30400000 2433513600 2433513600 5.00000000
2.94577146 2.95710397 -0.66109204 11 6 4489 4.22600000 2433513602 2433513602 -9.00000000
3.02523446 3.03581309 0.52623183 67 7 4490 4.31800000 2433513604 2433513604 7.00000000
2.98372030 2.99310875 -0.51891965 8 8 4491 4.25800000 2433513607 2433513607 -7.00000000
3.02769065 3.03721738 0.67923844 68 9 4491 4.34200000 2433513609 2433513609 9.00000000
3.00506067 3.01346397 -0.37232932 9 10 4492 4.27200000 2433513611 2433513611 -5.00000000
3.02957559 3.03698707 0.83383530 57 11 4493 4.37000000 2433513613 2433513613 11.00000000
2.99794102 3.00422645 -0.22242782 8 12 4494 4.25000000 2433513616 2433513616 -3.00000000
3.01786733 3.02313924 0.98618543 54 13 4495 4.38400000 2433513618 2433513618 13.00000000
3.00123477 3.00542808 -0.07413782 7 14 4496 4.24800000 2433513620 2433513620 -1.00000000
3.03182364 3.03605986 1.14967418 54 15 4496 4.44200000 2433513623 2433513623 15.00000000
1.61986983 1.61760962 -0.61340111 4 0 4504 2.37000000 2433513643 2433513643 -15.00000000
3.00878239 3.00353551 0.07420763 7 1 4505 4.25200000 2433513646 2433513646 1.00000000
1.91875875 1.91474438 -0.62581384 3 2 4506 2.78200000 2433513648 2433513648 -13.00000000
3.01323366 3.00587988 0.22305584 7 3 4507 4.26200000 2433513650 2433513650 3.00000000
2.32256556 2.31689739 -0.63768369 4 4 4507 3.34200000 2433513653 2433513653 -11.00000000
3.01487494 3.00646758 0.37250364 7 5 4508 4.27400000 2433513655 2433513655 5.00000000
2.96027255 2.95098710 -0.66203064 13 6 4509 4.23200000 2433513657 2433513657 -9.00000000
3.02315784 3.01262355 0.52403820 61 7 4510 4.30000000 2433513660 2433513660 7.00000000
2.98711824 2.97567034 -0.51770097 8 8 4511 4.24800000 2433513662 2433513662 -7.00000000
3.01920605 3.00658560 0.67485827 70 9 4512 4.31400000 2433513664 2433513664 9.00000000
2.99014926 2.97765017 -0.36919174 9 10 4512 4.23600000 2433513666 2433513666 -5.00000000
3.02763557 3.01392770 0.83040076 61 11 4513 4.35200000 2433513669 2433513669 11.00000000
3.00274658 2.98810792 -0.22200912 8 12 4514 4.24200000 2433513671 2433513671 -3.00000000
3.02149391 3.00571465 0.98393589 55 13 4515 4.37400000 2433513673 2433513673 13.00000000
3.00319958 2.98647332 -0.07392839 7 14 4516 4.23600000 2433513676 2433513676 -1.00000000
3.02786016 3.00994563 1.14398015 60 15 4517 4.42000000 2433513678 2433513678 15.00000000
1.62001956 1.60650420 -0.61133057 4 0 4524 2.36200000 2433513699 2433513699 -15.00000000
3.00646687 2.98034430 0.07389349 7 1 4525 4.23400000 2433513701 2433513701 1.00000000
1.93927288 1.92175198 -0.63031286 3 2 4526 2.80200000 2433513703 2433513703 -13.00000000
3.02086997 2.99253225 0.22284651 7 3 4527 4.25800000 2433513706 2433513706 3.00000000
2.32366514 2.30186749 -0.63577557 4 4 4527 3.33200000 2433513708 2433513708 -11.00000000
3.01685691 2.98751378 0.37145779 7 5 4528 4.26200000 2433513710 2433513710 5.00000000
2.96494007 2.93507719 -0.66077918 13 6 4529 4.22400000 2433513713 2433513713 -9.00000000
3.02660060 2.99507093 0.52281946 65 7 4530 4.29000000 2433513715 2433513715 7.00000000
2.98901963 2.95684910 -0.51623851 8 8 4531 4.23600000 2433513717 2433513717 -7.00000000
3.02213788 2.98961091 0.67329395 72 9 4531 4.30400000 2433513719 2433513719 9.00000000
2.98919153 2.95598698 -0.36779723 9 10 4532 4.22000000 2433513722 2433513722 -5.00000000
3.02277946 2.98815870 0.82620293 61 11 4533 4.33000000 2433513724 2433513724 11.00000000
3.00321412 2.96778131 -0.22127642 8 12 4534 4.22800000 2433513726 2433513726 -3.00000000
3.01949024 2.98282361 0.97988677 58 13 4535 4.35600000 2433513729 2433513729 13.00000000
3.00080037 2.96332622 -0.07361425 7 14 4536 4.21800000 2433513731 2433513731 -1.00000000
3.02407908 2.98631406 1.13880384 60 15 4536 4.40000000 2433513733 2433513733 15.00000000
1.62561738 1.60083950 -0.61133057 4 0 4544 2.36200000 2433513754 2433513754 -15.00000000
3.00117636 2.95440030 0.07350954 7 1 4545 4.21200000 2433513756 2433513756 1.00000000
1.94596922 1.91497087 -0.63031286 3 2 4546 2.80200000 2433513759 2433513759 -13.00000000
3.02133060 2.97216463 0.22211380 7 3 4547 4.24400000 2433513761 2433513761 3.00000000
2.34848070 2.31026387 -0.64035499 4 4 4547 3.35600000 2433513763 2433513763 -11.00000000
3.00879931 2.95880389 0.36919174 7 5 4548 4.23600000 2433513766 2433513766 5.00000000
2.96248913 2.91224647 -0.65796334 13 6 4549 4.20600000 2433513768 2433513768 -9.00000000
3.02146220 2.96918273 0.52013838 63 7 4550 4.26800000 2433513770 2433513770 7.00000000
3.00498700 2.95196176 -0.51721346 8 8 4551 4.24400000 2433513772 2433513772 -7.00000000
3.03025627 2.97574592 0.67266822 72 9 4552 4.30000000 2433513775 2433513775 9.00000000
2.99380541 2.93995094 -0.36710000 9 10 4552 4.21200000 2433513777 2433513777 -5.00000000
3.02478576 2.96933699 0.82391322 61 11 4553 4.31800000 2433513779 2433513779 11.00000000
2.99644923 2.94049311 -0.22002035 8 12 4554 4.20400000 2433513782 2433513782 -3.00000000
3.02849269 2.97090077 0.97943687 60 13 4555 4.35400000 2433513784 2433513784 13.00000000
3.00684285 2.94863296 -0.07350954 7 14 4556 4.21200000 2433513786 2433513786 -1.00000000
3.02672672 2.96709609 1.13569796 62 15 4557 4.38800000 2433513789 2433513789 15.00000000
1.63644087 1.60084367 -0.61340111 4 0 4563 2.37000000 2433513809 2433513809 -15.00000000
2.99808955 2.93184876 0.07319539 7 1 4564 4.19400000 2433513812 2433513812 1.00000000
1.94116068 1.89760935 -0.62671363 3 2 4565 2.78600000 2433513814 2433513814 -13.00000000
3.01545715 2.94677424 0.22096241 7 3 4566 4.22200000 2433513816 2433513816 3.00000000
2.35051250 2.29697490 -0.63882852 4 4 4566 3.34800000 2433513819 2433513819 -11.00000000
3.02001953 2.95020247 0.36936605 7 5 4567 4.23800000 2433513821 2433513821 5.00000000
2.97071671 2.90102625 -0.65765047 9 6 4568 4.20400000 2433513823 2433513823 -9.00000000
3.00998473 2.93834686 0.51648229 49 7 4569 4.23800000 2433513825 2433513825 7.00000000
2.98918676 2.91702509 -0.51282620 8 8 4570 4.20800000 2433513828 2433513828 -7.00000000
3.02686596 2.95379472 0.66985238 66 9 4570 4.28200000 2433513830 2433513830 9.00000000
3.00068569 2.92722440 -0.36675137 9 10 4571 4.20800000 2433513832 2433513832 -5.00000000
3.01493788 2.94010067 0.81857061 19 11 4572 4.29000000 2433513835 2433513835 11.00000000
3.00189328 2.92635775 -0.21970634 8 12 4573 4.19800000 2433513837 2433513837 -3.00000000
3.01739311 2.94044089 0.97268838 56 13 4574 4.32400000 2433513839 2433513839 13.00000000
3.00800991 2.93027353 -0.07330011 8 14 4575 4.20000000 2433513842 2433513842 -1.00000000
3.02773046 2.94948459 1.13259208 62 15 4575 4.37600000 2433513844 2433513844 15.00000000
1.64201891 1.59512162 -0.61340111 4 0 4583 2.37000000 2433513865 2433513865 -15.00000000
3.00687075 2.91997242 0.07316048 7 1 4584 4.19200000 2433513867 2433513867 1.00000000
1.94777274 1.89082181 -0.62671363 3 2 4585 2.78600000 2433513869 2433513869 -13.00000000
3.00565863 2.91675735 0.21949700 7 3 4586 4.19400000 2433513872 2433513872 3.00000000
2.35006261 2.28055263 -0.63653880 2 4 4586 3.33600000 2433513874 2433513874 -11.00000000
3.01742887 2.92715716 0.36779723 7 5 4587 4.22000000 2433513876 2433513876 5.00000000
2.98082519 2.89063883 -0.65765047 11 6 4588 4.20400000 2433513878 2433513878 -9.00000000
3.01737261 2.92505884 0.51599479 35 7 4589 4.23400000 2433513881 2433513881 7.00000000
2.98509550 2.89275861 -0.51038879 8 8 4590 4.18800000 2433513883 2433513883 -7.00000000
3.02155399 2.92808962 0.66641080 72 9 4590 4.26000000 2433513885 2433513885 9.00000000
3.00229931 2.90841436 -0.36570549 9 10 4591 4.19600000 2433513888 2433513888 -5.00000000
3.01954103 2.92409563 0.81704414 8 11 4592 4.28200000 2433513890 2433513890 11.00000000
2.99773979 2.90196967 -0.21865962 7 12 4593 4.17800000 2433513892 2433513892 -3.00000000
3.00663304 2.90956259 0.96593982 13 13 4594 4.29400000 2433513895 2433513895 13.00000000
3.00097322 2.90307140 -0.07288125 8 14 4595 4.17600000 2433513897 2433513897 -1.00000000
3.02689981 2.92815232 1.12845099 22 15 4595 4.36000000 2433513899 2433513899 15.00000000
1.64757693 1.58938015 -0.61340111 4 0 4603 2.37000000 2433513920 2433513920 -15.00000000
3.00984788 2.90251827 0.07298596 7 1 4604 4.18200000 2433513922 2433513922 1.00000000
1.95716703 1.88671637 -0.62761343 3 2 4605 2.79000000 2433513925 2433513925 -13.00000000
3.01006889 2.90070438 0.21907832 7 3 4606 4.18600000 2433513927 2433513927 3.00000000
2.36366367 2.27778482 -0.63806528 2 4 4606 3.34400000 2433513929 2433513929 -11.00000000
3.01327920 2.90278363 0.36605412 7 5 4607 4.20000000 2433513931 2433513931 5.00000000
2.98235989 2.87199497 -0.65577328 9 6 4608 4.19200000 2433513934 2433513934 -9.00000000
3.02327418 2.91037822 0.51526356 24 7 4609 4.22800000 2433513936 2433513936 7.00000000
2.98945332 2.87681532 -0.50941384 8 8 4610 4.18000000 2433513938 2433513938 -7.00000000
3.01660609 2.90193105 0.66296929 66 9 4611 4.23800000 2433513941 2433513941 9.00000000
2.99233127 2.87857890 -0.36326513 9 10 4611 4.16800000 2433513943 2433513943 -5.00000000
3.03397489 2.91762018 0.81818897 21 11 4612 4.28800000 2433513945 2433513945 11.00000000
3.00497150 2.88871980 -0.21845028 7 12 4613 4.17400000 2433513948 2433513948 -3.00000000
3.02098632 2.90310049 0.96728951 11 13 4614 4.30000000 2433513950 2433513950 13.00000000
2.99522543 2.87733984 -0.07249729 8 14 4615 4.15400000 2433513952 2433513952 -1.00000000
3.02317095 2.90418530 1.12327468 12 15 4615 4.34000000 2433513954 2433513954 15.00000000
1.64753473 1.57827389 -0.61133057 4 0 4623 2.36200000 2433513975 2433513975 -15.00000000
3.00118589 2.87401438 0.07253220 7 1 4624 4.15600000 2433513978 2433513978 1.00000000
1.96374094 1.87987304 -0.62761343 3 2 4625 2.79000000 2433513980 2433513980 -13.00000000
3.01151800 2.88189435 0.21845028 7 3 4626 4.17400000 2433513982 2433513982 3.00000000
2.38011074 2.27766442 -0.64035499 2 4 4626 3.35600000 2433513984 2433513984 -11.00000000
3.01043606 2.87985229 0.36448532 7 5 4627 4.18200000 2433513987 2433513987 5.00000000
2.98951149 2.85883641 -0.65514755 9 6 4628 4.18800000 2433513989 2433513989 -9.00000000
3.03054500 2.89706373 0.51477611 15 7 4629 4.22400000 2433513991 2433513991 7.00000000
2.99230123 2.85950518 -0.50819516 8 8 4630 4.17000000 2433513994 2433513994 -7.00000000
3.01814699 2.88319635 0.66109204 70 9 4631 4.22600000 2433513996 2433513996 9.00000000
2.99371696 2.85985875 -0.36221927 9 10 4631 4.15600000 2433513998 2433513998 -5.00000000
3.03136230 2.89480877 0.81475443 14 11 4632 4.27000000 2433514001 2433514001 11.00000000
3.00347924 2.86717987 -0.21761291 7 12 4633 4.15800000 2433514003 2433514003 -3.00000000
3.01700330 2.87908411 0.96279049 10 13 4634 4.28000000 2433514005 2433514005 13.00000000
2.99656963 2.85858512 -0.07228786 8 14 4635 4.14200000 2433514007 2433514007 -1.00000000
3.01142597 2.87175369 1.11499250 10 15 4636 4.30800000 2433514010 2433514010 15.00000000
1.65303385 1.57251322 -0.61133057 4 0 4643 2.36200000 2433514031 2433514031 -15.00000000
2.99670887 2.84974051 0.07218315 7 1 4644 4.13600000 2433514033 2433514033 1.00000000
1.96746624 1.87032151 -0.62671363 3 2 4645 2.78600000 2433514035 2433514035 -13.00000000
3.01287270 2.86310959 0.21782225 7 3 4646 4.16200000 2433514037 2433514037 3.00000000
2.37950778 2.26122785 -0.63806528 2 4 4646 3.34400000 2433514040 2433514040 -11.00000000
3.01324773 2.86246538 0.36361375 7 5 4647 4.17200000 2433514042 2433514042 5.00000000
2.98371601 2.83342099 -0.65170598 9 6 4648 4.16600000 2433514044 2433514044 -9.00000000
3.02624226 2.87280059 0.51233870 8 7 4649 4.20400000 2433514047 2433514047 7.00000000
2.99074507 2.83811116 -0.50624526 10 8 4650 4.15400000 2433514049 2433514049 -7.00000000
3.02532673 2.86992455 0.66046631 68 9 4651 4.22200000 2433514051 2433514051 9.00000000
3.00079060 2.84664869 -0.36187065 9 10 4651 4.15200000 2433514054 2433514054 -5.00000000
3.02150464 2.86529684 0.80941176 10 11 4652 4.24200000 2433514056 2433514056 11.00000000
3.00187349 2.84568596 -0.21677554 7 12 4653 4.14200000 2433514058 2433514058 -3.00000000
3.02137685 2.86317348 0.96099091 10 13 4654 4.27200000 2433514060 2433514060 13.00000000
3.00072265 2.84260678 -0.07214825 8 14 4655 4.13400000 2433514063 2433514063 -1.00000000
3.02373743 2.86440897 1.11602771 14 15 4655 4.31200000 2433514065 2433514065 15.00000000
1.66413021 1.57203996 -0.61340111 4 0 4663 2.37000000 2433514086 2433514086 -15.00000000
2.99791479 2.83102512 0.07197373 8 1 4664 4.12400000 2433514088 2433514088 1.00000000
1.97114873 1.86076701 -0.62581384 3 2 4665 2.78200000 2433514090 2433514090 -13.00000000
3.00832248 2.83886743 0.21677554 7 3 4666 4.14200000 2433514093 2433514093 3.00000000
