# .PCD v0.7 - Point Cloud Data file format
VERSION 0.7
FIELDS x y z intensity laser_id azimuth distance_m adjustedtime timestamp vertical_angle
SIZE 4 4 4 1 1 2 8 8 4 8
TYPE F F F U U U F U U F
COUNT 1 1 1 1 1 1 1 1 1 1
WIDTH 529
HEIGHT 1
VIEWPOINT 0 0 0 1 0 0 0
POINTS 529
DATA ascii
3.06540990 -0.44828779 -0.60219318 5 4 9832 3.15600000 2431728418 2431728418 -11.00000000
8.10233021 -1.18633509 0.71642023 76 5 9833 8.22000000 2431728420 2431728420 5.00000000
3.83665729 -0.56244355 -0.61416173 6 6 9834 3.92600000 2431728423 2431728423 -9.00000000
8.10366726 -1.18942034 1.00566578 92 7 9835 8.25200000 2431728425 2431728425 7.00000000
5.10443306 -0.75011617 -0.63347685 4 8 9836 5.19800000 2431728427 2431728427 -7.00000000
8.19278812 -1.20396197 1.31154656 7 9 9836 8.38400000 2431728430 2431728430 9.00000000
8.05616283 -1.18532085 -0.71241105 17 10 9837 8.17400000 2431728432 2431728432 -5.00000000
8.08531761 -1.19249392 -0.42831746 17 12 9839 8.18400000 2431728437 2431728437 -3.00000000
8.07498074 -1.19384956 -0.14248145 16 14 9841 8.16400000 2431728441 2431728441 -1.00000000
8.14883709 -1.20476890 2.20720887 47 15 9841 8.52800000 2431728444 2431728444 15.00000000
2.17626643 -0.32485691 -0.58958977 4 0 9849 2.27800000 2431728464 2431728464 -15.00000000
8.08496189 -1.20830572 0.14269088 12 1 9850 8.17600000 2431728467 2431728467 1.00000000
2.57292485 -0.38498530 -0.60061932 5 2 9851 2.67000000 2431728469 2431728469 -13.00000000
8.10431862 -1.21409082 0.42946887 13 3 9852 8.20600000 2431728471 2431728471 3.00000000
3.05800152 -0.45811275 -0.60104835 5 4 9852 3.15000000 2431728473 2431728473 -11.00000000
8.09025860 -1.21342814 0.71572298 90 5 9853 8.21200000 2431728476 2431728476 5.00000000
3.82490325 -0.57436585 -0.61259735 6 6 9854 3.91600000 2431728478 2431728478 -9.00000000
8.10535526 -1.21858561 1.00639701 87 7 9855 8.25800000 2431728480 2431728480 7.00000000
5.12337637 -0.77117962 -0.63615799 6 8 9856 5.22000000 2431728483 2431728483 -7.00000000
8.18832016 -1.23398197 1.31154656 10 9 9857 8.38400000 2431728485 2431728485 9.00000000
8.04606628 -1.21254408 -0.71188813 17 10 9857 8.16800000 2431728487 2431728487 -5.00000000
8.09295464 -1.22249961 -0.42894551 17 12 9859 8.19600000 2431728492 2431728492 -3.00000000
8.07669640 -1.22292733 -0.14258616 16 14 9861 8.17000000 2431728497 2431728497 -1.00000000
8.13290691 -1.23289049 2.20410299 49 15 9862 8.51600000 2431728499 2431728499 15.00000000
2.17893863 -0.33303526 -0.59062505 4 0 9869 2.28200000 2431728520 2431728520 -15.00000000
8.07674217 -1.23591518 0.14262107 12 1 9870 8.17200000 2431728522 2431728522 1.00000000
2.56000781 -0.39219353 -0.59791988 6 2 9871 2.65800000 2431728524 2431728524 -13.00000000
8.11582470 -1.24479508 0.43030623 15 3 9872 8.22200000 2431728526 2431728526 3.00000000
3.06608653 -0.47027257 -0.60295641 5 4 9872 3.16000000 2431728529 2431728529 -11.00000000
8.08991146 -1.24226582 0.71607161 79 5 9873 8.21600000 2431728531 2431728531 5.00000000
3.82287502 -0.58771372 -0.61259735 6 6 9874 3.91600000 2431728533 2431728533 -9.00000000
8.10301399 -1.24717307 1.00664079 90 7 9875 8.26000000 2431728536 2431728536 7.00000000
5.10888147 -0.78724492 -0.63469553 8 8 9876 5.20800000 2431728538 2431728538 -7.00000000
8.18808842 -1.26173031 1.31217229 10 9 9876 8.38800000 2431728540 2431728540 9.00000000
8.02406216 -1.23788881 -0.71031928 17 10 9877 8.15000000 2431728543 2431728543 -5.00000000
8.08666420 -1.25043654 -0.42884082 17 12 9879 8.19400000 2431728547 2431728547 -3.00000000
8.08225822 -1.25264418 -0.14276068 16 14 9881 8.18000000 2431728552 2431728552 -1.00000000
8.14404583 -1.26222038 2.20824409 47 15 9881 8.53200000 2431728554 2431728554 15.00000000
2.17776275 -0.34063914 -0.59062505 4 0 9889 2.28200000 2431728575 2431728575 -15.00000000
8.08028126 -1.26533818 0.14276068 12 1 9890 8.18000000 2431728577 2431728577 1.00000000
2.54899716 -0.39961809 -0.59567040 6 2 9891 2.64800000 2431728579 2431728579 -13.00000000
8.08972549 -1.26971054 0.42915484 13 3 9892 8.20000000 2431728582 2431728582 3.00000000
3.06830549 -0.48158118 -0.60371965 5 4 9892 3.16400000 2431728584 2431728584 -11.00000000
8.11308193 -1.27482724 0.71851194 76 5 9893 8.24400000 2431728586 2431728586 5.00000000
3.79738355 -0.59737080 -0.60884291 6 6 9894 3.89200000 2431728589 2431728589 -9.00000000
8.08488464 -1.27328849 1.00493455 87 7 9895 8.24600000 2431728591 2431728591 7.00000000
5.08453274 -0.80167258 -0.63201439 8 8 9896 5.18600000 2431728593 2431728593 -7.00000000
8.19121361 -1.29296458 1.31342375 10 9 9897 8.39600000 2431728596 2431728596 9.00000000
8.00394821 -1.26340520 -0.70892483 17 10 9897 8.13400000 2431728598 2431728598 -5.00000000
8.08027744 -1.27834463 -0.42873615 17 12 9899 8.19200000 2431728602 2431728602 -3.00000000
8.09561157 -1.28366745 -0.14307483 14 14 9901 8.19800000 2431728607 2431728607 -1.00000000
8.14318085 -1.29266715 2.20927930 47 15 9902 8.53600000 2431728609 2431728609 15.00000000
2.18043661 -0.34846875 -0.59166032 4 0 9908 2.28600000 2431728630 2431728630 -15.00000000
8.08788776 -1.29402196 0.14297011 12 1 9909 8.19200000 2431728632 2431728632 1.00000000
2.55150628 -0.40868509 -0.59657019 6 2 9910 2.65200000 2431728635 2431728635 -13.00000000
8.08547115 -1.29653001 0.42915484 13 3 9911 8.20000000 2431728637 2431728637 3.00000000
3.05506063 -0.48988834 -0.60142994 5 4 9911 3.15200000 2431728639 2431728639 -11.00000000
8.10094070 -1.30046093 0.71781468 76 5 9912 8.23600000 2431728642 2431728642 5.00000000
3.82268667 -0.61434829 -0.61322308 4 6 9913 3.92000000 2431728644 2431728644 -9.00000000
8.09433651 -1.30229926 1.00664079 90 7 9914 8.26000000 2431728646 2431728646 7.00000000
5.07400703 -0.81726640 -0.63103944 8 8 9915 5.17800000 2431728649 2431728649 -7.00000000
8.17930984 -1.31743515 1.31217229 10 9 9915 8.38800000 2431728651 2431728651 9.00000000
8.03512001 -1.29564941 -0.71206242 17 10 9916 8.17000000 2431728653 2431728653 -5.00000000
8.08782387 -1.30704463 -0.42936417 17 12 9918 8.20400000 2431728658 2431728658 -3.00000000
8.08341503 -1.30922747 -0.14293520 14 14 9920 8.19000000 2431728662 2431728662 -1.00000000
8.14670753 -1.31947875 2.21134996 47 15 9920 8.54400000 2431728665 2431728665 15.00000000
2.16395426 -0.35358554 -0.58751923 4 0 9928 2.27000000 2431728685 2431728685 -15.00000000
8.09121513 -1.32353735 0.14310974 12 1 9929 8.20000000 2431728688 2431728688 1.00000000
2.55391049 -0.41821888 -0.59746999 6 2 9930 2.65600000 2431728690 2431728690 -13.00000000
8.08680820 -1.32571495 0.42946887 13 3 9931 8.20600000 2431728692 2431728692 3.00000000
3.05333209 -0.50054950 -0.60142994 5 4 9931 3.15200000 2431728695 2431728695 -11.00000000
8.09241962 -1.32808530 0.71746606 76 5 9932 8.23200000 2431728697 2431728697 5.00000000
3.81272197 -0.62640721 -0.61197162 6 6 9933 3.91200000 2431728699 2431728699 -9.00000000
8.10149479 -1.33247888 1.00810325 90 7 9934 8.27200000 2431728702 2431728702 7.00000000
5.07504082 -0.83561802 -0.63152695 8 8 9935 5.18200000 2431728704 2431728704 -7.00000000
8.17832470 -1.34804749 1.31279802 10 9 9936 8.39200000 2431728706 2431728706 9.00000000
8.02661705 -1.32304132 -0.71171379 17 10 9936 8.16600000 2431728708 2431728708 -5.00000000
8.08518314 -1.33559394 -0.42946887 12 12 9938 8.20600000 2431728713 2431728713 -3.00000000
8.17309284 -1.35158122 1.91253388 2 13 9939 8.50200000 2431728715 2431728715 13.00000000
8.07879543 -1.33743596 -0.14293520 14 14 9940 8.19000000 2431728718 2431728718 -1.00000000
8.14372253 -1.34964490 2.21186757 51 15 9941 8.54600000 2431728720 2431728720 15.00000000
2.16283274 -0.36038205 -0.58751923 4 0 9946 2.27000000 2431728741 2431728741 -15.00000000
8.09490776 -1.35026610 0.14324935 12 1 9947 8.20800000 2431728743 2431728743 1.00000000
2.55066180 -0.42591918 -0.59702009 5 2 9948 2.65400000 2431728745 2431728745 -13.00000000
8.10033321 -1.35407758 0.43041089 13 3 9949 8.22400000 2431728748 2431728748 3.00000000
3.04399896 -0.50884455 -0.59990346 5 4 9949 3.14400000 2431728750 2431728750 -11.00000000
8.08820724 -1.35350168 0.71746606 76 5 9950 8.23200000 2431728752 2431728752 5.00000000
3.81852818 -0.63968760 -0.61322308 4 6 9951 3.92000000 2431728755 2431728755 -9.00000000
8.10705757 -1.35956538 1.00932193 90 7 9952 8.28200000 2431728757 2431728757 7.00000000
5.06455994 -0.85024297 -0.63055199 8 8 9953 5.17400000 2431728759 2431728759 -7.00000000
8.18987370 -1.37492347 1.31530094 7 9 9953 8.40800000 2431728761 2431728761 9.00000000
7.95561647 -1.33702385 -0.70578718 17 10 9954 8.09800000 2431728764 2431728764 -5.00000000
8.09276390 -1.36297786 -0.43009689 17 12 9956 8.21800000 2431728768 2431728768 -3.00000000
8.09032822 -1.36547196 -0.14321445 14 14 9958 8.20600000 2431728773 2431728773 -1.00000000
8.13396740 -1.37283731 2.21031475 47 15 9958 8.54000000 2431728775 2431728775 15.00000000
2.16156173 -0.36792955 -0.58751923 4 0 9966 2.27000000 2431728796 2431728796 -15.00000000
8.07634544 -1.37616313 0.14300501 12 1 9967 8.19400000 2431728798 2431728798 1.00000000
2.55108047 -0.43514773 -0.59746999 6 2 9968 2.65600000 2431728801 2431728801 -13.00000000
8.10933876 -1.38469791 0.43114361 15 3 9969 8.23800000 2431728803 2431728803 3.00000000
3.04994512 -0.52078879 -0.60142994 5 4 9969 3.15200000 2431728805 2431728805 -11.00000000
8.09914494 -1.38441217 0.71886057 76 5 9970 8.24800000 2431728808 2431728808 5.00000000
3.80458951 -0.65101385 -0.61134589 6 6 9971 3.90800000 2431728810 2431728810 -9.00000000
8.10421848 -1.38819122 1.00956559 90 7 9972 8.28400000 2431728812 2431728812 7.00000000
5.06938744 -0.86925834 -0.63152695 8 8 9973 5.18200000 2431728814 2431728814 -7.00000000
8.18477917 -1.40493166 1.31530094 7 9 9974 8.40800000 2431728817 2431728817 9.00000000
7.85664511 -1.34860682 -0.69742024 13 10 9974 8.00200000 2431728819 2431728819 -5.00000000
8.08598900 -1.39087999 -0.42999223 17 12 9976 8.21600000 2431728824 2431728824 -3.00000000
8.07368851 -1.39166605 -0.14300501 12 14 9978 8.19400000 2431728828 2431728828 -1.00000000
8.14030361 -1.40461147 2.21342039 47 15 9979 8.55200000 2431728831 2431728831 15.00000000
2.17929745 -0.37878069 -0.59269559 4 0 9986 2.29000000 2431728851 2431728851 -15.00000000
8.07937336 -1.40571749 0.14314464 12 1 9987 8.20200000 2431728854 2431728854 1.00000000
2.54186678 -0.44271252 -0.59567040 6 2 9988 2.64800000 2431728856 2431728856 -13.00000000
8.09461784 -1.41128123 0.43062025 18 3 9989 8.22800000 2431728858 2431728858 3.00000000
3.04810858 -0.53143191 -0.60142994 5 4 9989 3.15200000 2431728861 2431728861 -11.00000000
8.09622574 -1.41301763 0.71903485 76 5 9990 8.25000000 2431728863 2431728863 5.00000000
3.78867245 -0.66191059 -0.60915583 6 6 9991 3.89400000 2431728865 2431728865 -9.00000000
8.09150219 -1.41510379 1.00859070 95 7 9992 8.27600000 2431728867 2431728867 7.00000000
5.06241131 -0.88626391 -0.63103944 8 8 9993 5.17800000 2431728870 2431728870 -7.00000000
8.19564152 -1.43479085 1.31780398 7 9 9993 8.42400000 2431728872 2431728872 9.00000000
7.80479002 -1.36776936 -0.69323677 17 10 9994 7.95400000 2431728874 2431728874 -5.00000000
8.07321548 -1.41771507 -0.42957354 17 12 9996 8.20800000 2431728879 2431728879 -3.00000000
8.08453751 -1.42261243 -0.14328426 20 14 9998 8.21000000 2431728884 2431728884 -1.00000000
8.14701653 -1.43360674 2.21652627 49 15 9998 8.56400000 2431728886 2431728886 15.00000000
2.16654897 -0.38436082 -0.58958977 4 0 10006 2.27800000 2431728907 2431728907 -15.00000000
8.08426189 -1.43565953 0.14331916 15 1 10007 8.21200000 2431728909 2431728909 1.00000000
2.53454995 -0.45055935 -0.59432071 6 2 10008 2.64200000 2431728911 2431728911 -13.00000000
8.08570957 -1.43882823 0.43041089 18 3 10009 8.22400000 2431728914 2431728914 3.00000000
3.03850341 -0.54069275 -0.59990346 5 4 10009 3.14400000 2431728916 2431728916 -11.00000000
8.10497475 -1.44371581 0.72025508 76 5 10010 8.26400000 2431728918 2431728918 5.00000000
3.79606247 -0.67686528 -0.61072016 6 6 10011 3.90400000 2431728920 2431728920 -9.00000000
8.10214615 -1.44613028 1.01054060 95 7 10012 8.29200000 2431728923 2431728923 7.00000000
5.05147028 -0.90253305 -0.63006449 8 8 10013 5.17000000 2431728925 2431728925 -7.00000000
8.18280506 -1.46200049 1.31655240 7 9 10013 8.41600000 2431728927 2431728927 9.00000000
7.79212284 -1.39360178 -0.69253951 12 10 10014 7.94600000 2431728930 2431728930 -5.00000000
8.07215023 -1.44659185 -0.42978287 17 12 10016 8.21200000 2431728934 2431728934 -3.00000000
8.07164955 -1.44941032 -0.14314464 18 14 10018 8.20200000 2431728939 2431728939 -1.00000000
8.14956856 -1.46340215 2.21859694 47 15 10018 8.57200000 2431728941 2431728941 15.00000000
2.15765834 -0.39016819 -0.58751923 4 0 10025 2.27000000 2431728962 2431728962 -15.00000000
8.09913349 -1.46602178 0.14366820 15 1 10026 8.23200000 2431728964 2431728964 1.00000000
2.54262948 -0.46069893 -0.59657019 6 2 10027 2.65200000 2431728967 2431728967 -13.00000000
8.09465027 -1.46812856 0.43114361 18 3 10028 8.23800000 2431728969 2431728969 3.00000000
3.03476191 -0.55041546 -0.59952188 5 4 10028 3.14200000 2431728971 2431728971 -11.00000000
8.10210323 -1.47094095 0.72042936 76 5 10029 8.26600000 2431728973 2431728973 5.00000000
3.78213573 -0.68733054 -0.60884291 4 6 10030 3.89200000 2431728976 2431728976 -9.00000000
8.10707188 -1.47476637 1.01175928 87 7 10031 8.30200000 2431728978 2431728978 7.00000000
5.05235577 -0.91999060 -0.63055199 8 8 10032 5.17400000 2431728980 2431728980 -7.00000000
8.17570877 -1.49020064 1.31623960 5 9 10033 8.41400000 2431728983 2431728983 9.00000000
7.77177811 -1.41657555 -0.69114506 12 10 10033 7.93000000 2431728985 2431728985 -5.00000000
8.07713223 -1.47514629 -0.43030623 17 12 10035 8.22200000 2431728990 2431728990 -3.00000000
8.06679821 -1.47616899 -0.14314464 14 14 10037 8.20200000 2431728994 2431728994 -1.00000000
8.14847183 -1.49111450 2.21963215 49 15 10037 8.57600000 2431728996 2431728996 15.00000000
2.15248370 -0.39699668 -0.58648396 4 0 10045 2.26600000 2431729017 2431729017 -15.00000000
8.07430172 -1.49065363 0.14331916 15 1 10046 8.21200000 2431729020 2431729020 1.00000000
2.54867101 -0.47098807 -0.59836978 6 2 10047 2.66000000 2431729022 2431729022 -13.00000000
8.09340382 -1.49710178 0.43135294 18 3 10048 8.24200000 2431729024 2431729024 3.00000000
3.03282213 -0.56100541 -0.59952188 4 4 10048 3.14200000 2431729026 2431729026 -11.00000000
8.08908272 -1.49776256 0.71973211 76 5 10049 8.25800000 2431729029 2431729029 5.00000000
3.79136729 -0.70268840 -0.61072016 4 6 10050 3.90400000 2431729031 2431729031 -9.00000000
8.10577774 -1.50378048 1.01224673 90 7 10051 8.30600000 2431729033 2431729033 7.00000000
5.04911327 -0.93762100 -0.63055199 8 8 10052 5.17400000 2431729036 2431729036 -7.00000000
8.18793583 -1.52197909 1.31905544 7 9 10053 8.43200000 2431729038 2431729038 9.00000000
7.77462101 -1.44515193 -0.69184226 12 10 10053 7.93800000 2431729040 2431729040 -5.00000000
8.08567810 -1.50589156 -0.43103895 17 12 10055 8.23600000 2431729045 2431729045 -3.00000000
8.07732296 -1.50725293 -0.14342387 14 14 10057 8.21800000 2431729049 2431729049 -1.00000000
8.13535500 -1.51955140 2.21756148 47 15 10058 8.56800000 2431729052 2431729052 15.00000000
2.15860820 -0.40631267 -0.58855450 4 0 10066 2.27400000 2431729073 2431729073 -15.00000000
8.07074928 -1.52060771 0.14335407 18 1 10067 8.21400000 2431729075 2431729075 1.00000000
2.53543782 -0.47815937 -0.59567040 6 2 10068 2.64800000 2431729077 2431729077 -13.00000000
8.10160065 -1.52934885 0.43208566 15 3 10069 8.25600000 2431729079 2431729079 3.00000000
3.02688718 -0.57138914 -0.59875864 4 4 10069 3.13800000 2431729082 2431729082 -11.00000000
8.09332752 -1.52925014 0.72060370 76 5 10070 8.26800000 2431729084 2431729084 5.00000000
3.76547480 -0.71217453 -0.60696572 6 6 10071 3.88000000 2431729086 2431729086 -9.00000000
8.09826183 -1.53311038 1.01200306 90 7 10072 8.30400000 2431729089 2431729089 7.00000000
5.04954386 -0.95685983 -0.63103944 8 8 10073 5.17800000 2431729091 2431729091 -7.00000000
8.18230247 -1.55197918 1.31905544 7 9 10074 8.43200000 2431729093 2431729093 9.00000000
7.71446228 -1.46324158 -0.68696159 17 10 10074 7.88200000 2431729096 2431729096 -5.00000000
8.08402920 -1.53626263 -0.43124828 17 12 10076 8.24000000 2431729100 2431729100 -3.00000000
8.07567310 -1.53759563 -0.14349368 14 14 10078 8.22200000 2431729105 2431729105 -1.00000000
8.13379765 -1.54866242 2.21859694 47 15 10078 8.57200000 2431729107 2431729107 15.00000000
2.16476583 -0.41530105 -0.59062505 4 0 10086 2.28200000 2431729128 2431729128 -15.00000000
8.07913876 -1.55141032 0.14359841 18 1 10087 8.22800000 2431729130 2431729130 1.00000000
2.52992582 -0.48627111 -0.59477061 6 2 10088 2.64400000 2431729132 2431729132 -13.00000000
8.08836746 -1.55611014 0.43166697 15 3 10089 8.24800000 2431729135 2431729135 3.00000000
3.02873015 -0.58269328 -0.59952188 4 4 10089 3.14200000 2431729137 2431729137 -11.00000000
8.09576607 -1.55899882 0.72130090 76 5 10090 8.27600000 2431729139 2431729139 5.00000000
3.77848315 -0.72830516 -0.60946870 4 6 10091 3.89600000 2431729142 2431729142 -9.00000000
8.09091187 -1.56099319 1.01175928 87 7 10092 8.30200000 2431729144 2431729144 7.00000000
5.03447866 -0.97222179 -0.62957704 8 8 10093 5.16600000 2431729146 2431729146 -7.00000000
8.18459320 -1.58203089 1.32030690 7 9 10094 8.44000000 2431729149 2431729149 9.00000000
7.71126413 -1.49053931 -0.68713588 17 10 10094 7.88400000 2431729151 2431729151 -5.00000000
8.07077408 -1.56295288 -0.43082958 17 12 10096 8.23200000 2431729155 2431729155 -3.00000000
8.08007240 -1.56768000 -0.14366820 14 14 10098 8.23200000 2431729160 2431729160 -1.00000000
8.13972092 -1.57925296 2.22170258 47 15 10098 8.58400000 2431729162 2431729162 15.00000000
2.15951109 -0.42211378 -0.58958977 4 0 10106 2.27800000 2431729183 2431729183 -15.00000000
8.08152485 -1.58113813 0.14373802 15 1 10107 8.23600000 2431729185 2431729185 1.00000000
2.52821302 -0.49509925 -0.59477061 6 2 10108 2.64400000 2431729188 2431729188 -13.00000000
8.08512306 -1.58330739 0.43177164 15 3 10108 8.25000000 2431729190 2431729190 3.00000000
3.03438401 -0.59477252 -0.60104835 4 4 10109 3.15000000 2431729192 2431729192 -11.00000000
8.09809494 -1.58878303 0.72199816 72 5 10110 8.28400000 2431729195 2431729195 5.00000000
3.77204132 -0.74072880 -0.60884291 6 6 10111 3.89200000 2431729197 2431729197 -9.00000000
8.10099602 -1.59228897 1.01370919 90 7 10112 8.31800000 2431729199 2431729199 7.00000000
5.01547194 -0.98672396 -0.62762713 8 8 10113 5.15000000 2431729201 2431729201 -7.00000000
8.17154884 -1.60763800 1.31905544 7 9 10113 8.43200000 2431729204 2431729204 9.00000000
7.73533678 -1.52322161 -0.68975055 12 10 10114 7.91400000 2431729206 2431729206 -5.00000000
8.06918812 -1.59188879 -0.43103895 12 12 10116 8.23600000 2431729211 2431729211 -3.00000000
8.07062721 -1.59509981 -0.14359841 12 14 10118 8.22800000 2431729215 2431729215 -1.00000000
8.14931965 -1.61065280 2.22584391 47 15 10118 8.60000000 2431729218 2431729218 15.00000000
2.15044570 -0.42814043 -0.58751923 4 0 10126 2.27000000 2431729238 2431729238 -15.00000000
8.08968353 -1.61207390 0.14398235 12 1 10127 8.25000000 2431729241 2431729241 1.00000000
2.53220272 -0.50506490 -0.59612030 7 2 10128 2.65000000 2431729243 2431729243 -13.00000000
8.07926559 -1.61293018 0.43177164 10 3 10129 8.25000000 2431729245 2431729245 3.00000000
3.02073789 -0.60305476 -0.59875864 4 4 10129 3.13800000 2431729248 2431729248 -11.00000000
8.09249973 -1.61704099 0.72199816 76 5 10130 8.28400000 2431729250 2431729250 5.00000000
3.77330661 -0.75466597 -0.60946870 4 6 10131 3.89600000 2431729252 2431729252 -9.00000000
8.10706711 -1.62289500 1.01517165 90 7 10132 8.33000000 2431729254 2431729254 7.00000000
5.02367544 -1.00656509 -0.62908953 8 8 10133 5.16200000 2431729257 2431729257 -7.00000000
8.16947556 -1.63835430 1.31968117 7 9 10134 8.43600000 2431729259 2431729259 9.00000000
7.72997284 -1.55021369 -0.68975055 12 10 10134 7.91400000 2431729261 2431729261 -5.00000000
8.06554031 -1.62043917 -0.43114361 12 12 10136 8.23800000 2431729266 2431729266 -3.00000000
8.06696987 -1.62365639 -0.14363331 12 14 10138 8.23000000 2431729271 2431729271 -1.00000000
8.14336205 -1.64051080 2.22584391 47 15 10139 8.60000000 2431729273 2431729273 15.00000000
2.15090752 -0.43565273 -0.58803689 4 0 10145 2.27200000 2431729294 2431729294 -15.00000000
8.07841396 -1.63769948 0.14387764 12 1 10146 8.24400000 2431729296 2431729296 1.00000000
2.53242373 -0.51384670 -0.59657019 6 2 10147 2.65200000 2431729298 2431729298 -13.00000000
8.08394527 -1.64028978 0.43229499 13 3 10147 8.26000000 2431729301 2431729301 3.00000000
3.01102543 -0.61150557 -0.59723216 4 4 10148 3.13000000 2431729303 2431729303 -11.00000000
8.08318806 -1.64307404 0.72164953 72 5 10149 8.28000000 2431729305 2431729305 5.00000000
3.76884770 -0.76678073 -0.60915583 6 6 10150 3.89400000 2431729307 2431729307 -9.00000000
8.10747623 -1.65095842 1.01590288 90 7 10151 8.33600000 2431729310 2431729310 7.00000000
5.01641989 -1.02242589 -0.62860209 8 8 10152 5.15800000 2431729312 2431729312 -7.00000000
8.16980457 -1.66662073 1.32061970 7 9 10153 8.44200000 2431729314 2431729314 9.00000000
7.71307659 -1.57344925 -0.68870467 12 10 10153 7.90200000 2431729317 2431729317 -5.00000000
8.07773304 -1.65077567 -0.43208566 17 12 10155 8.25600000 2431729321 2431729321 -3.00000000
8.06546021 -1.65120065 -0.14370312 14 14 10157 8.23400000 2431729326 2431729326 -1.00000000
8.12681198 -1.66376102 2.22273803 47 15 10157 8.58800000 2431729328 2431729328 15.00000000
2.14558959 -0.44237792 -0.58700162 4 0 10165 2.26800000 2431729349 2431729349 -15.00000000
8.06481457 -1.66427195 0.14373802 12 1 10166 8.23600000 2431729351 2431729351 1.00000000
2.52107239 -0.52071249 -0.59432071 5 2 10167 2.64200000 2431729353 2431729353 -13.00000000
8.10164165 -1.67334592 0.43355107 13 3 10167 8.28400000 2431729356 2431729356 3.00000000
3.01656294 -0.62360209 -0.59875864 4 4 10168 3.13800000 2431729358 2431729358 -11.00000000
8.08715916 -1.67329812 0.72252113 72 5 10169 8.29000000 2431729360 2431729360 5.00000000
3.74100184 -0.77472425 -0.60508853 4 6 10170 3.86800000 2431729363 2431729363 -9.00000000
8.10360813 -1.67965162 1.01614654 90 7 10171 8.33800000 2431729365 2431729365 7.00000000
5.00893307 -1.03912377 -0.62811458 8 8 10172 5.15400000 2431729367 2431729367 -7.00000000
8.18327808 -1.69914448 1.32374847 5 9 10173 8.46200000 2431729370 2431729370 9.00000000
7.69583225 -1.59793305 -0.68765879 12 10 10173 7.89000000 2431729372 2431729372 -5.00000000
8.06801128 -1.67814875 -0.43187630 17 12 10175 8.25200000 2431729377 2431729377 -3.00000000
8.07530785 -1.68260753 -0.14398235 14 14 10177 8.25000000 2431729381 2431729381 -1.00000000
8.13986778 -1.69605935 2.22791433 47 15 10177 8.60800000 2431729383 2431729383 15.00000000
2.14214158 -0.44946802 -0.58648396 4 0 10185 2.26600000 2431729404 2431729404 -15.00000000
8.07852650 -1.69652295 0.14408706 12 1 10186 8.25600000 2431729406 2431729406 1.00000000
2.51161098 -0.52790612 -0.59252107 4 2 10187 2.63400000 2431729409 2431729409 -13.00000000
8.08372784 -1.70056176 0.43292302 15 3 10188 8.27200000 2431729411 2431729411 3.00000000
3.02589512 -0.63655305 -0.60104835 4 4 10188 3.15000000 2431729413 2431729413 -11.00000000
8.09881496 -1.70521188 0.72408992 83 5 10189 8.30800000 2431729416 2431729416 5.00000000
3.74987221 -0.79022205 -0.60696572 4 6 10190 3.88000000 2431729418 2431729418 -9.00000000
8.09769535 -1.70792818 1.01614654 90 7 10191 8.33800000 2431729420 2431729420 7.00000000
5.00916004 -1.05742180 -0.62860209 8 8 10192 5.15800000 2431729423 2431729423 -7.00000000
8.18339729 -1.72749579 1.32468700 7 9 10192 8.46800000 2431729425 2431729425 9.00000000
7.69410610 -1.62561047 -0.68800741 12 10 10193 7.89400000 2431729427 2431729427 -5.00000000
8.05233383 -1.70423341 -0.43135294 12 12 10195 8.24200000 2431729432 2431729432 -3.00000000
8.08112240 -1.71327376 -0.14419179 16 14 10197 8.26200000 2431729436 2431729436 -1.00000000
8.13548660 -1.72628307 2.22843194 47 15 10198 8.61000000 2431729439 2431729439 15.00000000
2.15756321 -0.46057248 -0.59114271 4 0 10205 2.28400000 2431729459 2431729459 -15.00000000
8.07646561 -1.72554755 0.14415687 12 1 10206 8.26000000 2431729462 2431729462 1.00000000
2.52118683 -0.53911501 -0.59522051 5 2 10207 2.64600000 2431729464 2431729464 -13.00000000
8.07804394 -1.72735906 0.43292302 13 3 10207 8.27200000 2431729466 2431729466 3.00000000
3.00445676 -0.64300287 -0.59723216 5 4 10208 3.13000000 2431729469 2431729469 -11.00000000
8.08502102 -1.73180234 0.72339267 68 5 10209 8.30000000 2431729471 2431729471 5.00000000
3.75867987 -0.80579114 -0.60884291 4 6 10210 3.89200000 2431729473 2431729473 -9.00000000
8.09556580 -1.73701692 1.01663411 90 7 10211 8.34200000 2431729476 2431729476 7.00000000
4.99379301 -1.07239985 -0.62713963 8 8 10212 5.14600000 2431729478 2431729478 -7.00000000
8.15576649 -1.75291193 1.32124555 5 9 10213 8.44600000 2431729480 2431729480 9.00000000
7.66500998 -1.64743412 -0.68591571 12 10 10213 7.87000000 2431729483 2431729483 -5.00000000
8.06976700 -1.73737526 -0.43260902 17 12 10215 8.26600000 2431729487 2431729487 -3.00000000
8.06922913 -1.74020696 -0.14408706 12 14 10217 8.25600000 2431729492 2431729492 -1.00000000
8.14074135 -1.75711632 2.23153782 45 15 10218 8.62200000 2431729494 2431729494 15.00000000
2.14658451 -0.46567687 -0.58855450 4 0 10224 2.27400000 2431729515 2431729515 -15.00000000
8.08242416 -1.75486636 0.14436631 12 1 10225 8.27200000 2431729517 2431729517 1.00000000
2.52128959 -0.54788643 -0.59567040 4 2 10226 2.64800000 2431729519 2431729519 -13.00000000
8.08983707 -1.75795424 0.43386507 10 3 10226 8.29000000 2431729522 2431729522 3.00000000
2.98312402 -0.64879018 -0.59341598 4 4 10227 3.11000000 2431729524 2431729524 -11.00000000
8.10064888 -1.76326513 0.72531009 90 5 10228 8.32200000 2431729526 2431729526 5.00000000
3.75019693 -0.81698954 -0.60790431 6 6 10229 3.88600000 2431729529 2431729529 -9.00000000
8.10139847 -1.76639056 1.01809645 87 7 10230 8.35400000 2431729531 2431729531 7.00000000
4.99214888 -1.08937728 -0.62738335 8 8 10231 5.14800000 2431729533 2431729533 -7.00000000
8.14635944 -1.77768302 1.32061970 7 9 10231 8.44200000 2431729536 2431729536 9.00000000
7.65171909 -1.67114270 -0.68521845 12 10 10232 7.86200000 2431729538 2431729538 -5.00000000
8.06200981 -1.76369917 -0.43250436 17 12 10234 8.26400000 2431729542 2431729542 -3.00000000
8.06341362 -1.76695597 -0.14408706 12 14 10236 8.25600000 2431729547 2431729547 -1.00000000
8.13864326 -1.78492999 2.23257303 47 15 10237 8.62600000 2431729549 2431729549 15.00000000
2.12985396 -0.46983778 -0.58441341 4 0 10244 2.25800000 2431729570 2431729570 -15.00000000
8.06843853 -1.78134418 0.14422669 12 1 10245 8.26400000 2431729572 2431729572 1.00000000
2.52697301 -0.55836588 -0.59746999 4 2 10246 2.65600000 2431729575 2431729575 -13.00000000
8.08560085 -1.78661335 0.43396974 13 3 10246 8.29200000 2431729577 2431729577 3.00000000
3.00576138 -0.66471028 -0.59837699 5 4 10247 3.13600000 2431729579 2431729579 -11.00000000
8.07499123 -1.78722537 0.72356695 72 5 10248 8.30200000 2431729582 2431729582 5.00000000
3.73382187 -0.82708466 -0.60571426 8 6 10249 3.87200000 2431729584 2431729584 -9.00000000
8.10099792 -1.79594791 1.01882768 80 7 10250 8.36000000 2431729586 2431729586 7.00000000
4.98250198 -1.10550654 -0.62665218 6 8 10251 5.14200000 2431729589 2431729589 -7.00000000
8.17096043 -1.81295455 1.32562566 5 9 10251 8.47400000 2431729591 2431729591 9.00000000
7.61860895 -1.69179523 -0.68277806 12 10 10252 7.83400000 2431729593 2431729593 -5.00000000
8.06555271 -1.79399836 -0.43302771 12 12 10254 8.27400000 2431729598 2431729598 -3.00000000
8.06305218 -1.79639637 -0.14419179 14 14 10256 8.26200000 2431729602 2431729602 -1.00000000
8.12482166 -1.81164658 2.23050261 45 15 10257 8.61800000 2431729605 2431729605 15.00000000
2.13951111 -0.47980592 -0.58751923 4 0 10264 2.27000000 2431729625 2431729625 -15.00000000
8.06217194 -1.80949748 0.14422669 12 1 10265 8.26400000 2431729628 2431729628 1.00000000
2.51360059 -0.56462067 -0.59477061 4 2 10266 2.64400000 2431729630 2431729630 -13.00000000
8.08711052 -1.81657732 0.43438843 13 3 10266 8.30000000 2431729632 2431729632 3.00000000
2.99384546 -0.67304522 -0.59646893 5 4 10267 3.12600000 2431729635 2431729635 -11.00000000
8.09397221 -1.82108688 0.72583300 83 5 10268 8.32800000 2431729637 2431729637 5.00000000
3.70585942 -0.83447188 -0.60164696 6 6 10269 3.84600000 2431729639 2431729639 -9.00000000
8.08887005 -1.82290554 1.01809645 85 7 10270 8.35400000 2431729641 2431729641 7.00000000
4.99216795 -1.12594926 -0.62835836 4 8 10271 5.15600000 2431729644 2431729644 -7.00000000
8.16843605 -1.84233463 1.32625139 5 9 10271 8.47800000 2431729646 2431729646 9.00000000
7.62431765 -1.72101104 -0.68382394 12 10 10272 7.84600000 2431729648 2431729648 -5.00000000
8.05534458 -1.82126057 -0.43281835 12 12 10274 8.27000000 2431729653 2431729653 -3.00000000
8.06648445 -1.82673907 -0.14436631 14 14 10276 8.27200000 2431729658 2431729658 -1.00000000
8.12630558 -1.84028614 2.23257303 45 15 10276 8.62600000 2431729660 2431729660 15.00000000
2.13782310 -0.48727128 -0.58751923 4 0 10284 2.27000000 2431729681 2431729681 -15.00000000
8.07140350 -1.84118652 0.14450592 12 1 10285 8.28000000 2431729683 2431729683 1.00000000
2.50021505 -0.57078898 -0.59207118 4 2 10286 2.63200000 2431729685 2431729685 -13.00000000
8.08461475 -1.84568465 0.43459779 13 3 10286 8.30400000 2431729688 2431729688 3.00000000
3.00678945 -0.68698996 -0.59952188 4 4 10287 3.14200000 2431729690 2431729690 -11.00000000
8.07785511 -1.84710848 0.72496146 72 5 10288 8.31800000 2431729692 2431729692 5.00000000
3.72410560 -0.85224998 -0.60508853 6 6 10289 3.86800000 2431729694 2431729694 -9.00000000
8.08632755 -1.85201621 1.01858401 87 7 10290 8.35800000 2431729697 2431729697 7.00000000
4.98046732 -1.14159417 -0.62738335 2 8 10291 5.14800000 2431729699 2431729699 -7.00000000
8.17350769 -1.87348461 1.32812858 7 9 10291 8.49000000 2431729701 2431729701 9.00000000
7.59884453 -1.74315953 -0.68208086 12 10 10292 7.82600000 2431729704 2431729704 -5.00000000
8.05672455 -1.85115683 -0.43323705 12 12 10294 8.27800000 2431729708 2431729708 -3.00000000
8.07759762 -1.85892141 -0.14468046 14 14 10296 8.29000000 2431729713 2431729713 -1.00000000
8.13456631 -1.87352693 2.23671412 45 15 10297 8.64200000 2431729715 2431729715 15.00000000
2.14363742 -0.49647424 -0.58958977 4 0 10304 2.27800000 2431729736 2431729736 -15.00000000
8.07077122 -1.87070429 0.14461064 12 1 10305 8.28600000 2431729738 2431729738 1.00000000
2.50200415 -0.58039355 -0.59297097 4 2 10306 2.63600000 2431729741 2431729741 -13.00000000
8.07001305 -1.87349713 0.43417910 10 3 10307 8.29600000 2431729743 2431729743 3.00000000
2.99289870 -0.69481760 -0.59723216 4 4 10307 3.13000000 2431729745 2431729745 -11.00000000
8.10046864 -1.88205767 0.72757614 83 5 10308 8.34800000 2431729747 2431729747 5.00000000
3.71148777 -0.86300743 -0.60352415 6 6 10309 3.85800000 2431729750 2431729750 -9.00000000
8.08754730 -1.88203108 1.01955891 83 7 10310 8.36600000 2431729752 2431729752 7.00000000
4.96871901 -1.15717125 -0.62640840 2 8 10311 5.14000000 2431729754 2431729754 -7.00000000
8.15152740 -1.89841962 1.32562566 5 9 10311 8.47400000 2431729757 2431729757 9.00000000
7.59659433 -1.77057838 -0.68242949 12 10 10312 7.83000000 2431729759 2431729759 -5.00000000
8.05410385 -1.88017690 -0.43344638 12 12 10314 8.28200000 2431729764 2431729764 -3.00000000
8.07300663 -1.88756144 -0.14471535 14 14 10316 8.29200000 2431729768 2431729768 -1.00000000
8.13771439 -1.90269089 2.23930240 47 15 10316 8.65200000 2431729771 2431729771 15.00000000
2.13060832 -0.50129920 -0.58648396 4 0 10324 2.26600000 2431729791 2431729791 -15.00000000
8.07976341 -1.90253186 0.14488988 12 1 10325 8.30200000 2431729794 2431729794 1.00000000
2.50185966 -0.58957064 -0.59342086 4 2 10326 2.63800000 2431729796 2431729796 -13.00000000
8.07897568 -1.90532291 0.43501648 10 3 10327 8.31200000 2431729798 2431729798 3.00000000
2.99427676 -0.70616180 -0.59799540 4 4 10327 3.13400000 2431729800 2431729800 -11.00000000
8.08221531 -1.90757608 0.72653025 72 5 10328 8.33600000 2431729803 2431729803 5.00000000
3.73728967 -0.88276917 -0.60821718 4 6 10329 3.88800000 2431729805 2431729805 -9.00000000
8.08672333 -1.91162050 1.02029014 80 7 10330 8.37200000 2431729807 2431729807 7.00000000
4.98396683 -1.17907834 -0.62884581 2 8 10331 5.16000000 2431729810 2431729810 -7.00000000
8.16373634 -1.93283474 1.32875431 5 9 10332 8.49400000 2431729812 2431729812 9.00000000
7.58261204 -1.79524851 -0.68173224 12 10 10332 7.82200000 2431729814 2431729814 -5.00000000
8.05915165 -1.91104448 -0.43407443 12 12 10334 8.29400000 2431729819 2431729819 -3.00000000
8.06053162 -1.91434383 -0.14461064 14 14 10336 8.28600000 2431729824 2431729824 -1.00000000
8.12504768 -1.93116426 2.23774958 45 15 10337 8.64600000 2431729826 2431729826 15.00000000
2.12508750 -0.50783533 -0.58544868 4 0 10344 2.26200000 2431729847 2431729847 -15.00000000
8.07112885 -1.93025875 0.14485498 12 1 10345 8.30000000 2431729849 2431729849 1.00000000
2.51115775 -0.60102177 -0.59612030 4 2 10346 2.65000000 2431729851 2431729851 -13.00000000
8.08587170 -1.93676889 0.43574917 13 3 10347 8.32600000 2431729853 2431729853 3.00000000
2.97270107 -0.71203637 -0.59417921 4 4 10347 3.11400000 2431729856 2431729856 -11.00000000
8.07163239 -1.93484783 0.72618163 72 5 10348 8.33200000 2431729858 2431729858 5.00000000
3.71113491 -0.89027965 -0.60446280 4 6 10349 3.86400000 2431729860 2431729860 -9.00000000
8.09544373 -1.94354403 1.02224004 76 7 10350 8.38800000 2431729863 2431729863 7.00000000
4.94893837 -1.18904853 -0.62494600 2 8 10351 5.12800000 2431729865 2431729865 -7.00000000
8.14575768 -1.95712721 1.32687712 5 9 10351 8.48200000 2431729867 2431729867 9.00000000
7.56467628 -1.81891108 -0.68068635 12 10 10352 7.81000000 2431729870 2431729870 -5.00000000
8.17716789 -1.96769309 1.63485146 3 11 10353 8.56800000 2431729872 2431729872 11.00000000
8.07573223 -1.94477582 -0.43533048 12 12 10354 8.31800000 2431729874 2431729874 -3.00000000
8.06352043 -1.94481289 -0.14478517 16 14 10356 8.29600000 2431729879 2431729879 -1.00000000
8.12611103 -1.95990896 2.23982000 45 15 10356 8.65400000 2431729881 2431729881 15.00000000
2.12705660 -0.51616132 -0.58648396 4 0 10364 2.26600000 2431729902 2431729902 -15.00000000
8.06045532 -1.95747674 0.14478517 18 1 10365 8.29600000 2431729904 2431729904 1.00000000
2.50147009 -0.60794282 -0.59432071 4 2 10366 2.64200000 2431729906 2431729906 -13.00000000
8.08682442 -1.96687007 0.43616787 10 3 10367 8.33400000 2431729909 2431729909 3.00000000
2.97401261 -0.72333664 -0.59494245 4 4 10367 3.11800000 2431729911 2431729911 -11.00000000
8.07450867 -1.96536720 0.72705323 72 5 10368 8.34200000 2431729913 2431729913 5.00000000
3.69648910 -0.90042347 -0.60258555 4 6 10369 3.85200000 2431729916 2431729916 -9.00000000
8.08089542 -1.96991003 1.02126515 76 7 10370 8.38000000 2431729918 2431729918 7.00000000
4.99104214 -1.21760786 -0.63079572 2 8 10371 5.17600000 2431729920 2431729920 -7.00000000
8.16923428 -1.99446595 1.33188307 5 9 10372 8.51400000 2431729923 2431729923 9.00000000
7.55634546 -1.84483314 -0.68051201 12 10 10372 7.80800000 2431729925 2431729925 -5.00000000
8.06889534 -1.97295344 -0.43533048 12 12 10374 8.31800000 2431729929 2431729929 -3.00000000
8.06056690 -1.97389925 -0.14485498 12 14 10376 8.30000000 2431729934 2431729934 -1.00000000
8.12637806 -1.99151886 2.24189067 45 15 10377 8.66200000 2431729936 2431729936 15.00000000
2.12524199 -0.52358299 -0.58648396 4 0 10384 2.26600000 2431729957 2431729957 -15.00000000
8.06522274 -1.98847318 0.14499459 12 1 10385 8.30800000 2431729959 2431729959 1.00000000
2.48419666 -0.61293632 -0.59072149 4 2 10386 2.62600000 2431729962 2431729962 -13.00000000
8.08572674 -1.99652278 0.43648186 10 3 10387 8.34000000 2431729964 2431729964 3.00000000
2.99052978 -0.73841977 -0.59875864 4 4 10387 3.13800000 2431729966 2431729966 -11.00000000
8.08307266 -1.99736416 0.72844768 76 5 10388 8.35800000 2431729969 2431729969 5.00000000
3.71249962 -0.91806316 -0.60571426 4 6 10389 3.87200000 2431729971 2431729971 -9.00000000
8.07975101 -1.99953616 1.02199626 83 7 10390 8.38600000 2431729973 2431729973 7.00000000
4.95978546 -1.22834146 -0.62738335 2 8 10391 5.14800000 2431729976 2431729976 -7.00000000
8.16641045 -2.02249503 1.33250880 5 9 10391 8.51800000 2431729978 2431729978 9.00000000
7.54986000 -1.87119842 -0.68051201 12 10 10392 7.80800000 2431729980 2431729980 -5.00000000
8.05808163 -2.00014496 -0.43512115 12 12 10394 8.31400000 2431729985 2431729985 -3.00000000
8.07691479 -2.00781298 -0.14527383 12 14 10396 8.32400000 2431729989 2431729989 -1.00000000
8.12347889 -2.01938796 2.24292588 47 15 10396 8.66600000 2431729992 2431729992 15.00000000
2.12714958 -0.53193557 -0.58751923 4 0 10404 2.27000000 2431730012 2431730012 -15.00000000
8.07181168 -2.02001214 0.14523892 12 1 10405 8.32200000 2431730015 2431730015 1.00000000
2.49338412 -0.62444460 -0.59342086 4 2 10406 2.63800000 2431730017 2431730017 -13.00000000
8.07483387 -2.02376390 0.43627253 13 3 10407 8.33600000 2431730019 2431730019 3.00000000
2.95746422 -0.74121767 -0.59265274 4 4 10407 3.10600000 2431730022 2431730022 -11.00000000
8.07411861 -2.02508259 0.72827339 72 5 10408 8.35600000 2431730024 2431730024 5.00000000
3.69777679 -0.92813128 -0.60383701 4 6 10409 3.86000000 2431730026 2431730026 -9.00000000
8.07849789 -2.02917838 1.02272749 78 7 10410 8.39200000 2431730029 2431730029 7.00000000
4.94776678 -1.24371111 -0.62640840 6 8 10411 5.14000000 2431730031 2431730031 -7.00000000
8.15894318 -2.05241275 1.33250880 5 9 10412 8.51800000 2431730033 2431730033 9.00000000
6.66799879 -1.67736018 -0.60154891 12 10 10412 6.90200000 2431730035 2431730035 -5.00000000
8.06460857 -2.03167605 -0.43585384 17 12 10414 8.32800000 2431730040 2431730040 -3.00000000
8.05628490 -2.03257012 -0.14502950 10 14 10416 8.31000000 2431730045 2431730045 -1.00000000
8.12913418 -2.05245900 2.24654937 47 15 10417 8.68000000 2431730047 2431730047 15.00000000
2.12537408 -0.53898656 -0.58751923 4 0 10423 2.27000000 2431730068 2431730068 -15.00000000
8.08057499 -2.05070329 0.14551817 12 1 10424 8.33800000 2431730070 2431730070 1.00000000
2.49507737 -0.63366890 -0.59432071 4 2 10425 2.64200000 2431730072 2431730072 -13.00000000
8.07969284 -2.05348182 0.43690056 10 3 10426 8.34800000 2431730075 2431730075 3.00000000
2.95879555 -0.75198811 -0.59341598 4 4 10426 3.11000000 2431730077 2431730077 -11.00000000
8.09053040 -2.05773950 0.73036510 83 5 10427 8.38000000 2431730079 2431730079 5.00000000
3.69085002 -0.93941391 -0.60321128 4 6 10428 3.85600000 2431730082 2431730082 -9.00000000
8.08518982 -2.05938625 1.02443373 85 7 10429 8.40600000 2431730084 2431730084 7.00000000
4.90899086 -1.25128603 -0.62202114 8 8 10430 5.10400000 2431730086 2431730086 -7.00000000
8.16011143 -2.07998633 1.33376026 5 9 10430 8.52600000 2431730088 2431730088 9.00000000
6.58131552 -1.67877972 -0.59422785 12 10 10431 6.81800000 2431730091 2431730091 -5.00000000
8.06943703 -2.06137419 -0.43648186 17 12 10433 8.34000000 2431730095 2431730095 -3.00000000
8.04562569 -2.05828333 -0.14495969 10 14 10435 8.30600000 2431730100 2431730100 -1.00000000
8.12451839 -2.07846594 2.24706697 45 15 10435 8.68200000 2431730102 2431730102 15.00000000
2.11225414 -0.54351372 -0.58441341 4 0 10443 2.25800000 2431730123 2431730123 -15.00000000
8.06562138 -2.07690263 0.14537854 12 1 10444 8.33000000 2431730125 2431730125 1.00000000
2.49662423 -0.64334702 -0.59522051 4 2 10445 2.64600000 2431730128 2431730128 -13.00000000
8.08407974 -2.08466506 0.43752858 10 3 10446 8.36000000 2431730130 2431730130 3.00000000
2.95615268 -0.76231164 -0.59341598 4 4 10446 3.11000000 2431730132 2431730132 -11.00000000
8.09101486 -2.08795953 0.73106235 83 5 10447 8.38800000 2431730135 2431730135 5.00000000
3.67607260 -0.94932812 -0.60133410 4 6 10448 3.84400000 2431730137 2431730137 -9.00000000
8.08371830 -2.08908653 1.02516496 80 7 10449 8.41200000 2431730139 2431730139 7.00000000
4.90651464 -1.26891100 -0.62226486 8 8 10450 5.10600000 2431730141 2431730141 -7.00000000
8.16390705 -2.11285019 1.33563745 5 9 10451 8.53800000 2431730144 2431730144 9.00000000
6.54455423 -1.69375551 -0.59143889 12 10 10451 6.78600000 2431730146 2431730146 -5.00000000
8.16855717 -2.11557484 1.64019418 6 11 10452 8.59600000 2431730148 2431730148 11.00000000
8.06799316 -2.09103227 -0.43679589 12 12 10453 8.34600000 2431730151 2431730151 -3.00000000
8.06742573 -2.09389067 -0.14548326 12 14 10455 8.33600000 2431730155 2431730155 -1.00000000
8.11684513 -2.10822988 2.24706697 45 15 10456 8.68200000 2431730158 2431730158 15.00000000
2.11034417 -0.55088359 -0.58441341 4 0 10463 2.25800000 2431730178 2431730178 -15.00000000
8.06219196 -2.10605502 0.14544836 12 1 10464 8.33400000 2431730181 2431730181 1.00000000
2.47928047 -0.64811504 -0.59162128 4 2 10465 2.63000000 2431730183 2431730183 -13.00000000
8.08255005 -2.11438727 0.43784261 13 3 10466 8.36600000 2431730185 2431730185 3.00000000
2.96107101 -0.77461338 -0.59494245 4 4 10466 3.11800000 2431730188 2431730188 -11.00000000
8.08753204 -2.11719871 0.73141098 83 5 10467 8.39200000 2431730190 2431730190 5.00000000
3.68611264 -0.96565843 -0.60352415 6 6 10468 3.85800000 2431730192 2431730192 -9.00000000
8.07829666 -2.11779451 1.02540863 87 7 10469 8.41400000 2431730194 2431730194 7.00000000
4.91357613 -1.28905261 -0.62372732 8 8 10470 5.11800000 2431730197 2431730197 -7.00000000
8.17978477 -2.14592624 1.33939195 5 9 10470 8.56200000 2431730199 2431730199 9.00000000
6.56172705 -1.72266090 -0.59353060 12 10 10471 6.81000000 2431730201 2431730201 -5.00000000
8.17061615 -2.14656973 1.64210224 6 11 10472 8.60600000 2431730204 2431730204 11.00000000
8.06064510 -2.11918211 -0.43679589 12 12 10473 8.34600000 2431730206 2431730206 -3.00000000
8.06973648 -2.12458420 -0.14565778 10 14 10475 8.34600000 2431730211 2431730211 -1.00000000
8.11728287 -2.13710213 2.24913740 45 15 10475 8.69000000 2431730213 2431730213 15.00000000
2.12334824 -0.56220239 -0.58855450 4 0 10483 2.27400000 2431730234 2431730234 -15.00000000
8.06832218 -2.13776970 0.14569269 12 1 10484 8.34800000 2431730236 2431730236 1.00000000
2.46570110 -0.65376878 -0.58892184 4 2 10485 2.61800000 2431730238 2431730238 -13.00000000
8.08670330 -2.14566112 0.43847063 15 3 10486 8.37800000 2431730241 2431730241 3.00000000
2.95455384 -0.78393769 -0.59417921 4 4 10486 3.11400000 2431730243 2431730243 -11.00000000
8.07624054 -2.14439416 0.73106235 76 5 10487 8.38800000 2431730245 2431730245 5.00000000
3.68081021 -0.97801220 -0.60321128 6 6 10488 3.85600000 2431730247 2431730247 -9.00000000
8.07085514 -2.14598012 1.02540863 83 7 10489 8.41400000 2431730250 2431730250 7.00000000
4.89178181 -1.30160248 -0.62153363 8 8 10490 5.10000000 2431730252 2431730252 -7.00000000
8.17988014 -2.17649770 1.34064341 5 9 10490 8.57000000 2431730254 2431730254 9.00000000
6.56722546 -1.74863100 -0.59457648 16 10 10491 6.82200000 2431730257 2431730257 -5.00000000
8.18204403 -2.18013215 1.64591837 6 11 10492 8.62600000 2431730259 2431730259 11.00000000
8.05512810 -2.14782071 -0.43690056 12 12 10493 8.34800000 2431730261 2431730261 -3.00000000
8.06613445 -2.15377164 -0.14572759 10 14 10495 8.35000000 2431730266 2431730266 -1.00000000
8.12283802 -2.16891241 2.25276089 47 15 10495 8.70400000 2431730268 2431730268 15.00000000
2.11754203 -0.56897849 -0.58751923 4 0 10504 2.27000000 2431730289 2431730289 -15.00000000
8.07201862 -2.17044258 0.14590211 12 1 10505 8.36000000 2431730291 2431730291 1.00000000
2.46705198 -0.66381431 -0.58982164 4 2 10506 2.62200000 2431730294 2431730294 -13.00000000
8.07878399 -2.17528605 0.43847063 15 3 10507 8.37800000 2431730296 2431730296 3.00000000
2.95924377 -0.79680324 -0.59570569 4 4 10507 3.12200000 2431730298 2431730298 -11.00000000
8.07409859 -2.17553568 0.73158532 72 5 10508 8.39400000 2431730300 2431730300 5.00000000
3.67338634 -0.99046797 -0.60258555 6 6 10509 3.85200000 2431730303 2431730303 -9.00000000
8.07443523 -2.17864966 1.02687109 87 7 10510 8.42600000 2431730305 2431730305 7.00000000
4.87739563 -1.31693566 -0.62031496 8 8 10511 5.09000000 2431730307 2431730307 -7.00000000
8.16383457 -2.20582914 1.33939195 5 9 10512 8.56200000 2431730310 2431730310 9.00000000
6.58577681 -1.77944541 -0.59684253 28 10 10512 6.84800000 2431730312 2431730312 -5.00000000
8.19105530 -2.21471810 1.64935291 3 11 10513 8.64400000 2431730314 2431730314 11.00000000
8.06840897 -2.18306780 -0.43805194 12 12 10514 8.37000000 2431730317 2431730317 -3.00000000
8.16170883 -2.20984077 1.95212519 2 13 10515 8.67800000 2431730319 2431730319 13.00000000
8.05818653 -2.18332100 -0.14572759 12 14 10516 8.35000000 2431730321 2431730321 -1.00000000
8.12788677 -2.20220590 2.25638437 47 15 10516 8.71800000 2431730323 2431730323 15.00000000
2.10808754 -0.57433534 -0.58544868 4 0 10524 2.26200000 2431730344 2431730344 -15.00000000
8.07596970 -2.20176196 0.14611155 12 1 10525 8.37200000 2431730347 2431730347 1.00000000
2.47223973 -0.67447352 -0.59162128 4 2 10526 2.63000000 2431730349 2431730349 -13.00000000
8.06536198 -2.20189500 0.43815663 13 3 10527 8.37200000 2431730351 2431730351 3.00000000
2.93750501 -0.80195749 -0.59188950 4 4 10527 3.10200000 2431730353 2431730353 -11.00000000
8.08567429 -2.20895696 0.73332840 79 5 10528 8.41400000 2431730356 2431730356 5.00000000
3.66990662 -1.00328445 -0.60258555 4 6 10529 3.85200000 2431730358 2431730358 -9.00000000
8.07826900 -2.20996428 1.02833354 87 7 10530 8.43800000 2431730360 2431730360 7.00000000
4.87085438 -1.33342874 -0.62007123 8 8 10531 5.08800000 2431730363 2431730363 -7.00000000
8.16370583 -2.23640037 1.34064341 5 9 10532 8.57000000 2431730365 2431730365 9.00000000
8.17191505 -2.24018264 1.64706326 3 11 10533 8.63200000 2431730370 2431730370 11.00000000
8.07807446 -2.21597385 -0.43899399 12 12 10534 8.38800000 2431730372 2431730372 -3.00000000
8.06979942 -2.21673298 -0.14607663 10 14 10536 8.37000000 2431730376 2431730376 -1.00000000
8.12162304 -2.23249340 2.25690198 47 15 10537 8.72000000 2431730379 2431730379 15.00000000
2.09499788 -0.57823890 -0.58234286 4 0 10543 2.25000000 2431730400 2431730400 -15.00000000
8.06091309 -2.22640109 0.14597192 12 1 10544 8.36400000 2431730402 2431730402 1.00000000
2.47374630 -0.68370634 -0.59252107 4 2 10545 2.63400000 2431730404 2431730404 -13.00000000
8.07919025 -2.23448491 0.43930802 10 3 10546 8.39400000 2431730406 2431730406 3.00000000
2.94996715 -0.81588084 -0.59494245 4 4 10546 3.11800000 2431730409 2431730409 -11.00000000
8.08406544 -2.23735213 0.73385137 83 5 10547 8.42000000 2431730411 2431730411 5.00000000
3.66275215 -1.01439428 -0.60195982 4 6 10548 3.84800000 2431730413 2431730413 -9.00000000
8.08237457 -2.23992157 1.02979600 90 7 10549 8.45000000 2431730416 2431730416 7.00000000
4.87023163 -1.35063481 -0.62055868 8 8 10550 5.09200000 2431730418 2431730418 -7.00000000
10.14153385 -2.81440234 1.66696560 12 9 10551 10.65600000 2431730420 2431730420 9.00000000
8.17579079 -2.27042127 1.64935291 3 11 10552 8.64400000 2431730425 2431730425 11.00000000
8.06683254 -2.24168015 -0.43878466 12 12 10553 8.38400000 2431730427 2431730427 -3.00000000
8.06240368 -2.24348116 -0.14607663 10 14 10555 8.37000000 2431730432 2431730432 -1.00000000
8.10712528 -2.25592566 2.25483155 47 15 10555 8.71200000 2431730434 2431730434 15.00000000
2.09668756 -0.58658928 -0.58337814 4 0 10563 2.25400000 2431730455 2431730455 -15.00000000
8.05886936 -2.25614285 0.14607663 12 1 10564 8.37000000 2431730457 2431730457 1.00000000
2.46383858 -0.69023436 -0.59072149 4 2 10565 2.62600000 2431730459 2431730459 -13.00000000
8.08480358 -2.26644683 0.44004071 10 3 10566 8.40800000 2431730462 2431730462 3.00000000
2.95466280 -0.82829297 -0.59646893 4 4 10566 3.12600000 2431730464 2431730464 -11.00000000
8.08579826 -2.26824784 0.73472291 79 5 10567 8.43000000 2431730466 2431730466 5.00000000
3.65348315 -1.02557194 -0.60102123 6 6 10568 3.84200000 2431730469 2431730469 -9.00000000
8.08215046 -2.27026820 1.03077090 87 7 10569 8.45800000 2431730471 2431730471 7.00000000
