# .PCD v0.7 - Point Cloud Data file format
VERSION 0.7
FIELDS x y z intensity laser_id azimuth distance_m adjustedtime timestamp vertical_angle
SIZE 4 4 4 1 1 2 8 8 4 8
TYPE F F F U U U F U U F
COUNT 1 1 1 1 1 1 1 1 1 1
WIDTH 524
HEIGHT 1
VIEWPOINT 0 0 0 1 0 0 0
POINTS 524
DATA ascii
1.04946876 -3.17330027 -0.52937424 1 6 16170 3.38400000 2432246105 2432246105 -9.00000000
1.35612321 -4.10534430 -0.53086287 2 8 16172 4.35600000 2432246110 2432246110 -7.00000000
1.90816736 -5.77991486 -0.53252161 3 10 16173 6.11000000 2432246115 2432246115 -5.00000000
3.00537968 -9.11410046 -0.50294852 4 12 16175 9.61000000 2432246119 2432246119 -3.00000000
3.15833068 -9.58356285 2.32959318 51 13 16176 10.35600000 2432246122 2432246122 13.00000000
2.71411586 -8.24048615 2.32471275 20 15 16177 8.98200000 2432246126 2432246126 15.00000000
0.63187212 -1.92751753 -0.54351997 4 0 16185 2.10000000 2432246147 2432246147 -15.00000000
0.72828329 -2.22424102 -0.54033244 3 2 16187 2.40200000 2432246151 2432246151 -13.00000000
0.85970819 -2.62717462 -0.53731811 3 4 16188 2.81600000 2432246156 2432246156 -11.00000000
1.04574990 -3.19947577 -0.53312868 1 6 16190 3.40800000 2432246161 2432246161 -9.00000000
1.33439183 -4.08740807 -0.52793801 2 8 16192 4.33200000 2432246165 2432246165 -7.00000000
1.88798010 -5.78654051 -0.53252161 3 10 16193 6.11000000 2432246170 2432246170 -5.00000000
2.96612120 -9.10174847 -0.50169247 4 12 16195 9.58600000 2432246174 2432246174 -3.00000000
3.12123775 -9.58341122 2.32689381 44 13 16196 10.34400000 2432246177 2432246177 13.00000000
2.68568754 -8.25588989 2.32626557 9 15 16198 8.98800000 2432246181 2432246181 15.00000000
0.62275851 -1.92236006 -0.54144943 4 0 16205 2.09200000 2432246202 2432246202 -15.00000000
0.71931493 -2.22306156 -0.53943264 3 2 16207 2.39800000 2432246207 2432246207 -13.00000000
0.84751207 -2.62081957 -0.53541005 3 4 16208 2.80600000 2432246211 2432246211 -11.00000000
1.02911091 -3.18618870 -0.53031284 3 6 16210 3.39000000 2432246216 2432246216 -9.00000000
1.32438231 -4.10526562 -0.52964419 2 8 16212 4.34600000 2432246221 2432246221 -7.00000000
1.86287868 -5.77792549 -0.53112710 3 10 16213 6.09400000 2432246225 2432246225 -5.00000000
2.93127108 -9.10254097 -0.50116915 8 12 16215 9.57600000 2432246230 2432246230 -3.00000000
3.07522893 -9.55529213 2.31744576 23 13 16216 10.30200000 2432246232 2432246232 13.00000000
2.64587331 -8.22613049 2.31539512 9 15 16217 8.94600000 2432246237 2432246237 15.00000000
0.61604440 -1.92452216 -0.54144943 4 0 16225 2.09200000 2432246257 2432246257 -15.00000000
0.71511137 -2.23669600 -0.54213202 3 2 16227 2.41000000 2432246262 2432246262 -13.00000000
0.83656591 -2.61815166 -0.53426516 3 4 16228 2.80000000 2432246267 2432246267 -11.00000000
1.01978457 -3.19540715 -0.53125143 1 6 16230 3.39600000 2432246271 2432246271 -9.00000000
1.31124997 -4.11364603 -0.53013164 2 8 16232 4.35000000 2432246276 2432246276 -7.00000000
1.84511769 -5.79198647 -0.53182435 3 10 16233 6.10200000 2432246280 2432246280 -5.00000000
2.89463472 -9.09749222 -0.50033176 8 12 16235 9.56000000 2432246285 2432246285 -3.00000000
3.02354932 -9.50839806 2.30349874 14 13 16236 10.24000000 2432246287 2432246287 13.00000000
2.61745977 -8.24129581 2.31694818 6 15 16238 8.95200000 2432246292 2432246292 15.00000000
0.60782212 -1.92308319 -0.54041415 4 0 16246 2.08800000 2432246313 2432246313 -15.00000000
0.70690864 -2.23930192 -0.54213202 3 2 16248 2.41000000 2432246317 2432246317 -13.00000000
0.82991773 -2.63056159 -0.53617328 3 4 16249 2.81000000 2432246322 2432246322 -11.00000000
1.00806594 -3.19912338 -0.53125143 1 6 16251 3.39600000 2432246327 2432246327 -9.00000000
1.29437602 -4.11274385 -0.52940041 2 8 16253 4.34400000 2432246331 2432246331 -7.00000000
1.81431186 -5.76830101 -0.52903533 3 10 16254 6.07000000 2432246336 2432246336 -5.00000000
2.86366582 -9.11566162 -0.50075042 8 12 16256 9.56800000 2432246340 2432246340 -3.00000000
2.94606709 -9.38369083 2.27065587 16 13 16257 10.09400000 2432246343 2432246343 13.00000000
2.69567013 -8.59138393 2.41271114 27 15 16258 9.32200000 2432246347 2432246347 15.00000000
0.60456026 -1.93625748 -0.54351997 4 0 16266 2.10000000 2432246368 2432246368 -15.00000000
0.69676709 -2.23431420 -0.54033244 3 2 16268 2.40200000 2432246373 2432246373 -13.00000000
0.82131445 -2.63531685 -0.53655487 3 4 16269 2.81200000 2432246377 2432246377 -11.00000000
0.99571854 -3.19885063 -0.53062570 1 6 16271 3.39200000 2432246382 2432246382 -9.00000000
1.28119063 -4.12102842 -0.52988791 2 8 16273 4.34800000 2432246386 2432246386 -7.00000000
1.80007720 -5.79362535 -0.53077847 3 10 16274 6.09000000 2432246391 2432246391 -5.00000000
2.82709312 -9.11034203 -0.49991307 4 12 16276 9.55200000 2432246396 2432246396 -3.00000000
2.88500953 -9.30271435 2.24861073 16 13 16277 9.99600000 2432246398 2432246398 13.00000000
2.69331408 -8.69531918 2.43911076 33 15 16279 9.42400000 2432246403 2432246403 15.00000000
0.59585744 -1.93086779 -0.54144943 4 0 16285 2.09200000 2432246423 2432246423 -15.00000000
0.68935400 -2.23661256 -0.54033244 3 2 16287 2.40200000 2432246428 2432246428 -13.00000000
0.81199294 -2.63614988 -0.53617328 3 4 16288 2.81000000 2432246433 2432246433 -11.00000000
0.98103946 -3.18891859 -0.52843565 1 6 16290 3.37800000 2432246437 2432246437 -9.00000000
1.25877225 -4.09679079 -0.52623183 2 8 16292 4.31800000 2432246442 2432246442 -7.00000000
1.77734590 -5.78813505 -0.52973258 3 10 16293 6.07800000 2432246446 2432246446 -5.00000000
2.78574014 -9.08338737 -0.49792430 4 12 16295 9.51400000 2432246451 2432246451 -3.00000000
2.84158134 -9.27123928 2.23871279 20 13 16296 9.95200000 2432246453 2432246453 13.00000000
2.69993091 -8.81456566 2.47016907 40 15 16297 9.54400000 2432246458 2432246458 15.00000000
0.59024024 -1.93663180 -0.54248470 4 0 16305 2.09600000 2432246479 2432246479 -15.00000000
0.68040764 -2.23527670 -0.53943264 3 2 16307 2.39800000 2432246483 2432246483 -13.00000000
0.79878646 -2.62582016 -0.53350192 3 4 16308 2.79600000 2432246488 2432246488 -11.00000000
0.97851574 -3.22067451 -0.53312868 1 6 16310 3.40800000 2432246492 2432246492 -9.00000000
1.24388766 -4.09926033 -0.52598810 2 8 16312 4.31600000 2432246497 2432246497 -7.00000000
1.76638186 -5.82481050 -0.53252161 3 10 16313 6.11000000 2432246502 2432246502 -5.00000000
2.75285840 -9.08923244 -0.49771494 4 12 16315 9.51000000 2432246506 2432246506 -3.00000000
2.79903960 -9.24752903 2.23061466 21 13 16316 9.91600000 2432246509 2432246509 13.00000000
2.70158720 -8.93118477 2.50019193 29 15 16317 9.66000000 2432246513 2432246513 15.00000000
0.58236307 -1.93498051 -0.54144943 4 0 16325 2.09200000 2432246534 2432246534 -15.00000000
0.67372286 -2.24137068 -0.54033244 3 2 16327 2.40200000 2432246539 2432246539 -13.00000000
0.78905100 -2.62671232 -0.53312033 3 4 16328 2.79400000 2432246543 2432246543 -11.00000000
0.96499693 -3.21650243 -0.53187716 3 6 16330 3.40000000 2432246548 2432246548 -9.00000000
1.23185015 -4.11118364 -0.52696306 2 8 16332 4.32400000 2432246552 2432246552 -7.00000000
1.74603868 -5.83094072 -0.53252161 3 10 16333 6.11000000 2432246557 2432246557 -5.00000000
2.71424699 -9.07582474 -0.49645889 4 12 16335 9.48600000 2432246562 2432246562 -3.00000000
2.76451039 -9.24977493 2.22881508 22 13 16336 9.90800000 2432246564 2432246564 13.00000000
2.69638038 -9.02756023 2.52452087 38 15 16337 9.75400000 2432246568 2432246568 15.00000000
0.57230341 -1.92589068 -0.53834361 4 0 16345 2.08000000 2432246589 2432246589 -15.00000000
0.66589487 -2.24370861 -0.54033244 3 2 16347 2.40200000 2432246594 2432246594 -13.00000000
0.78322673 -2.64074373 -0.53541005 3 4 16348 2.80600000 2432246598 2432246598 -11.00000000
0.95208025 -3.21416926 -0.53093857 3 6 16350 3.39400000 2432246603 2432246603 -9.00000000
1.22256017 -4.13259029 -0.52915668 2 8 16352 4.34200000 2432246608 2432246608 -7.00000000
1.72567427 -5.83699989 -0.53252161 3 10 16353 6.11000000 2432246612 2432246612 -5.00000000
2.67859077 -9.07183456 -0.49572617 8 12 16355 9.47200000 2432246617 2432246617 -3.00000000
2.73220587 -9.25936794 2.22881508 28 13 16356 9.90800000 2432246619 2432246619 13.00000000
2.69330931 -9.13930035 2.55299115 38 15 16358 9.86400000 2432246624 2432246624 15.00000000
0.56448966 -1.92416918 -0.53730834 4 0 16365 2.07600000 2432246645 2432246645 -15.00000000
0.65915465 -2.24975967 -0.54123223 3 2 16367 2.40600000 2432246649 2432246649 -13.00000000
0.77290070 -2.63969350 -0.53464681 3 4 16368 2.80200000 2432246654 2432246654 -11.00000000
0.93808281 -3.20799303 -0.52937424 3 6 16370 3.38400000 2432246658 2432246658 -9.00000000
1.20478833 -4.12540007 -0.52769428 4 8 16372 4.33000000 2432246663 2432246663 -7.00000000
1.69412494 -5.80473614 -0.52903533 3 10 16373 6.07000000 2432246668 2432246668 -5.00000000
2.64467239 -9.07345963 -0.49530748 4 12 16375 9.46400000 2432246672 2432246672 -3.00000000
2.69823313 -9.26323605 2.22746539 27 13 16376 9.90200000 2432246674 2432246674 13.00000000
2.69268441 -9.25019932 2.58146119 38 15 16377 9.97400000 2432246679 2432246679 15.00000000
0.56206840 -1.94097281 -0.54144943 4 0 16385 2.09200000 2432246700 2432246700 -15.00000000
0.64696640 -2.23707080 -0.53763300 3 2 16387 2.39000000 2432246704 2432246704 -13.00000000
0.76204646 -2.63671708 -0.53350192 5 4 16388 2.79600000 2432246709 2432246709 -11.00000000
3.31601143 -11.48107052 1.04552031 17 5 16389 11.99600000 2432246711 2432246711 5.00000000
0.93071371 -3.22453332 -0.53156430 1 6 16390 3.39800000 2432246714 2432246714 -9.00000000
1.18763149 -4.12004328 -0.52647555 2 8 16392 4.32000000 2432246718 2432246718 -7.00000000
1.67605829 -5.81827259 -0.52973258 3 10 16393 6.07800000 2432246723 2432246723 -5.00000000
2.60746193 -9.06344223 -0.49426076 4 12 16395 9.44400000 2432246727 2432246727 -3.00000000
2.66265106 -9.26136112 2.22476602 24 13 16396 9.89000000 2432246730 2432246730 13.00000000
2.69452024 -9.37837315 2.61458993 45 15 16397 10.10200000 2432246734 2432246734 15.00000000
0.55635148 -1.94663799 -0.54248470 4 0 16405 2.09600000 2432246755 2432246755 -15.00000000
3.28408146 -11.49838448 0.20873079 3 1 16406 11.96000000 2432246757 2432246757 1.00000000
0.64343244 -2.25430655 -0.54123223 3 2 16407 2.40600000 2432246760 2432246760 -13.00000000
3.28026843 -11.49263000 0.62635672 7 3 16407 11.96800000 2432246762 2432246762 3.00000000
0.75229943 -2.63747311 -0.53312033 3 4 16408 2.79400000 2432246764 2432246764 -11.00000000
3.27536869 -11.49065876 1.04534602 21 5 16409 11.99400000 2432246767 2432246767 5.00000000
0.91458178 -3.21066427 -0.52874851 3 6 16410 3.38000000 2432246769 2432246769 -9.00000000
1.17052674 -4.11461687 -0.52525687 2 8 16412 4.31000000 2432246773 2432246773 -7.00000000
1.65029025 -5.80492306 -0.52798951 3 10 16413 6.05800000 2432246778 2432246778 -5.00000000
2.57853627 -9.08209515 -0.49478412 4 12 16415 9.45400000 2432246783 2432246783 -3.00000000
2.62551951 -9.25372601 2.22071671 20 13 16416 9.87200000 2432246785 2432246785 13.00000000
3.26036358 -11.49889660 -0.20862606 6 14 16417 11.95400000 2432246787 2432246787 -1.00000000
2.68442726 -9.46764088 2.63684845 45 15 16417 10.18800000 2432246790 2432246790 15.00000000
0.54745555 -1.94113088 -0.54041415 4 0 16425 2.08800000 2432246810 2432246810 -15.00000000
0.63555956 -2.25653887 -0.54123223 3 2 16427 2.40600000 2432246815 2432246815 -13.00000000
0.74202454 -2.63630342 -0.53235710 3 4 16428 2.79000000 2432246820 2432246820 -11.00000000
3.22984409 -11.48284245 1.04360282 21 5 16429 11.97400000 2432246822 2432246822 5.00000000
0.90443796 -3.21764064 -0.52937424 3 6 16430 3.38400000 2432246824 2432246824 -9.00000000
1.16313148 -4.14352369 -0.52842546 2 8 16432 4.33600000 2432246829 2432246829 -7.00000000
1.63539863 -5.82983160 -0.52973258 3 10 16433 6.07800000 2432246833 2432246833 -5.00000000
2.55274487 -9.11219597 -0.49593553 4 12 16435 9.47600000 2432246838 2432246838 -3.00000000
2.59110045 -9.25532818 2.21891713 18 13 16436 9.86400000 2432246840 2432246840 13.00000000
2.65439010 -9.49416065 2.64150715 42 15 16438 10.20600000 2432246845 2432246845 15.00000000
0.53790623 -1.93176925 -0.53730834 4 0 16444 2.07600000 2432246866 2432246866 -15.00000000
0.62911725 -2.26238918 -0.54213202 3 2 16446 2.41000000 2432246870 2432246870 -13.00000000
0.73222685 -2.63496637 -0.53159386 3 4 16447 2.78600000 2432246875 2432246875 -11.00000000
3.18215179 -11.45893478 1.04046524 17 5 16448 11.93800000 2432246877 2432246877 5.00000000
0.89851695 -3.23775315 -0.53219002 3 6 16449 3.40200000 2432246879 2432246879 -9.00000000
1.13878143 -4.10909796 -0.52355069 2 8 16451 4.29600000 2432246884 2432246884 -7.00000000
1.60329461 -5.78914022 -0.52554911 3 10 16452 6.03000000 2432246889 2432246889 -5.00000000
2.51931930 -9.10906124 -0.49530748 4 12 16454 9.46400000 2432246893 2432246893 -3.00000000
2.56195188 -9.26950455 2.22026682 15 13 16455 9.87000000 2432246896 2432246896 13.00000000
2.62197876 -9.49314213 2.63891888 45 15 16456 10.19600000 2432246900 2432246900 15.00000000
0.53423005 -1.94481230 -0.54041415 4 0 16464 2.08800000 2432246921 2432246921 -15.00000000
0.61812305 -2.25329542 -0.53943264 3 2 16466 2.39800000 2432246925 2432246925 -13.00000000
3.14854288 -11.47764587 0.62373990 7 3 16466 11.91800000 2432246928 2432246928 3.00000000
0.72613889 -2.64886665 -0.53388357 3 4 16467 2.79800000 2432246930 2432246930 -11.00000000
3.13792205 -11.45460033 1.03907073 17 5 16468 11.92200000 2432246932 2432246932 5.00000000
0.88042909 -3.21610117 -0.52812278 3 6 16469 3.37600000 2432246935 2432246935 -9.00000000
1.13594759 -4.15517426 -0.52891296 2 8 16471 4.34000000 2432246939 2432246939 -7.00000000
1.58832765 -5.81392097 -0.52729225 3 10 16472 6.05000000 2432246944 2432246944 -5.00000000
2.47541666 -9.07348251 -0.49290004 4 12 16474 9.41800000 2432246949 2432246949 -3.00000000
2.53983140 -9.31599331 2.22926497 15 13 16475 9.91000000 2432246951 2432246951 13.00000000
3.12496305 -11.47011948 -0.20750912 6 14 16476 11.89000000 2432246953 2432246953 -1.00000000
2.59136462 -9.51155663 2.64150715 40 15 16476 10.20600000 2432246955 2432246955 15.00000000
0.52844858 -1.95039451 -0.54144943 4 0 16484 2.09200000 2432246976 2432246976 -15.00000000
0.60923588 -2.25167727 -0.53853285 3 2 16486 2.39400000 2432246981 2432246981 -13.00000000
0.71893787 -2.65896606 -0.53541005 3 4 16487 2.80600000 2432246985 2432246985 -11.00000000
3.09428096 -11.45201969 1.03785062 17 5 16488 11.90800000 2432246988 2432246988 5.00000000
0.87125713 -3.22678328 -0.52937424 1 6 16489 3.38400000 2432246990 2432246990 -9.00000000
1.11626852 -4.13994789 -0.52647555 2 8 16491 4.32000000 2432246995 2432246995 -7.00000000
1.58357430 -5.87714338 -0.53252161 3 10 16492 6.11000000 2432246999 2432246999 -5.00000000
2.44061565 -9.07049656 -0.49227199 4 12 16494 9.40600000 2432247004 2432247004 -3.00000000
2.57915092 -9.59203148 2.29315114 9 13 16495 10.19400000 2432247006 2432247006 13.00000000
2.55347967 -9.50979614 2.63840127 40 15 16497 10.19400000 2432247011 2432247011 15.00000000
0.52163720 -1.95222723 -0.54144943 4 0 16504 2.09200000 2432247031 2432247031 -15.00000000
0.60438675 -2.26508737 -0.54123223 3 2 16506 2.40600000 2432247036 2432247036 -13.00000000
0.70358229 -2.63869572 -0.53083062 3 4 16507 2.78200000 2432247041 2432247041 -11.00000000
3.05274820 -11.45697498 1.03732765 17 5 16508 11.90200000 2432247043 2432247043 5.00000000
0.86354613 -3.24316692 -0.53156430 1 6 16509 3.39800000 2432247045 2432247045 -9.00000000
1.09466922 -4.11696100 -0.52306324 2 8 16511 4.29200000 2432247050 2432247050 -7.00000000
2.40945101 -9.08089066 -0.49237669 8 12 16514 9.40800000 2432247059 2432247059 -3.00000000
2.57062483 -9.69515896 2.31564617 8 13 16515 10.29400000 2432247061 2432247061 13.00000000
2.52076316 -9.52051830 2.63891888 40 15 16517 10.19600000 2432247066 2432247066 15.00000000
0.51334298 -1.94843185 -0.53989655 4 0 16524 2.08600000 2432247087 2432247087 -15.00000000
0.59548473 -2.26341391 -0.54033244 3 2 16526 2.40200000 2432247091 2432247091 -13.00000000
3.01496625 -11.45976734 0.62101847 7 3 16526 11.86600000 2432247094 2432247094 3.00000000
0.69536561 -2.64493299 -0.53159386 3 4 16527 2.78600000 2432247096 2432247096 -11.00000000
3.00716853 -11.44636440 1.03541017 21 5 16528 11.88000000 2432247098 2432247098 5.00000000
0.85171849 -3.24425077 -0.53125143 1 6 16529 3.39600000 2432247101 2432247101 -9.00000000
1.08331203 -4.13227844 -0.52452564 2 8 16531 4.30400000 2432247105 2432247105 -7.00000000
1.52735853 -5.83023500 -0.52729225 3 10 16532 6.05000000 2432247110 2432247110 -5.00000000
2.37723255 -9.08731365 -0.49227199 4 12 16534 9.40600000 2432247114 2432247114 -3.00000000
2.99052739 -11.44804096 -0.20653178 6 14 16536 11.83400000 2432247119 2432247119 -1.00000000
2.48507524 -9.51991367 2.63633084 40 15 16537 10.18600000 2432247121 2432247121 15.00000000
0.50411028 -1.94086289 -0.53730834 4 0 16544 2.07600000 2432247142 2432247142 -15.00000000
0.58758032 -2.26547885 -0.54033244 3 2 16546 2.40200000 2432247147 2432247147 -13.00000000
0.68908411 -2.65874696 -0.53388357 3 4 16547 2.79800000 2432247151 2432247151 -11.00000000
2.95870280 -11.42400265 1.03244698 17 5 16548 11.84600000 2432247154 2432247154 5.00000000
0.83543950 -3.22808051 -0.52812278 1 6 16549 3.37600000 2432247156 2432247156 -9.00000000
1.06590104 -4.12450266 -0.52306324 2 8 16551 4.29200000 2432247161 2432247161 -7.00000000
1.49205244 -5.77765799 -0.52206290 3 10 16552 5.99000000 2432247165 2432247165 -5.00000000
2.34400129 -9.08975410 -0.49195799 8 12 16554 9.40000000 2432247170 2432247170 -3.00000000
2.67258906 -10.37146473 2.47266197 45 13 16555 10.99200000 2432247172 2432247172 13.00000000
2.44942236 -9.51917553 2.63374257 40 15 16557 10.17600000 2432247177 2432247177 15.00000000
0.49829057 -1.94635367 -0.53834361 4 0 16564 2.08000000 2432247197 2432247197 -15.00000000
0.57773817 -2.25996399 -0.53853285 3 2 16566 2.39400000 2432247202 2432247202 -13.00000000
0.67785549 -2.65352750 -0.53235710 3 4 16567 2.79000000 2432247207 2432247207 -11.00000000
2.91338706 -11.41302586 1.03052950 17 5 16568 11.82400000 2432247209 2432247209 5.00000000
0.82563102 -3.23671913 -0.52906138 1 6 16569 3.38200000 2432247211 2432247211 -9.00000000
1.05345726 -4.13589334 -0.52403820 2 8 16571 4.30000000 2432247216 2432247216 -7.00000000
1.47187555 -5.78283072 -0.52206290 3 10 16572 5.99000000 2432247220 2432247220 -5.00000000
2.30537033 -9.07078075 -0.49049258 8 12 16574 9.37200000 2432247225 2432247225 -3.00000000
2.67570424 -10.53561020 2.50955391 48 13 16575 11.15600000 2432247227 2432247227 13.00000000
2.42021823 -9.53660870 2.63633084 40 15 16576 10.18600000 2432247232 2432247232 15.00000000
0.49432901 -1.95932007 -0.54144943 4 0 16584 2.09200000 2432247253 2432247253 -15.00000000
0.56698954 -2.25062871 -0.53583342 3 2 16586 2.38200000 2432247257 2432247257 -13.00000000
2.88162303 -11.43841934 0.61819232 10 3 16586 11.81200000 2432247260 2432247260 3.00000000
0.67146450 -2.66730046 -0.53464681 3 4 16587 2.80200000 2432247262 2432247262 -11.00000000
2.87450242 -11.42699051 1.03087807 17 5 16588 11.82800000 2432247264 2432247264 5.00000000
0.80999362 -3.22233939 -0.52624553 1 6 16589 3.36400000 2432247266 2432247266 -9.00000000
1.04287994 -4.15494823 -0.52598810 2 8 16591 4.31600000 2432247271 2432247271 -7.00000000
1.45652771 -5.80725861 -0.52380604 3 10 16592 6.01000000 2432247276 2432247276 -5.00000000
2.27126718 -9.06908607 -0.48996922 4 12 16594 9.36200000 2432247280 2432247280 -3.00000000
2.66824341 -10.66209316 2.53744793 50 13 16595 11.28000000 2432247283 2432247283 13.00000000
2.86223483 -11.44575024 -0.20593840 8 14 16596 11.80000000 2432247285 2432247285 -1.00000000
2.38524866 -9.54541492 2.63633084 40 15 16597 10.18600000 2432247287 2432247287 15.00000000
0.48562253 -1.95353448 -0.53937888 4 0 16604 2.08400000 2432247308 2432247308 -15.00000000
2.85148358 -11.47934341 0.20646197 33 1 16605 11.83000000 2432247310 2432247310 1.00000000
0.56194669 -2.26394224 -0.53853285 3 2 16606 2.39400000 2432247313 2432247313 -13.00000000
2.84256482 -11.46053505 0.61882037 10 3 16607 11.82400000 2432247315 2432247315 3.00000000
0.65742350 -2.65057302 -0.53083062 3 4 16607 2.78200000 2432247317 2432247317 -11.00000000
0.80158991 -3.23665190 -0.52812278 1 6 16609 3.37600000 2432247322 2432247322 -9.00000000
1.01883936 -4.12002230 -0.52111334 2 8 16611 4.27600000 2432247326 2432247326 -7.00000000
1.41808558 -5.73880768 -0.51718217 3 10 16612 5.93400000 2432247331 2432247331 -5.00000000
2.23816109 -9.07114124 -0.48965520 4 12 16614 9.35600000 2432247336 2432247336 -3.00000000
2.66459680 -10.80757236 2.56984091 47 13 16615 11.42400000 2432247338 2432247338 13.00000000
2.35589242 -9.56265068 2.63891888 7 15 16616 10.19600000 2432247343 2432247343 15.00000000
0.47834095 -1.95334136 -0.53886127 4 0 16624 2.08200000 2432247363 2432247363 -15.00000000
0.55496633 -2.26967597 -0.53943264 3 2 16626 2.39800000 2432247368 2432247368 -13.00000000
0.64770132 -2.65094447 -0.53044903 3 4 16627 2.78000000 2432247372 2432247372 -11.00000000
0.79075515 -3.24134946 -0.52843565 1 6 16629 3.37800000 2432247377 2432247377 -9.00000000
1.00633085 -4.13126850 -0.52208829 2 8 16631 4.28400000 2432247382 2432247382 -7.00000000
1.40181434 -5.75920963 -0.51857668 3 10 16632 5.95000000 2432247386 2432247386 -5.00000000
2.20082307 -9.05560970 -0.48839915 4 12 16634 9.33200000 2432247391 2432247391 -3.00000000
2.66410565 -10.97019672 2.60628295 51 13 16635 11.58600000 2432247393 2432247393 13.00000000
2.31855154 -9.56183434 2.63633084 30 15 16637 10.18600000 2432247398 2432247398 15.00000000
0.47016075 -1.94936514 -0.53730834 4 0 16644 2.07600000 2432247419 2432247419 -15.00000000
0.54795277 -2.27538848 -0.54033244 3 2 16646 2.40200000 2432247423 2432247423 -13.00000000
0.63890314 -2.65509796 -0.53083062 3 4 16647 2.78200000 2432247428 2432247428 -11.00000000
0.77666706 -3.23256564 -0.52655840 1 6 16649 3.36600000 2432247432 2432247432 -9.00000000
1.00301766 -4.18108368 -0.52793801 2 8 16651 4.33200000 2432247437 2432247437 -7.00000000
1.38356018 -5.77181768 -0.51927394 3 10 16652 5.95800000 2432247442 2432247442 -5.00000000
2.16734028 -9.05546761 -0.48798046 4 12 16654 9.32400000 2432247446 2432247446 -3.00000000
2.65979171 -11.12157631 2.64002562 55 13 16655 11.73600000 2432247449 2432247449 13.00000000
2.28548336 -9.56383324 2.63477778 35 15 16656 10.18000000 2432247453 2432247453 15.00000000
0.46513888 -1.95851278 -0.53937888 4 0 16664 2.08400000 2432247474 2432247474 -15.00000000
0.53640980 -2.26211810 -0.53673321 3 2 16666 2.38600000 2432247478 2432247478 -13.00000000
0.63144183 -2.66495347 -0.53235710 3 4 16667 2.79000000 2432247483 2432247483 -11.00000000
0.76765245 -3.24486852 -0.52812278 1 6 16669 3.37600000 2432247488 2432247488 -9.00000000
0.98202813 -4.15751219 -0.52452564 2 8 16671 4.30400000 2432247492 2432247492 -7.00000000
1.36065829 -5.76497746 -0.51822805 3 10 16672 5.94600000 2432247497 2432247497 -5.00000000
2.13938236 -9.07852936 -0.48881784 4 12 16674 9.34000000 2432247501 2432247501 -3.00000000
2.64417982 -11.22943020 2.66342044 52 13 16675 11.84000000 2432247504 2432247504 13.00000000
2.25350976 -9.58530998 2.63840127 40 15 16677 10.19400000 2432247508 2432247508 15.00000000
0.45829958 -1.96012449 -0.53937888 4 0 16684 2.08400000 2432247529 2432247529 -15.00000000
0.53028232 -2.27156758 -0.53853285 3 2 16686 2.39400000 2432247534 2432247534 -13.00000000
0.62436545 -2.67670107 -0.53426516 3 4 16687 2.80000000 2432247538 2432247538 -11.00000000
0.75273657 -3.23213720 -0.52561980 1 6 16689 3.36000000 2432247543 2432247543 -9.00000000
0.96481222 -4.14931393 -0.52306324 2 8 16691 4.29200000 2432247548 2432247548 -7.00000000
1.33782101 -5.75804758 -0.51718217 3 10 16692 5.93400000 2432247552 2432247552 -5.00000000
2.09775019 -9.04313946 -0.48651505 4 12 16694 9.29600000 2432247557 2432247557 -3.00000000
2.60408568 -11.23479462 2.66252065 51 13 16695 11.83600000 2432247559 2432247559 13.00000000
2.22345495 -9.60025883 2.64047194 38 15 16696 10.20200000 2432247564 2432247564 15.00000000
0.45145467 -1.96171224 -0.53937888 4 0 16704 2.08400000 2432247584 2432247584 -15.00000000
0.52234983 -2.27340484 -0.53853285 3 2 16706 2.39400000 2432247589 2432247589 -13.00000000
0.74630445 -3.25592494 -0.52906138 1 6 16709 3.38200000 2432247598 2432247598 -9.00000000
0.94855118 -4.14491606 -0.52208829 2 8 16711 4.28400000 2432247603 2432247603 -7.00000000
1.31771362 -5.76268244 -0.51718217 3 10 16712 5.93400000 2432247607 2432247607 -5.00000000
2.07061625 -9.06987762 -0.48756176 4 12 16714 9.31600000 2432247612 2432247612 -3.00000000
2.56311941 -11.23621655 2.66072106 47 13 16715 11.82800000 2432247614 2432247614 13.00000000
2.19211411 -9.62529564 2.64513063 35 15 16717 10.22000000 2432247619 2432247619 15.00000000
0.44409290 -1.95943046 -0.53834361 4 0 16723 2.08000000 2432247640 2432247640 -15.00000000
0.51308775 -2.26752162 -0.53673321 3 2 16725 2.38600000 2432247644 2432247644 -13.00000000
0.60439956 -2.67322922 -0.53273869 3 4 16726 2.79200000 2432247649 2432247649 -11.00000000
0.73637325 -3.26223564 -0.52968711 1 6 16728 3.38600000 2432247654 2432247654 -9.00000000
0.93130964 -4.13254690 -0.52013838 2 8 16730 4.26800000 2432247658 2432247658 -7.00000000
1.29597056 -5.75535822 -0.51613629 3 10 16731 5.92200000 2432247663 2432247663 -5.00000000
2.03614736 -9.05720806 -0.48651505 4 12 16733 9.29600000 2432247667 2432247667 -3.00000000
2.52669883 -11.24845695 2.66162086 47 13 16734 11.83200000 2432247670 2432247670 13.00000000
2.15974927 -9.62271023 2.64254236 38 15 16735 10.21000000 2432247674 2432247674 15.00000000
0.43556875 -1.95342648 -0.53627306 4 0 16743 2.07200000 2432247695 2432247695 -15.00000000
0.50771016 -2.28071189 -0.53943264 4 2 16745 2.39800000 2432247700 2432247700 -13.00000000
0.59080195 -2.65615845 -0.52892256 3 4 16746 2.77200000 2432247704 2432247704 -11.00000000
0.72369677 -3.25900102 -0.52874851 1 6 16748 3.38000000 2432247709 2432247709 -9.00000000
0.92031592 -4.15127659 -0.52208829 2 8 16750 4.28400000 2432247713 2432247713 -7.00000000
1.27156377 -5.74039459 -0.51439321 3 10 16751 5.90200000 2432247718 2432247718 -5.00000000
2.01055717 -9.09156227 -0.48798046 4 12 16753 9.32400000 2432247723 2432247723 -3.00000000
2.48910093 -11.26482010 2.66342044 47 13 16754 11.84000000 2432247725 2432247725 13.00000000
2.12363338 -9.62678814 2.64150715 38 15 16756 10.20600000 2432247730 2432247730 15.00000000
0.43040279 -1.96248305 -0.53834361 4 0 16763 2.08000000 2432247750 2432247750 -15.00000000
0.49766192 -2.27295208 -0.53718311 4 2 16765 2.38800000 2432247755 2432247755 -13.00000000
0.71231633 -3.26150751 -0.52874851 1 6 16768 3.38000000 2432247764 2432247764 -9.00000000
0.90581965 -4.15446377 -0.52208829 2 8 16770 4.28400000 2432247769 2432247769 -7.00000000
1.25151825 -5.74479818 -0.51439321 3 10 16771 5.90200000 2432247773 2432247773 -5.00000000
2.45059180 -11.27724838 2.66432023 48 13 16774 11.84400000 2432247780 2432247780 13.00000000
2.09333777 -9.64132881 2.64357781 38 15 16775 10.21400000 2432247785 2432247785 15.00000000
0.42273527 -1.96019661 -0.53730834 4 0 16783 2.07600000 2432247806 2432247806 -15.00000000
0.48890448 -2.27086520 -0.53628331 4 2 16785 2.38400000 2432247810 2432247810 -13.00000000
0.57802445 -2.68708920 -0.53426516 3 4 16786 2.80000000 2432247815 2432247815 -11.00000000
0.69553542 -3.23886657 -0.52468121 1 6 16788 3.35400000 2432247819 2432247819 -9.00000000
0.88798344 -4.14207268 -0.52013838 2 8 16790 4.26800000 2432247824 2432247824 -7.00000000
1.23729980 -5.77640629 -0.51683354 3 10 16791 5.93000000 2432247829 2432247829 -5.00000000
2.41121197 -11.28573418 2.66432023 48 13 16794 11.84400000 2432247836 2432247836 13.00000000
2.06047702 -9.65235615 2.64461303 38 15 16795 10.21800000 2432247840 2432247840 15.00000000
0.41789368 -1.97110951 -0.53989655 4 0 16803 2.08600000 2432247861 2432247861 -15.00000000
0.48178172 -2.27637100 -0.53718311 4 2 16805 2.38800000 2432247866 2432247866 -13.00000000
0.56457955 -2.66988277 -0.53044903 3 4 16806 2.78000000 2432247870 2432247870 -11.00000000
0.87024480 -4.12960768 -0.51818848 2 8 16810 4.25200000 2432247879 2432247879 -7.00000000
1.21302378 -5.76119375 -0.51509047 3 10 16811 5.91000000 2432247884 2432247884 -5.00000000
2.37100172 -11.29026794 2.66342044 47 13 16814 11.84000000 2432247891 2432247891 13.00000000
2.02875519 -9.66894341 2.64720130 35 15 16815 10.22800000 2432247895 2432247895 15.00000000
0.40982848 -1.96688247 -0.53834361 4 0 16823 2.08000000 2432247916 2432247916 -15.00000000
0.47383276 -2.27803874 -0.53718311 4 2 16825 2.38800000 2432247921 2432247921 -13.00000000
0.85622704 -4.13456392 -0.51843220 4 8 16830 4.25400000 2432247935 2432247935 -7.00000000
1.19613564 -5.78100157 -0.51648492 3 10 16831 5.92600000 2432247939 2432247939 -5.00000000
2.33315229 -11.30610943 2.66522002 13 13 16834 11.84800000 2432247946 2432247946 13.00000000
1.99291325 -9.67442226 2.64668345 38 15 16836 10.22600000 2432247951 2432247951 15.00000000
0.40063551 -1.95694554 -0.53523779 4 0 16843 2.06800000 2432247972 2432247972 -15.00000000
0.46704859 -2.28540683 -0.53853285 4 2 16845 2.39400000 2432247976 2432247976 -13.00000000
0.83981067 -4.12780142 -0.51721346 6 8 16850 4.24400000 2432247990 2432247990 -7.00000000
1.16959882 -5.75390244 -0.51369596 3 10 16851 5.89400000 2432247995 2432247995 -5.00000000
2.29754424 -11.33328342 2.66971922 47 13 16854 11.86800000 2432248001 2432248001 13.00000000
1.96005380 -9.67719078 2.64564824 38 15 16855 10.22200000 2432248006 2432248006 15.00000000
0.39608717 -1.96969569 -0.53834361 4 0 16863 2.08000000 2432248027 2432248027 -15.00000000
0.45945168 -2.28893375 -0.53898275 4 2 16865 2.39600000 2432248031 2432248031 -13.00000000
0.53504598 -2.66794872 -0.52892256 3 4 16866 2.77200000 2432248036 2432248036 -11.00000000
0.64598083 -3.22695565 -0.52123964 1 6 16868 3.33200000 2432248041 2432248041 -9.00000000
0.83200938 -4.16380024 -0.52135706 4 8 16870 4.27800000 2432248045 2432248045 -7.00000000
1.15262735 -5.77358055 -0.51509047 3 10 16871 5.91000000 2432248050 2432248050 -5.00000000
2.25949168 -11.34887886 2.67151880 51 13 16874 11.87600000 2432248057 2432248057 13.00000000
1.92626214 -9.68397331 2.64564824 38 15 16875 10.22200000 2432248061 2432248061 15.00000000
0.39033195 -1.97675204 -0.53989655 4 0 16883 2.08600000 2432248082 2432248082 -15.00000000
0.44806743 -2.27331591 -0.53493363 3 2 16885 2.37800000 2432248087 2432248087 -13.00000000
0.52800572 -2.68135786 -0.53121227 3 4 16886 2.78400000 2432248091 2432248091 -11.00000000
0.63699859 -3.24082041 -0.52311683 1 6 16888 3.34400000 2432248096 2432248096 -9.00000000
0.81135511 -4.13551188 -0.51745725 4 8 16890 4.24600000 2432248100 2432248100 -7.00000000
1.13706565 -5.80103111 -0.51718217 3 10 16891 5.93400000 2432248105 2432248105 -5.00000000
2.21874142 -11.35095978 2.67016912 51 13 16894 11.87000000 2432248112 2432248112 13.00000000
1.89540911 -9.70580673 2.64978933 38 15 16895 10.23800000 2432248117 2432248117 15.00000000
0.38342944 -1.97810256 -0.53989655 4 0 16903 2.08600000 2432248137 2432248137 -15.00000000
0.44012934 -2.27486610 -0.53493363 3 2 16905 2.37800000 2432248142 2432248142 -13.00000000
0.51566213 -2.66776395 -0.52815932 3 4 16906 2.76800000 2432248147 2432248147 -11.00000000
0.63017267 -3.26629949 -0.52687126 1 6 16908 3.36800000 2432248151 2432248151 -9.00000000
0.79541308 -4.13052130 -0.51648229 4 8 16910 4.23800000 2432248156 2432248156 -7.00000000
1.11229241 -5.78148651 -0.51509047 3 10 16911 5.91000000 2432248160 2432248160 -5.00000000
2.17726970 -11.34906578 2.66791940 48 13 16914 11.86000000 2432248167 2432248167 13.00000000
1.86200273 -9.72407246 2.65289521 38 15 16916 10.25000000 2432248172 2432248172 15.00000000
0.37543923 -1.97373545 -0.53834361 4 0 16923 2.08000000 2432248193 2432248193 -15.00000000
0.43436682 -2.28787589 -0.53763300 3 2 16925 2.39000000 2432248197 2432248197 -13.00000000
0.50561506 -2.66568995 -0.52739608 3 4 16926 2.76400000 2432248202 2432248202 -11.00000000
0.62354404 -3.29371119 -0.53093857 1 6 16928 3.39400000 2432248206 2432248206 -9.00000000
0.78099000 -4.13327265 -0.51648229 4 8 16930 4.23800000 2432248211 2432248211 -7.00000000
1.08914781 -5.76967144 -0.51369596 3 10 16931 5.89400000 2432248216 2432248216 -5.00000000
1.71067953 -9.07957172 -0.48421228 4 12 16933 9.25200000 2432248220 2432248220 -3.00000000
2.13836193 -11.36042690 2.66881943 48 13 16934 11.86400000 2432248223 2432248223 13.00000000
1.82760417 -9.71880245 2.64978933 38 15 16935 10.23800000 2432248227 2432248227 15.00000000
0.36606669 -1.96174037 -0.53472012 4 0 16943 2.06600000 2432248248 2432248248 -15.00000000
0.42673481 -2.29129410 -0.53808290 4 2 16945 2.39200000 2432248252 2432248252 -13.00000000
0.49774346 -2.67515922 -0.52892256 3 4 16946 2.77200000 2432248257 2432248257 -11.00000000
0.60951841 -3.28227234 -0.52874851 1 6 16948 3.38000000 2432248262 2432248262 -9.00000000
0.76728094 -4.13987780 -0.51696974 2 8 16950 4.24200000 2432248266 2432248266 -7.00000000
1.06464839 -5.74992895 -0.51160419 3 10 16951 5.87000000 2432248271 2432248271 -5.00000000
2.10010862 -11.37548733 2.67061901 48 13 16954 11.87200000 2432248278 2432248278 13.00000000
1.79261696 -9.71942329 2.64823651 35 15 16955 10.23200000 2432248282 2432248282 15.00000000
0.36130318 -1.97440803 -0.53782600 4 0 16963 2.07800000 2432248303 2432248303 -15.00000000
0.41733363 -2.28510141 -0.53628331 4 2 16965 2.38400000 2432248308 2432248308 -13.00000000
0.48910713 -2.68074298 -0.52968580 3 4 16966 2.77600000 2432248312 2432248312 -11.00000000
0.59168756 -3.24939847 -0.52311683 1 6 16968 3.34400000 2432248317 2432248317 -9.00000000
0.75460011 -4.15229607 -0.51818848 2 8 16970 4.25200000 2432248322 2432248322 -7.00000000
1.04243553 -5.74184847 -0.51055837 3 10 16971 5.85800000 2432248326 2432248326 -5.00000000
2.06108236 -11.38658428 2.67151880 50 13 16974 11.87600000 2432248333 2432248333 13.00000000
1.75663793 -9.72402763 2.64771891 38 15 16976 10.23000000 2432248338 2432248338 15.00000000
0.35406789 -1.97375572 -0.53730834 4 0 16983 2.07600000 2432248358 2432248358 -15.00000000
0.40866777 -2.28270793 -0.53538352 4 2 16985 2.38000000 2432248363 2432248363 -13.00000000
0.48251173 -2.69789481 -0.53273869 3 4 16986 2.79200000 2432248368 2432248368 -11.00000000
0.57999438 -3.24949932 -0.52280396 1 6 16988 3.34200000 2432248372 2432248372 -9.00000000
0.73836070 -4.14513350 -0.51696974 2 8 16990 4.24200000 2432248377 2432248377 -7.00000000
1.02448070 -5.75722170 -0.51160419 3 10 16991 5.87000000 2432248382 2432248382 -5.00000000
2.02064228 -11.38987160 2.67061901 50 13 16994 11.87200000 2432248388 2432248388 13.00000000
1.72403121 -9.73770905 2.64978933 40 15 16996 10.23800000 2432248393 2432248393 15.00000000
0.34851390 -1.98259032 -0.53937888 4 0 17003 2.08400000 2432248414 2432248414 -15.00000000
0.40069714 -2.28412056 -0.53538352 4 2 17005 2.38000000 2432248418 2432248418 -13.00000000
0.46902469 -2.67635703 -0.52815932 3 4 17006 2.76800000 2432248423 2432248423 -11.00000000
0.56898826 -3.25344992 -0.52311683 1 6 17008 3.34400000 2432248428 2432248428 -9.00000000
0.72627604 -4.16137409 -0.51867592 2 8 17010 4.25600000 2432248432 2432248432 -7.00000000
1.00574684 -5.76861382 -0.51230145 3 10 17011 5.87800000 2432248437 2432248437 -5.00000000
1.56183136 -8.97663879 -0.47751325 4 12 17013 9.12400000 2432248441 2432248441 -3.00000000
1.97953713 -11.38917637 2.66881943 48 13 17014 11.86400000 2432248444 2432248444 13.00000000
1.69333124 -9.76270199 2.65496588 40 15 17016 10.25800000 2432248448 2432248448 15.00000000
0.33962432 -1.97237182 -0.53627306 4 0 17023 2.07200000 2432248469 2432248469 -15.00000000
0.39404169 -2.29318762 -0.53718311 4 2 17025 2.38800000 2432248474 2432248474 -13.00000000
0.45768678 -2.66636825 -0.52586961 3 4 17026 2.75600000 2432248478 2432248478 -11.00000000
0.56229728 -3.28267455 -0.52749699 1 6 17028 3.37200000 2432248483 2432248483 -9.00000000
0.71107680 -4.15997028 -0.51818848 2 8 17030 4.25200000 2432248488 2432248488 -7.00000000
0.99097013 -5.80351257 -0.51509047 3 10 17031 5.91000000 2432248492 2432248492 -5.00000000
1.94173145 -11.40754318 2.67151880 47 13 17034 11.87600000 2432248499 2432248499 13.00000000
1.65730178 -9.75712585 2.65186000 38 15 17036 10.24600000 2432248504 2432248504 15.00000000
0.33241621 -1.97164035 -0.53575540 4 0 17043 2.07000000 2432248524 2432248524 -15.00000000
0.38571128 -2.29262733 -0.53673321 3 2 17045 2.38600000 2432248529 2432248529 -13.00000000
0.44902739 -2.67182183 -0.52663285 3 4 17046 2.76000000 2432248534 2432248534 -11.00000000
0.54887491 -3.27292848 -0.52561980 1 6 17048 3.36000000 2432248538 2432248538 -9.00000000
0.69917250 -4.17809010 -0.52013838 2 8 17050 4.26800000 2432248543 2432248543 -7.00000000
0.96545011 -5.77549458 -0.51230145 3 10 17051 5.87800000 2432248547 2432248547 -5.00000000
1.49649620 -8.97156334 -0.47667590 4 12 17053 9.10800000 2432248552 2432248552 -3.00000000
1.90254045 -11.41809654 2.67241859 50 13 17054 11.88000000 2432248554 2432248554 13.00000000
1.62461972 -9.76066208 2.65134239 42 15 17055 10.24400000 2432248559 2432248559 15.00000000
0.32490283 -1.96897650 -0.53472012 4 0 17063 2.06600000 2432248580 2432248580 -15.00000000
0.37612316 -2.28434563 -0.53448373 4 2 17065 2.37600000 2432248584 2432248584 -13.00000000
0.44479620 -2.70436859 -0.53273869 3 4 17066 2.79200000 2432248589 2432248589 -11.00000000
0.53424782 -3.25533128 -0.52249110 1 6 17068 3.34000000 2432248593 2432248593 -9.00000000
0.67945123 -4.14916134 -0.51623851 2 8 17070 4.23600000 2432248598 2432248598 -7.00000000
0.93949455 -5.74343681 -0.50916386 3 10 17071 5.84200000 2432248603 2432248603 -5.00000000
1.86455369 -11.43620777 2.67511797 50 13 17074 11.89200000 2432248610 2432248610 13.00000000
1.59100556 -9.77989864 2.65496588 40 15 17076 10.25800000 2432248614 2432248614 15.00000000
0.31991270 -1.97957861 -0.53730834 4 0 17082 2.07600000 2432248635 2432248635 -15.00000000
0.36730501 -2.27788472 -0.53268409 4 2 17084 2.36800000 2432248640 2432248640 -13.00000000
0.43332818 -2.69032264 -0.52968580 3 4 17085 2.77600000 2432248644 2432248644 -11.00000000
0.52219605 -3.24928379 -0.52123964 1 6 17087 3.33200000 2432248649 2432248649 -9.00000000
0.66505975 -4.14747143 -0.51575106 2 8 17089 4.23200000 2432248653 2432248653 -7.00000000
1.82661963 -11.44232750 2.67511797 50 13 17093 11.89200000 2432248665 2432248665 13.00000000
1.56118584 -9.79057217 2.65651870 42 15 17094 10.26400000 2432248670 2432248670 15.00000000
0.31300071 -1.98068333 -0.53730834 4 0 17102 2.07600000 2432248690 2432248690 -15.00000000
0.35935149 -2.27915287 -0.53268409 4 2 17104 2.36800000 2432248695 2432248695 -13.00000000
0.42393458 -2.69181871 -0.52968580 3 4 17105 2.77600000 2432248699 2432248699 -11.00000000
0.51545024 -3.28035808 -0.52593267 1 6 17107 3.36200000 2432248704 2432248704 -9.00000000
0.64750379 -4.13015652 -0.51331365 2 8 17109 4.21200000 2432248709 2432248709 -7.00000000
1.78516495 -11.43900681 2.67286849 51 13 17113 11.88200000 2432248720 2432248720 13.00000000
1.52291346 -9.78095722 2.65237761 28 15 17115 10.24800000 2432248725 2432248725 15.00000000
0.30490541 -1.97412694 -0.53523779 4 0 17122 2.06800000 2432248746 2432248746 -15.00000000
0.35258070 -2.28809738 -0.53448373 4 2 17124 2.37600000 2432248750 2432248750 -13.00000000
0.41274384 -2.68163967 -0.52739608 3 4 17125 2.76400000 2432248755 2432248755 -11.00000000
0.50519580 -3.28994751 -0.52718413 1 6 17127 3.37000000 2432248759 2432248759 -9.00000000
0.63308293 -4.13239145 -0.51331365 2 8 17129 4.21200000 2432248764 2432248764 -7.00000000
1.37506831 -9.00713825 -0.47751325 4 12 17132 9.12400000 2432248773 2432248773 -3.00000000
1.74669325 -11.45480156 2.67511797 47 13 17133 11.89200000 2432248776 2432248776 13.00000000
1.49134290 -9.79168320 2.65393043 40 15 17134 10.25400000 2432248780 2432248780 15.00000000
0.29685971 -1.96753836 -0.53316724 4 0 17142 2.06000000 2432248801 2432248801 -15.00000000
0.34575185 -2.29702234 -0.53628331 4 2 17144 2.38400000 2432248805 2432248805 -13.00000000
0.40338066 -2.68306422 -0.52739608 3 4 17145 2.76400000 2432248810 2432248810 -11.00000000
0.49048564 -3.27020216 -0.52374262 1 6 17147 3.34800000 2432248815 2432248815 -9.00000000
0.62452948 -4.17384100 -0.51818848 2 8 17149 4.25200000 2432248819 2432248819 -7.00000000
0.86316162 -5.77554941 -0.51090693 3 10 17150 5.86200000 2432248824 2432248824 -5.00000000
1.34361923 -9.01188374 -0.47751325 4 12 17152 9.12400000 2432248828 2432248828 -3.00000000
1.70928121 -11.47817612 2.67916703 51 13 17153 11.91000000 2432248831 2432248831 13.00000000
1.45686400 -9.80663776 2.65651870 38 15 17155 10.26400000 2432248835 2432248835 15.00000000
0.29117912 -1.97424543 -0.53472012 4 0 17161 2.06600000 2432248856 2432248856 -15.00000000
0.33756539 -2.29430032 -0.53538352 4 2 17163 2.38000000 2432248861 2432248861 -13.00000000
0.39219755 -2.66884804 -0.52434313 3 4 17164 2.74800000 2432248865 2432248865 -11.00000000
0.47906551 -3.26790166 -0.52311683 1 6 17166 3.34400000 2432248870 2432248870 -9.00000000
0.60953611 -4.16803217 -0.51721346 2 8 17168 4.24400000 2432248875 2432248875 -7.00000000
0.84112489 -5.75866508 -0.50916386 3 10 17169 5.84200000 2432248879 2432248879 -5.00000000
1.67261195 -11.49342346 2.68141651 50 13 17172 11.92000000 2432248886 2432248886 13.00000000
1.42660415 -9.81499004 2.65755391 40 15 17173 10.26800000 2432248891 2432248891 15.00000000
0.28511158 -1.98098624 -0.53627306 4 0 17181 2.07200000 2432248911 2432248911 -15.00000000
0.32817006 -2.28581977 -0.53313398 4 2 17183 2.37000000 2432248916 2432248916 -13.00000000
0.38705903 -2.69935131 -0.53006738 3 4 17184 2.77800000 2432248921 2432248921 -11.00000000
0.46849456 -3.27542043 -0.52405548 1 6 17186 3.35000000 2432248925 2432248925 -9.00000000
0.59217936 -4.15048265 -0.51477611 2 8 17188 4.22400000 2432248930 2432248930 -7.00000000
0.82045615 -5.75762129 -0.50881523 3 10 17189 5.83800000 2432248934 2432248934 -5.00000000
1.63248229 -11.49919128 2.68141651 48 13 17192 11.92000000 2432248941 2432248941 13.00000000
1.39278769 -9.83545494 2.66169500 42 15 17194 10.28400000 2432248946 2432248946 15.00000000
0.27758077 -1.98010480 -0.53575540 4 0 17202 2.07000000 2432248967 2432248967 -15.00000000
0.32167897 -2.30051708 -0.53628331 4 2 17204 2.38400000 2432248971 2432248971 -13.00000000
0.37553361 -2.68908548 -0.52777767 3 4 17205 2.76600000 2432248976 2432248976 -11.00000000
0.45757654 -3.28494143 -0.52530694 1 6 17207 3.35800000 2432248981 2432248981 -9.00000000
0.57969493 -4.17228699 -0.51721346 2 8 17209 4.24400000 2432248985 2432248985 -7.00000000
0.79715711 -5.74480200 -0.50742072 3 10 17210 5.82200000 2432248990 2432248990 -5.00000000
1.58925724 -11.49737644 2.67961693 47 13 17213 11.91200000 2432248997 2432248997 13.00000000
1.35818291 -9.83834362 2.66117740 40 15 17214 10.28200000 2432249001 2432249001 15.00000000
0.27092874 -1.98297572 -0.53627306 4 0 17222 2.07200000 2432249022 2432249022 -15.00000000
0.31259421 -2.29390240 -0.53448373 4 2 17224 2.37600000 2432249027 2432249027 -13.00000000
0.36349720 -2.67092681 -0.52396148 3 4 17225 2.74600000 2432249031 2432249031 -11.00000000
0.44291878 -3.26302958 -0.52155250 1 6 17227 3.33400000 2432249036 2432249036 -9.00000000
0.55713785 -4.11527061 -0.50990134 2 8 17229 4.18400000 2432249040 2432249040 -7.00000000
0.77282792 -5.71595860 -0.50463176 3 10 17230 5.79000000 2432249045 2432249045 -5.00000000
1.55015469 -11.51057911 2.68141651 48 13 17233 11.92000000 2432249052 2432249052 13.00000000
1.32211447 -9.84325504 2.66117740 42 15 17235 10.28200000 2432249057 2432249057 15.00000000
0.26247624 -1.97241962 -0.53316724 4 0 17242 2.06000000 2432249077 2432249077 -15.00000000
0.30509785 -2.29884315 -0.53538352 4 2 17244 2.38000000 2432249082 2432249082 -13.00000000
0.35520351 -2.67996430 -0.52548796 3 4 17245 2.75400000 2432249087 2432249087 -11.00000000
0.43152598 -3.26455569 -0.52155250 1 6 17247 3.33400000 2432249091 2432249091 -9.00000000
0.54640180 -4.14474344 -0.51331365 2 8 17249 4.21200000 2432249096 2432249096 -7.00000000
0.75807196 -5.75812864 -0.50811797 3 10 17250 5.83000000 2432249100 2432249100 -5.00000000
1.51097918 -11.52364826 2.68321609 47 13 17253 11.92800000 2432249107 2432249107 13.00000000
1.28896415 -9.84375477 2.66014218 40 15 17254 10.27800000 2432249112 2432249112 15.00000000
0.25658217 -1.98098719 -0.53523779 4 0 17262 2.06800000 2432249133 2432249133 -15.00000000
0.29557368 -2.28829813 -0.53268409 4 2 17264 2.36800000 2432249137 2432249137 -13.00000000
0.34559536 -2.67924070 -0.52510637 3 4 17265 2.75200000 2432249142 2432249142 -11.00000000
0.42088401 -3.27191997 -0.52249110 1 6 17267 3.34000000 2432249146 2432249146 -9.00000000
0.53445637 -4.16631508 -0.51575106 2 8 17269 4.23200000 2432249151 2432249151 -7.00000000
0.73543614 -5.74097729 -0.50637484 3 10 17270 5.81000000 2432249156 2432249156 -5.00000000
1.15459383 -9.03804588 -0.47751325 4 12 17272 9.12400000 2432249160 2432249160 -3.00000000
1.47321093 -11.54818344 2.68771529 50 13 17273 11.94800000 2432249163 2432249163 13.00000000
1.25508344 -9.85202599 2.66117740 42 15 17274 10.28200000 2432249167 2432249167 15.00000000
0.25001159 -1.98182714 -0.53523779 4 0 17281 2.06800000 2432249188 2432249188 -15.00000000
0.28725410 -2.28346515 -0.53133440 3 2 17283 2.36200000 2432249193 2432249193 -13.00000000
0.33964521 -2.70374751 -0.52968580 3 4 17284 2.77600000 2432249197 2432249197 -11.00000000
0.41027716 -3.27525759 -0.52280396 1 6 17286 3.34200000 2432249202 2432249202 -9.00000000
0.51374811 -4.11291027 -0.50892639 2 8 17288 4.17600000 2432249206 2432249206 -7.00000000
0.71836716 -5.75920105 -0.50776935 3 10 17289 5.82600000 2432249211 2432249211 -5.00000000
1.11574161 -8.97047329 -0.47374508 4 12 17291 9.05200000 2432249216 2432249216 -3.00000000
1.43298614 -11.53753376 2.68411589 48 13 17292 11.93200000 2432249218 2432249218 13.00000000
1.22288156 -9.85996819 2.66221261 40 15 17293 10.28600000 2432249222 2432249222 15.00000000
0.24356239 -1.98652267 -0.53627306 4 0 17301 2.07200000 2432249243 2432249243 -15.00000000
0.19651397 -1.60743535 -0.37386864 1 2 17303 1.66200000 2432249248 2432249248 -13.00000000
0.32758841 -2.68347979 -0.52548796 3 4 17304 2.75400000 2432249252 2432249252 -11.00000000
0.39812580 -3.27078700 -0.52186537 3 6 17306 3.33600000 2432249257 2432249257 -9.00000000
0.50273663 -4.14226770 -0.51233870 2 8 17308 4.20400000 2432249262 2432249262 -7.00000000
0.69250655 -5.71420336 -0.50358588 3 10 17309 5.77800000 2432249266 2432249266 -5.00000000
1.39317083 -11.54633522 2.68501568 47 13 17312 11.93600000 2432249273 2432249273 13.00000000
1.18811929 -9.87589264 2.66531849 42 15 17314 10.29800000 2432249278 2432249278 15.00000000
0.23491137 -1.97589207 -0.53316724 4 0 17322 2.06000000 2432249299 2432249299 -15.00000000
0.18993293 -1.60233927 -0.37251896 6 2 17324 1.65600000 2432249303 2432249303 -13.00000000
0.31775075 -2.68466258 -0.52548796 3 4 17325 2.75400000 2432249308 2432249308 -11.00000000
0.38706109 -3.28007150 -0.52311683 3 6 17327 3.34400000 2432249312 2432249312 -9.00000000
0.48755106 -4.14408255 -0.51233870 2 8 17329 4.20400000 2432249317 2432249317 -7.00000000
0.67016357 -5.70483065 -0.50253999 3 10 17330 5.76600000 2432249322 2432249322 -5.00000000
1.35174739 -11.55910587 2.68681550 48 13 17333 11.94400000 2432249328 2432249328 13.00000000
1.15341473 -9.87806129 2.66480088 42 15 17334 10.29600000 2432249333 2432249333 15.00000000
0.22734867 -1.97094262 -0.53161430 4 0 17342 2.05400000 2432249354 2432249354 -15.00000000
0.18545173 -1.61267245 -0.37476847 19 2 17344 1.66600000 2432249358 2432249358 -13.00000000
0.30680996 -2.67210221 -0.52281666 3 4 17345 2.74000000 2432249363 2432249363 -11.00000000
0.37426126 -3.26962709 -0.52123964 3 6 17347 3.33200000 2432249368 2432249368 -9.00000000
0.47488305 -4.16153717 -0.51428860 2 8 17349 4.22000000 2432249372 2432249372 -7.00000000
0.65024590 -5.70713520 -0.50253999 3 10 17350 5.76600000 2432249377 2432249377 -5.00000000
1.31226873 -11.57149982 2.68861508 48 13 17353 11.95200000 2432249384 2432249384 13.00000000
1.11827469 -9.87626839 2.66324806 42 15 17354 10.29000000 2432249388 2432249388 15.00000000
