# .PCD v0.7 - Point Cloud Data file format
VERSION 0.7
FIELDS x y z intensity laser_id azimuth distance_m adjustedtime timestamp vertical_angle
SIZE 4 4 4 1 1 2 8 8 4 8
TYPE F F F U U U F U U F
COUNT 1 1 1 1 1 1 1 1 1 1
WIDTH 527
HEIGHT 1
VIEWPOINT 0 0 0 1 0 0 0
POINTS 527
DATA ascii
-4.83454514 1.24759805 0.43682459 9 5 28447 5.01200000 2432980103 2432980103 5.00000000
-3.11758494 0.80510139 -0.50997633 3 6 28448 3.26000000 2432980105 2432980105 -9.00000000
-3.92252111 1.01443291 -0.49747065 4 8 28450 4.08200000 2432980110 2432980110 -7.00000000
-5.21365452 1.34931362 -0.47116396 10 10 28451 5.40600000 2432980114 2432980114 -5.00000000
-4.09683132 1.06180143 -0.22179978 6 12 28453 4.23800000 2432980119 2432980119 -3.00000000
-10.58418083 2.74514008 2.52440071 57 13 28454 11.22200000 2432980121 2432980121 13.00000000
-4.01435709 1.04192162 -0.07239258 100 14 28455 4.14800000 2432980123 2432980123 -1.00000000
-9.79637909 2.54263854 2.71190596 47 15 28455 10.47800000 2432980126 2432980126 15.00000000
-1.91781497 0.50062579 -0.53109670 4 0 28463 2.05200000 2432980146 2432980146 -15.00000000
-4.05721521 1.05985057 0.07319539 22 1 28464 4.19400000 2432980149 2432980149 1.00000000
-4.04226398 1.05669868 -0.96459013 5 2 28465 4.28800000 2432980151 2432980151 -13.00000000
-4.14658213 1.08474183 0.22462593 8 3 28466 4.29200000 2432980153 2432980153 3.00000000
-2.59639764 0.67921519 -0.52167177 3 4 28466 2.73400000 2432980156 2432980156 -11.00000000
-4.83594322 1.26597989 0.43734753 9 5 28467 5.01800000 2432980158 2432980158 5.00000000
-3.09946847 0.81197405 -0.50747341 3 6 28468 3.24400000 2432980160 2432980160 -9.00000000
-3.90167522 1.02358532 -0.49527702 4 8 28470 4.06400000 2432980165 2432980165 -7.00000000
-5.20698547 1.36699855 -0.47098964 10 10 28471 5.40400000 2432980169 2432980169 -5.00000000
-4.09503174 1.07660341 -0.22190446 6 12 28473 4.24000000 2432980174 2432980174 -3.00000000
-10.41811180 2.74091578 2.48705888 54 13 28474 11.05600000 2432980176 2432980176 13.00000000
-4.01843071 1.05796456 -0.07253220 100 14 28475 4.15600000 2432980179 2432980179 -1.00000000
-9.80193901 2.58246446 2.71604705 47 15 28476 10.49400000 2432980181 2432980181 15.00000000
-1.92165828 0.50880057 -0.53264958 4 0 28483 2.05800000 2432980202 2432980202 -15.00000000
-4.05928993 1.07554293 0.07330011 19 1 28484 4.20000000 2432980204 2432980204 1.00000000
-4.03101635 1.06880462 -0.96279049 5 2 28485 4.28000000 2432980206 2432980206 -13.00000000
-4.14277029 1.09920955 0.22462593 8 3 28486 4.29200000 2432980209 2432980209 3.00000000
-2.59401107 0.68827415 -0.52167177 3 4 28486 2.73400000 2432980211 2432980211 -11.00000000
-4.84689999 1.28694320 0.43874201 9 5 28487 5.03400000 2432980213 2432980213 5.00000000
-3.10425186 0.82481736 -0.50872487 3 6 28488 3.25200000 2432980216 2432980216 -9.00000000
-3.91726184 1.04230285 -0.49771440 6 8 28490 4.08400000 2432980220 2432980220 -7.00000000
-5.21758461 1.38926709 -0.47238412 10 10 28491 5.42000000 2432980225 2432980225 -5.00000000
-4.10089779 1.09346414 -0.22242782 6 12 28493 4.25000000 2432980229 2432980229 -3.00000000
-10.27479744 2.74159455 2.45511580 62 13 28494 10.91400000 2432980232 2432980232 13.00000000
-4.01857758 1.07301676 -0.07260201 100 14 28495 4.16000000 2432980234 2432980234 -1.00000000
-9.80451965 2.61794496 2.71915293 47 15 28495 10.50600000 2432980236 2432980236 15.00000000
-1.92360198 0.51650727 -0.53368485 4 0 28503 2.06200000 2432980257 2432980257 -15.00000000
-4.06323576 1.09178162 0.07343972 21 1 28504 4.20800000 2432980259 2432980259 1.00000000
-4.03102446 1.08388090 -0.96369034 5 2 28505 4.28400000 2432980262 2432980262 -13.00000000
-4.12926483 1.11106908 0.22410257 8 3 28506 4.28200000 2432980264 2432980264 3.00000000
-2.59159279 0.69732475 -0.52167177 3 4 28506 2.73400000 2432980266 2432980266 -11.00000000
-4.85007334 1.30592632 0.43943927 9 5 28507 5.04200000 2432980269 2432980269 5.00000000
-3.10516834 0.83667606 -0.50935060 3 6 28508 3.25600000 2432980271 2432980271 -9.00000000
-3.91359973 1.05597031 -0.49771440 6 8 28510 4.08400000 2432980275 2432980275 -7.00000000
-5.20693302 1.40591335 -0.47186118 10 10 28511 5.41400000 2432980280 2432980280 -5.00000000
-4.09319973 1.10672963 -0.22221847 6 12 28513 4.24600000 2432980285 2432980285 -3.00000000
-10.20120716 2.76013875 2.43981910 56 13 28514 10.84600000 2432980287 2432980287 13.00000000
-4.01094675 1.08599246 -0.07253220 100 14 28515 4.15600000 2432980289 2432980289 -1.00000000
-9.80418205 2.65638876 2.72174096 49 15 28516 10.51600000 2432980292 2432980292 15.00000000
-1.91451311 0.52052051 -0.53161430 4 0 28521 2.05400000 2432980312 2432980312 -15.00000000
-4.06364489 1.10559118 0.07350954 21 1 28522 4.21200000 2432980315 2432980315 1.00000000
-4.03700113 1.09909904 -0.96593982 5 2 28523 4.29400000 2432980317 2432980317 -13.00000000
-4.13153505 1.12561107 0.22441658 8 3 28524 4.28800000 2432980319 2432980319 3.00000000
-2.58181238 0.70339876 -0.52014530 3 4 28524 2.72600000 2432980322 2432980322 -11.00000000
-4.85748053 1.32430112 0.44048512 9 5 28525 5.05400000 2432980324 2432980324 5.00000000
-3.11014748 0.84850675 -0.51060212 3 6 28526 3.26400000 2432980326 2432980326 -9.00000000
-3.90834808 1.06773686 -0.49747065 4 8 28528 4.08200000 2432980331 2432980331 -7.00000000
-5.19864655 1.42121363 -0.47151256 10 10 28529 5.41000000 2432980335 2432980335 -5.00000000
-4.09355545 1.12063801 -0.22242782 6 12 28531 4.25000000 2432980340 2432980340 -3.00000000
-10.17745018 2.78805399 2.43621993 59 13 28532 10.83000000 2432980342 2432980342 13.00000000
-4.01137257 1.09964526 -0.07260201 100 14 28533 4.16000000 2432980345 2432980345 -1.00000000
-9.79439354 2.68495584 2.72122335 49 15 28533 10.51400000 2432980347 2432980347 15.00000000
-1.90523493 0.52514690 -0.52954376 4 0 28541 2.04600000 2432980368 2432980368 -15.00000000
-4.05205011 1.11764240 0.07336992 21 1 28542 4.20400000 2432980370 2432980370 1.00000000
-4.04065371 1.11525810 -0.96773946 5 2 28543 4.30200000 2432980372 2432980372 -13.00000000
-4.12950563 1.14055765 0.22452125 7 3 28544 4.29000000 2432980375 2432980375 3.00000000
-2.57177162 0.71031600 -0.51861882 3 4 28544 2.71800000 2432980377 2432980377 -11.00000000
-4.84322596 1.33859503 0.43961358 9 5 28545 5.04400000 2432980379 2432980379 5.00000000
-3.12239790 0.86357057 -0.51310503 3 6 28546 3.28000000 2432980381 2432980381 -9.00000000
-3.91224957 1.08349228 -0.49844560 4 8 28548 4.09000000 2432980386 2432980386 -7.00000000
-5.20901442 1.44360852 -0.47290707 10 10 28549 5.42600000 2432980391 2432980391 -5.00000000
-4.08961868 1.13492036 -0.22242782 6 12 28551 4.25000000 2432980395 2432980395 -3.00000000
-10.16014481 2.82147717 2.43442035 60 13 28552 10.82200000 2432980398 2432980398 13.00000000
-4.01521635 1.11578238 -0.07274163 100 14 28553 4.16800000 2432980400 2432980400 -1.00000000
-9.77565575 2.71654224 2.71863532 49 15 28553 10.50400000 2432980402 2432980402 15.00000000
-1.90329742 0.53212643 -0.52954376 4 0 28562 2.04600000 2432980423 2432980423 -15.00000000
-4.04985189 1.13302517 0.07340482 19 1 28563 4.20600000 2432980425 2432980425 1.00000000
-4.03278589 1.12900960 -0.96683961 5 2 28564 4.29800000 2432980428 2432980428 -13.00000000
-4.15029955 1.16268957 0.22588199 8 3 28565 4.31600000 2432980430 2432980430 3.00000000
-2.59183669 0.72609252 -0.52319825 3 4 28565 2.74200000 2432980432 2432980432 -11.00000000
-4.85555315 1.36117756 0.44118237 9 5 28566 5.06200000 2432980434 2432980434 5.00000000
-3.10019231 0.86967349 -0.50997633 3 6 28567 3.26000000 2432980437 2432980437 -9.00000000
-3.90634084 1.09728730 -0.49820188 6 8 28569 4.08800000 2432980441 2432980441 -7.00000000
-5.20752430 1.46376908 -0.47325569 10 10 28570 5.43000000 2432980446 2432980446 -5.00000000
-4.09119940 1.15152538 -0.22274183 6 12 28572 4.25600000 2432980451 2432980451 -3.00000000
-10.14973545 2.85869718 2.43442035 60 13 28573 10.82200000 2432980453 2432980453 13.00000000
-4.01109982 1.13049138 -0.07274163 100 14 28574 4.16800000 2432980455 2432980455 -1.00000000
-9.67080307 2.72562647 2.69223571 49 15 28574 10.40200000 2432980457 2432980457 15.00000000
-1.90700436 0.54034686 -0.53109670 4 0 28582 2.05200000 2432980478 2432980478 -15.00000000
-4.04587221 1.14715493 0.07340482 17 1 28583 4.20600000 2432980481 2432980481 1.00000000
-2.19719744 0.62340134 -0.52728528 4 2 28584 2.34400000 2432980483 2432980483 -13.00000000
-4.14429426 1.17662430 0.22577731 7 3 28585 4.31400000 2432980485 2432980485 3.00000000
-2.58928633 0.73513532 -0.52319825 3 4 28585 2.74200000 2432980487 2432980487 -11.00000000
-4.86610460 1.38247430 0.44257686 10 5 28586 5.07800000 2432980490 2432980490 5.00000000
-3.10093784 0.88157022 -0.51060212 3 6 28587 3.26400000 2432980492 2432980492 -9.00000000
-3.91012383 1.11309028 -0.49917683 6 8 28589 4.09600000 2432980497 2432980497 -7.00000000
-5.20621538 1.48302948 -0.47360429 10 10 28590 5.43400000 2432980501 2432980501 -5.00000000
-4.09483719 1.16799057 -0.22316052 6 12 28592 4.26400000 2432980506 2432980506 -3.00000000
-10.12095642 2.88876033 2.42992139 60 13 28593 10.80200000 2432980508 2432980508 13.00000000
-4.01097488 1.14558423 -0.07281144 100 14 28594 4.17200000 2432980510 2432980510 -1.00000000
-9.53629684 2.72548509 2.65755391 47 15 28595 10.26800000 2432980513 2432980513 15.00000000
-1.91429472 0.55000007 -0.53368485 4 0 28603 2.06200000 2432980534 2432980534 -15.00000000
-4.05317163 1.16529119 0.07361425 17 1 28604 4.21800000 2432980536 2432980536 1.00000000
-2.20613456 0.63468295 -0.52998471 4 2 28605 2.35600000 2432980538 2432980538 -13.00000000
-4.12076092 1.18628061 0.22473060 7 3 28606 4.29400000 2432980540 2432980540 3.00000000
-2.58280134 0.74353433 -0.52243501 3 4 28606 2.73800000 2432980543 2432980543 -11.00000000
-4.88015032 1.40581536 0.44431996 10 5 28607 5.09800000 2432980545 2432980545 5.00000000
-3.11287069 0.89730692 -0.51310503 3 6 28608 3.28000000 2432980547 2432980547 -9.00000000
-3.88313103 1.12080824 -0.49625197 6 8 28610 4.07200000 2432980552 2432980552 -7.00000000
-5.20840120 1.50431263 -0.47430155 10 10 28611 5.44200000 2432980557 2432980557 -5.00000000
-4.09052896 1.18299115 -0.22316052 6 12 28613 4.26400000 2432980561 2432980561 -3.00000000
-10.09906864 2.92258573 2.42722178 64 13 28614 10.79000000 2432980563 2432980563 13.00000000
-4.00674915 1.16027749 -0.07281144 100 14 28615 4.17200000 2432980566 2432980566 -1.00000000
-9.38755417 2.71845508 2.61873102 47 15 28615 10.11800000 2432980568 2432980568 15.00000000
-1.90679860 0.55505908 -0.53213197 4 0 28623 2.05600000 2432980589 2432980589 -15.00000000
-4.05483913 1.18111002 0.07371897 18 1 28624 4.22400000 2432980591 2432980591 1.00000000
-2.21138930 0.64456117 -0.53178430 4 2 28625 2.36400000 2432980593 2432980593 -13.00000000
-4.12809896 1.20401287 0.22535862 7 3 28626 4.30600000 2432980596 2432980596 3.00000000
-2.58395958 0.75364488 -0.52319825 3 4 28626 2.74200000 2432980598 2432980598 -11.00000000
-4.87521315 1.42284167 0.44431996 10 5 28627 5.09800000 2432980600 2432980600 5.00000000
-3.11351180 0.90927494 -0.51373076 3 6 28628 3.28400000 2432980603 2432980603 -9.00000000
-3.88681626 1.13658464 -0.49722692 6 8 28630 4.08000000 2432980607 2432980607 -7.00000000
-5.19164562 1.51912701 -0.47325569 10 10 28631 5.43000000 2432980612 2432980612 -5.00000000
-4.09787464 1.20063186 -0.22378854 6 12 28633 4.27600000 2432980616 2432980616 -3.00000000
-10.08506489 2.95672369 2.42632198 64 13 28634 10.78600000 2432980619 2432980619 13.00000000
-3.99883699 1.17313075 -0.07274163 84 14 28635 4.16800000 2432980621 2432980621 -1.00000000
-9.23712444 2.70987678 2.57939053 47 15 28635 9.96600000 2432980623 2432980623 15.00000000
-1.89763284 0.55886364 -0.53006142 4 0 28641 2.04800000 2432980644 2432980644 -15.00000000
-4.04919052 1.19327760 0.07368406 15 1 28642 4.22200000 2432980646 2432980646 1.00000000
-2.21309161 0.65260768 -0.53268409 4 2 28643 2.36800000 2432980649 2432980649 -13.00000000
-4.12833977 1.21738577 0.22556797 7 3 28643 4.31000000 2432980651 2432980651 3.00000000
-2.58534503 0.76287013 -0.52396148 3 4 28644 2.74600000 2432980653 2432980653 -11.00000000
-4.87263012 1.43871474 0.44449428 10 5 28645 5.10000000 2432980656 2432980656 5.00000000
-3.11442876 0.92017126 -0.51435649 3 6 28646 3.28800000 2432980658 2432980658 -9.00000000
-6.95971012 2.05759692 0.89110863 2 7 28647 7.31200000 2432980660 2432980660 7.00000000
-3.90226173 1.15442109 -0.49966431 6 8 28648 4.10000000 2432980662 2432980662 -7.00000000
-5.18684721 1.53542948 -0.47325569 10 10 28649 5.43000000 2432980667 2432980667 -5.00000000
-4.12472105 1.22258115 -0.22546330 6 12 28651 4.30800000 2432980672 2432980672 -3.00000000
-10.08319950 2.99060869 2.42812157 62 13 28652 10.79400000 2432980674 2432980674 13.00000000
-3.98171234 1.18170500 -0.07249729 64 14 28653 4.15400000 2432980676 2432980676 -1.00000000
-9.11559296 2.70535421 2.54781461 42 15 28653 9.84400000 2432980679 2432980679 15.00000000
-1.89937294 0.56658864 -0.53109670 4 0 28661 2.05200000 2432980699 2432980699 -15.00000000
-4.03541946 1.20454478 0.07350954 15 1 28662 4.21200000 2432980702 2432980702 1.00000000
-2.20706582 0.65921336 -0.53178430 4 2 28663 2.36400000 2432980704 2432980704 -13.00000000
-4.12767744 1.23365259 0.22577731 7 3 28664 4.31400000 2432980706 2432980706 3.00000000
-2.58642864 0.77301437 -0.52472472 3 4 28664 2.75000000 2432980709 2432980709 -11.00000000
-4.88094044 1.45971072 0.44571447 10 5 28665 5.11400000 2432980711 2432980711 5.00000000
-3.09984303 0.92763907 -0.51247931 3 6 28666 3.27600000 2432980713 2432980713 -9.00000000
-3.90201163 1.16917503 -0.50015181 6 8 28668 4.10400000 2432980718 2432980718 -7.00000000
-5.18336439 1.55409789 -0.47343001 10 10 28669 5.43200000 2432980722 2432980722 -5.00000000
-4.08599615 1.22663486 -0.22357920 6 12 28671 4.27200000 2432980727 2432980727 -3.00000000
-10.06896687 3.02466631 2.42722178 64 13 28672 10.79000000 2432980729 2432980729 13.00000000
-3.98905349 1.19905043 -0.07270672 63 14 28673 4.16600000 2432980732 2432980732 -1.00000000
-8.99276733 2.70480418 2.51623869 47 15 28674 9.72200000 2432980734 2432980734 15.00000000
-1.90108228 0.57433265 -0.53213197 4 0 28681 2.05600000 2432980755 2432980755 -15.00000000
-4.04076099 1.22151697 0.07368406 15 1 28682 4.22200000 2432980757 2432980757 1.00000000
-2.19355965 0.66352814 -0.52908486 4 2 28683 2.35200000 2432980759 2432980759 -13.00000000
-4.11974049 1.24617708 0.22556797 7 3 28683 4.31000000 2432980762 2432980762 3.00000000
-2.59123063 0.78431302 -0.52625120 3 4 28684 2.75800000 2432980764 2432980764 -11.00000000
-4.89297676 1.48193717 0.44728327 10 5 28685 5.13200000 2432980766 2432980766 5.00000000
-3.10603833 0.94131851 -0.51404363 3 6 28686 3.28600000 2432980768 2432980768 -9.00000000
-3.89030838 1.18048286 -0.49917683 6 8 28688 4.09600000 2432980773 2432980773 -7.00000000
-5.18744040 1.57507598 -0.47430155 10 10 28689 5.44200000 2432980778 2432980778 -5.00000000
-4.11226368 1.25018525 -0.22525395 6 12 28691 4.30400000 2432980782 2432980782 -3.00000000
-10.04716110 3.05639219 2.42452240 66 13 28692 10.77800000 2432980785 2432980785 13.00000000
-3.98484373 1.21296751 -0.07270672 61 14 28693 4.16600000 2432980787 2432980787 -1.00000000
-8.86731625 2.69916892 2.48362756 42 15 28693 9.59600000 2432980789 2432980789 15.00000000
-1.90645516 0.58322573 -0.53420252 4 0 28701 2.06400000 2432980810 2432980810 -15.00000000
-4.04412127 1.23795569 0.07382368 16 1 28702 4.23000000 2432980812 2432980812 1.00000000
-2.19868326 0.67346394 -0.53088450 4 2 28703 2.36000000 2432980814 2432980814 -13.00000000
-4.11536551 1.26055002 0.22556797 7 3 28703 4.31000000 2432980817 2432980817 3.00000000
-2.56970644 0.78760022 -0.52243501 3 4 28704 2.73800000 2432980819 2432980819 -11.00000000
-4.90491772 1.50426555 0.44885206 10 5 28705 5.15000000 2432980821 2432980821 5.00000000
-3.12728357 0.95968866 -0.51811093 3 6 28706 3.31200000 2432980824 2432980824 -9.00000000
-3.88616395 1.19405544 -0.49917683 6 8 28708 4.09600000 2432980828 2432980828 -7.00000000
-5.18952847 1.59551597 -0.47499880 6 10 28709 5.45000000 2432980833 2432980833 -5.00000000
-4.08496857 1.25748086 -0.22399789 6 12 28711 4.28000000 2432980838 2432980838 -3.00000000
-10.02153206 3.08685541 2.42092323 66 13 28712 10.76200000 2432980840 2432980840 13.00000000
-3.98058534 1.22686982 -0.07270672 61 14 28713 4.16600000 2432980842 2432980842 -1.00000000
-8.75445557 2.69824076 2.45463991 42 15 28713 9.48400000 2432980844 2432980844 15.00000000
-1.90440774 0.58987695 -0.53420252 4 0 28721 2.06400000 2432980865 2432980865 -15.00000000
-4.05123568 1.25561666 0.07403311 15 1 28722 4.24200000 2432980867 2432980867 1.00000000
-4.02038050 1.24682283 -0.97178853 5 2 28723 4.32000000 2432980870 2432980870 -13.00000000
-4.11644030 1.27740097 0.22588199 7 3 28724 4.31600000 2432980872 2432980872 3.00000000
-2.57819200 0.80005652 -0.52472472 3 4 28724 2.75000000 2432980874 2432980874 -11.00000000
-4.90344238 1.52255940 0.44920069 10 5 28725 5.15400000 2432980877 2432980877 5.00000000
-3.10505033 0.96473801 -0.51498228 3 6 28726 3.29200000 2432980879 2432980879 -9.00000000
-3.88955426 1.20997202 -0.50015181 6 8 28728 4.10400000 2432980884 2432980884 -7.00000000
-5.18012285 1.61243677 -0.47465017 6 10 28729 5.44600000 2432980888 2432980888 -5.00000000
-4.05957937 1.26519549 -0.22284651 6 12 28731 4.25800000 2432980893 2432980893 -3.00000000
-10.01069546 3.12181830 2.42092323 66 13 28732 10.76200000 2432980895 2432980895 13.00000000
-3.97436976 1.24016154 -0.07267182 57 14 28733 4.16400000 2432980897 2432980897 -1.00000000
-8.63570786 2.69633865 2.42409921 45 15 28734 9.36600000 2432980900 2432980900 15.00000000
-1.89680707 0.59478688 -0.53264958 4 0 28741 2.05800000 2432980920 2432980920 -15.00000000
-4.04682779 1.26975048 0.07403311 15 1 28742 4.24200000 2432980923 2432980923 1.00000000
-2.19764662 0.68996459 -0.53178430 4 2 28743 2.36400000 2432980925 2432980925 -13.00000000
-4.11980391 1.29343760 0.22630067 7 3 28743 4.32400000 2432980927 2432980927 3.00000000
-2.58474851 0.81199324 -0.52663285 3 4 28744 2.76000000 2432980930 2432980930 -11.00000000
-4.90189934 1.54086125 0.44954932 10 5 28745 5.15800000 2432980932 2432980932 5.00000000
-3.09601092 0.97379267 -0.51404363 1 6 28746 3.28600000 2432980934 2432980934 -9.00000000
-3.88530684 1.22354174 -0.50015181 6 8 28748 4.10400000 2432980939 2432980939 -7.00000000
-5.18966484 1.63529932 -0.47604465 6 10 28749 5.46200000 2432980944 2432980944 -5.00000000
-4.11418438 1.29798687 -0.22609133 6 12 28751 4.32000000 2432980948 2432980948 -3.00000000
-9.99973774 3.15674305 2.42092323 68 13 28752 10.76200000 2432980950 2432980950 13.00000000
-3.97764373 1.25643635 -0.07281144 56 14 28753 4.17200000 2432980953 2432980953 -1.00000000
-8.53966808 2.69910288 2.39977026 45 15 28754 9.27200000 2432980955 2432980955 15.00000000
-1.89461434 0.60173506 -0.53264958 4 0 28762 2.05800000 2432980976 2432980976 -15.00000000
-4.03261805 1.28154612 0.07385858 13 1 28763 4.23200000 2432980978 2432980978 1.00000000
-2.20067430 0.69978631 -0.53313398 4 2 28764 2.37000000 2432980980 2432980980 -13.00000000
-4.12835884 1.31276548 0.22703338 7 3 28764 4.33800000 2432980983 2432980983 3.00000000
-2.57801342 0.82027084 -0.52586961 3 4 28765 2.75600000 2432980985 2432980985 -11.00000000
-4.90191412 1.56063044 0.45007226 10 5 28766 5.16400000 2432980987 2432980987 5.00000000
-3.11312485 0.99172914 -0.51748520 3 6 28767 3.30800000 2432980990 2432980990 -9.00000000
-3.88836122 1.24018669 -0.50112677 6 8 28769 4.11200000 2432980994 2432980994 -7.00000000
-5.17604399 1.65188634 -0.47534743 6 10 28770 5.45400000 2432980999 2432980999 -5.00000000
-4.10559416 1.31184161 -0.22588199 6 12 28772 4.31600000 2432981003 2432981003 -3.00000000
-9.98810005 3.19337273 2.42092323 68 13 28773 10.76200000 2432981006 2432981006 13.00000000
-3.97301197 1.27100670 -0.07281144 59 14 28774 4.17200000 2432981008 2432981008 -1.00000000
-8.49843979 2.72037196 2.39097023 45 15 28775 9.23800000 2432981010 2432981010 15.00000000
-1.89985895 0.61070961 -0.53472012 4 0 28782 2.06600000 2432981031 2432981031 -15.00000000
-4.04144573 1.29990089 0.07410292 35 1 28783 4.24600000 2432981033 2432981033 1.00000000
-2.18894291 0.70447880 -0.53088450 4 2 28784 2.36000000 2432981036 2432981036 -13.00000000
-4.11804771 1.32533240 0.22671936 7 3 28784 4.33200000 2432981038 2432981038 3.00000000
-2.58074069 0.83107013 -0.52701443 3 4 28785 2.76200000 2432981040 2432981040 -11.00000000
-4.92108965 1.58567548 0.45233831 7 5 28786 5.19000000 2432981043 2432981043 5.00000000
-3.10212374 1.00016522 -0.51623374 3 6 28787 3.30000000 2432981045 2432981045 -9.00000000
-3.88778663 1.25497162 -0.50161421 6 8 28789 4.11600000 2432981050 2432981050 -7.00000000
-5.17403841 1.67116880 -0.47569606 6 10 28790 5.45800000 2432981054 2432981054 -5.00000000
-4.08198643 1.32001948 -0.22483526 6 12 28792 4.29600000 2432981059 2432981059 -3.00000000
-9.97318459 3.22701836 2.42002344 68 13 28793 10.75800000 2432981061 2432981061 13.00000000
-3.97996593 1.28856313 -0.07302087 59 14 28794 4.18400000 2432981063 2432981063 -1.00000000
-8.47418976 2.74525762 2.38682914 47 15 28795 9.22200000 2432981066 2432981066 15.00000000
-1.90138984 0.61853284 -0.53575540 4 0 28802 2.07000000 2432981086 2432981086 -15.00000000
-4.04448938 1.31647599 0.07424254 80 1 28803 4.25400000 2432981089 2432981089 1.00000000
-2.18832350 0.71271878 -0.53133440 4 2 28804 2.36200000 2432981091 2432981091 -13.00000000
-4.10959816 1.33846200 0.22651002 7 3 28804 4.32800000 2432981093 2432981093 3.00000000
-2.57035732 0.83764029 -0.52548796 3 4 28805 2.75400000 2432981096 2432981096 -11.00000000
-4.94962072 1.61396170 0.45547593 7 5 28806 5.22600000 2432981098 2432981098 5.00000000
-3.10236955 1.01221311 -0.51685947 3 6 28807 3.30400000 2432981100 2432981100 -9.00000000
-6.33302927 2.06750655 0.81798702 2 7 28808 6.71200000 2432981102 2432981102 7.00000000
-3.86828661 1.26360369 -0.49966431 6 8 28809 4.10000000 2432981105 2432981105 -7.00000000
-5.18900490 1.69602823 -0.47761348 3 10 28810 5.48000000 2432981109 2432981109 -5.00000000
-4.09633589 1.34047186 -0.22588199 6 12 28812 4.31600000 2432981114 2432981114 -3.00000000
-9.95074749 3.25817323 2.41732407 70 13 28813 10.74600000 2432981116 2432981116 13.00000000
-3.97164321 1.30120277 -0.07295106 57 14 28814 4.18000000 2432981119 2432981119 -1.00000000
-8.46136761 2.77214098 2.38579392 45 15 28814 9.21800000 2432981121 2432981121 15.00000000
-1.90105414 0.62577021 -0.53627306 4 0 28822 2.07200000 2432981142 2432981142 -15.00000000
-4.04746675 1.33308816 0.07438216 13 1 28823 4.26200000 2432981144 2432981144 1.00000000
-2.18767309 0.72096312 -0.53178430 4 2 28824 2.36400000 2432981146 2432981146 -13.00000000
-4.10490084 1.35279906 0.22651002 7 3 28824 4.32800000 2432981149 2432981149 3.00000000
-2.55995989 0.84414816 -0.52396148 3 4 28825 2.74600000 2432981151 2432981151 -11.00000000
-4.93260431 1.62748361 0.45443004 7 5 28826 5.21400000 2432981153 2432981153 5.00000000
-3.10069323 1.02365541 -0.51717234 3 6 28827 3.30600000 2432981155 2432981155 -9.00000000
-3.86385226 1.27709889 -0.49966431 6 8 28829 4.10000000 2432981160 2432981160 -7.00000000
-5.16792011 1.70912623 -0.47621897 3 10 28830 5.46400000 2432981165 2432981165 -5.00000000
-4.09921598 1.35727370 -0.22630067 6 12 28832 4.32400000 2432981169 2432981169 -3.00000000
-9.92821407 3.28921080 2.41462469 70 13 28833 10.73400000 2432981172 2432981172 13.00000000
-3.96328068 1.31379998 -0.07288125 59 14 28834 4.17600000 2432981174 2432981174 -1.00000000
-8.44014931 2.79948568 2.38268805 47 15 28835 9.20600000 2432981176 2432981176 15.00000000
-1.88236237 0.62690848 -0.53161430 4 0 28842 2.05400000 2432981197 2432981197 -15.00000000
-4.03709745 1.34531164 0.07427744 7 1 28843 4.25600000 2432981199 2432981199 1.00000000
-2.19623518 0.73229355 -0.53448373 4 2 28844 2.37600000 2432981202 2432981202 -13.00000000
-4.11317730 1.37225974 0.22724272 7 3 28845 4.34200000 2432981204 2432981204 3.00000000
-2.56444693 0.85556424 -0.52548796 3 4 28845 2.75400000 2432981206 2432981206 -11.00000000
-4.96091127 1.65604746 0.45756766 2 5 28846 5.25000000 2432981208 2432981208 5.00000000
-3.09335375 1.03322101 -0.51654661 1 6 28847 3.30200000 2432981211 2432981211 -9.00000000
-3.88196230 1.29813302 -0.50258917 6 8 28849 4.12400000 2432981215 2432981215 -7.00000000
-5.18459606 1.73474157 -0.47831070 3 10 28850 5.48800000 2432981220 2432981220 -5.00000000
-4.11717939 1.37918711 -0.22755674 6 12 28852 4.34800000 2432981225 2432981225 -3.00000000
-9.92406273 3.32632399 2.41642427 70 13 28853 10.74200000 2432981227 2432981227 13.00000000
-3.97383785 1.33271313 -0.07316048 56 14 28854 4.19200000 2432981229 2432981229 -1.00000000
-8.41982937 2.82377338 2.37958241 47 15 28854 9.19400000 2432981232 2432981232 15.00000000
-1.88931620 0.63655943 -0.53420252 4 0 28862 2.06400000 2432981252 2432981252 -15.00000000
-4.02290201 1.35620153 0.07410292 7 1 28863 4.24600000 2432981255 2432981255 1.00000000
-2.19366574 0.73995537 -0.53448373 4 2 28864 2.37600000 2432981257 2432981257 -13.00000000
-4.11971664 1.39044130 0.22787075 7 3 28865 4.35400000 2432981259 2432981259 3.00000000
-2.56516528 0.86576623 -0.52625120 3 4 28865 2.75800000 2432981261 2432981261 -11.00000000
-4.95132494 1.67207921 0.45721903 2 5 28866 5.24600000 2432981264 2432981264 5.00000000
-3.09159970 1.04464495 -0.51685947 3 6 28867 3.30400000 2432981266 2432981266 -9.00000000
-3.87364650 1.31040347 -0.50210172 6 8 28869 4.12000000 2432981271 2432981271 -7.00000000
-5.17284727 1.75091219 -0.47778779 6 10 28870 5.48200000 2432981275 2432981275 -5.00000000
-4.11423159 1.39419138 -0.22766142 6 12 28872 4.35000000 2432981280 2432981280 -3.00000000
-9.91977406 3.36344814 2.41822386 66 13 28873 10.75000000 2432981282 2432981282 13.00000000
-3.96916151 1.34657633 -0.07316048 59 14 28874 4.19200000 2432981285 2432981285 -1.00000000
-8.40393543 2.85275173 2.37802935 47 15 28875 9.18800000 2432981287 2432981287 15.00000000
-1.89633834 0.64593560 -0.53679073 4 0 28881 2.07400000 2432981308 2432981308 -15.00000000
-4.03541803 1.37534034 0.07441706 13 1 28882 4.26400000 2432981310 2432981310 1.00000000
-2.18013310 0.74345189 -0.53178430 4 2 28883 2.36400000 2432981312 2432981312 -13.00000000
-4.11886358 1.40538502 0.22808009 7 3 28884 4.35800000 2432981314 2432981314 3.00000000
-2.56971240 0.87680382 -0.52777767 3 4 28884 2.76600000 2432981317 2432981317 -11.00000000
-4.99854755 1.70651352 0.46209976 2 5 28885 5.30200000 2432981319 2432981319 5.00000000
-3.08811855 1.05489123 -0.51685947 3 6 28886 3.30400000 2432981321 2432981321 -9.00000000
-3.87303615 1.32452643 -0.50258917 6 8 28888 4.12400000 2432981326 2432981326 -7.00000000
-5.18209314 1.77321672 -0.47918227 6 10 28889 5.49800000 2432981331 2432981331 -5.00000000
-4.08691216 1.40005970 -0.22640535 6 12 28891 4.32600000 2432981335 2432981335 -3.00000000
-9.88644409 3.38874245 2.41282511 64 13 28892 10.72600000 2432981338 2432981338 13.00000000
-3.97224045 1.36232603 -0.07330011 56 14 28893 4.20000000 2432981340 2432981340 -1.00000000
-8.39310455 2.87851262 2.37751174 47 15 28893 9.18600000 2432981342 2432981342 15.00000000
-1.88859260 0.65066332 -0.53523779 4 0 28901 2.06800000 2432981363 2432981363 -15.00000000
-4.04193544 1.39332843 0.07462649 7 1 28902 4.27600000 2432981365 2432981365 1.00000000
-2.18305159 0.75296372 -0.53313398 4 2 28903 2.37000000 2432981367 2432981367 -13.00000000
-4.11204481 1.41910243 0.22797543 7 3 28904 4.35600000 2432981370 2432981370 3.00000000
-2.57034779 0.88704938 -0.52854091 3 4 28904 2.77000000 2432981372 2432981372 -11.00000000
-5.10555696 1.76296937 0.47255844 2 5 28905 5.42200000 2432981374 2432981374 5.00000000
-3.09935427 1.07082498 -0.51936245 3 6 28906 3.32000000 2432981377 2432981377 -9.00000000
-3.86463714 1.33674002 -0.50210172 6 8 28908 4.12000000 2432981381 2432981381 -7.00000000
-5.17963791 1.79259801 -0.47953090 6 10 28909 5.50200000 2432981386 2432981386 -5.00000000
-4.09143591 1.41758645 -0.22692871 6 12 28911 4.33600000 2432981390 2432981390 -3.00000000
-9.86350727 3.41940212 2.41012549 68 13 28912 10.71400000 2432981393 2432981393 13.00000000
-3.96746087 1.37618339 -0.07330011 57 14 28913 4.20000000 2432981395 2432981395 -1.00000000
-8.38979816 2.91178918 2.37958241 45 15 28914 9.19400000 2432981397 2432981397 15.00000000
-1.88619506 0.65758097 -0.53523779 4 0 28922 2.06800000 2432981418 2432981418 -15.00000000
-4.05379486 1.41406107 0.07494064 7 1 28923 4.29400000 2432981420 2432981420 1.00000000
-2.17843723 0.76031774 -0.53268409 4 2 28924 2.36800000 2432981423 2432981423 -13.00000000
-4.11247253 1.43613970 0.22828944 7 3 28925 4.36200000 2432981425 2432981425 3.00000000
-2.55595851 0.89258063 -0.52625120 3 4 28925 2.75800000 2432981427 2432981427 -11.00000000
-3.11032629 1.08739281 -0.52186537 3 6 28927 3.33600000 2432981432 2432981432 -9.00000000
-3.87095356 1.35483027 -0.50356412 6 8 28929 4.13200000 2432981437 2432981437 -7.00000000
-5.17115211 1.81091177 -0.47935659 3 10 28930 5.50000000 2432981441 2432981441 -5.00000000
-4.11259985 1.44182372 -0.22839411 6 12 28932 4.36400000 2432981446 2432981446 -3.00000000
-9.85090828 3.45553064 2.41012549 64 13 28933 10.71400000 2432981448 2432981448 13.00000000
-3.96239042 1.39071560 -0.07330011 57 14 28934 4.20000000 2432981450 2432981450 -1.00000000
-8.36864567 2.93721867 2.37647653 45 15 28934 9.18200000 2432981453 2432981453 15.00000000
-1.87295651 0.66030705 -0.53213197 4 0 28942 2.05600000 2432981473 2432981473 -15.00000000
-4.04694796 1.42753756 0.07490573 7 1 28943 4.29200000 2432981476 2432981476 1.00000000
-2.18863344 0.77245736 -0.53583342 3 2 28944 2.38200000 2432981478 2432981478 -13.00000000
-4.11685085 1.45381141 0.22881280 7 3 28945 4.37200000 2432981480 2432981480 3.00000000
-2.55282712 0.90149719 -0.52625120 3 4 28945 2.75800000 2432981483 2432981483 -11.00000000
-3.08416247 1.09034216 -0.51811093 3 6 28947 3.31200000 2432981487 2432981487 -9.00000000
-3.86994362 1.36965883 -0.50405163 6 8 28949 4.13600000 2432981492 2432981492 -7.00000000
-5.15540886 1.82562602 -0.47848502 6 10 28950 5.49000000 2432981496 2432981496 -5.00000000
-4.12071896 1.46084213 -0.22912681 6 12 28952 4.37800000 2432981501 2432981501 -3.00000000
-9.83878613 3.48989558 2.41012549 64 13 28953 10.71400000 2432981503 2432981503 13.00000000
-3.95939612 1.40520728 -0.07333501 63 14 28954 4.20200000 2432981506 2432981506 -1.00000000
-8.35054207 2.96528554 2.37440586 45 15 28955 9.17400000 2432981508 2432981508 15.00000000
-1.88155830 0.67073298 -0.53523779 4 0 28962 2.06800000 2432981529 2432981529 -15.00000000
-4.04005718 1.44098365 0.07487082 7 1 28963 4.29000000 2432981531 2432981531 1.00000000
-3.99009085 1.42394698 -0.97808719 6 2 28964 4.34800000 2432981533 2432981533 -13.00000000
-4.11927462 1.47085953 0.22923149 7 3 28965 4.38000000 2432981536 2432981536 3.00000000
-2.56815410 0.91700459 -0.53006738 3 4 28965 2.77800000 2432981538 2432981538 -11.00000000
-3.07289743 1.09844160 -0.51685947 3 6 28967 3.30400000 2432981543 2432981543 -9.00000000
-3.87635303 1.38717210 -0.50551403 6 8 28969 4.14800000 2432981547 2432981547 -7.00000000
-5.15650797 1.84629714 -0.47918227 6 10 28970 5.49800000 2432981552 2432981552 -5.00000000
-4.10807419 1.47252154 -0.22870813 6 12 28972 4.37000000 2432981556 2432981556 -3.00000000
-9.82287598 3.52290249 2.40922570 64 13 28973 10.71000000 2432981559 2432981559 13.00000000
-3.96011353 1.42104578 -0.07343972 59 14 28974 4.20800000 2432981561 2432981561 -1.00000000
-8.33702660 2.99165583 2.37337065 45 15 28974 9.17000000 2432981563 2432981563 15.00000000
-1.89011002 0.68122691 -0.53834361 4 0 28982 2.08000000 2432981584 2432981584 -15.00000000
-4.04628897 1.45914745 0.07508025 7 1 28983 4.30200000 2432981586 2432981586 1.00000000
-3.99242830 1.44051194 -0.97988677 6 2 28984 4.35600000 2432981589 2432981589 -13.00000000
-4.11411524 1.48522961 0.22923149 7 3 28985 4.38000000 2432981591 2432981591 3.00000000
-2.56493735 0.92596352 -0.53006738 3 4 28985 2.77800000 2432981593 2432981593 -11.00000000
-5.20005322 1.87828803 0.48371437 2 5 28986 5.55000000 2432981596 2432981596 5.00000000
-3.08762217 1.11587548 -0.51998818 3 6 28987 3.32400000 2432981598 2432981598 -9.00000000
-5.61158419 2.02915001 0.73267847 2 7 28988 6.01200000 2432981600 2432981600 7.00000000
-3.85282063 1.39394104 -0.50307667 6 8 28989 4.12800000 2432981602 2432981602 -7.00000000
-5.16314554 1.86903262 -0.48040244 6 10 28990 5.51200000 2432981607 2432981607 -5.00000000
-9.91621876 3.59157848 2.05005193 12 11 28991 10.74400000 2432981609 2432981609 11.00000000
-4.11605358 1.49161577 -0.22944084 6 12 28992 4.38400000 2432981612 2432981612 -3.00000000
-9.80319023 3.55451202 2.40742612 64 13 28993 10.70200000 2432981614 2432981614 13.00000000
-3.97204733 1.44099832 -0.07375387 64 14 28994 4.22600000 2432981616 2432981616 -1.00000000
-8.33145332 3.02416992 2.37492347 47 15 28995 9.17600000 2432981619 2432981619 15.00000000
-1.88965583 0.68815202 -0.53886127 4 0 29001 2.08200000 2432981639 2432981639 -15.00000000
-4.05645895 1.47803414 0.07535949 5 1 29002 4.31800000 2432981642 2432981642 1.00000000
-2.17690134 0.79361838 -0.53493363 3 2 29003 2.37800000 2432981644 2432981644 -13.00000000
-4.10729122 1.49817991 0.22912681 7 3 29004 4.37800000 2432981646 2432981646 3.00000000
-2.56185269 0.93446410 -0.53006738 3 4 29004 2.77800000 2432981649 2432981649 -11.00000000
-3.08019376 1.12475312 -0.51936245 3 6 29006 3.32000000 2432981653 2432981653 -9.00000000
-5.58990812 2.04229760 0.73072857 2 7 29007 5.99600000 2432981655 2432981655 7.00000000
-3.85190582 1.40807295 -0.50356412 6 8 29008 4.13200000 2432981658 2432981658 -7.00000000
-5.15504837 1.88545966 -0.48022816 6 10 29009 5.51000000 2432981662 2432981662 -5.00000000
-9.90794086 3.62579155 2.05081511 12 11 29010 10.74800000 2432981665 2432981665 11.00000000
-4.11483526 1.50663030 -0.22965017 6 12 29011 4.38800000 2432981667 2432981667 -3.00000000
-9.78037071 3.58297920 2.40472674 62 13 29012 10.69000000 2432981669 2432981669 13.00000000
-3.95785928 1.45072114 -0.07357935 59 14 29013 4.21600000 2432981672 2432981672 -1.00000000
-8.33098030 3.05365324 2.37751174 45 15 29013 9.18600000 2432981674 2432981674 15.00000000
-1.88180351 0.69274181 -0.53730834 4 0 29021 2.07600000 2432981695 2432981695 -15.00000000
-4.06253386 1.49633169 0.07556892 5 1 29022 4.33000000 2432981697 2432981697 1.00000000
-2.17960358 0.80323392 -0.53628331 4 2 29023 2.38400000 2432981699 2432981699 -13.00000000
-4.12077618 1.51941752 0.23017353 7 3 29024 4.39800000 2432981702 2432981702 3.00000000
-2.54752302 0.93932575 -0.52777767 3 4 29024 2.76600000 2432981704 2432981704 -11.00000000
-5.25444078 1.93846548 0.48998958 2 5 29025 5.62200000 2432981706 2432981706 5.00000000
-3.08736777 1.13960230 -0.52123964 3 6 29026 3.33200000 2432981708 2432981708 -9.00000000
-5.59019375 2.06454849 0.73170352 2 7 29027 6.00400000 2432981711 2432981711 7.00000000
-3.85441542 1.42426217 -0.50453907 6 8 29028 4.14000000 2432981713 2432981713 -7.00000000
-5.15217304 1.90482438 -0.48057675 6 10 29029 5.51400000 2432981718 2432981718 -5.00000000
-9.91363716 3.66716576 2.05463123 18 11 29030 10.76800000 2432981720 2432981720 11.00000000
-4.12453604 1.52653050 -0.23048756 6 12 29031 4.40400000 2432981722 2432981722 -3.00000000
-9.76414967 3.61574364 2.40382695 49 13 29032 10.68600000 2432981725 2432981725 13.00000000
-3.94527078 1.46174884 -0.07343972 57 14 29033 4.20800000 2432981727 2432981727 -1.00000000
-8.30577850 3.07734561 2.37337065 47 15 29033 9.17000000 2432981729 2432981729 15.00000000
-1.86669993 0.69459039 -0.53368485 4 0 29041 2.06200000 2432981750 2432981750 -15.00000000
-4.05353785 1.50910807 0.07549911 5 1 29042 4.32600000 2432981752 2432981752 1.00000000
-2.18774343 0.81491864 -0.53898275 4 2 29043 2.39600000 2432981755 2432981755 -13.00000000
-4.12480450 1.53727984 0.23069690 7 3 29044 4.40800000 2432981757 2432981757 3.00000000
-2.54054952 0.94684130 -0.52701443 3 4 29044 2.76200000 2432981759 2432981759 -11.00000000
-5.19910479 1.93869591 0.48545748 2 5 29045 5.57000000 2432981761 2432981761 5.00000000
-3.09447551 1.15451527 -0.52311683 3 6 29046 3.34400000 2432981764 2432981764 -9.00000000
-3.85313940 1.43909705 -0.50502658 6 8 29048 4.14400000 2432981768 2432981768 -7.00000000
-5.15109158 1.92488956 -0.48109969 6 10 29049 5.52000000 2432981773 2432981773 -5.00000000
-9.90445423 3.70312357 2.05539441 21 11 29050 10.77200000 2432981775 2432981775 11.00000000
-4.12479401 1.54301786 -0.23080157 6 12 29051 4.41000000 2432981778 2432981778 -3.00000000
-3.94950771 1.47901785 -0.07361425 61 14 29053 4.21800000 2432981782 2432981782 -1.00000000
-8.28774929 3.10360956 2.37129998 45 15 29053 9.16200000 2432981784 2432981784 15.00000000
-1.85883939 0.69906205 -0.53213197 4 0 29061 2.05600000 2432981805 2432981805 -15.00000000
-4.05573177 1.52606523 0.07563873 5 1 29062 4.33400000 2432981808 2432981808 1.00000000
-2.17394280 0.81843072 -0.53628331 4 2 29063 2.38400000 2432981810 2432981810 -13.00000000
-4.12688971 1.55448484 0.23111558 7 3 29064 4.41600000 2432981812 2432981812 3.00000000
-2.55927563 0.96400815 -0.53159386 3 4 29064 2.78600000 2432981814 2432981814 -11.00000000
-3.07563996 1.15973437 -0.52061391 3 6 29066 3.32800000 2432981819 2432981819 -9.00000000
-3.85923576 1.45674443 -0.50648898 6 8 29068 4.15600000 2432981824 2432981824 -7.00000000
-5.13874912 1.94074667 -0.48057675 6 10 29069 5.51400000 2432981828 2432981828 -5.00000000
-9.88595772 3.73559213 2.05424953 25 11 29070 10.76600000 2432981831 2432981831 11.00000000
-4.09322786 1.54751849 -0.22933616 6 12 29071 4.38200000 2432981833 2432981833 -3.00000000
-3.95367193 1.49633431 -0.07378878 59 14 29073 4.22800000 2432981837 2432981837 -1.00000000
-8.27270508 3.13259649 2.37026477 47 15 29074 9.15800000 2432981840 2432981840 15.00000000
-1.87457037 0.71208251 -0.53730834 4 0 29080 2.07600000 2432981861 2432981861 -15.00000000
-4.05625629 1.54163742 0.07574344 5 1 29081 4.34000000 2432981863 2432981863 1.00000000
-2.16393089 0.82286471 -0.53448373 4 2 29082 2.37600000 2432981865 2432981865 -13.00000000
-4.11611176 1.56603098 0.23080157 7 3 29083 4.41000000 2432981867 2432981867 3.00000000
-2.55973482 0.97388601 -0.53235710 3 4 29083 2.79000000 2432981870 2432981870 -11.00000000
-5.23420095 1.99246907 0.48998958 2 5 29084 5.62200000 2432981872 2432981872 5.00000000
-3.08100748 1.17344260 -0.52217823 3 6 29085 3.33800000 2432981874 2432981874 -9.00000000
-3.84696436 1.46670532 -0.50551403 6 8 29087 4.14800000 2432981879 2432981879 -7.00000000
-5.13042355 1.95706666 -0.48040244 6 10 29088 5.51200000 2432981884 2432981884 -5.00000000
-9.88818932 3.77395511 2.05730247 25 11 29089 10.78200000 2432981886 2432981886 11.00000000
-4.10113478 1.56607103 -0.23006886 6 12 29090 4.39600000 2432981888 2432981888 -3.00000000
-3.96176338 1.51443517 -0.07403311 66 14 29092 4.24200000 2432981893 2432981893 -1.00000000
-8.27004051 3.16132975 2.37233543 47 15 29092 9.16600000 2432981895 2432981895 15.00000000
-1.87928748 0.72139090 -0.53937888 4 0 29100 2.08400000 2432981916 2432981916 -15.00000000
-4.05831766 1.55865490 0.07588306 5 1 29101 4.34800000 2432981918 2432981918 1.00000000
-2.15922642 0.82971424 -0.53403378 3 2 29102 2.37400000 2432981920 2432981920 -13.00000000
-4.11248446 1.58110607 0.23090623 7 3 29103 4.41200000 2432981923 2432981923 3.00000000
-2.54532480 0.97858804 -0.53006738 3 4 29103 2.77800000 2432981925 2432981925 -11.00000000
-5.22721434 2.01072764 0.48998958 2 5 29104 5.62200000 2432981927 2432981927 5.00000000
-3.08979750 1.18915677 -0.52436835 3 6 29105 3.35200000 2432981930 2432981930 -9.00000000
-3.83441162 1.47727013 -0.50453907 6 8 29107 4.14000000 2432981934 2432981934 -7.00000000
-5.14586973 1.98356247 -0.48249421 6 10 29108 5.53600000 2432981939 2432981939 -5.00000000
-9.88777828 3.81339335 2.05997396 28 11 29109 10.79600000 2432981941 2432981941 11.00000000
-4.11054993 1.58612919 -0.23090623 6 12 29110 4.41200000 2432981943 2432981943 -3.00000000
-3.96018362 1.52969611 -0.07410292 24 14 29112 4.24600000 2432981948 2432981948 -1.00000000
-8.26616383 3.19296265 2.37440586 47 15 29112 9.17400000 2432981950 2432981950 15.00000000
-1.86209679 0.72300762 -0.53523779 4 0 29122 2.06800000 2432981971 2432981971 -15.00000000
-4.06721449 1.58001912 0.07616230 5 1 29123 4.36400000 2432981973 2432981973 1.00000000
-2.17055535 0.84364676 -0.53763300 3 2 29124 2.39000000 2432981976 2432981976 -13.00000000
-4.12713957 1.60412753 0.23205763 7 3 29124 4.43400000 2432981978 2432981978 3.00000000
-2.53056979 0.98408478 -0.52777767 3 4 29125 2.76600000 2432981980 2432981980 -11.00000000
-5.26401806 2.04812241 0.49417305 2 5 29126 5.67000000 2432981983 2432981983 5.00000000
-3.08889031 1.20244515 -0.52499408 3 6 29127 3.35600000 2432981985 2432981985 -9.00000000
-3.83241034 1.49342382 -0.50502658 6 8 29129 4.14400000 2432981989 2432981989 -7.00000000
-5.12336493 1.99751663 -0.48109969 3 10 29130 5.52000000 2432981994 2432981994 -5.00000000
-9.89501095 3.85989332 2.06455326 28 11 29131 10.82000000 2432981996 2432981996 11.00000000
-4.10815048 1.60335314 -0.23111558 6 12 29132 4.41600000 2432981999 2432981999 -3.00000000
-3.96918154 1.55071235 -0.07438216 28 14 29134 4.26200000 2432982003 2432982003 -1.00000000
-8.23584843 3.21764874 2.36922956 47 15 29134 9.15400000 2432982006 2432982006 15.00000000
-1.86315846 0.73091418 -0.53627306 4 0 29142 2.07200000 2432982026 2432982026 -15.00000000
-4.06912041 1.59712911 0.07630192 5 1 29143 4.37200000 2432982029 2432982029 1.00000000
-2.17122507 0.85264289 -0.53853285 3 2 29144 2.39400000 2432982031 2432982031 -13.00000000
-4.12866783 1.62216496 0.23247632 7 3 29145 4.44200000 2432982033 2432982033 3.00000000
-2.53808308 0.99721980 -0.53006738 3 4 29145 2.77800000 2432982036 2432982036 -11.00000000
-5.24941969 2.06356907 0.49347582 2 5 29146 5.66200000 2432982038 2432982038 5.00000000
-3.06996775 1.20743597 -0.52249110 3 6 29147 3.34000000 2432982040 2432982040 -9.00000000
-3.82163262 1.50461078 -0.50429535 6 8 29149 4.13800000 2432982045 2432982045 -7.00000000
-5.13489866 2.02269053 -0.48284280 7 10 29150 5.54000000 2432982049 2432982049 -5.00000000
-9.88512993 3.89584947 2.06531668 28 11 29151 10.82400000 2432982052 2432982052 11.00000000
-4.10438681 1.61841619 -0.23122026 4 12 29152 4.41800000 2432982054 2432982054 -3.00000000
-3.97118449 1.56749463 -0.07452177 26 14 29154 4.27000000 2432982059 2432982059 -1.00000000
-8.21142292 3.24284577 2.36560607 47 15 29155 9.14000000 2432982061 2432982061 15.00000000
-1.85726070 0.73534155 -0.53523779 4 0 29160 2.06800000 2432982082 2432982082 -15.00000000
-4.06036425 1.60843182 0.07623211 3 1 29161 4.36800000 2432982084 2432982084 1.00000000
-2.16128922 0.85658771 -0.53673321 3 2 29162 2.38600000 2432982086 2432982086 -13.00000000
-4.14611769 1.64323854 0.23373239 5 3 29162 4.46600000 2432982089 2432982089 3.00000000
-2.52398753 1.00084639 -0.52777767 3 4 29163 2.76600000 2432982091 2432982091 -11.00000000
-5.25957870 2.08666325 0.49504462 2 5 29164 5.68000000 2432982093 2432982093 5.00000000
-3.05881524 1.21415937 -0.52123964 3 6 29165 3.33200000 2432982095 2432982095 -9.00000000
-3.84824848 1.52907062 -0.50843889 6 8 29167 4.17200000 2432982100 2432982100 -7.00000000
-5.13777637 2.04249239 -0.48371437 7 10 29168 5.55000000 2432982105 2432982105 -5.00000000
-9.87284279 3.92688537 2.06531668 28 11 29169 10.82400000 2432982107 2432982107 11.00000000
-4.10113764 1.63204098 -0.23132493 6 12 29170 4.42000000 2432982109 2432982109 -3.00000000
-3.97924471 1.58514297 -0.07476611 26 14 29172 4.28400000 2432982114 2432982114 -1.00000000
-8.21253300 3.27148485 2.36871195 47 15 29172 9.15200000 2432982116 2432982116 15.00000000
-1.87261951 0.74899435 -0.54041415 4 0 29180 2.08800000 2432982137 2432982137 -15.00000000
-4.06957769 1.62853897 0.07651135 5 1 29181 4.38400000 2432982139 2432982139 1.00000000
-2.15466762 0.86267817 -0.53583342 3 2 29182 2.38200000 2432982141 2432982141 -13.00000000
-4.13293982 1.65473175 0.23331369 7 3 29182 4.45800000 2432982144 2432982144 3.00000000
-2.53870320 1.01695108 -0.53159386 3 4 29183 2.78600000 2432982146 2432982146 -11.00000000
-5.25781107 2.10723329 0.49556756 2 5 29184 5.68600000 2432982148 2432982148 5.00000000
-3.04722452 1.22188854 -0.51998818 3 6 29185 3.32400000 2432982151 2432982151 -9.00000000
-3.83551884 1.53953636 -0.50746393 6 8 29187 4.16400000 2432982155 2432982155 -7.00000000
-5.12321997 2.05744410 -0.48301712 3 10 29188 5.54200000 2432982160 2432982160 -5.00000000
-9.87364864 3.96717954 2.06836963 28 11 29189 10.84000000 2432982162 2432982162 11.00000000
-4.09912205 1.64783657 -0.23153427 6 12 29190 4.42400000 2432982165 2432982165 -3.00000000
-3.97925258 1.60126305 -0.07487082 22 14 29192 4.29000000 2432982169 2432982169 -1.00000000
-8.20106316 3.30013204 2.36871195 47 15 29192 9.15200000 2432982171 2432982171 15.00000000
-1.87344384 0.75730085 -0.54144943 4 0 29201 2.09200000 2432982192 2432982192 -15.00000000
-4.07470465 1.64794219 0.07672078 3 1 29202 4.39600000 2432982194 2432982194 1.00000000
-2.15510440 0.87203151 -0.53673321 3 2 29203 2.38600000 2432982197 2432982197 -13.00000000
-4.13025808 1.67208779 0.23352304 5 3 29204 4.46200000 2432982199 2432982199 3.00000000
-2.53859854 1.02772248 -0.53235710 3 4 29204 2.79000000 2432982201 2432982201 -11.00000000
-5.29067898 2.14294553 0.49940240 3 5 29205 5.73000000 2432982204 2432982204 5.00000000
-3.08300233 1.24937093 -0.52687126 3 6 29206 3.36800000 2432982206 2432982206 -9.00000000
-3.82985044 1.55358386 -0.50746393 6 8 29208 4.16400000 2432982211 2432982211 -7.00000000
-5.14333677 2.08744669 -0.48563179 7 10 29209 5.57200000 2432982215 2432982215 -5.00000000
-9.86631775 4.00629616 2.06989598 28 11 29210 10.84800000 2432982218 2432982218 11.00000000
-4.08010244 1.65758729 -0.23080157 4 12 29211 4.41000000 2432982220 2432982220 -3.00000000
-3.97335696 1.61583698 -0.07487082 21 14 29213 4.29000000 2432982224 2432982224 -1.00000000
-8.19012070 3.33232546 2.36922956 45 15 29214 9.15400000 2432982227 2432982227 15.00000000
-1.86005783 0.75945431 -0.53834361 4 0 29221 2.08000000 2432982247 2432982247 -15.00000000
-4.09299278 1.67198634 0.07717454 5 1 29222 4.42200000 2432982250 2432982250 1.00000000
-2.16647840 0.88544703 -0.54033244 3 2 29223 2.40200000 2432982252 2432982252 -13.00000000
-4.14317894 1.69333112 0.23456976 5 3 29223 4.48200000 2432982254 2432982254 3.00000000
-2.52772689 1.03360534 -0.53083062 3 4 29224 2.78200000 2432982257 2432982257 -11.00000000
-5.25919390 2.15159297 0.49713635 3 5 29225 5.70400000 2432982259 2432982259 5.00000000
-3.07496595 1.25862837 -0.52624553 3 6 29226 3.36400000 2432982261 2432982261 -9.00000000
-3.82624078 1.56769574 -0.50770766 4 8 29228 4.16600000 2432982266 2432982266 -7.00000000
-5.11942720 2.09858632 -0.48406300 7 10 29229 5.55400000 2432982271 2432982271 -5.00000000
-9.87588692 4.05039644 2.07485700 31 11 29230 10.87400000 2432982273 2432982273 11.00000000
-4.05027056 1.66196287 -0.22944084 6 12 29231 4.38400000 2432982275 2432982275 -3.00000000
-3.96584272 1.62893689 -0.07483592 19 14 29233 4.28800000 2432982280 2432982280 -1.00000000
-8.16771793 3.35648823 2.36612368 45 15 29234 9.14200000 2432982282 2432982282 15.00000000
-1.85382366 0.76446950 -0.53730834 4 0 29241 2.07600000 2432982303 2432982303 -15.00000000
-4.07604027 1.68168736 0.07696512 5 1 29242 4.41000000 2432982305 2432982305 1.00000000
-2.16697693 0.89449114 -0.54123223 3 2 29243 2.40600000 2432982307 2432982307 -13.00000000
-4.14831972 1.71235561 0.23519778 5 3 29243 4.49400000 2432982310 2432982310 3.00000000
-2.53136182 1.04542005 -0.53235710 3 4 29244 2.79000000 2432982312 2432982312 -11.00000000
-5.45236301 2.25287032 0.51613629 3 5 29245 5.92200000 2432982314 2432982314 5.00000000
-3.07055378 1.26935434 -0.52624553 3 6 29246 3.36400000 2432982317 2432982317 -9.00000000
-3.82441378 1.58256030 -0.50819516 4 8 29248 4.17000000 2432982321 2432982321 -7.00000000
-5.08445740 2.10501170 -0.48144832 6 10 29249 5.52400000 2432982326 2432982326 -5.00000000
