# .PCD v0.7 - Point Cloud Data file format
VERSION 0.7
FIELDS x y z intensity laser_id azimuth distance_m adjustedtime timestamp vertical_angle
SIZE 4 4 4 1 1 2 8 8 4 8
TYPE F F F U U U F U U F
COUNT 1 1 1 1 1 1 1 1 1 1
WIDTH 522
HEIGHT 1
VIEWPOINT 0 0 0 1 0 0 0
POINTS 522
DATA ascii
-0.94762027 1.93006861 -0.57613117 4 0 33385 2.22600000 2042894787 2042894787 -15.00000000
-1.11314154 2.26919651 -0.58352304 3 2 33387 2.59400000 2042894792 2042894792 -13.00000000
-1.32933629 2.71111703 -0.58692849 2 4 33388 3.07600000 2042894797 2042894797 -11.00000000
-1.64423418 3.35629964 -0.59194803 2 6 33390 3.78400000 2042894801 2042894801 -9.00000000
-2.14421797 4.38076305 -0.59886593 2 8 33392 4.91400000 2042894806 2042894806 -7.00000000
-3.07946134 6.29430199 -0.61305350 4 10 33393 7.03400000 2042894810 2042894810 -5.00000000
-4.78677177 9.78830814 2.11797976 21 11 33394 11.10000000 2042894813 2042894813 11.00000000
-5.24422264 10.72847748 -0.62583339 4 12 33395 11.95800000 2042894815 2042894815 -3.00000000
-4.20988607 8.61627388 2.21396828 59 13 33396 9.84200000 2042894817 2042894817 13.00000000
-3.92690325 8.04065704 2.39769959 45 15 33397 9.26400000 2042894822 2042894822 15.00000000
-0.94087732 1.93336463 -0.57613117 4 0 33405 2.22600000 2042894843 2042894843 -15.00000000
-1.10180533 2.26605797 -0.58172345 3 2 33407 2.58600000 2042894847 2042894847 -13.00000000
-1.31643188 2.70867777 -0.58540201 4 4 33408 3.06800000 2042894852 2042894852 -11.00000000
-1.62388003 3.34424901 -0.58881932 2 6 33410 3.76400000 2042894856 2042894856 -9.00000000
-2.13757777 4.40608120 -0.60130334 2 8 33412 4.93400000 2042894861 2042894861 -7.00000000
-3.06616473 6.32294035 -0.61479664 4 10 33413 7.05400000 2042894866 2042894866 -5.00000000
-4.74401188 9.78729057 2.11416364 21 11 33414 11.08000000 2042894868 2042894868 11.00000000
-5.20587015 10.74492073 -0.62572867 4 12 33415 11.95600000 2042894870 2042894870 -3.00000000
-4.17808533 8.62740803 2.21306849 59 13 33416 9.83800000 2042894873 2042894873 13.00000000
-3.92406368 8.10648060 2.41322875 45 15 33417 9.32400000 2042894877 2042894877 15.00000000
-0.94419426 1.95751727 -0.58234286 4 0 33425 2.25000000 2042894898 2042894898 -15.00000000
-1.09727263 2.27691221 -0.58352304 3 2 33427 2.59400000 2042894903 2042894903 -13.00000000
-1.30867290 2.71679401 -0.58616525 2 4 33428 3.07200000 2042894907 2042894907 -11.00000000
-1.61733639 3.36057687 -0.59069651 2 6 33430 3.77600000 2042894912 2042894912 -9.00000000
-2.11874366 4.40635967 -0.60032839 2 8 33432 4.92600000 2042894916 2042894916 -7.00000000
-3.02853942 6.30128145 -0.61165899 4 10 33433 7.01800000 2042894921 2042894921 -5.00000000
-4.70641851 9.79671192 2.11263728 18 11 33434 11.07200000 2042894923 2042894923 11.00000000
-4.14288521 8.63139915 2.21036911 60 13 33436 9.82600000 2042894928 2042894928 13.00000000
-3.92331886 8.17760754 2.43031073 45 15 33437 9.39000000 2042894932 2042894932 15.00000000
-0.93235630 1.95034361 -0.57923704 4 0 33445 2.23800000 2042894953 2042894953 -15.00000000
-1.09267747 2.28776240 -0.58532262 3 2 33447 2.60200000 2042894958 2042894958 -13.00000000
-1.29410660 2.71071529 -0.58387554 2 4 33448 3.06000000 2042894962 2042894962 -11.00000000
-1.61750185 3.39116311 -0.59507668 2 6 33450 3.80400000 2042894967 2042894967 -9.00000000
-2.11701345 4.44240093 -0.60422820 2 8 33452 4.95800000 2042894972 2042894972 -7.00000000
-3.01509333 6.32980204 -0.61340213 4 10 33453 7.03800000 2042894976 2042894976 -5.00000000
-4.67050505 9.80953598 2.11187387 21 11 33454 11.06800000 2042894979 2042894979 11.00000000
-5.14875412 10.81887436 -0.62792683 4 12 33455 11.99800000 2042894981 2042894981 -3.00000000
-4.11273050 8.64580727 2.21036911 62 13 33456 9.82600000 2042894983 2042894983 13.00000000
-3.91570973 8.23904228 2.44428706 45 15 33458 9.44400000 2042894988 2042894988 15.00000000
-0.92057991 1.94311130 -0.57613117 4 0 33465 2.22600000 2042895009 2042895009 -15.00000000
-1.08801997 2.29860830 -0.58712226 3 2 33467 2.61000000 2042895013 2042895013 -13.00000000
-1.28631580 2.71876550 -0.58463877 2 4 33468 3.06400000 2042895018 2042895018 -11.00000000
-1.59383595 3.37178588 -0.59069651 2 6 33470 3.77600000 2042895022 2042895022 -9.00000000
-2.09640741 4.43899393 -0.60276580 2 8 33472 4.94600000 2042895027 2042895027 -7.00000000
-3.02700067 6.41235733 -0.62037456 4 10 33473 7.11800000 2042895032 2042895032 -5.00000000
-4.62450600 9.80092144 2.10653138 21 11 33474 11.04000000 2042895034 2042895034 11.00000000
-4.08252621 8.66011143 2.21036911 62 13 33476 9.82600000 2042895038 2042895038 13.00000000
-3.90565920 8.28868008 2.45515752 45 15 33477 9.48600000 2042895043 2042895043 15.00000000
-0.92035973 1.96030259 -0.58027232 4 0 33485 2.24200000 2042895064 2042895064 -15.00000000
-1.07502425 2.29180646 -0.58442283 3 2 33487 2.59800000 2042895068 2042895068 -13.00000000
-1.27848458 2.72679400 -0.58540201 2 4 33488 3.06800000 2042895073 2042895073 -11.00000000
-1.58038056 3.37375116 -0.59007078 2 6 33490 3.77200000 2042895078 2042895078 -9.00000000
-2.08089948 4.44628477 -0.60276580 2 8 33492 4.94600000 2042895082 2042895082 -7.00000000
-3.00459886 6.42288446 -0.62037456 4 10 33493 7.11800000 2042895087 2042895087 -5.00000000
-4.57529783 9.78499317 2.09966230 21 11 33494 11.00400000 2042895089 2042895089 11.00000000
-4.05392122 8.67784023 2.21126890 59 13 33496 9.83000000 2042895094 2042895094 13.00000000
-3.90694451 8.36702919 2.47431016 47 15 33497 9.56000000 2042895098 2042895098 15.00000000
-0.91432631 1.96525478 -0.58078992 4 0 33505 2.24400000 2042895119 2042895119 -15.00000000
-1.06537497 2.29201078 -0.58352304 3 2 33507 2.59400000 2042895124 2042895124 -13.00000000
-1.27392185 2.74192309 -0.58769172 2 4 33508 3.08000000 2042895128 2042895128 -11.00000000
-1.57857478 3.40074825 -0.59382522 2 6 33510 3.79600000 2042895133 2042895133 -9.00000000
-2.07037759 4.46432638 -0.60422820 2 8 33512 4.95800000 2042895137 2042895137 -7.00000000
-2.98216057 6.43333340 -0.62037456 4 10 33513 7.11800000 2042895142 2042895142 -5.00000000
-4.53451109 9.78665352 2.09660935 21 11 33514 10.98800000 2042895144 2042895144 11.00000000
-4.02033091 8.68486404 2.20946932 59 13 33516 9.82200000 2042895149 2042895149 13.00000000
-3.90448523 8.43847370 2.49139214 47 15 33517 9.62600000 2042895154 2042895154 15.00000000
-0.91069585 1.97545207 -0.58286047 4 0 33525 2.25200000 2042895174 2042895174 -15.00000000
-1.05736792 2.29571557 -0.58352304 3 2 33527 2.59400000 2042895179 2042895179 -13.00000000
-1.25777495 2.73208642 -0.58463877 2 4 33528 3.06400000 2042895184 2042895184 -11.00000000
-1.55843997 3.38829136 -0.59069651 2 6 33530 3.77600000 2042895188 2042895188 -9.00000000
-2.06307030 4.48956347 -0.60666561 2 8 33532 4.97800000 2042895193 2042895193 -7.00000000
-2.95968580 6.44370365 -0.62037456 4 10 33533 7.11800000 2042895197 2042895197 -5.00000000
-4.49540710 9.79171658 2.09431958 25 11 33534 10.97600000 2042895200 2042895200 11.00000000
-3.98349071 8.68467426 2.20587015 60 13 33536 9.80600000 2042895204 2042895204 13.00000000
-3.89365053 8.49663353 2.50433302 40 15 33538 9.67600000 2042895209 2042895209 15.00000000
-0.89703053 1.96471786 -0.57871938 4 0 33546 2.23600000 2042895230 2042895230 -15.00000000
-1.05703402 2.31730556 -0.58802205 3 2 33548 2.61400000 2042895234 2042895234 -13.00000000
-1.25101078 2.74382329 -0.58616525 2 4 33549 3.07200000 2042895239 2042895239 -11.00000000
-1.55911255 3.42274308 -0.59570247 2 6 33551 3.80800000 2042895243 2042895243 -9.00000000
-2.04495668 4.49348164 -0.60617810 2 8 33553 4.97400000 2042895248 2042895248 -7.00000000
-2.91954947 6.41823673 -0.61688834 4 10 33554 7.07800000 2042895253 2042895253 -5.00000000
-4.45786333 9.80455303 2.09355640 21 11 33555 10.97200000 2042895255 2042895255 11.00000000
-3.95163321 8.69921684 2.20587015 59 13 33557 9.80600000 2042895260 2042895260 13.00000000
-3.86556530 8.51369095 2.50536847 42 15 33558 9.68000000 2042895264 2042895264 15.00000000
-0.88698208 1.96079648 -0.57664883 4 0 33566 2.22800000 2042895285 2042895285 -15.00000000
-1.04893863 2.32098126 -0.58802205 3 2 33568 2.61400000 2042895289 2042895289 -13.00000000
-1.23657608 2.73743844 -0.58387554 2 4 33569 3.06000000 2042895294 2042895294 -11.00000000
-1.53740442 3.40655851 -0.59194803 2 6 33571 3.78400000 2042895299 2042895299 -9.00000000
-2.02273154 4.48611498 -0.60422820 2 8 33573 4.95800000 2042895303 2042895303 -7.00000000
-2.91350031 6.46471786 -0.62037456 4 10 33574 7.11800000 2042895308 2042895308 -5.00000000
-4.41554832 9.80215359 2.08974004 21 11 33575 10.95200000 2042895310 2042895310 11.00000000
-3.93243980 8.73783588 2.21216869 62 13 33577 9.83400000 2042895315 2042895315 13.00000000
-4.82698536 10.73051071 -0.20537992 2 14 33578 11.76800000 2042895317 2042895317 -1.00000000
-3.83186102 8.51832294 2.50278020 38 15 33578 9.67000000 2042895319 2042895319 15.00000000
-0.88521719 1.97430372 -0.57975465 4 0 33585 2.24000000 2042895340 2042895340 -15.00000000
-1.03486300 2.31021905 -0.58442283 3 2 33587 2.59800000 2042895345 2042895345 -13.00000000
-1.23230529 2.75227499 -0.58616525 2 4 33588 3.07200000 2042895349 2042895349 -11.00000000
-1.51722682 3.39180303 -0.58850646 2 6 33590 3.76200000 2042895354 2042895354 -9.00000000
-4.79404116 10.72725773 -1.44268930 2 8 33592 11.83800000 2042895359 2042895359 -7.00000000
-2.90017247 6.49253511 -0.62211770 4 10 33593 7.13800000 2042895363 2042895363 -5.00000000
-4.37261391 9.79343796 2.08477902 12 11 33594 10.92600000 2042895366 2042895366 11.00000000
-4.79091215 10.73534203 -0.61609888 8 12 33595 11.77200000 2042895368 2042895368 -3.00000000
-3.91773200 8.78286362 2.22026682 64 13 33596 9.87000000 2042895370 2042895370 13.00000000
-4.78811789 10.73915291 -0.20524029 8 14 33597 11.76000000 2042895372 2042895372 -1.00000000
-3.80603480 8.54047012 2.50536847 40 15 33598 9.68000000 2042895375 2042895375 15.00000000
-0.88145703 1.98444378 -0.58182520 4 0 33605 2.24800000 2042895395 2042895395 -15.00000000
-4.76799726 10.73935032 0.20510069 13 1 33606 11.75200000 2042895398 2042895398 1.00000000
-1.03153515 2.32450485 -0.58712226 3 2 33607 2.61000000 2042895400 2042895400 -13.00000000
-4.77165794 10.75265503 0.61651754 15 3 33607 11.78000000 2042895402 2042895402 3.00000000
-1.22587466 2.76373839 -0.58769172 2 4 33608 3.08000000 2042895405 2042895405 -11.00000000
-4.75870180 10.73356342 1.02721763 12 5 33609 11.78600000 2042895407 2042895407 5.00000000
-1.51738250 3.42416835 -0.59319949 2 6 33610 3.79200000 2042895409 2042895409 -9.00000000
-4.76004982 10.74672604 1.44317675 17 7 33611 11.84200000 2042895412 2042895412 7.00000000
-4.74370909 10.71488380 -1.43878949 2 8 33612 11.80600000 2042895414 2042895414 -7.00000000
-2.87910414 6.50626326 -0.62246633 4 10 33613 7.14200000 2042895419 2042895419 -5.00000000
-4.74210358 10.72642612 -0.61463344 8 12 33615 11.74400000 2042895423 2042895423 -3.00000000
-3.90280318 8.83213520 2.22926497 64 13 33616 9.91000000 2042895425 2042895425 13.00000000
-4.74252319 10.73750877 -0.20489125 8 14 33617 11.74000000 2042895428 2042895428 -1.00000000
-3.77619982 8.55370331 2.50536847 40 15 33618 9.68000000 2042895430 2042895430 15.00000000
-0.87876332 1.99619639 -0.58441341 4 0 33624 2.25800000 2042895451 2042895451 -15.00000000
-4.72108316 10.72947693 0.20461202 16 1 33625 11.72400000 2042895453 2042895453 1.00000000
-1.02382123 2.32791281 -0.58712226 3 2 33626 2.61000000 2042895455 2042895455 -13.00000000
-4.71989346 10.73185444 0.61442411 18 3 33626 11.74000000 2042895458 2042895458 3.00000000
-1.21196258 2.75700474 -0.58540201 2 4 33627 3.06800000 2042895460 2042895460 -11.00000000
-4.72228050 10.74746037 1.02704322 17 5 33628 11.78400000 2042895462 2042895462 5.00000000
-1.50760782 3.43279862 -0.59382522 2 6 33629 3.79600000 2042895465 2042895465 -9.00000000
-4.72039652 10.75336361 1.44195807 21 7 33630 11.83200000 2042895467 2042895467 7.00000000
-4.70496082 10.72328472 -1.43781447 2 8 33631 11.79800000 2042895469 2042895469 -7.00000000
-4.71923637 10.75582123 1.86031866 12 9 33631 11.89200000 2042895472 2042895472 9.00000000
-2.85751295 6.51577473 -0.62246633 4 10 33632 7.14200000 2042895474 2042895474 -5.00000000
-4.52969551 10.33363152 2.19315863 31 11 33633 11.49400000 2042895476 2042895476 11.00000000
-4.70169830 10.73111629 -0.61400545 8 12 33634 11.73200000 2042895478 2042895478 -3.00000000
-3.90632629 8.92000103 2.24816084 64 13 33635 9.99400000 2042895481 2042895481 13.00000000
-4.69566393 10.72753048 -0.20440258 8 14 33636 11.71200000 2042895483 2042895483 -1.00000000
-3.75013709 8.57148838 2.50692129 38 15 33637 9.68600000 2042895485 2042895485 15.00000000
-0.86561251 1.98508513 -0.58027232 4 0 33644 2.24200000 2042895506 2042895506 -15.00000000
-4.68120432 10.74039268 0.20450729 20 1 33645 11.71800000 2042895508 2042895508 1.00000000
-1.01724565 2.33504558 -0.58802205 3 2 33646 2.61400000 2042895511 2042895511 -13.00000000
-4.68001032 10.74277115 0.61411011 21 3 33646 11.73400000 2042895513 2042895513 3.00000000
-1.20076394 2.75761843 -0.58463877 2 4 33647 3.06400000 2042895515 2042895515 -11.00000000
-4.67042398 10.73099518 1.02390563 17 5 33648 11.74800000 2042895518 2042895518 5.00000000
-1.49482799 3.43622875 -0.59351236 2 6 33649 3.79400000 2042895520 2042895520 -9.00000000
-4.67808247 10.75885296 1.44049561 19 7 33650 11.82000000 2042895522 2042895522 7.00000000
-4.66433620 10.73236084 -1.43683958 2 8 33651 11.79000000 2042895525 2042895525 -7.00000000
-4.67142725 10.74867725 1.85625136 15 9 33651 11.86600000 2042895527 2042895527 9.00000000
-4.67007589 10.75070000 -1.02547443 4 10 33652 11.76600000 2042895529 2042895529 -5.00000000
-4.49281502 10.34757996 2.19277692 46 11 33653 11.49200000 2042895531 2042895531 11.00000000
-4.65705490 10.73097324 -0.61306340 12 12 33654 11.71400000 2042895534 2042895534 -3.00000000
-3.90153289 8.99436760 2.26345754 57 13 33655 10.06200000 2042895536 2042895536 13.00000000
-4.64625740 10.71633530 -0.20387901 8 14 33656 11.68200000 2042895538 2042895538 -1.00000000
-3.72019410 8.58452702 2.50692129 40 15 33657 9.68600000 2042895541 2042895541 15.00000000
-0.85331607 1.97568011 -0.57664883 4 0 33664 2.22800000 2042895561 2042895561 -15.00000000
-4.63338137 10.73280048 0.20405354 20 1 33665 11.69200000 2042895564 2042895564 1.00000000
-1.01063275 2.34216070 -0.58892184 3 2 33666 2.61800000 2042895566 2042895566 -13.00000000
-4.63456964 10.74070358 0.61306340 21 3 33666 11.71400000 2042895568 2042895568 3.00000000
-1.19735074 2.77621508 -0.58769172 2 4 33667 3.08000000 2042895571 2042895571 -11.00000000
-4.62426186 10.72710705 1.02198827 17 5 33668 11.72600000 2042895573 2042895573 5.00000000
-1.48516917 3.44686818 -0.59445095 2 6 33669 3.80000000 2042895575 2042895575 -9.00000000
-4.63578749 10.76417732 1.43903315 19 7 33670 11.80800000 2042895577 2042895577 7.00000000
-1.95198691 4.53464127 -0.60617810 2 8 33671 4.97400000 2042895580 2042895580 -7.00000000
-4.62919283 10.75403118 1.85437417 15 9 33671 11.85400000 2042895582 2042895582 9.00000000
-4.61677170 10.73033237 -1.02198827 4 10 33672 11.72600000 2042895584 2042895584 -5.00000000
-4.45589209 10.36139584 2.19239545 50 11 33673 11.49000000 2042895587 2042895587 11.00000000
-4.61404705 10.73431969 -0.61233068 8 12 33674 11.70000000 2042895589 2042895589 -3.00000000
-3.89934444 9.07596970 2.28055382 66 13 33675 10.13800000 2042895591 2042895591 13.00000000
-4.60645533 10.72697639 -0.20377430 12 14 33676 11.67600000 2042895594 2042895594 -1.00000000
-3.69018173 8.59326553 2.50588608 40 15 33676 9.68200000 2042895596 2042895596 15.00000000
-0.84793401 1.98219907 -0.57768410 4 0 33684 2.23200000 2042895617 2042895617 -15.00000000
-4.58566856 10.72500515 0.20359978 20 1 33685 11.66600000 2042895619 2042895619 1.00000000
-1.00091922 2.34209013 -0.58802205 3 2 33686 2.61400000 2042895621 2042895621 -13.00000000
-4.59233999 10.74579620 0.61243534 18 3 33686 11.70200000 2042895624 2042895624 3.00000000
-1.18611014 2.77676678 -0.58692849 2 4 33687 3.07600000 2042895626 2042895626 -11.00000000
-4.58365965 10.73585320 1.02129102 17 5 33688 11.71800000 2042895628 2042895628 5.00000000
-1.46692574 3.43749666 -0.59194803 2 6 33689 3.78400000 2042895630 2042895630 -9.00000000
-4.58650255 10.75290489 1.43537712 19 7 33690 11.77800000 2042895633 2042895633 7.00000000
-1.92057598 4.50490618 -0.60130334 2 8 33691 4.93400000 2042895635 2042895635 -7.00000000
-4.58387899 10.75195312 1.85124540 15 9 33691 11.83400000 2042895637 2042895637 9.00000000
-4.57772541 10.74271679 -1.02163959 4 10 33692 11.72200000 2042895640 2042895640 -5.00000000
-4.41354227 10.36243725 2.18934250 43 11 33693 11.47400000 2042895642 2042895642 11.00000000
-4.56559706 10.72463322 -0.61086529 8 12 33694 11.67200000 2042895644 2042895644 -3.00000000
-3.90273762 9.17201138 2.30124927 60 13 33695 10.23000000 2042895647 2042895647 13.00000000
-4.56506968 10.73378944 -0.20359978 17 14 33696 11.66600000 2042895649 2042895649 -1.00000000
-3.65714955 8.60317707 2.50485063 38 15 33697 9.67800000 2042895651 2042895651 15.00000000
-0.84553128 1.99581957 -0.58078992 4 0 33704 2.24400000 2042895672 2042895672 -15.00000000
-4.54430485 10.73174000 0.20342524 10 1 33705 11.65600000 2042895674 2042895674 1.00000000
-0.99121863 2.34198070 -0.58712226 3 2 33706 2.61000000 2042895677 2042895677 -13.00000000
-4.54592037 10.74600124 0.61149329 18 3 33707 11.68400000 2042895679 2042895679 3.00000000
-1.17641020 2.78089023 -0.58692849 4 4 33707 3.07600000 2042895681 2042895681 -11.00000000
-4.54227686 10.74261284 1.02041948 17 5 33708 11.70800000 2042895683 2042895683 5.00000000
-1.45491767 3.44259620 -0.59194803 2 6 33709 3.78400000 2042895686 2042895686 -9.00000000
-4.54044342 10.74873447 1.43269598 19 7 33710 11.75600000 2042895688 2042895688 7.00000000
-1.90947199 4.52255535 -0.60276580 2 8 33711 4.94600000 2042895690 2042895690 -7.00000000
-4.54401445 10.76242924 1.85030687 15 9 33711 11.82800000 2042895693 2042895693 9.00000000
-4.53709984 10.75128841 -1.02094233 4 10 33712 11.71400000 2042895695 2042895695 -5.00000000
-4.37734413 10.37777996 2.18934250 46 11 33713 11.47400000 2042895697 2042895697 11.00000000
-4.51882219 10.71842003 -0.60960925 8 12 33714 11.64800000 2042895700 2042895700 -3.00000000
-3.89037251 9.23226929 2.31294680 59 13 33715 10.28200000 2042895702 2042895702 13.00000000
-4.51593113 10.72201538 -0.20307620 19 14 33716 11.63600000 2042895704 2042895704 -1.00000000
-3.63309956 8.62594032 2.50795650 40 15 33716 9.69000000 2042895707 2042895707 15.00000000
-0.84603316 2.01657319 -0.58596629 4 0 33724 2.26400000 2042895727 2042895727 -15.00000000
-4.49599028 10.72171974 0.20293657 13 1 33725 11.62800000 2042895730 2042895730 1.00000000
-0.98303759 2.34542632 -0.58712226 3 2 33726 2.61000000 2042895732 2042895732 -13.00000000
-4.49680662 10.73417187 0.60992324 21 3 33727 11.65400000 2042895734 2042895734 3.00000000
-1.16897166 2.79041195 -0.58807331 4 4 33727 3.08200000 2042895736 2042895736 -11.00000000
-4.50013351 10.74737644 1.01937354 55 5 33728 11.69600000 2042895739 2042895739 5.00000000
-1.45204341 3.46952057 -0.59570247 2 6 33729 3.80800000 2042895741 2042895741 -9.00000000
-4.49523497 10.74620533 1.43025863 19 7 33730 11.73600000 2042895743 2042895743 7.00000000
-4.49106216 10.74149513 -1.42952740 2 8 33731 11.73000000 2042895746 2042895746 -7.00000000
-4.49539757 10.75714016 1.84655237 12 9 33732 11.80400000 2042895748 2042895748 9.00000000
-4.49954319 10.76706028 -1.02094233 4 10 33732 11.71400000 2042895750 2042895750 -5.00000000
-4.34260559 10.39661980 2.19010568 46 11 33733 11.47800000 2042895753 2042895753 11.00000000
-4.47522497 10.71938324 -0.60877186 8 12 33734 11.63200000 2042895755 2042895755 -3.00000000
-3.88964152 9.32132816 2.33184266 64 13 33735 10.36600000 2042895757 2042895757 13.00000000
-4.47000933 10.71741199 -0.20269226 17 14 33736 11.61400000 2042895760 2042895760 -1.00000000
-3.59922957 8.63384914 2.50640368 38 15 33737 9.68400000 2042895762 2042895762 15.00000000
-0.83528310 2.01059389 -0.58337814 4 0 33744 2.25400000 2042895783 2042895783 -15.00000000
-4.45393562 10.72626781 0.20272715 13 1 33745 11.61600000 2042895785 2042895785 1.00000000
-0.97932655 2.35964274 -0.58982164 3 2 33746 2.62200000 2042895787 2042895787 -13.00000000
-4.45624876 10.74242401 0.60950452 23 3 33747 11.64600000 2042895789 2042895789 3.00000000
-1.15621519 2.78722167 -0.58654684 4 4 33747 3.07400000 2042895792 2042895792 -11.00000000
-4.45648575 10.74829483 1.01797903 80 5 33748 11.68000000 2042895794 2042895794 5.00000000
-1.43841112 3.47091818 -0.59507668 2 6 33749 3.80400000 2042895796 2042895796 -9.00000000
-4.45313835 10.75082684 1.42879617 21 7 33750 11.72400000 2042895799 2042895799 7.00000000
-4.44139051 10.72776031 -1.42562759 2 8 33751 11.69800000 2042895801 2042895801 -7.00000000
-4.44987774 10.74826145 1.84248507 15 9 33751 11.77800000 2042895803 2042895803 9.00000000
-2.74176073 6.62573671 -0.62734705 4 10 33752 7.19800000 2042895806 2042895806 -5.00000000
-4.31003952 10.42078590 2.19201374 50 11 33753 11.48800000 2042895808 2042895808 11.00000000
-4.43320179 10.72386551 -0.60814381 8 12 33754 11.62000000 2042895810 2042895810 -3.00000000
-3.88833594 9.41049290 2.35073853 59 13 33755 10.45000000 2042895813 2042895813 13.00000000
-4.42951822 10.72555733 -0.20255263 14 14 33756 11.60600000 2042895815 2042895815 -1.00000000
-3.56910396 8.64216518 2.50536847 38 15 33756 9.68000000 2042895817 2042895817 15.00000000
-0.82458508 2.00456452 -0.58078992 4 0 33764 2.24400000 2042895838 2042895838 -15.00000000
-4.41190481 10.73065281 0.20251772 13 1 33765 11.60400000 2042895840 2042895840 1.00000000
-0.96812105 2.35583687 -0.58802205 3 2 33766 2.61400000 2042895842 2042895842 -13.00000000
-4.40961742 10.73574352 0.60824847 21 3 33767 11.62200000 2042895845 2042895845 3.00000000
-1.14871669 2.79668880 -0.58769172 4 4 33767 3.08000000 2042895847 2042895847 -11.00000000
-4.40910339 10.73982525 1.01571298 80 5 33768 11.65400000 2042895849 2042895849 5.00000000
-1.42478681 3.47226310 -0.59445095 2 6 33769 3.80000000 2042895852 2042895852 -9.00000000
-4.41332388 10.76079559 1.42806494 21 7 33770 11.71800000 2042895854 2042895854 7.00000000
-4.39638710 10.72483063 -1.42319024 2 8 33771 11.67800000 2042895856 2042895856 -7.00000000
-4.40296459 10.74621964 1.83935642 15 9 33772 11.75800000 2042895859 2042895859 9.00000000
-2.71408367 6.62420511 -0.62630117 4 10 33772 7.18600000 2042895861 2042895861 -5.00000000
-4.26843023 10.42304993 2.18934250 43 11 33773 11.47400000 2042895863 2042895863 11.00000000
-4.39876795 10.74666786 -0.60856247 8 12 33774 11.62800000 2042895865 2042895865 -3.00000000
-3.88497901 9.49615383 2.36873460 66 13 33775 10.53000000 2042895868 2042895868 13.00000000
-4.38675404 10.72799683 -0.20230830 8 14 33776 11.59200000 2042895870 2042895870 -1.00000000
-3.53448153 8.64803600 2.50329781 36 15 33777 9.67200000 2042895872 2042895872 15.00000000
-0.82014596 2.01473022 -0.58286047 4 0 33785 2.25200000 2042895893 2042895893 -15.00000000
-4.36048698 10.71711445 0.20195925 13 1 33786 11.57200000 2042895895 2042895895 1.00000000
-0.96241641 2.36659026 -0.58982164 3 2 33787 2.62200000 2042895898 2042895898 -13.00000000
-4.36647892 10.74258232 0.60772514 21 3 33788 11.61200000 2042895900 2042895900 3.00000000
-1.14141560 2.80815530 -0.58921820 2 4 33788 3.08800000 2042895902 2042895902 -11.00000000
-4.35846186 10.72822571 1.01309836 63 5 33789 11.62400000 2042895905 2042895905 5.00000000
-1.41799629 3.49210382 -0.59695393 2 6 33790 3.81600000 2042895907 2042895907 -9.00000000
-4.36190987 10.74746895 1.42416513 21 7 33791 11.68600000 2042895909 2042895909 7.00000000
-4.35406446 10.73351383 -1.42221522 2 8 33792 11.67000000 2042895912 2042895912 -7.00000000
-4.36245584 10.75420094 1.83810496 15 9 33792 11.75000000 2042895914 2042895914 9.00000000
-2.68080306 6.61195135 -0.62420940 4 10 33793 7.16200000 2042895916 2042895916 -5.00000000
-4.22872448 10.43498516 2.18857908 46 11 33794 11.47000000 2042895918 2042895918 11.00000000
-4.34585333 10.72939682 -0.60667843 8 12 33795 11.59200000 2042895921 2042895921 -3.00000000
-3.88524890 9.59703255 2.39032984 60 13 33796 10.62600000 2042895923 2042895923 13.00000000
-4.33990383 10.72546673 -0.20195925 8 14 33797 11.57200000 2042895925 2042895925 -1.00000000
-3.50572181 8.66390228 2.50433302 38 15 33797 9.67600000 2042895928 2042895928 15.00000000
-0.81455249 2.02116442 -0.58389574 4 0 33805 2.25600000 2042895948 2042895948 -15.00000000
-4.31782055 10.71928596 0.20171492 13 1 33806 11.55800000 2042895951 2042895951 1.00000000
-0.95123839 2.36270428 -0.58802205 3 2 33807 2.61400000 2042895953 2042895953 -13.00000000
-4.32224369 10.74108315 0.60678309 23 3 33808 11.59400000 2042895955 2042895955 3.00000000
-1.13307226 2.81576514 -0.58998144 2 4 33808 3.09200000 2042895958 2042895958 -11.00000000
-4.31801319 10.73598003 1.01240110 21 5 33809 11.61600000 2042895960 2042895960 5.00000000
-1.40285075 3.48970079 -0.59570247 2 6 33810 3.80800000 2042895962 2042895962 -9.00000000
-4.31622648 10.74236774 1.42148399 21 7 33811 11.66400000 2042895965 2042895965 7.00000000
-1.84721124 4.59972095 -0.60861552 2 8 33812 4.99400000 2042895967 2042895967 -7.00000000
-4.31933165 10.76095200 1.83654058 18 9 33813 11.74000000 2042895969 2042895969 9.00000000
-2.68294048 6.68413496 -0.63013601 4 10 33813 7.23000000 2042895971 2042895971 -5.00000000
-4.19081163 10.44603825 2.18781590 50 11 33814 11.46600000 2042895974 2042895974 11.00000000
-4.29945421 10.72225666 -0.60542232 8 12 33815 11.56800000 2042895976 2042895976 -3.00000000
-3.87492418 9.66842079 2.40472674 66 13 33816 10.69000000 2042895978 2042895978 13.00000000
-4.30243826 10.74055004 -0.20195925 8 14 33817 11.57200000 2042895981 2042895981 -1.00000000
-3.47681570 8.68386745 2.50640368 36 15 33818 9.68400000 2042895983 2042895983 15.00000000
-0.80927795 2.02744293 -0.58493102 4 0 33824 2.26000000 2042896004 2042896004 -15.00000000
-4.27706337 10.72054482 0.20147058 16 1 33825 11.54400000 2042896006 2042896006 1.00000000
-0.94484174 2.36946607 -0.58892184 3 2 33826 2.61800000 2042896008 2042896008 -13.00000000
-4.27476978 10.72567177 0.60510832 21 3 33827 11.56200000 2042896011 2042896011 3.00000000
-1.12082112 2.81221199 -0.58845496 2 4 33827 3.08400000 2042896013 2042896013 -11.00000000
-4.28165007 10.74838924 1.01222682 59 5 33828 11.61400000 2042896015 2042896015 5.00000000
-1.40442359 3.52736831 -0.60133410 2 6 33829 3.84400000 2042896018 2042896018 -9.00000000
-4.27470779 10.74186707 1.41953409 21 7 33830 11.64800000 2042896020 2042896020 7.00000000
-1.82020926 4.57630873 -0.60471570 2 8 33831 4.96200000 2042896022 2042896022 -7.00000000
-4.27601290 10.75060749 1.83247328 18 9 33831 11.71400000 2042896024 2042896024 9.00000000
-4.27708960 10.75878143 -1.01292408 4 10 33832 11.62200000 2042896027 2042896027 -5.00000000
-4.15832329 10.46535110 2.18896079 53 11 33833 11.47200000 2042896029 2042896029 11.00000000
-4.25945139 10.72531796 -0.60479432 8 12 33834 11.55600000 2042896031 2042896031 -3.00000000
-3.87303758 9.75728989 2.42362261 64 13 33835 10.77400000 2042896034 2042896034 13.00000000
-4.25499868 10.72501850 -0.20140077 8 14 33836 11.54000000 2042896036 2042896036 -1.00000000
-3.44880509 8.69295120 2.50588608 38 15 33836 9.68200000 2042896038 2042896038 15.00000000
-0.79935628 2.02306867 -0.58286047 4 0 33844 2.25200000 2042896059 2042896059 -15.00000000
-4.23300505 10.71866989 0.20115644 13 1 33845 11.52600000 2042896061 2042896061 1.00000000
-0.94228888 2.38725090 -0.59252107 3 2 33846 2.63400000 2042896064 2042896064 -13.00000000
-4.23363924 10.73123837 0.60458499 18 3 33847 11.55200000 2042896066 2042896066 3.00000000
-1.11243880 2.81975985 -0.58921820 2 4 33847 3.08800000 2042896068 2042896068 -11.00000000
-4.24118185 10.75585556 1.01152956 85 5 33848 11.60600000 2042896071 2042896071 5.00000000
-1.38196206 3.50652003 -0.59695393 2 6 33849 3.81600000 2042896073 2042896073 -9.00000000
-4.23427582 10.74933529 1.41855919 21 7 33850 11.64000000 2042896075 2042896075 7.00000000
-1.80422390 4.58263445 -0.60471570 2 8 33851 4.96200000 2042896077 2042896077 -7.00000000
-4.22790098 10.74414921 1.82871890 15 9 33852 11.69000000 2042896080 2042896080 9.00000000
-4.22637606 10.74027348 -1.00978649 4 10 33852 11.58600000 2042896082 2042896082 -5.00000000
-4.12392282 10.48528385 2.19010568 50 11 33853 11.47800000 2042896084 2042896084 11.00000000
-4.22198677 10.74012089 -0.60479432 8 12 33854 11.55600000 2042896087 2042896087 -3.00000000
-3.87031054 9.85055542 2.44341826 60 13 33855 10.86200000 2042896089 2042896089 13.00000000
-4.20876408 10.71747017 -0.20098191 17 14 33856 11.51600000 2042896091 2042896091 -1.00000000
-3.41621470 8.70373535 2.50536847 38 15 33857 9.68000000 2042896094 2042896094 15.00000000
-0.79299319 2.02764583 -0.58337814 4 0 33864 2.25400000 2042896114 2042896114 -15.00000000
-4.19046831 10.72034264 0.20091210 13 1 33865 11.51200000 2042896117 2042896117 1.00000000
-0.92827684 2.37600446 -0.58892184 3 2 33866 2.61800000 2042896119 2042896119 -13.00000000
-4.19397497 10.74036980 0.60427094 21 3 33867 11.54600000 2042896121 2042896121 3.00000000
-1.09973276 2.81631064 -0.58769172 2 4 33867 3.08000000 2042896124 2042896124 -11.00000000
-4.18405247 10.72048092 1.00682318 51 5 33868 11.55200000 2042896126 2042896126 5.00000000
-1.37402081 3.52236462 -0.59883112 2 6 33869 3.82800000 2042896128 2042896128 -9.00000000
-4.19167995 10.75110340 1.41685295 21 7 33870 11.62600000 2042896130 2042896130 7.00000000
-1.80983949 4.64439297 -0.61202782 2 8 33871 5.02200000 2042896133 2042896133 -7.00000000
-4.18794537 10.74706650 1.82684171 18 9 33871 11.67800000 2042896135 2042896135 9.00000000
-4.18452120 10.74382114 -1.00874054 4 10 33872 11.57400000 2042896137 2042896137 -5.00000000
-4.08658504 10.49778557 2.18972397 50 11 33873 11.47600000 2042896140 2042896140 11.00000000
-4.17578077 10.73245621 -0.60353827 8 12 33874 11.53200000 2042896142 2042896142 -3.00000000
-3.87121677 9.95481777 2.46591353 64 13 33875 10.96200000 2042896144 2042896144 13.00000000
-4.16480780 10.71532154 -0.20066777 19 14 33876 11.49800000 2042896147 2042896147 -1.00000000
-3.38523388 8.70961380 2.50381541 38 15 33876 9.67400000 2042896149 2042896149 15.00000000
-0.78451586 2.02679849 -0.58234286 4 0 33884 2.25000000 2042896170 2042896170 -15.00000000
-4.14436340 10.71252537 0.20049325 10 1 33885 11.48800000 2042896172 2042896172 1.00000000
-0.91857177 2.37559509 -0.58802205 3 2 33886 2.61400000 2042896174 2042896174 -13.00000000
-4.14925861 10.73631477 0.60322422 21 3 33887 11.52600000 2042896177 2042896177 3.00000000
-1.09555709 2.83478236 -0.59074467 2 4 33887 3.09600000 2042896179 2042896179 -11.00000000
-4.13942671 10.71643543 1.00507998 17 5 33888 11.53200000 2042896181 2042896181 5.00000000
-1.36740875 3.54188180 -0.60133410 2 6 33889 3.84400000 2042896183 2042896183 -9.00000000
-4.14912367 10.75270557 1.41514683 19 7 33890 11.61200000 2042896186 2042896186 7.00000000
-4.13938951 10.73305607 -1.41246569 2 8 33891 11.59000000 2042896188 2042896188 -7.00000000
-4.14400864 10.74503231 1.82402587 18 9 33891 11.66000000 2042896190 2042896190 9.00000000
-2.59625959 6.73536348 -0.63153052 4 10 33892 7.24600000 2042896193 2042896193 -5.00000000
-4.04638672 10.50282669 2.18781590 43 11 33893 11.46600000 2042896195 2042896195 11.00000000
-4.12393761 10.70969009 -0.60144478 8 12 33894 11.49200000 2042896197 2042896197 -3.00000000
-3.87004232 10.05556774 2.48750877 64 13 33895 11.05800000 2042896200 2042896200 13.00000000
-4.12307119 10.71859550 -0.20045833 19 14 33896 11.48600000 2042896202 2042896202 -1.00000000
-3.35411739 8.71957493 2.50329781 40 15 33896 9.67200000 2042896204 2042896204 15.00000000
-0.78263003 2.04201603 -0.58596629 4 0 33903 2.26400000 2042896225 2042896225 -15.00000000
-4.10166359 10.70753574 0.20014420 13 1 33904 11.46800000 2042896227 2042896227 1.00000000
-0.91347611 2.38590765 -0.58982164 3 2 33905 2.62200000 2042896230 2042896230 -13.00000000
-4.10506725 10.72763062 0.60196817 21 3 33906 11.50200000 2042896232 2042896232 3.00000000
-1.09036052 2.84940147 -0.59303439 2 4 33906 3.10800000 2042896234 2042896234 -11.00000000
-4.10457850 10.73196411 1.00525439 17 5 33907 11.53400000 2042896236 2042896236 5.00000000
-1.33590651 3.49473238 -0.59257376 2 6 33908 3.78800000 2042896239 2042896239 -9.00000000
-4.10139942 10.73488140 1.41100323 19 7 33909 11.57800000 2042896241 2042896241 7.00000000
-4.09386063 10.72076130 -1.40905333 2 8 33910 11.56200000 2042896243 2042896243 -7.00000000
-4.10225010 10.74835873 1.82214868 15 9 33911 11.64800000 2042896246 2042896246 9.00000000
-2.58527708 6.77371883 -0.63431948 4 10 33911 7.27800000 2042896248 2042896248 -5.00000000
-4.00943661 10.51068401 2.18667102 50 11 33912 11.46000000 2042896250 2042896250 11.00000000
-4.07701635 10.69344711 -0.59977007 8 12 33913 11.46000000 2042896253 2042896253 -3.00000000
-3.84639025 10.09383965 2.49380732 62 13 33914 11.08600000 2042896255 2042896255 13.00000000
-4.08252239 10.71912861 -0.20021401 19 14 33915 11.47200000 2042896257 2042896257 -1.00000000
-3.32793403 8.73787022 2.50536847 36 15 33915 9.68000000 2042896259 2042896259 15.00000000
-0.77892262 2.05376697 -0.58855450 4 0 33923 2.27400000 2042896280 2042896280 -15.00000000
-4.05859184 10.70682907 0.19986495 10 1 33924 11.45200000 2042896283 2042896283 1.00000000
-0.90514213 2.38908195 -0.58982164 3 2 33925 2.62200000 2042896285 2042896285 -13.00000000
-4.06335211 10.73068810 0.60134012 21 3 33926 11.49000000 2042896287 2042896287 3.00000000
-1.07623613 2.84217381 -0.59074467 4 4 33926 3.09600000 2042896289 2042896289 -11.00000000
-4.06638670 10.74436283 1.00507998 17 5 33927 11.53200000 2042896292 2042896292 5.00000000
-1.33418286 3.52708840 -0.59726679 2 6 33928 3.81800000 2042896294 2042896294 -9.00000000
-4.06179667 10.74356174 1.41027200 19 7 33929 11.57200000 2042896296 2042896296 7.00000000
-4.04799318 10.71270275 -1.40612853 2 8 33930 11.53800000 2042896299 2042896299 -7.00000000
-4.05702877 10.74228573 1.81870711 18 9 33931 11.62600000 2042896301 2042896301 9.00000000
-2.54049873 6.72678518 -0.62909013 4 10 33931 7.21800000 2042896303 2042896303 -5.00000000
-3.97064328 10.51910591 2.18552613 50 11 33932 11.45400000 2042896306 2042896306 11.00000000
-4.03966427 10.70761395 -0.59977007 8 12 33933 11.46000000 2042896308 2042896308 -3.00000000
-3.81113291 10.10720444 2.49380732 56 13 33934 11.08600000 2042896310 2042896310 13.00000000
-4.03661823 10.71085930 -0.19979514 8 14 33935 11.44800000 2042896312 2042896312 -1.00000000
-3.29111910 8.73735428 2.50174499 38 15 33936 9.66600000 2042896315 2042896315 15.00000000
-0.76428258 2.03657794 -0.58286047 4 0 33943 2.25200000 2042896336 2042896336 -15.00000000
-4.02049112 10.71905899 0.19983006 13 1 33944 11.45000000 2042896338 2042896338 1.00000000
-0.89679718 2.39222693 -0.58982164 3 2 33945 2.62200000 2042896340 2042896340 -13.00000000
-4.02096510 10.73171425 0.60060745 23 3 33946 11.47600000 2042896342 2042896342 3.00000000
-1.06355321 2.83855963 -0.58921820 4 4 33946 3.08800000 2042896345 2042896345 -11.00000000
-4.01837635 10.73050404 1.00246537 17 5 33947 11.50200000 2042896347 2042896347 5.00000000
-1.32670987 3.54467440 -0.59945685 2 6 33948 3.83200000 2042896349 2042896349 -9.00000000
-4.01801014 10.74094105 1.40807843 21 7 33949 11.55400000 2042896352 2042896352 7.00000000
-3.99806046 10.69329834 -1.40174115 2 8 33950 11.50200000 2042896354 2042896354 -7.00000000
-4.01397514 10.74157810 1.81620419 18 9 33951 11.61000000 2042896356 2042896356 9.00000000
-2.52537131 6.75800800 -0.63118190 4 10 33951 7.24200000 2042896359 2042896359 -5.00000000
-3.93527436 10.53658009 2.18628955 50 11 33952 11.45800000 2042896361 2042896361 11.00000000
-3.99667525 10.70668030 -0.59893268 8 12 33953 11.44400000 2042896363 2042896363 -3.00000000
-3.77514768 10.11862087 2.49335742 53 13 33954 11.08400000 2042896365 2042896365 13.00000000
-3.99501371 10.71364212 -0.19958572 6 14 33955 11.43600000 2042896368 2042896368 -1.00000000
-3.26077700 8.74460030 2.50070953 36 15 33955 9.66200000 2042896370 2042896370 15.00000000
-0.76053113 2.04828858 -0.58544868 4 0 33963 2.26200000 2042896391 2042896391 -15.00000000
-3.97191834 10.70303154 0.19927157 10 1 33964 11.41800000 2042896393 2042896393 1.00000000
-0.89521813 2.41361380 -0.59432071 3 2 33965 2.64200000 2042896395 2042896395 -13.00000000
-3.97514915 10.72321129 0.59935135 15 3 33966 11.45200000 2042896398 2042896398 3.00000000
-1.05636799 2.84961820 -0.59074467 2 4 33966 3.09600000 2042896400 2042896400 -11.00000000
-3.97397327 10.72578239 1.00072229 17 5 33967 11.48200000 2042896402 2042896402 5.00000000
-1.32118833 3.56780839 -0.60258555 2 6 33968 3.85200000 2042896405 2042896405 -9.00000000
-3.97980404 10.75304031 1.40783465 21 7 33969 11.55200000 2042896407 2042896407 7.00000000
-1.72381437 4.66007566 -0.61007792 2 8 33970 5.00600000 2042896409 2042896409 -7.00000000
-3.97508526 10.75181866 1.81557846 18 9 33971 11.60600000 2042896412 2042896412 9.00000000
-3.97753882 10.75845432 -1.00351119 4 10 33971 11.51400000 2042896414 2042896414 -5.00000000
-3.90187311 10.55946064 2.18819761 50 11 33972 11.46800000 2042896416 2042896416 11.00000000
-3.95927763 10.72056580 -0.59893268 8 12 33973 11.44400000 2042896418 2042896418 -3.00000000
-3.73912930 10.12990856 2.49290752 55 13 33974 11.08200000 2042896421 2042896421 13.00000000
-3.94444132 10.69187641 -0.19892253 19 14 33975 11.39800000 2042896423 2042896423 -1.00000000
-3.22755814 8.74867916 2.49863911 38 15 33975 9.65400000 2042896425 2042896425 15.00000000
-0.75137830 2.04549074 -0.58389574 4 0 33983 2.25600000 2042896446 2042896446 -15.00000000
-3.92557430 10.69242764 0.19881782 13 1 33984 11.39200000 2042896448 2042896448 1.00000000
-0.88544494 2.41306496 -0.59342086 3 2 33985 2.63800000 2042896451 2042896451 -13.00000000
-3.93887997 10.73445988 0.59924668 10 3 33985 11.45000000 2042896453 2042896453 3.00000000
-1.04641449 2.85328817 -0.59074467 4 4 33986 3.09600000 2042896455 2042896455 -11.00000000
-3.92896652 10.71901131 0.99880481 17 5 33987 11.46000000 2042896458 2042896458 5.00000000
-1.29853380 3.54457593 -0.59789252 2 6 33988 3.82200000 2042896460 2042896460 -9.00000000
-3.93405437 10.74449730 1.40490985 19 7 33989 11.52800000 2042896462 2042896462 7.00000000
-1.71708786 4.69216299 -0.61349028 2 8 33990 5.03400000 2042896464 2042896464 -7.00000000
-3.93601489 10.75566578 1.81401408 21 9 33990 11.59600000 2042896467 2042896467 9.00000000
-2.49044919 6.80915451 -0.63431948 4 10 33991 7.27800000 2042896469 2042896469 -5.00000000
-3.87712288 10.60620689 2.19506669 56 11 33992 11.50400000 2042896471 2042896471 11.00000000
-3.91840482 10.72494125 -0.59840930 8 12 33993 11.43400000 2042896474 2042896474 -3.00000000
-3.70374656 10.14289856 2.49290752 56 13 33994 11.08200000 2042896476 2042896476 13.00000000
-3.19633746 8.75807762 2.49812150 38 15 33995 9.65200000 2042896481 2042896481 15.00000000
-0.74951190 2.06262660 -0.58803689 4 0 34003 2.27200000 2042896501 2042896501 -15.00000000
-3.89095736 10.71358299 0.19895743 3 1 34004 11.40000000 2042896504 2042896504 1.00000000
-0.87169713 2.40148664 -0.58982164 3 2 34005 2.62200000 2042896506 2042896506 -13.00000000
-3.90223432 10.75633430 0.59966540 10 3 34006 11.45800000 2042896508 2042896508 3.00000000
-1.04582191 2.88276124 -0.59608728 4 4 34006 3.12400000 2042896511 2042896511 -11.00000000
-3.90239263 10.76263046 1.00159383 17 5 34007 11.49200000 2042896513 2042896513 5.00000000
-1.28682601 3.55094433 -0.59820539 2 6 34008 3.82400000 2042896515 2042896515 -9.00000000
-3.89652514 10.75816441 1.40490985 23 7 34009 11.52800000 2042896517 2042896517 7.00000000
-1.71015835 4.72426033 -0.61690259 2 8 34010 5.06200000 2042896520 2042896520 -7.00000000
-3.89589500 10.76816273 1.81370115 18 9 34011 11.59400000 2042896522 2042896522 9.00000000
-2.45717597 6.79157686 -0.63187915 4 10 34011 7.25000000 2042896524 2042896524 -5.00000000
-3.85810208 10.66952419 2.20537043 59 11 34012 11.55800000 2042896527 2042896527 11.00000000
-3.91488600 10.83247185 -0.60364294 4 12 34013 11.53400000 2042896529 2042896529 -3.00000000
-3.66368437 10.14293575 2.48975825 53 13 34014 11.06800000 2042896531 2042896531 13.00000000
-3.90908527 10.82824421 -0.20094700 6 14 34015 11.51400000 2042896534 2042896534 -1.00000000
-3.16356039 8.76791668 2.49760389 38 15 34016 9.65000000 2042896536 2042896536 15.00000000
-0.73904020 2.05614042 -0.58544868 4 0 34023 2.26200000 2042896557 2042896557 -15.00000000
-3.89883208 10.85319042 0.20129606 10 1 34024 11.53400000 2042896559 2042896559 1.00000000
-0.86462611 2.40818310 -0.59072149 3 2 34025 2.62600000 2042896561 2042896561 -13.00000000
-3.90028882 10.86320400 0.60489899 10 3 34025 11.55800000 2042896564 2042896564 3.00000000
-1.03044808 2.87161136 -0.59303439 4 4 34026 3.10800000 2042896566 2042896566 -11.00000000
-3.90246630 10.88121033 1.01135528 76 5 34027 11.60400000 2042896568 2042896568 5.00000000
-1.27242339 3.54983592 -0.59726679 2 6 34028 3.81800000 2042896570 2042896570 -9.00000000
-3.89175344 10.86327076 1.41685295 53 7 34029 11.62600000 2042896573 2042896573 7.00000000
-1.68696547 4.71151209 -0.61446524 2 8 34030 5.04200000 2042896575 2042896575 -7.00000000
-3.87758470 10.83563232 1.82277441 40 9 34031 11.65200000 2042896577 2042896577 9.00000000
-2.44956493 6.84513378 -0.63606262 4 10 34031 7.29800000 2042896580 2042896580 -5.00000000
-3.82281852 10.68847275 2.20651531 59 11 34032 11.56400000 2042896582 2042896582 11.00000000
-3.91604209 10.95515251 -0.60971391 8 12 34033 11.65000000 2042896584 2042896584 -3.00000000
-3.62563419 10.14832211 2.48795867 52 13 34034 11.06000000 2042896587 2042896587 13.00000000
-3.90690351 10.94163513 -0.20279697 8 14 34035 11.62000000 2042896589 2042896589 -1.00000000
-3.13316846 8.77472019 2.49656844 38 15 34035 9.64600000 2042896591 2042896591 15.00000000
-0.73250550 2.06052780 -0.58596629 4 0 34043 2.26400000 2042896612 2042896612 -15.00000000
-3.89707589 10.96848583 0.20318091 6 1 34044 11.64200000 2042896614 2042896614 1.00000000
-0.85621470 2.41118646 -0.59072149 3 2 34045 2.62600000 2042896616 2042896616 -13.00000000
-3.87303901 10.90686607 0.60657376 26 3 34045 11.59000000 2042896619 2042896619 3.00000000
-1.01779139 2.86778998 -0.59150791 4 4 34046 3.10000000 2042896621 2042896621 -11.00000000
-3.88111138 10.94170952 1.01571298 17 5 34047 11.65400000 2042896623 2042896623 5.00000000
-1.26530480 3.56915069 -0.59976971 2 6 34048 3.83400000 2042896626 2042896626 -9.00000000
-3.88430619 10.96286106 1.42806494 40 7 34049 11.71800000 2042896628 2042896628 7.00000000
-1.66785836 4.70988703 -0.61349028 2 8 34050 5.03400000 2042896630 2042896630 -7.00000000
-3.87335014 10.94407368 1.83873069 34 9 34051 11.75400000 2042896633 2042896633 9.00000000
-2.42299724 6.84612989 -0.63536537 4 10 34051 7.29000000 2042896635 2042896635 -5.00000000
-3.78221202 10.69249725 2.20460725 59 11 34052 11.55400000 2042896637 2042896637 11.00000000
-3.91505766 11.07420540 -0.61557549 8 12 34053 11.76200000 2042896640 2042896640 -3.00000000
-3.58499408 10.14621639 2.48435950 54 13 34054 11.04400000 2042896642 2042896642 13.00000000
-3.90530896 11.05891323 -0.20471673 6 14 34055 11.73000000 2042896644 2042896644 -1.00000000
-3.09930348 8.77649593 2.49398041 38 15 34055 9.63600000 2042896646 2042896646 15.00000000
-0.72338629 2.05760479 -0.58441341 4 0 34063 2.25800000 2042896667 2042896667 -15.00000000
-3.89787626 11.09333324 0.20524029 10 1 34064 11.76000000 2042896669 2042896669 1.00000000
-0.85166699 2.42519259 -0.59342086 3 2 34065 2.63800000 2042896672 2042896672 -13.00000000
-3.82576132 10.90025902 0.60542232 26 3 34066 11.56800000 2042896674 2042896674 3.00000000
-1.01427650 2.88984990 -0.59532404 2 4 34066 3.12000000 2042896676 2042896676 -11.00000000
-3.83432055 10.93074989 1.01344693 12 5 34067 11.62800000 2042896679 2042896679 5.00000000
-1.24564946 3.55304003 -0.59632820 2 6 34068 3.81200000 2042896681 2042896681 -9.00000000
-3.88146210 11.07751751 1.44122684 38 7 34069 11.82600000 2042896683 2042896683 7.00000000
-1.66059303 4.74190950 -0.61690259 2 8 34070 5.06200000 2042896686 2042896686 -7.00000000
-3.86772299 11.04448318 1.85343552 31 9 34070 11.84800000 2042896688 2042896688 9.00000000
-2.40171766 6.86206818 -0.63606262 4 10 34071 7.29800000 2042896690 2042896690 -5.00000000
-3.73514152 10.67783737 2.19888282 62 11 34072 11.52400000 2042896693 2042896693 11.00000000
-3.90867519 11.18018723 -0.62070441 4 12 34073 11.86000000 2042896695 2042896695 -3.00000000
-3.55534053 10.17522621 2.48840857 50 13 34074 11.06200000 2042896697 2042896697 13.00000000
-3.90294266 11.17631149 -0.20663649 6 14 34075 11.84000000 2042896699 2042896699 -1.00000000
-3.06584191 8.78414822 2.49294496 40 15 34076 9.63200000 2042896702 2042896702 15.00000000
-0.71810257 2.06559157 -0.58596629 4 0 34083 2.26400000 2042896722 2042896722 -15.00000000
-3.88406968 11.17865086 0.20656668 10 1 34084 11.83600000 2042896725 2042896725 1.00000000
-0.84063923 2.42078710 -0.59162128 3 2 34085 2.63000000 2042896727 2042896727 -13.00000000
-3.78566265 10.90156460 0.60479432 26 3 34085 11.55600000 2042896729 2042896729 3.00000000
-1.00160801 2.88595390 -0.59379756 2 4 34086 3.11200000 2042896732 2042896732 -11.00000000
-3.77785969 10.89136124 1.00856626 4 5 34087 11.57200000 2042896734 2042896734 5.00000000
-1.24229789 3.58349633 -0.60070837 2 6 34088 3.84000000 2042896736 2042896736 -9.00000000
-3.87721467 11.19041061 1.45414495 42 7 34089 11.93200000 2042896739 2042896739 7.00000000
-1.64143240 4.74017382 -0.61592764 2 8 34090 5.05400000 2042896741 2042896741 -7.00000000
-3.86339569 11.16312218 1.87095618 31 9 34091 11.96000000 2042896743 2042896743 9.00000000
-2.38426614 6.88923836 -0.63780570 4 10 34091 7.31800000 2042896746 2042896746 -5.00000000
-3.69142866 10.67225647 2.19506669 59 11 34092 11.50400000 2042896748 2042896748 11.00000000
-3.91269350 11.31834793 -0.62761277 4 12 34093 11.99200000 2042896750 2042896750 -3.00000000
-3.51980066 10.18757439 2.48840857 53 13 34094 11.06200000 2042896752 2042896752 13.00000000
-3.90176225 11.29949760 -0.20866098 8 14 34095 11.95600000 2042896755 2042896755 -1.00000000
-3.03705144 8.80027485 2.49449801 38 15 34096 9.63800000 2042896757 2042896757 15.00000000
-0.71025997 2.06625867 -0.58544868 4 0 34103 2.26200000 2042896778 2042896778 -15.00000000
-3.88855624 11.31885147 0.20890531 6 1 34104 11.97000000 2042896780 2042896780 1.00000000
-0.82965267 2.41633415 -0.58982164 3 2 34105 2.62200000 2042896782 2042896782 -13.00000000
-3.73980284 10.89204502 0.60353827 26 3 34105 11.53200000 2042896785 2042896785 3.00000000
-0.99535143 2.90057421 -0.59608728 2 4 34106 3.12400000 2042896787 2042896787 -11.00000000
-3.73076987 10.87809753 1.00612593 4 5 34107 11.54400000 2042896789 2042896789 5.00000000
-1.22465754 3.57286167 -0.59820539 2 6 34108 3.82400000 2042896792 2042896792 -9.00000000
-1.62744808 4.75338697 -0.61690259 2 8 34110 5.06200000 2042896796 2042896796 -7.00000000
-2.36020374 6.89751863 -0.63780570 4 10 34111 7.31800000 2042896801 2042896801 -5.00000000
-3.64716482 10.66464329 2.19086885 59 11 34112 11.48200000 2042896803 2042896803 11.00000000
-3.48106837 10.19057846 2.48615909 51 13 34114 11.05200000 2042896808 2042896808 13.00000000
-3.00132346 8.79619598 2.49035692 36 15 34116 9.62200000 2042896812 2042896812 15.00000000
-0.70552951 2.07604170 -0.58751923 4 0 34123 2.27000000 2042896833 2042896833 -15.00000000
-0.82622421 2.43397808 -0.59342086 3 2 34125 2.63800000 2042896838 2042896838 -13.00000000
-3.69790792 10.89368534 0.60291022 18 3 34125 11.52000000 2042896840 2042896840 3.00000000
-0.98017454 2.88915777 -0.59303439 2 4 34126 3.10800000 2042896842 2042896842 -11.00000000
-3.69213557 10.88916683 1.00595152 12 5 34127 11.54200000 2042896845 2042896845 5.00000000
-1.21471429 3.58459830 -0.59945685 2 6 34128 3.83200000 2042896847 2042896847 -9.00000000
-1.62102890 4.78912354 -0.62080246 2 8 34130 5.09400000 2042896852 2042896852 -7.00000000
-3.60991597 10.67730904 2.19086885 59 11 34132 11.48200000 2042896858 2042896858 11.00000000
