# .PCD v0.7 - Point Cloud Data file format
VERSION 0.7
FIELDS x y z intensity laser_id azimuth distance_m adjustedtime timestamp vertical_angle
SIZE 4 4 4 1 1 2 8 8 4 8
TYPE F F F U U U F U U F
COUNT 1 1 1 1 1 1 1 1 1 1
WIDTH 526
HEIGHT 1
VIEWPOINT 0 0 0 1 0 0 0
POINTS 526
DATA ascii
-1.94341242 0.01085418 -0.52074391 5 0 27032 2.01200000 2042577277 2042577277 -15.00000000
-2.24101162 0.01329859 -0.51738745 4 2 27034 2.30000000 2042577281 2042577281 -13.00000000
-2.60911632 0.01593838 -0.50717032 3 4 27035 2.65800000 2042577286 2042577286 -11.00000000
-3.15263534 0.02035911 -0.49933881 3 6 27037 3.19200000 2042577290 2042577290 -9.00000000
-3.93436170 0.02678077 -0.48309007 3 8 27039 3.96400000 2042577295 2042577295 -7.00000000
-5.17809391 0.03615050 -0.45303556 6 10 27040 5.19800000 2042577300 2042577300 -5.00000000
-7.63132191 0.05594151 -0.39995137 16 12 27042 7.64200000 2042577304 2042577304 -3.00000000
-10.16123962 0.07803426 2.72277641 42 15 27044 10.52000000 2042577311 2042577311 15.00000000
-1.94336271 0.01763788 -0.52074391 5 0 27052 2.01200000 2042577332 2042577332 -15.00000000
-2.24484897 0.02115783 -0.51828724 4 2 27054 2.30400000 2042577336 2042577336 -13.00000000
-2.62082386 0.02515887 -0.50946003 3 4 27055 2.67000000 2042577341 2042577341 -11.00000000
-3.14464402 0.03128514 -0.49808735 3 6 27057 3.18400000 2042577346 2042577346 -9.00000000
-3.96203423 0.04080026 -0.48650241 5 8 27059 3.99200000 2042577350 2042577350 -7.00000000
-5.18192053 0.05426693 -0.45338416 6 10 27060 5.20200000 2042577355 2042577355 -5.00000000
-7.64506006 0.08273074 -0.40068409 16 12 27062 7.65600000 2042577359 2042577359 -3.00000000
-10.15315914 0.11518887 2.72070575 42 15 27065 10.51200000 2042577366 2042577366 15.00000000
-1.94715691 0.02413009 -0.52177918 5 0 27071 2.01600000 2042577387 2042577387 -15.00000000
-2.24086928 0.02855224 -0.51738745 4 2 27073 2.30000000 2042577392 2042577392 -13.00000000
-2.62465215 0.03390041 -0.51022327 3 4 27074 2.67400000 2042577396 2042577396 -11.00000000
-3.14057255 0.04166058 -0.49746159 3 6 27076 3.18000000 2042577401 2042577401 -9.00000000
-3.95195246 0.05380350 -0.48528373 5 8 27078 3.98200000 2042577406 2042577406 -7.00000000
-5.18171215 0.07145050 -0.45338416 6 10 27079 5.20200000 2042577410 2042577410 -5.00000000
-7.65073490 0.10816693 -0.40099809 16 12 27081 7.66200000 2042577415 2042577415 -3.00000000
-10.14308834 0.14694542 2.71811771 42 15 27083 10.50200000 2042577422 2042577422 15.00000000
-1.94512928 0.03089611 -0.52126157 4 0 27091 2.01400000 2042577442 2042577442 -15.00000000
-2.23101354 0.03621601 -0.51513791 4 2 27093 2.29000000 2042577447 2042577447 -13.00000000
-2.61666584 0.04293312 -0.50869679 3 4 27094 2.66600000 2042577452 2042577452 -11.00000000
-3.16015911 0.05295393 -0.50059026 3 6 27096 3.20000000 2042577456 2042577456 -9.00000000
-3.95174074 0.06759806 -0.48528373 7 8 27098 3.98200000 2042577461 2042577461 -7.00000000
-5.18939972 0.08967531 -0.45408142 9 10 27099 5.21000000 2042577465 2042577465 -5.00000000
-7.63433504 0.13459067 -0.40016073 12 12 27101 7.64600000 2042577470 2042577470 -3.00000000
-10.15407085 0.18433110 2.72122335 42 15 27104 10.51400000 2042577477 2042577477 15.00000000
-1.96045482 0.03832724 -0.52540267 4 0 27112 2.03000000 2042577498 2042577498 -15.00000000
-2.23865914 0.04454793 -0.51693749 4 2 27114 2.29800000 2042577502 2042577502 -13.00000000
-2.62041664 0.05260220 -0.50946003 3 4 27115 2.67000000 2042577507 2042577507 -11.00000000
-3.16389370 0.06461681 -0.50121605 3 6 27117 3.20400000 2042577512 2042577512 -9.00000000
-3.95543575 0.08216392 -0.48577121 7 8 27119 3.98600000 2042577516 2042577516 -7.00000000
-5.18106842 0.10852791 -0.45338416 9 10 27120 5.20200000 2042577521 2042577521 -5.00000000
-7.62979698 0.16248596 -0.39995137 12 12 27122 7.64200000 2042577525 2042577525 -3.00000000
-10.15529728 0.21981610 2.72174096 42 15 27124 10.51600000 2042577532 2042577532 15.00000000
-1.95644641 0.04508127 -0.52436739 4 0 27132 2.02600000 2042577553 2042577553 -15.00000000
-2.24628282 0.05254433 -0.51873714 4 2 27134 2.30600000 2042577558 2042577558 -13.00000000
-2.62021708 0.06174884 -0.50946003 3 4 27135 2.67000000 2042577562 2042577562 -11.00000000
-3.15179992 0.07537709 -0.49933881 3 6 27137 3.19200000 2042577567 2042577567 -9.00000000
-3.95115566 0.09587415 -0.48528373 7 8 27139 3.98200000 2042577571 2042577571 -7.00000000
-5.17269087 0.12641783 -0.45268694 9 10 27140 5.19400000 2042577576 2042577576 -5.00000000
-7.63716984 0.18931590 -0.40037006 12 12 27142 7.65000000 2042577581 2042577581 -3.00000000
-10.14669800 0.25684011 2.71967053 42 15 27145 10.50800000 2042577588 2042577588 15.00000000
-1.93889654 0.05144907 -0.51970863 5 0 27152 2.00800000 2042577608 2042577608 -15.00000000
-2.25582600 0.06064685 -0.52098662 4 2 27154 2.31600000 2042577613 2042577613 -13.00000000
-2.61213541 0.07068231 -0.50793356 3 4 27155 2.66200000 2042577618 2042577618 -11.00000000
-3.15941620 0.08659495 -0.50059026 3 6 27157 3.20000000 2042577622 2042577622 -9.00000000
-3.95476580 0.10977583 -0.48577121 7 8 27159 3.98600000 2042577627 2042577627 -7.00000000
-5.19213390 0.14502944 -0.45443004 9 10 27160 5.21400000 2042577631 2042577631 -5.00000000
-7.64844131 0.21631223 -0.40099809 12 12 27162 7.66200000 2042577636 2042577636 -3.00000000
-10.13999748 0.29032049 2.71811771 42 15 27164 10.50200000 2042577643 2042577643 15.00000000
-1.94642913 0.05844871 -0.52177918 4 0 27172 2.01600000 2042577664 2042577664 -15.00000000
-2.23612213 0.06792907 -0.51648760 4 2 27174 2.29600000 2042577668 2042577668 -13.00000000
-2.62364674 0.08015966 -0.51022327 3 4 27175 2.67400000 2042577673 2042577673 -11.00000000
-3.15119696 0.09737879 -0.49933881 3 6 27177 3.19200000 2042577677 2042577677 -9.00000000
-3.94642186 0.12333184 -0.48479626 7 8 27179 3.97800000 2042577682 2042577682 -7.00000000
-5.19159603 0.16315249 -0.45443004 9 10 27180 5.21400000 2042577687 2042577687 -5.00000000
-7.65762091 0.24332611 -0.40152144 12 12 27182 7.67200000 2042577691 2042577691 -3.00000000
-10.13699150 0.32565191 2.71759987 45 15 27184 10.50000000 2042577698 2042577698 15.00000000
-1.94235170 0.06511320 -0.52074391 4 0 27192 2.01200000 2042577719 2042577719 -15.00000000
-2.23976660 0.07586612 -0.51738745 4 2 27194 2.30000000 2042577724 2042577724 -13.00000000
-2.61550260 0.08905019 -0.50869679 3 4 27195 2.66600000 2042577728 2042577728 -11.00000000
-3.15478635 0.10851374 -0.49996457 3 6 27197 3.19600000 2042577733 2042577733 -9.00000000
-3.93803167 0.13683096 -0.48382130 7 8 27199 3.97000000 2042577737 2042577737 -7.00000000
-5.19099522 0.18127353 -0.45443004 9 10 27200 5.21400000 2042577742 2042577742 -5.00000000
-7.65872097 0.27012512 -0.40162614 16 12 27202 7.67400000 2042577747 2042577747 -3.00000000
-10.14737701 0.36144724 2.72070575 42 15 27204 10.51200000 2042577753 2042577753 15.00000000
-1.94983470 0.07217874 -0.52281445 4 0 27212 2.02000000 2042577774 2042577774 -15.00000000
-2.22196174 0.08302899 -0.51333833 4 2 27214 2.28200000 2042577779 2042577779 -13.00000000
-2.62694693 0.09862138 -0.51098651 3 4 27215 2.67800000 2042577783 2042577783 -11.00000000
-3.16228414 0.11982452 -0.50121605 3 6 27217 3.20400000 2042577788 2042577788 -9.00000000
-3.94546461 0.15087985 -0.48479626 7 8 27219 3.97800000 2042577793 2042577793 -7.00000000
-5.20227623 0.19985129 -0.45547593 6 10 27220 5.22600000 2042577797 2042577797 -5.00000000
-7.66172266 0.29701212 -0.40183547 16 12 27222 7.67800000 2042577802 2042577802 -3.00000000
-10.14405346 0.39856094 2.72018814 47 15 27225 10.51000000 2042577809 2042577809 15.00000000
-1.94187713 0.07799384 -0.52074391 4 0 27230 2.01200000 2042577830 2042577830 -15.00000000
-2.23142576 0.09040350 -0.51558781 4 2 27232 2.29200000 2042577834 2042577834 -13.00000000
-2.61485434 0.10639478 -0.50869679 3 4 27233 2.66600000 2042577839 2042577839 -11.00000000
-3.15399718 0.12943453 -0.49996457 3 6 27235 3.19600000 2042577843 2042577843 -9.00000000
-3.95290494 0.16360247 -0.48577121 7 8 27237 3.98600000 2042577848 2042577848 -7.00000000
-5.19764137 0.21602823 -0.45512730 9 10 27238 5.22200000 2042577853 2042577853 -5.00000000
-7.65077448 0.32066244 -0.40131211 16 12 27240 7.66800000 2042577857 2042577857 -3.00000000
-10.13703632 0.42841247 2.71863532 45 15 27242 10.50400000 2042577864 2042577864 15.00000000
-1.94159305 0.08477178 -0.52074391 4 0 27250 2.01200000 2042577885 2042577885 -15.00000000
-2.24472451 0.09879185 -0.51873714 4 2 27252 2.30600000 2042577889 2042577889 -13.00000000
-2.60269904 0.11500169 -0.50640708 3 4 27253 2.65400000 2042577894 2042577894 -11.00000000
-3.15747309 0.14061902 -0.50059026 3 6 27255 3.20000000 2042577899 2042577899 -9.00000000
-3.95627594 0.17757772 -0.48625869 7 8 27257 3.99000000 2042577903 2042577903 -7.00000000
-5.19287491 0.23399070 -0.45477867 6 10 27258 5.21800000 2042577908 2042577908 -5.00000000
-7.66357470 0.34800088 -0.40204480 28 12 27260 7.68200000 2042577912 2042577912 -3.00000000
-10.13933849 0.46397132 2.71967053 42 15 27262 10.50800000 2042577919 2042577919 15.00000000
-1.94125319 0.09222632 -0.52074391 4 0 27272 2.01200000 2042577940 2042577940 -15.00000000
-2.24043560 0.10722391 -0.51783735 4 2 27274 2.30200000 2042577945 2042577945 -13.00000000
-2.62184834 0.12593640 -0.51022327 3 4 27275 2.67400000 2042577949 2042577949 -11.00000000
-3.16085601 0.15293270 -0.50121605 3 6 27277 3.20400000 2042577954 2042577954 -9.00000000
-3.96746135 0.19334713 -0.48772112 6 8 27279 4.00200000 2042577958 2042577958 -7.00000000
-5.18795824 0.25373349 -0.45443004 6 10 27280 5.21400000 2042577963 2042577963 -5.00000000
-7.65819263 0.37722775 -0.40183547 28 12 27282 7.67800000 2042577968 2042577968 -3.00000000
-10.12590504 0.50232577 2.71656466 42 15 27284 10.49600000 2042577975 2042577975 15.00000000
-1.94670749 0.09929723 -0.52229685 4 0 27292 2.01800000 2042577995 2042577995 -15.00000000
-2.22447824 0.11424422 -0.51423812 4 2 27294 2.28600000 2042578000 2042578000 -13.00000000
-2.62531400 0.13528967 -0.51098651 3 4 27295 2.67800000 2042578005 2042578005 -11.00000000
-3.15635729 0.16376053 -0.50059026 3 6 27297 3.20000000 2042578009 2042578009 -9.00000000
-3.95883274 0.20678079 -0.48674616 5 8 27299 3.99400000 2042578014 2042578014 -7.00000000
-5.19897890 0.27246693 -0.45547593 6 10 27300 5.22600000 2042578018 2042578018 -5.00000000
-7.63887882 0.40301052 -0.40089342 24 12 27302 7.66000000 2042578023 2042578023 -3.00000000
-10.13171291 0.53984684 2.71863532 45 15 27305 10.50400000 2042578030 2042578030 15.00000000
-1.95792294 0.10672278 -0.52540267 4 0 27312 2.03000000 2042578051 2042578051 -15.00000000
-2.23574090 0.12264887 -0.51693749 4 2 27314 2.29800000 2042578055 2042578055 -13.00000000
-2.62090516 0.14423715 -0.51022327 3 4 27315 2.67400000 2042578060 2042578060 -11.00000000
-3.15576649 0.17477727 -0.50059026 3 6 27317 3.20000000 2042578064 2042578064 -9.00000000
-3.95808673 0.22059843 -0.48674616 5 8 27319 3.99400000 2042578069 2042578069 -7.00000000
-5.20197439 0.29083553 -0.45582452 6 10 27320 5.23000000 2042578074 2042578074 -5.00000000
-7.65138388 0.43045801 -0.40162614 28 12 27322 7.67400000 2042578078 2042578078 -3.00000000
-10.12986660 0.57344186 2.71863532 45 15 27324 10.50400000 2042578085 2042578085 15.00000000
-1.94596684 0.11288528 -0.52229685 4 0 27332 2.01800000 2042578106 2042578106 -15.00000000
-2.24308085 0.13090646 -0.51873714 4 2 27334 2.30600000 2042578110 2042578110 -13.00000000
-2.61646581 0.15315548 -0.50946003 3 4 27335 2.67000000 2042578115 2042578115 -11.00000000
-3.16302514 0.18625636 -0.50184178 3 6 27337 3.20800000 2042578120 2042578120 -9.00000000
-3.95332932 0.23417863 -0.48625869 5 8 27339 3.99000000 2042578124 2042578124 -7.00000000
-5.18899441 0.30828306 -0.45477867 6 10 27340 5.21800000 2042578129 2042578129 -5.00000000
-7.64983511 0.45716372 -0.40162614 36 12 27342 7.67400000 2042578134 2042578134 -3.00000000
-10.12780380 0.60879821 2.71863532 45 15 27344 10.50400000 2042578140 2042578140 15.00000000
-1.93596137 0.11840847 -0.51970863 4 0 27350 2.00800000 2042578161 2042578161 -15.00000000
-2.23876834 0.13771336 -0.51783735 4 2 27352 2.30200000 2042578166 2042578166 -13.00000000
-2.61989093 0.16161634 -0.51022327 3 4 27353 2.67400000 2042578170 2042578170 -11.00000000
-3.17031074 0.19668162 -0.50309324 3 6 27355 3.21600000 2042578175 2042578175 -9.00000000
-3.96842408 0.24758606 -0.48820859 6 8 27357 4.00600000 2042578180 2042578180 -7.00000000
-5.19993114 0.32532969 -0.45582452 6 10 27358 5.23000000 2042578184 2042578184 -5.00000000
-7.65633440 0.48169571 -0.40204480 32 12 27360 7.68200000 2042578189 2042578189 -3.00000000
-10.11223316 0.64152366 2.71501184 40 15 27363 10.49000000 2042578196 2042578196 15.00000000
-1.93553627 0.12516551 -0.51970863 4 0 27370 2.00800000 2042578216 2042578216 -15.00000000
-2.24021864 0.14565371 -0.51828724 4 2 27372 2.30400000 2042578221 2042578221 -13.00000000
-2.61931086 0.17076048 -0.51022327 3 4 27373 2.67400000 2042578226 2042578226 -11.00000000
-3.14595103 0.20619652 -0.49933881 3 6 27375 3.19200000 2042578230 2042578230 -9.00000000
-3.96159315 0.26104537 -0.48747736 4 8 27377 4.00000000 2042578235 2042578235 -7.00000000
-5.20472813 0.34387290 -0.45634747 9 10 27378 5.23600000 2042578240 2042578240 -5.00000000
-7.64663458 0.50788891 -0.40162614 28 12 27380 7.67400000 2042578244 2042578244 -3.00000000
-10.10993195 0.67681801 2.71501184 40 15 27383 10.49000000 2042578251 2042578251 15.00000000
-1.94279706 0.13244662 -0.52177918 4 0 27390 2.01600000 2042578272 2042578272 -15.00000000
-2.23191977 0.15293975 -0.51648760 4 2 27392 2.29600000 2042578276 2042578276 -13.00000000
-2.63436794 0.18097900 -0.51327622 3 4 27393 2.69000000 2042578281 2042578281 -11.00000000
-3.16097760 0.21826530 -0.50184178 3 6 27395 3.20800000 2042578286 2042578286 -9.00000000
-3.96065784 0.27487233 -0.48747736 6 8 27397 4.00000000 2042578290 2042578290 -7.00000000
-5.20945883 0.36245355 -0.45687041 6 10 27398 5.24200000 2042578295 2042578295 -5.00000000
-7.63684559 0.53402025 -0.40120745 32 12 27400 7.66600000 2042578299 2042578299 -3.00000000
-10.12292480 0.71319032 2.71915293 42 15 27403 10.50600000 2042578306 2042578306 15.00000000
-1.95195746 0.13991804 -0.52436739 4 0 27410 2.02600000 2042578327 2042578327 -15.00000000
-2.23525977 0.16100970 -0.51738745 4 2 27412 2.30000000 2042578332 2042578332 -13.00000000
-2.62197113 0.18932520 -0.51098651 3 4 27413 2.67800000 2042578336 2042578336 -11.00000000
-3.14837527 0.22844011 -0.49996457 4 6 27415 3.19600000 2042578341 2042578341 -9.00000000
-3.95769453 0.28855157 -0.48723364 5 8 27417 3.99800000 2042578346 2042578346 -7.00000000
-5.20816183 0.38063574 -0.45687041 6 10 27418 5.24200000 2042578350 2042578350 -5.00000000
-7.64887810 0.56169850 -0.40194014 40 12 27420 7.68000000 2042578355 2042578355 -3.00000000
-10.12615299 0.74894905 2.72070575 42 15 27423 10.51200000 2042578362 2042578362 15.00000000
-1.93406856 0.14610229 -0.51970863 4 0 27432 2.00800000 2042578382 2042578382 -15.00000000
-2.24434090 0.17032862 -0.51963693 4 2 27434 2.31000000 2042578387 2042578387 -13.00000000
-2.62122488 0.19939142 -0.51098651 3 4 27435 2.67800000 2042578392 2042578392 -11.00000000
-3.17111039 0.24233350 -0.50371897 3 6 27437 3.22000000 2042578396 2042578396 -9.00000000
-3.97635007 0.30526537 -0.48967102 6 8 27439 4.01800000 2042578401 2042578401 -7.00000000
-5.21659470 0.40139508 -0.45774198 3 10 27440 5.25200000 2042578405 2042578405 -5.00000000
-7.65263891 0.59152567 -0.40225416 48 12 27442 7.68600000 2042578410 2042578410 -3.00000000
-10.11563587 0.78546000 2.71863532 45 15 27444 10.50400000 2042578417 2042578417 15.00000000
-1.93932426 0.15330930 -0.52126157 4 0 27452 2.01400000 2042578438 2042578438 -15.00000000
-2.23596215 0.17754479 -0.51783735 4 2 27454 2.30200000 2042578442 2042578442 -13.00000000
-2.61464167 0.20807277 -0.50984162 3 4 27455 2.67200000 2042578447 2042578447 -11.00000000
-3.16236877 0.25277171 -0.50246751 3 6 27457 3.21200000 2042578451 2042578451 -9.00000000
-3.96536660 0.31834927 -0.48845232 6 8 27459 4.00800000 2042578456 2042578456 -7.00000000
-5.19132996 0.41768450 -0.45565021 3 10 27460 5.22800000 2042578461 2042578461 -5.00000000
-7.65649986 0.61871737 -0.40256816 16 12 27462 7.69200000 2042578465 2042578465 -3.00000000
-10.10113621 0.82159072 2.71552944 45 15 27465 10.49200000 2042578472 2042578472 15.00000000
-1.93880522 0.15973948 -0.52126157 4 0 27471 2.01400000 2042578493 2042578493 -15.00000000
-2.23730302 0.18511921 -0.51828724 4 2 27473 2.30400000 2042578498 2042578498 -13.00000000
-2.61980700 0.21722877 -0.51098651 3 4 27474 2.67800000 2042578502 2042578502 -11.00000000
-3.15757608 0.26292926 -0.50184178 3 6 27476 3.20800000 2042578507 2042578507 -9.00000000
-3.97417998 0.33232424 -0.48967102 6 8 27478 4.01800000 2042578511 2042578511 -7.00000000
-5.20381451 0.43606186 -0.45687041 6 10 27479 5.24200000 2042578516 2042578516 -5.00000000
-7.65440607 0.64410383 -0.40256816 32 12 27481 7.69200000 2042578521 2042578521 -3.00000000
-10.11198044 0.85445887 2.71915293 47 15 27483 10.50600000 2042578528 2042578528 15.00000000
-1.94593489 0.16716760 -0.52333212 4 0 27491 2.02200000 2042578548 2042578548 -15.00000000
-2.22887707 0.19225785 -0.51648760 4 2 27493 2.29600000 2042578553 2042578553 -13.00000000
-2.61512089 0.22603416 -0.51022327 3 4 27494 2.67400000 2042578557 2042578557 -11.00000000
-3.16451097 0.27463281 -0.50309324 3 6 27496 3.21600000 2042578562 2042578562 -9.00000000
-3.95519733 0.34464377 -0.48747736 6 8 27498 4.00000000 2042578567 2042578567 -7.00000000
-5.18836641 0.45301080 -0.45565021 3 10 27499 5.22800000 2042578571 2042578571 -5.00000000
-7.64216280 0.66994667 -0.40204480 36 12 27501 7.68200000 2042578576 2042578576 -3.00000000
-10.11647797 0.89219427 2.72122335 42 15 27504 10.51400000 2042578583 2042578583 15.00000000
-1.94344556 0.17344791 -0.52281445 4 0 27510 2.02000000 2042578604 2042578604 -15.00000000
-2.22434545 0.19930020 -0.51558781 4 2 27512 2.29200000 2042578608 2042578608 -13.00000000
-2.60849071 0.23417833 -0.50907838 3 4 27513 2.66800000 2042578613 2042578613 -11.00000000
-5.59396029 0.50318432 0.49138409 8 5 27514 5.63800000 2042578615 2042578615 5.00000000
-3.16358280 0.28512520 -0.50309324 3 6 27515 3.21600000 2042578617 2042578617 -9.00000000
-3.95403266 0.35775781 -0.48747736 6 8 27517 4.00000000 2042578622 2042578622 -7.00000000
-5.22255230 0.47345144 -0.45878783 3 10 27518 5.26400000 2042578627 2042578627 -5.00000000
-7.63989925 0.69528532 -0.40204480 32 12 27520 7.68200000 2042578631 2042578631 -3.00000000
-7.60118151 0.69443709 -0.13323167 2 14 27522 7.63400000 2042578636 2042578636 -1.00000000
-10.11170101 0.92379594 2.72070575 45 15 27522 10.51200000 2042578638 2042578638 15.00000000
-1.94859910 0.18076608 -0.52436739 4 0 27530 2.02600000 2042578659 2042578659 -15.00000000
-2.23527837 0.20814750 -0.51828724 4 2 27532 2.30400000 2042578663 2042578663 -13.00000000
-2.61352158 0.24382935 -0.51022327 3 4 27533 2.67400000 2042578668 2042578668 -11.00000000
-5.56043005 0.51974106 0.48859510 8 5 27534 5.60600000 2042578670 2042578670 5.00000000
-3.16256833 0.29616642 -0.50309324 3 6 27535 3.21600000 2042578673 2042578673 -9.00000000
-3.95671272 0.37192932 -0.48796484 6 8 27537 4.00400000 2042578677 2042578677 -7.00000000
-5.20896626 0.49055782 -0.45774198 3 10 27538 5.25200000 2042578682 2042578682 -5.00000000
-7.10699463 0.67431188 -0.12461019 4 14 27542 7.14000000 2042578691 2042578691 -1.00000000
-10.10824776 0.96085095 2.72070575 47 15 27543 10.51200000 2042578693 2042578693 15.00000000
-1.93446302 0.18660836 -0.52074391 4 0 27551 2.01200000 2042578714 2042578714 -15.00000000
-2.23837972 0.21671440 -0.51918703 4 2 27553 2.30800000 2042578719 2042578719 -13.00000000
-2.61065626 0.25321722 -0.50984162 3 4 27554 2.67200000 2042578723 2042578723 -11.00000000
-5.54063988 0.53838331 0.48702630 11 5 27555 5.58800000 2042578726 2042578726 5.00000000
-3.16539383 0.30813861 -0.50371897 3 6 27556 3.22000000 2042578728 2042578728 -9.00000000
-3.95927429 0.38681495 -0.48845232 6 8 27558 4.00800000 2042578733 2042578733 -7.00000000
-5.21308184 0.51022857 -0.45826489 6 10 27559 5.25800000 2042578737 2042578737 -5.00000000
-7.29682064 0.71674532 -0.38425058 3 12 27561 7.34200000 2042578742 2042578742 -3.00000000
-6.51542091 0.64228708 -0.11427835 4 14 27563 6.54800000 2042578746 2042578746 -1.00000000
-10.09714222 0.99537134 2.71863532 47 15 27563 10.50400000 2042578749 2042578749 15.00000000
-1.93956661 0.19393638 -0.52229685 4 0 27571 2.01800000 2042578769 2042578769 -15.00000000
-5.84187269 0.58515596 0.10248053 5 1 27572 5.87200000 2042578772 2042578772 1.00000000
-2.23760962 0.22452648 -0.51918703 4 2 27573 2.30800000 2042578774 2042578774 -13.00000000
-6.27174473 0.63042575 0.33034456 2 3 27574 6.31200000 2042578776 2042578776 3.00000000
-2.62733722 0.26409575 -0.51327622 3 4 27574 2.69000000 2042578779 2042578779 -11.00000000
-5.53278017 0.55712163 0.48650336 11 5 27575 5.58200000 2042578781 2042578781 5.00000000
-3.15643740 0.31839302 -0.50246751 3 6 27576 3.21200000 2042578783 2042578783 -9.00000000
-3.96974993 0.40183255 -0.48991477 6 8 27578 4.02000000 2042578788 2042578788 -7.00000000
-5.19739342 0.52701551 -0.45704472 6 10 27579 5.24400000 2042578792 2042578792 -5.00000000
-7.27440453 0.74018979 -0.38320386 3 12 27581 7.32200000 2042578797 2042578797 -3.00000000
-6.25054502 0.63821393 -0.10967092 4 14 27583 6.28400000 2042578802 2042578802 -1.00000000
-10.08573818 1.03158629 2.71656466 42 15 27584 10.49600000 2042578804 2042578804 15.00000000
-1.94848573 0.20170014 -0.52488500 4 0 27591 2.02800000 2042578825 2042578825 -15.00000000
-5.56132984 0.57666963 0.09759386 2 1 27592 5.59200000 2042578827 2042578827 1.00000000
-2.22905898 0.23153050 -0.51738745 4 2 27593 2.30000000 2042578829 2042578829 -13.00000000
-5.78479099 0.60188198 0.30480462 4 3 27594 5.82400000 2042578832 2042578832 3.00000000
-2.60882497 0.27143672 -0.50984162 3 4 27594 2.67200000 2042578834 2042578834 -11.00000000
-5.53278303 0.57663780 0.48667768 14 5 27595 5.58400000 2042578836 2042578836 5.00000000
-3.14744782 0.32858866 -0.50121605 3 6 27596 3.20400000 2042578839 2042578839 -9.00000000
-3.96240020 0.41506666 -0.48918355 6 8 27598 4.01400000 2042578843 2042578843 -7.00000000
-4.95377779 0.51978892 -0.43577871 3 10 27599 5.00000000 2042578848 2042578848 -5.00000000
-5.12261963 0.53931302 -0.26994887 2 12 27601 5.15800000 2042578852 2042578852 -3.00000000
-5.10879326 0.53966045 -0.08967046 2 14 27603 5.13800000 2042578857 2042578857 -1.00000000
-10.06305027 1.06299675 2.71138835 47 15 27603 10.47600000 2042578859 2042578859 15.00000000
-1.94776988 0.20850039 -0.52488500 4 0 27611 2.02800000 2042578880 2042578880 -15.00000000
-5.15168190 0.55237484 0.09043837 9 1 27612 5.18200000 2042578882 2042578882 1.00000000
-2.23598766 0.24014233 -0.51918703 4 2 27613 2.30800000 2042578885 2042578885 -13.00000000
-5.44308281 0.58554143 0.28690571 4 3 27614 5.48200000 2042578887 2042578887 3.00000000
-2.62152553 0.28201148 -0.51251298 3 4 27614 2.68600000 2042578889 2042578889 -11.00000000
-5.52875566 0.59573382 0.48650336 23 5 27615 5.58200000 2042578892 2042578892 5.00000000
-3.16984940 0.34211692 -0.50497043 3 6 27616 3.22800000 2042578894 2042578894 -9.00000000
-3.96882129 0.42975029 -0.49015850 4 8 27618 4.02200000 2042578898 2042578898 -7.00000000
-4.77960634 0.51838738 -0.42061362 5 10 27619 4.82600000 2042578903 2042578903 -5.00000000
-4.89832544 0.53299350 -0.25822562 2 12 27621 4.93400000 2042578908 2042578908 -3.00000000
-4.93592024 0.53882766 -0.08666865 2 14 27623 4.96600000 2042578912 2042578912 -1.00000000
-10.09365463 1.10365212 2.72070575 47 15 27624 10.51200000 2042578915 2042578915 15.00000000
-1.94322729 0.21453430 -0.52384973 4 0 27630 2.02400000 2042578935 2042578935 -15.00000000
-4.78808212 0.52945507 0.08408570 2 1 27631 4.81800000 2042578938 2042578938 1.00000000
-2.23905277 0.24798486 -0.52008682 4 2 27632 2.31200000 2042578940 2042578940 -13.00000000
-4.91109419 0.54479277 0.25895831 6 3 27633 4.94800000 2042578942 2042578942 3.00000000
-2.60886812 0.28940445 -0.51022327 3 4 27633 2.67400000 2042578945 2042578945 -11.00000000
-5.49704695 0.61076432 0.48388869 11 5 27634 5.55200000 2042578947 2042578947 5.00000000
-3.16477084 0.35218969 -0.50434470 3 6 27635 3.22400000 2042578949 2042578949 -9.00000000
-3.95159173 0.44114709 -0.48820859 4 8 27637 4.00600000 2042578954 2042578954 -7.00000000
-4.74221992 0.53024906 -0.41747600 5 10 27638 4.79000000 2042578958 2042578958 -5.00000000
-4.66232347 0.52296335 -0.24587432 2 12 27640 4.69800000 2042578963 2042578963 -3.00000000
-4.63802004 0.52187675 -0.08146783 1 14 27642 4.66800000 2042578968 2042578968 -1.00000000
-10.08245850 1.13449275 2.71863532 42 15 27642 10.50400000 2042578970 2042578970 15.00000000
-1.92903066 0.21978527 -0.52022630 4 0 27650 2.01000000 2042578991 2042578991 -15.00000000
-4.58553791 0.52326679 0.08056031 6 1 27651 4.61600000 2042578993 2042578993 1.00000000
-2.24591804 0.25668421 -0.52188647 4 2 27652 2.32000000 2042578995 2042578995 -13.00000000
-4.80002594 0.54943997 0.25320137 6 3 27653 4.83800000 2042578998 2042578998 3.00000000
-2.61564422 0.29940242 -0.51174974 3 4 27653 2.68200000 2042579000 2042579000 -11.00000000
-3.15959740 0.36278397 -0.50371897 3 6 27655 3.22000000 2042579004 2042579004 -9.00000000
-3.95594406 0.45561939 -0.48893979 4 8 27657 4.01200000 2042579009 2042579009 -7.00000000
-4.72846460 0.54542941 -0.41643015 5 10 27658 4.77800000 2042579014 2042579014 -5.00000000
-4.59698057 0.53188884 -0.24252482 4 12 27660 4.63400000 2042579018 2042579018 -3.00000000
-4.58253860 0.53183889 -0.08052541 1 14 27662 4.61400000 2042579023 2042579023 -1.00000000
-10.06692314 1.16834390 2.71552944 45 15 27662 10.49200000 2042579025 2042579025 15.00000000
-1.93784499 0.22764446 -0.52281445 4 0 27670 2.02000000 2042579046 2042579046 -15.00000000
-4.56779528 0.53740090 0.08028107 8 1 27671 4.60000000 2042579048 2042579048 1.00000000
-2.22565484 0.26224202 -0.51738745 4 2 27672 2.30000000 2042579051 2042579051 -13.00000000
-4.74849129 0.56034029 0.25058457 6 3 27673 4.78800000 2042579053 2042579053 3.00000000
-2.61848259 0.30899104 -0.51251298 3 4 27673 2.68600000 2042579055 2042579055 -11.00000000
-5.45703363 0.64491677 0.48075107 2 5 27674 5.51600000 2042579057 2042579057 5.00000000
-3.15438843 0.37334645 -0.50309324 3 6 27675 3.21600000 2042579060 2042579060 -9.00000000
-3.96418571 0.47059551 -0.49015850 4 8 27677 4.02200000 2042579064 2042579064 -7.00000000
-4.71070433 0.56004983 -0.41503564 8 10 27678 4.76200000 2042579069 2042579069 -5.00000000
-4.60897875 0.54958743 -0.24325752 4 12 27680 4.64800000 2042579074 2042579074 -3.00000000
-4.50520325 0.53880799 -0.07919902 5 14 27682 4.53800000 2042579078 2042579078 -1.00000000
-10.07045555 1.20439458 2.71759987 45 15 27682 10.50000000 2042579080 2042579080 15.00000000
-1.94470990 0.23533577 -0.52488500 4 0 27690 2.02800000 2042579101 2042579101 -15.00000000
-4.54405499 0.55069578 0.07989711 6 1 27691 4.57800000 2042579104 2042579104 1.00000000
-2.22472596 0.27000940 -0.51738745 4 2 27692 2.30000000 2042579106 2042579106 -13.00000000
-4.69693995 0.57088763 0.24796776 4 3 27693 4.73800000 2042579108 2042579108 3.00000000
-2.62128592 0.31860313 -0.51327622 3 4 27693 2.69000000 2042579110 2042579110 -11.00000000
-5.35981512 0.65240592 0.47238412 5 5 27694 5.42000000 2042579113 2042579113 5.00000000
-3.15306592 0.38435507 -0.50309324 3 6 27695 3.21600000 2042579115 2042579115 -9.00000000
-3.95660758 0.48370755 -0.48942727 4 8 27697 4.01600000 2042579120 2042579120 -7.00000000
-4.72058630 0.57794255 -0.41608152 5 10 27698 4.77400000 2042579124 2042579124 -5.00000000
-4.59712029 0.56445539 -0.24273416 4 12 27700 4.63800000 2042579129 2042579129 -3.00000000
-4.46757030 0.55013174 -0.07857073 5 14 27702 4.50200000 2042579133 2042579133 -1.00000000
-10.06980896 1.24176943 2.71863532 45 15 27703 10.50400000 2042579136 2042579136 15.00000000
-1.95154476 0.24307775 -0.52695560 4 0 27710 2.03600000 2042579157 2042579157 -15.00000000
-4.50043440 0.56135637 0.07916412 4 1 27711 4.53600000 2042579159 2042579159 1.00000000
-2.23150468 0.27873966 -0.51918703 4 2 27712 2.30800000 2042579161 2042579161 -13.00000000
-4.61762762 0.57761139 0.24388556 1 3 27713 4.66000000 2042579163 2042579163 3.00000000
-2.61626172 0.32726383 -0.51251298 3 4 27713 2.68600000 2042579166 2042579166 -11.00000000
-5.26656628 0.65971959 0.46436581 2 5 27714 5.32800000 2042579168 2042579168 5.00000000
-3.15170503 0.39535898 -0.50309324 3 6 27715 3.21600000 2042579170 2042579170 -9.00000000
-3.96474290 0.49875459 -0.49064597 4 8 27717 4.02600000 2042579175 2042579175 -7.00000000
-4.72249365 0.59491497 -0.41643015 8 10 27718 4.77800000 2042579180 2042579180 -5.00000000
-4.43388128 0.56170195 -0.07801226 1 14 27722 4.47000000 2042579189 2042579189 -1.00000000
-10.06946850 1.27564085 2.71967053 45 15 27722 10.50800000 2042579191 2042579191 15.00000000
-1.93152249 0.24743374 -0.52177918 4 0 27730 2.01600000 2042579212 2042579212 -15.00000000
-4.43497705 0.56892043 0.07804716 4 1 27731 4.47200000 2042579214 2042579214 1.00000000
-2.23438382 0.28702396 -0.52008682 4 2 27732 2.31200000 2042579216 2042579216 -13.00000000
-4.56407881 0.58710110 0.24116409 3 3 27733 4.60800000 2042579219 2042579219 3.00000000
-2.61705041 0.33664477 -0.51289457 3 4 27733 2.68800000 2042579221 2042579221 -11.00000000
-5.20890141 0.67097217 0.45948508 7 5 27734 5.27200000 2042579223 2042579223 5.00000000
-3.15226483 0.40661079 -0.50340611 1 6 27735 3.21800000 2042579226 2042579226 -9.00000000
-6.37083244 0.82290435 0.78873837 2 7 27736 6.47200000 2042579228 2042579228 7.00000000
-3.96297789 0.51259106 -0.49064597 4 8 27737 4.02600000 2042579230 2042579230 -7.00000000
-4.72038841 0.61139596 -0.41643015 8 10 27738 4.77800000 2042579235 2042579235 -5.00000000
-4.37240505 0.56942838 -0.07696512 1 14 27742 4.41000000 2042579244 2042579244 -1.00000000
-10.05729198 1.30978417 2.71759987 45 15 27742 10.50000000 2042579246 2042579246 15.00000000
-1.93069136 0.25383753 -0.52177918 4 0 27749 2.01600000 2042579268 2042579268 -15.00000000
-4.38350153 0.57709891 0.07717454 3 1 27750 4.42200000 2042579270 2042579270 1.00000000
-2.24887586 0.29646945 -0.52368605 4 2 27751 2.32800000 2042579273 2042579273 -13.00000000
-4.50478840 0.59386653 0.23812860 1 3 27751 4.55000000 2042579275 2042579275 3.00000000
-2.61591983 0.34532136 -0.51289457 3 4 27752 2.68800000 2042579277 2042579277 -11.00000000
-5.14541626 0.68014795 0.45408142 7 5 27753 5.21000000 2042579280 2042579280 5.00000000
-3.16656566 0.41913548 -0.50590909 1 6 27754 3.23400000 2042579282 2042579282 -9.00000000
-5.67537355 0.75221622 0.70294237 2 7 27755 5.76800000 2042579284 2042579284 7.00000000
-3.95338488 0.52468532 -0.48967102 4 8 27756 4.01800000 2042579286 2042579286 -7.00000000
-4.71438456 0.62652099 -0.41608152 5 10 27757 4.77400000 2042579291 2042579291 -5.00000000
-4.31499481 0.57650971 -0.07598778 1 14 27761 4.35400000 2042579300 2042579300 -1.00000000
-10.04523373 1.34210479 2.71552944 42 15 27761 10.49200000 2042579303 2042579303 15.00000000
-1.93745136 0.26160938 -0.52384973 4 0 27769 2.02400000 2042579323 2042579323 -15.00000000
-4.34975386 0.58810979 0.07661606 3 1 27770 4.39000000 2042579326 2042579326 1.00000000
-2.22465396 0.30118039 -0.51828724 4 2 27771 2.30400000 2042579328 2042579328 -13.00000000
-4.45706081 0.60420257 0.23572114 3 3 27772 4.50400000 2042579330 2042579330 3.00000000
-2.61469841 0.35445052 -0.51289457 3 4 27772 2.68800000 2042579333 2042579333 -11.00000000
-5.09365368 0.69140500 0.44972363 10 5 27773 5.16000000 2042579335 2042579335 5.00000000
-3.15138149 0.42832401 -0.50371897 3 6 27774 3.22000000 2042579337 2042579337 -9.00000000
-5.57043171 0.75810248 0.69026798 2 7 27775 5.66400000 2042579339 2042579339 7.00000000
-3.95349622 0.53875005 -0.48991477 6 8 27776 4.02000000 2042579342 2042579342 -7.00000000
-4.70427275 0.64189601 -0.41538426 8 10 27777 4.76600000 2042579346 2042579346 -5.00000000
-4.28323889 0.58749235 -0.07546420 3 14 27781 4.32400000 2042579356 2042579356 -1.00000000
-10.04024696 1.37891340 2.71552944 47 15 27782 10.49200000 2042579358 2042579358 15.00000000
-1.94222009 0.26950532 -0.52540267 5 0 27790 2.03000000 2042579379 2042579379 -15.00000000
-4.30399418 0.59799421 0.07584815 5 1 27791 4.34600000 2042579381 2042579381 1.00000000
-2.23125553 0.31040621 -0.52008682 4 2 27792 2.31200000 2042579383 2042579383 -13.00000000
-4.39557838 0.61150086 0.23258099 5 3 27792 4.44400000 2042579386 2042579386 3.00000000
-2.61143732 0.36376065 -0.51251298 3 4 27793 2.68600000 2042579388 2042579388 -11.00000000
-5.07332563 0.70759255 0.44815484 10 5 27794 5.14200000 2042579390 2042579390 5.00000000
-3.15761614 0.44096437 -0.50497043 3 6 27795 3.22800000 2042579392 2042579392 -9.00000000
-5.58334303 0.78071320 0.69221789 2 7 27796 5.68000000 2042579395 2042579395 7.00000000
-3.96525645 0.55516338 -0.49162093 6 8 27797 4.03400000 2042579397 2042579397 -7.00000000
-4.72161961 0.66189969 -0.41712737 5 10 27798 4.78600000 2042579402 2042579402 -5.00000000
-4.48372221 0.63014609 -0.23729123 2 12 27800 4.53400000 2042579406 2042579406 -3.00000000
-4.25135469 0.59900230 -0.07494064 5 14 27802 4.29400000 2042579411 2042579411 -1.00000000
-10.03728580 1.41422153 2.71604705 47 15 27802 10.49400000 2042579413 2042579413 15.00000000
-1.94700527 0.27709988 -0.52695560 4 0 27810 2.03600000 2042579434 2042579434 -15.00000000
-4.27020550 0.60850066 0.07528968 5 1 27811 4.31400000 2042579436 2042579436 1.00000000
-2.22630000 0.31764233 -0.51918703 4 2 27812 2.30800000 2042579438 2042579438 -13.00000000
-4.33805418 0.61894161 0.22965017 5 3 27812 4.38800000 2042579441 2042579441 3.00000000
-2.60820818 0.37259641 -0.51213133 3 4 27813 2.68400000 2042579443 2042579443 -11.00000000
-5.05701876 0.72332269 0.44693464 10 5 27814 5.12800000 2042579445 2042579445 5.00000000
-3.15605760 0.45198384 -0.50497043 3 6 27815 3.22800000 2042579448 2042579448 -9.00000000
-5.59237385 0.80188853 0.69368029 2 7 27816 5.69200000 2042579450 2042579450 7.00000000
-3.93971515 0.56561613 -0.48869607 6 8 27817 4.01000000 2042579452 2042579452 -7.00000000
-4.71139145 0.67724323 -0.41643015 5 10 27818 4.77800000 2042579457 2042579457 -5.00000000
-4.34113979 0.62556779 -0.22985952 2 12 27820 4.39200000 2042579462 2042579462 -3.00000000
-4.21757126 0.60926419 -0.07438216 5 14 27822 4.26200000 2042579466 2042579466 -1.00000000
-10.04184818 1.45063066 2.71863532 42 15 27822 10.50400000 2042579468 2042579468 15.00000000
-1.93842900 0.28244069 -0.52488500 5 0 27829 2.02800000 2042579489 2042579489 -15.00000000
-4.23452520 0.61775047 0.07469630 5 1 27830 4.28000000 2042579491 2042579491 1.00000000
-2.23294759 0.32614985 -0.52098662 4 2 27831 2.31600000 2042579494 2042579494 -13.00000000
-4.32796240 0.63292444 0.22923149 5 3 27832 4.38000000 2042579496 2042579496 3.00000000
-2.60307288 0.38067532 -0.51136810 3 4 27832 2.68000000 2042579498 2042579498 -11.00000000
-5.03290701 0.73691326 0.44501722 10 5 27833 5.10600000 2042579501 2042579501 5.00000000
-3.15063238 0.46187416 -0.50434470 3 6 27834 3.22400000 2042579503 2042579503 -9.00000000
-5.57397175 0.81812286 0.69173038 2 7 27835 5.67600000 2042579505 2042579505 7.00000000
-3.94960165 0.58040929 -0.49015850 6 8 27836 4.02200000 2042579508 2042579508 -7.00000000
-4.71700478 0.69402319 -0.41712737 5 10 27837 4.78600000 2042579512 2042579512 -5.00000000
-4.31335497 0.63617164 -0.22849879 4 12 27839 4.36600000 2042579517 2042579517 -3.00000000
-4.19376755 0.62002969 -0.07399821 5 14 27841 4.24000000 2042579521 2042579521 -1.00000000
-10.02907848 1.48454285 2.71656466 45 15 27842 10.49600000 2042579524 2042579524 15.00000000
-1.93169928 0.28834972 -0.52333212 5 0 27849 2.02200000 2042579544 2042579544 -15.00000000
-4.21849918 0.63045889 0.07445197 7 1 27850 4.26600000 2042579547 2042579547 1.00000000
-2.23565006 0.33451906 -0.52188647 4 2 27851 2.32000000 2042579549 2042579549 -13.00000000
-4.31201315 0.64520407 0.22849879 5 3 27851 4.36600000 2042579551 2042579551 3.00000000
-2.60949469 0.39092287 -0.51289457 3 4 27852 2.68800000 2042579554 2042579554 -11.00000000
-4.98498631 0.74767983 0.44100806 9 5 27853 5.06000000 2042579556 2042579556 5.00000000
-3.15290785 0.47345579 -0.50497043 3 6 27854 3.22800000 2042579558 2042579558 -9.00000000
-5.58285999 0.83934546 0.69319284 2 7 27855 5.68800000 2042579561 2042579561 7.00000000
-3.95932961 0.59596521 -0.49162093 6 8 27856 4.03400000 2042579563 2042579563 -7.00000000
-4.74410534 0.71493787 -0.41974205 5 10 27857 4.81600000 2042579568 2042579568 -5.00000000
-4.27358580 0.64555615 -0.22651002 4 12 27859 4.32800000 2042579572 2042579572 -3.00000000
-4.18762350 0.63406610 -0.07392839 7 14 27861 4.23600000 2042579577 2042579577 -1.00000000
-10.01810551 1.51867318 2.71501184 42 15 27862 10.49000000 2042579579 2042579579 15.00000000
-1.94595838 0.29742590 -0.52747321 5 0 27869 2.03800000 2042579600 2042579600 -15.00000000
-4.20441246 0.64336550 0.07424254 7 1 27870 4.25400000 2042579602 2042579602 1.00000000
-2.22291112 0.34055027 -0.51918703 4 2 27871 2.30800000 2042579604 2042579604 -13.00000000
-4.29394054 0.65783226 0.22766142 7 3 27871 4.35000000 2042579607 2042579607 3.00000000
-2.60035205 0.39883876 -0.51136810 3 4 27872 2.68000000 2042579609 2042579609 -11.00000000
-4.96659136 0.76265687 0.43961358 9 5 27873 5.04400000 2042579611 2042579611 5.00000000
-3.14342642 0.48325798 -0.50371897 3 6 27874 3.22000000 2042579614 2042579614 -9.00000000
-5.61128807 0.86365986 0.69709265 2 7 27875 5.72000000 2042579616 2042579616 7.00000000
-3.94937730 0.60857296 -0.49064597 6 8 27876 4.02600000 2042579618 2042579618 -7.00000000
-5.24370003 0.80895650 -0.46419150 9 10 27877 5.32600000 2042579623 2042579623 -5.00000000
-4.23775148 0.65528131 -0.22473060 6 12 27879 4.29400000 2042579627 2042579627 -3.00000000
-4.16364765 0.64531082 -0.07354444 10 14 27881 4.21400000 2042579632 2042579632 -1.00000000
-10.00892544 1.55304122 2.71397662 42 15 27882 10.48600000 2042579634 2042579634 15.00000000
-1.94109094 0.30361965 -0.52643794 5 0 27889 2.03400000 2042579655 2042579655 -15.00000000
-4.19028759 0.65618151 0.07403311 7 1 27890 4.24200000 2042579657 2042579657 1.00000000
-2.21785855 0.34770396 -0.51828724 4 2 27891 2.30400000 2042579660 2042579660 -13.00000000
-4.27385998 0.67003286 0.22671936 15 3 27891 4.33200000 2042579662 2042579662 3.00000000
-2.61639953 0.41065297 -0.51480269 3 4 27892 2.69800000 2042579664 2042579664 -11.00000000
-4.95208979 0.77813321 0.43856770 9 5 27893 5.03200000 2042579667 2042579667 5.00000000
-3.15733123 0.49668342 -0.50622195 3 6 27894 3.23600000 2042579669 2042579669 -9.00000000
-5.60823917 0.88324159 0.69709265 2 7 27895 5.72000000 2042579671 2042579671 7.00000000
-3.95703340 0.62390101 -0.49186468 4 8 27896 4.03600000 2042579674 2042579674 -7.00000000
-5.22903633 0.82539165 -0.46314561 9 10 27897 5.31400000 2042579678 2042579678 -5.00000000
-4.21571112 0.66694885 -0.22368388 8 12 27899 4.27400000 2042579683 2042579683 -3.00000000
-4.16926956 0.66109341 -0.07368406 15 14 27901 4.22200000 2042579687 2042579687 -1.00000000
-10.01679897 1.59008956 2.71759987 45 15 27902 10.50000000 2042579690 2042579690 15.00000000
-1.95141029 0.31256530 -0.52954376 5 0 27910 2.04600000 2042579710 2042579710 -15.00000000
-4.18982887 0.67185187 0.07406801 7 1 27911 4.24400000 2042579713 2042579713 1.00000000
-2.22426558 0.35706601 -0.52008682 4 2 27912 2.31200000 2042579715 2042579715 -13.00000000
-4.26743126 0.68505967 0.22651002 14 3 27912 4.32800000 2042579717 2042579717 3.00000000
-2.60324645 0.41837069 -0.51251298 3 4 27913 2.68600000 2042579720 2042579720 -11.00000000
-4.94527006 0.79564536 0.43821907 9 5 27914 5.02800000 2042579722 2042579722 5.00000000
-3.15548968 0.50825226 -0.50622195 3 6 27915 3.23600000 2042579724 2042579724 -9.00000000
-5.60496426 0.90379089 0.69709265 2 7 27916 5.72000000 2042579726 2042579726 7.00000000
-3.94296169 0.63650191 -0.49040225 4 8 27917 4.02400000 2042579729 2042579729 -7.00000000
-5.24761152 0.84804791 -0.46506304 9 10 27918 5.33600000 2042579733 2042579733 -5.00000000
-4.20929527 0.68175709 -0.22347453 8 12 27920 4.27000000 2042579738 2042579738 -3.00000000
-4.13721085 0.67156404 -0.07316048 19 14 27922 4.19200000 2042579743 2042579743 -1.00000000
-10.00737381 1.62442601 2.71656466 45 15 27922 10.49600000 2042579745 2042579745 15.00000000
-1.93505573 0.31687751 -0.52540267 5 0 27930 2.03000000 2042579766 2042579766 -15.00000000
-4.19929838 0.68841404 0.07427744 7 1 27931 4.25600000 2042579768 2042579768 1.00000000
-2.22300577 0.36482796 -0.52008682 4 2 27932 2.31200000 2042579770 2042579770 -13.00000000
-4.27683926 0.70189232 0.22713806 5 3 27932 4.34000000 2042579773 2042579773 3.00000000
-2.60177016 0.42745516 -0.51251298 3 4 27933 2.68600000 2042579775 2042579775 -11.00000000
-4.92280293 0.80966920 0.43647596 9 5 27934 5.00800000 2042579777 2042579777 5.00000000
-3.13810325 0.51669645 -0.50371897 3 6 27935 3.22000000 2042579779 2042579779 -9.00000000
-5.60177517 0.92335039 0.69709265 2 7 27936 5.72000000 2042579782 2042579782 7.00000000
-3.94659162 0.65123111 -0.49113345 6 8 27937 4.03000000 2042579784 2042579784 -7.00000000
-5.23282480 0.86441201 -0.46401718 9 10 27938 5.32400000 2042579789 2042579789 -5.00000000
-4.20688963 0.69644612 -0.22347453 8 12 27940 4.27000000 2042579793 2042579793 -3.00000000
-4.12497759 0.68436509 -0.07298596 26 14 27942 4.18200000 2042579798 2042579798 -1.00000000
-9.99754143 1.66046083 2.71552944 45 15 27943 10.49200000 2042579800 2042579800 15.00000000
-1.92631638 0.32235482 -0.52333212 4 0 27950 2.02200000 2042579821 2042579821 -15.00000000
-4.19686937 0.70306814 0.07427744 7 1 27951 4.25600000 2042579823 2042579823 1.00000000
-2.22556233 0.37323010 -0.52098662 4 2 27952 2.31600000 2042579826 2042579826 -13.00000000
-4.26832914 0.71657097 0.22682403 7 3 27953 4.33400000 2042579828 2042579828 3.00000000
-2.60026240 0.43653443 -0.51251298 3 4 27953 2.68600000 2042579830 2042579830 -11.00000000
-4.91208744 0.82552725 0.43577871 9 5 27954 5.00000000 2042579832 2042579832 5.00000000
-3.14407253 0.52895826 -0.50497043 3 6 27955 3.22800000 2042579835 2042579835 -9.00000000
-7.16453695 1.20664644 0.89208359 2 7 27956 7.32000000 2042579837 2042579837 7.00000000
-3.93646455 0.66368324 -0.49015850 6 8 27957 4.02200000 2042579839 2042579839 -7.00000000
-5.22388172 0.88167793 -0.46349424 9 10 27958 5.31800000 2042579844 2042579844 -5.00000000
-4.19852543 0.71012741 -0.22316052 14 12 27960 4.26400000 2042579849 2042579849 -3.00000000
-4.12650681 0.69942814 -0.07305577 31 14 27962 4.18600000 2042579853 2042579853 -1.00000000
-9.98245716 1.69199061 2.71294117 42 15 27962 10.48200000 2042579856 2042579856 15.00000000
-1.92708361 0.32940245 -0.52384973 4 0 27970 2.02400000 2042579876 2042579876 -15.00000000
-4.19044781 0.71703911 0.07420763 5 1 27971 4.25200000 2042579879 2042579879 1.00000000
-2.23192906 0.38231254 -0.52278626 4 2 27972 2.32400000 2042579881 2042579881 -13.00000000
-4.30320358 0.73787928 0.22881280 13 3 27973 4.37200000 2042579883 2042579883 3.00000000
-2.61033273 0.44759917 -0.51480269 3 4 27973 2.69800000 2042579885 2042579885 -11.00000000
-4.89543009 0.84030914 0.43455854 9 5 27974 4.98600000 2042579888 2042579888 5.00000000
-3.13831329 0.53926086 -0.50434470 3 6 27975 3.22400000 2042579890 2042579890 -9.00000000
-3.95759940 0.68146229 -0.49308336 6 8 27977 4.04600000 2042579895 2042579895 -7.00000000
-5.23451662 0.90227640 -0.46471441 9 10 27978 5.33200000 2042579899 2042579899 -5.00000000
-4.19405270 0.72443873 -0.22305584 26 12 27980 4.26200000 2042579904 2042579904 -3.00000000
-4.12206984 0.71348697 -0.07302087 36 14 27982 4.18400000 2042579909 2042579909 -1.00000000
-9.97618866 1.72856677 2.71294117 42 15 27983 10.48200000 2042579911 2042579911 15.00000000
-1.93930268 0.33811373 -0.52747321 4 0 27989 2.03800000 2042579932 2042579932 -15.00000000
-4.21168613 0.73505688 0.07462649 5 1 27990 4.27600000 2042579934 2042579934 1.00000000
-2.21913099 0.38769948 -0.52008682 4 2 27991 2.31200000 2042579936 2042579936 -13.00000000
-4.27515697 0.74767220 0.22745207 7 3 27992 4.34600000 2042579938 2042579938 3.00000000
-2.60496640 0.45557645 -0.51403946 3 4 27992 2.69400000 2042579941 2042579941 -11.00000000
-4.88672876 0.85550761 0.43403560 9 5 27993 4.98000000 2042579943 2042579943 5.00000000
-3.13261628 0.54898292 -0.50371897 3 6 27994 3.22000000 2042579945 2042579945 -9.00000000
-3.95727301 0.69492579 -0.49332711 4 8 27996 4.04800000 2042579950 2042579950 -7.00000000
-5.23345804 0.91997463 -0.46488872 9 10 27997 5.33400000 2042579955 2042579955 -5.00000000
-4.16802359 0.73418498 -0.22179978 22 12 27999 4.23800000 2042579959 2042579959 -3.00000000
-4.12361956 0.72784752 -0.07309068 45 14 28001 4.18800000 2042579964 2042579964 -1.00000000
-9.96880627 1.75956357 2.71242356 42 15 28001 10.48000000 2042579966 2042579966 15.00000000
-1.94191468 0.34555802 -0.52850848 4 0 28009 2.04200000 2042579987 2042579987 -15.00000000
-4.19334459 0.74694848 0.07434725 5 1 28010 4.26000000 2042579989 2042579989 1.00000000
-4.12089777 0.73478574 -0.96638972 5 2 28011 4.29600000 2042579991 2042579991 -13.00000000
-4.26662254 0.76153791 0.22713806 7 3 28012 4.34000000 2042579994 2042579994 3.00000000
-2.60336018 0.46466672 -0.51403946 3 4 28012 2.69400000 2042579996 2042579996 -11.00000000
-4.88371277 0.87256026 0.43403560 9 5 28013 4.98000000 2042579998 2042579998 5.00000000
-3.12679195 0.55921894 -0.50309324 3 6 28014 3.21600000 2042580001 2042580001 -9.00000000
-3.94309950 0.70663399 -0.49186468 4 8 28016 4.03600000 2042580005 2042580005 -7.00000000
-5.23413706 0.93894082 -0.46523735 9 10 28017 5.33800000 2042580010 2042580010 -5.00000000
-4.15953827 0.74766958 -0.22148576 26 12 28019 4.23200000 2042580014 2042580014 -3.00000000
-4.10137367 0.73869264 -0.07274163 56 14 28021 4.16800000 2042580019 2042580019 -1.00000000
-9.96228981 1.79608917 2.71242356 42 15 28022 10.48000000 2042580021 2042580021 15.00000000
-1.92739117 0.34991884 -0.52488500 4 0 28029 2.02800000 2042580042 2042580042 -15.00000000
-4.19464684 0.76229650 0.07441706 5 1 28030 4.26400000 2042580044 2042580044 1.00000000
-4.11639023 0.74881709 -0.96593982 5 2 28031 4.29400000 2042580047 2042580047 -13.00000000
-4.26786804 0.77714217 0.22734739 7 3 28032 4.34400000 2042580049 2042580049 3.00000000
-2.59785938 0.47304788 -0.51327622 3 4 28032 2.69000000 2042580051 2042580051 -11.00000000
-4.86103630 0.88602960 0.43229249 9 5 28033 4.96000000 2042580054 2042580054 5.00000000
-3.13259387 0.57154828 -0.50434470 3 6 28034 3.22400000 2042580056 2042580056 -9.00000000
-3.94060874 0.72039372 -0.49186468 4 8 28036 4.03600000 2042580061 2042580061 -7.00000000
-5.25042582 0.96079201 -0.46698046 9 10 28037 5.35800000 2042580065 2042580065 -5.00000000
-4.16869020 0.76434577 -0.22211380 28 12 28039 4.24400000 2042580070 2042580070 -3.00000000
-9.77146530 1.79339945 2.29360104 5 13 28040 10.19600000 2042580072 2042580072 13.00000000
-4.10073709 0.75336593 -0.07277653 68 14 28041 4.17000000 2042580074 2042580074 -1.00000000
-9.94677925 1.82737017 2.70983529 42 15 28041 10.47000000 2042580077 2042580077 15.00000000
-1.92805755 0.35699627 -0.52540267 4 0 28049 2.03000000 2042580097 2042580097 -15.00000000
-4.19982529 0.77839160 0.07455668 5 1 28050 4.27200000 2042580100 2042580100 1.00000000
-4.11566734 0.76353687 -0.96638972 5 2 28051 4.29600000 2042580102 2042580102 -13.00000000
-4.26316595 0.79167044 0.22724272 5 3 28052 4.34200000 2042580104 2042580104 3.00000000
-2.59812260 0.48247167 -0.51365781 3 4 28052 2.69200000 2042580107 2042580107 -11.00000000
-4.84811974 0.90117180 0.43142092 9 5 28053 4.95000000 2042580109 2042580109 5.00000000
-3.13446379 0.58320230 -0.50497043 3 6 28054 3.22800000 2042580111 2042580111 -9.00000000
-3.93416715 0.73341697 -0.49137720 4 8 28056 4.03200000 2042580116 2042580116 -7.00000000
-5.23137140 0.97618973 -0.46558598 9 10 28057 5.34200000 2042580120 2042580120 -5.00000000
