# .PCD v0.7 - Point Cloud Data file format
VERSION 0.7
FIELDS x y z intensity laser_id azimuth distance_m adjustedtime timestamp vertical_angle
SIZE 4 4 4 1 1 2 8 8 4 8
TYPE F F F U U U F U U F
COUNT 1 1 1 1 1 1 1 1 1 1
WIDTH 522
HEIGHT 1
VIEWPOINT 0 0 0 1 0 0 0
POINTS 522
DATA ascii
-1.09951413 2.83325005 -0.59074467 2 4 33879 3.09600000 2042996099 2042996099 -11.00000000
-4.16375208 10.73479366 1.00734603 12 5 33880 11.55800000 2042996101 2042996101 5.00000000
-1.36092842 3.51049995 -0.59632820 2 6 33881 3.81200000 2042996103 2042996103 -9.00000000
-4.16126442 10.73949814 1.41417181 19 7 33882 11.60400000 2042996106 2042996106 7.00000000
-4.14576912 10.70505238 -1.40954077 2 8 33883 11.56600000 2042996108 2042996108 -7.00000000
-4.16568947 10.76206779 1.82778025 18 9 33884 11.68400000 2042996110 2042996110 9.00000000
-4.15050316 10.72283268 -1.00595152 4 10 33884 11.54200000 2042996113 2042996113 -5.00000000
-4.06104755 10.49716663 2.18781590 50 11 33885 11.46600000 2042996115 2042996115 11.00000000
-4.14464998 10.71882439 -0.60228217 8 12 33886 11.50800000 2042996117 2042996117 -3.00000000
-3.86721897 10.00652885 2.47671103 66 13 33887 11.01000000 2042996120 2042996120 13.00000000
-4.13947439 10.71655941 -0.20052814 19 14 33888 11.49000000 2042996122 2042996122 -1.00000000
-3.36976933 8.72389317 2.50588608 40 15 33888 9.68200000 2042996124 2042996124 15.00000000
-0.78373712 2.03745222 -0.58493102 4 0 33896 2.26000000 2042996145 2042996145 -15.00000000
-4.12335348 10.72491455 0.20056306 13 1 33897 11.49200000 2042996147 2042996147 1.00000000
-0.91778833 2.38842797 -0.59072149 3 2 33898 2.62600000 2042996149 2042996149 -13.00000000
-4.12147474 10.72561741 0.60217750 21 3 33898 11.50600000 2042996152 2042996152 3.00000000
-1.08961761 2.83707070 -0.59074467 2 4 33899 3.09600000 2042996154 2042996154 -11.00000000
-4.11911488 10.73066139 1.00560296 17 5 33900 11.53800000 2042996156 2042996156 5.00000000
-1.36140275 3.54842663 -0.60195982 2 6 33901 3.84800000 2042996159 2042996159 -9.00000000
-4.12090826 10.74654388 1.41319692 21 7 33902 11.59600000 2042996161 2042996161 7.00000000
-4.09985113 10.69721508 -1.40661597 2 8 33903 11.54200000 2042996163 2042996163 -7.00000000
-4.11608505 10.74518394 1.82246149 15 9 33904 11.65000000 2042996166 2042996166 9.00000000
-2.57644582 6.72590208 -0.63013601 4 10 33904 7.23000000 2042996168 2042996168 -5.00000000
-4.02859259 10.52227974 2.19010568 50 11 33905 11.47800000 2042996170 2042996170 11.00000000
-4.09507418 10.70151615 -0.60050279 8 12 33906 11.47400000 2042996173 2042996173 -3.00000000
-3.85593486 10.08185196 2.49200773 66 13 33907 11.07800000 2042996175 2042996175 13.00000000
-4.09275913 10.70666122 -0.20007439 19 14 33908 11.46400000 2042996177 2042996177 -1.00000000
-3.33791709 8.73199368 2.50485063 38 15 33908 9.67800000 2042996179 2042996179 15.00000000
-0.77180934 2.02753735 -0.58130759 4 0 33916 2.24600000 2042996200 2042996200 -15.00000000
-4.07593632 10.71307659 0.20007439 13 1 33917 11.46400000 2042996202 2042996202 1.00000000
-0.90944558 2.39161730 -0.59072149 3 2 33918 2.62600000 2042996205 2042996205 -13.00000000
-4.07858801 10.73131657 0.60165417 18 3 33919 11.49600000 2042996207 2042996207 3.00000000
-1.08110273 2.84452724 -0.59150791 4 4 33919 3.10000000 2042996209 2042996209 -11.00000000
-4.07738781 10.73379898 1.00455713 17 5 33920 11.52600000 2042996212 2042996212 5.00000000
-1.33358288 3.51252842 -0.59507668 2 6 33921 3.80400000 2042996214 2042996214 -9.00000000
-4.07914495 10.74972725 1.41173446 19 7 33922 11.58400000 2042996216 2042996216 7.00000000
-4.05966997 10.70403671 -1.40564096 2 8 33923 11.53400000 2042996219 2042996219 -7.00000000
-4.07272434 10.73845768 1.81901991 18 9 33923 11.62800000 2042996221 2042996221 9.00000000
-2.54871511 6.72367620 -0.62909013 4 10 33924 7.21800000 2042996223 2042996223 -5.00000000
-3.98557854 10.51975441 2.18667102 50 11 33925 11.46000000 2042996226 2042996226 11.00000000
-4.06547403 10.73629093 -0.60165417 8 12 33926 11.49600000 2042996228 2042996228 -3.00000000
-3.82623744 10.10983086 2.49560690 56 13 33927 11.09400000 2042996230 2042996230 13.00000000
-4.04970121 10.70591927 -0.19979514 14 14 33928 11.44800000 2042996232 2042996232 -1.00000000
-3.30179143 8.73332691 2.50174499 36 15 33929 9.66600000 2042996235 2042996235 15.00000000
-0.76949400 2.04287410 -0.58493102 4 0 33936 2.26000000 2042996255 2042996255 -15.00000000
-4.03147030 10.70852470 0.19972534 13 1 33937 11.44400000 2042996258 2042996258 1.00000000
-0.89971918 2.39112949 -0.58982164 3 2 33938 2.62200000 2042996260 2042996260 -13.00000000
-4.03946257 10.73543549 0.60113078 23 3 33938 11.48600000 2042996262 2042996262 3.00000000
-1.06978464 2.84460855 -0.59074467 4 4 33939 3.09600000 2042996265 2042996265 -11.00000000
-4.03428698 10.73304653 1.00316262 17 5 33940 11.51000000 2042996267 2042996267 5.00000000
-1.33312368 3.54859829 -0.60039550 2 6 33941 3.83800000 2042996269 2042996269 -9.00000000
-4.03461885 10.74531651 1.40929711 19 7 33942 11.56400000 2042996272 2042996272 7.00000000
-1.75551975 4.67791986 -0.61349028 2 8 33943 5.03400000 2042996274 2042996274 -7.00000000
-4.03056383 10.74591446 1.81776845 18 9 33944 11.62000000 2042996276 2042996276 9.00000000
-2.52522945 6.73253202 -0.62909013 4 10 33944 7.21800000 2042996279 2042996279 -5.00000000
-3.94538760 10.52441120 2.18476295 46 11 33945 11.45000000 2042996281 2042996281 11.00000000
-4.01255608 10.70927048 -0.59935135 8 12 33946 11.45200000 2042996283 2042996283 -3.00000000
-3.79160762 10.12495041 2.49605680 54 13 33947 11.09600000 2042996285 2042996285 13.00000000
-4.01160479 10.71811771 -0.19976024 8 14 33948 11.44600000 2042996288 2042996288 -1.00000000
-3.27196312 8.74660873 2.50226259 38 15 33949 9.66800000 2042996290 2042996290 15.00000000
-0.76271540 2.04541469 -0.58493102 4 0 33955 2.26000000 2042996311 2042996311 -15.00000000
-3.99174714 10.71059132 0.19951591 13 1 33956 11.43200000 2042996313 2042996313 1.00000000
-0.89042449 2.39044762 -0.58892184 3 2 33957 2.61800000 2042996315 2042996315 -13.00000000
-3.99826288 10.73379898 0.60029340 21 3 33957 11.47000000 2042996318 2042996318 3.00000000
-1.06445563 2.85917974 -0.59303439 4 4 33958 3.10800000 2042996320 2042996320 -11.00000000
-3.99380898 10.73329449 1.00194240 17 5 33959 11.49600000 2042996322 2042996322 5.00000000
-1.31997156 3.54929662 -0.59976971 2 6 33960 3.83400000 2042996325 2042996325 -9.00000000
-3.98928118 10.73258686 1.40588474 21 7 33961 11.53600000 2042996327 2042996327 7.00000000
-3.97911239 10.71095276 -1.40295982 2 8 33962 11.51200000 2042996329 2042996329 -7.00000000
-3.99334526 10.74926472 1.81620419 18 9 33962 11.61000000 2042996332 2042996332 9.00000000
-3.98215389 10.72487354 -1.00089657 4 10 33963 11.48400000 2042996334 2042996334 -5.00000000
-3.91183186 10.54111767 2.18552613 43 11 33964 11.45400000 2042996336 2042996336 11.00000000
-3.97215891 10.70940971 -0.59861869 8 12 33965 11.43800000 2042996338 2042996338 -3.00000000
-3.75462437 10.12833214 2.49380732 55 13 33966 11.08600000 2042996341 2042996341 13.00000000
-3.96631360 10.70510960 -0.19927157 19 14 33967 11.41800000 2042996343 2042996343 -1.00000000
-3.24159861 8.75378799 2.50122714 38 15 33968 9.66400000 2042996345 2042996345 15.00000000
-0.75557089 2.04806447 -0.58493102 4 0 33975 2.26000000 2042996366 2042996366 -15.00000000
-3.95295215 10.72070789 0.19944610 33 1 33976 11.42800000 2042996368 2042996368 1.00000000
-0.88207483 2.39354110 -0.58892184 3 2 33977 2.61800000 2042996371 2042996371 -13.00000000
-3.95386434 10.72894955 0.59924668 13 3 33977 11.45000000 2042996373 2042996373 3.00000000
-1.05446875 2.86287785 -0.59303439 2 4 33978 3.10800000 2042996375 2042996375 -11.00000000
-3.95150042 10.73408222 1.00072229 12 5 33979 11.48200000 2042996378 2042996378 5.00000000
-1.31166673 3.56500602 -0.60164696 2 6 33980 3.84600000 2042996380 2042996380 -9.00000000
-3.94631219 10.73154163 1.40393484 21 7 33981 11.52000000 2042996382 2042996382 7.00000000
-1.71952891 4.67858171 -0.61202782 2 8 33982 5.02200000 2042996385 2042996385 -7.00000000
-3.94762158 10.74088955 1.81244969 21 9 33982 11.58600000 2042996387 2042996387 9.00000000
-2.50132823 6.80941105 -0.63466811 4 10 33983 7.28200000 2042996389 2042996389 -5.00000000
-3.88651514 10.58603859 2.19201374 53 11 33984 11.48800000 2042996391 2042996391 11.00000000
-3.93131185 10.71383476 -0.59809530 8 12 33985 11.42800000 2042996394 2042996394 -3.00000000
-3.71455026 10.12856960 2.49065804 54 13 33986 11.07200000 2042996396 2042996396 13.00000000
-3.92203975 10.70011425 -0.19892253 6 14 33987 11.39800000 2042996398 2042996398 -1.00000000
-3.21168685 8.76686382 2.50174499 38 15 33988 9.66600000 2042996401 2042996401 15.00000000
-0.74938327 2.05444980 -0.58596629 4 0 33996 2.26400000 2042996421 2042996421 -15.00000000
-0.87596476 2.40408182 -0.59072149 3 2 33998 2.62600000 2042996426 2042996426 -13.00000000
-3.90972781 10.73023319 0.59851402 10 3 33998 11.43600000 2042996428 2042996428 3.00000000
-1.03993797 2.85565495 -0.59074467 2 4 33999 3.09600000 2042996431 2042996431 -11.00000000
-3.90940595 10.74100399 1.00002503 12 5 34000 11.47400000 2042996433 2042996433 5.00000000
-1.29453981 3.55865121 -0.59976971 2 6 34001 3.83400000 2042996435 2042996435 -9.00000000
-3.91034389 10.75526142 1.40515351 17 7 34002 11.53000000 2042996437 2042996437 7.00000000
-1.70779324 4.69977856 -0.61397773 2 8 34003 5.03800000 2042996440 2042996440 -7.00000000
-3.90620375 10.74971581 1.81151116 12 9 34003 11.58000000 2042996442 2042996442 9.00000000
-2.47227287 6.80729675 -0.63362223 4 10 34004 7.27000000 2042996444 2042996444 -5.00000000
-3.86979485 10.66111183 2.20460725 59 11 34005 11.55400000 2042996447 2042996447 11.00000000
-3.91653824 10.79576302 -0.60186350 4 12 34006 11.50000000 2042996449 2042996449 -3.00000000
-3.67740226 10.14211655 2.49065804 54 13 34007 11.07200000 2042996451 2042996451 13.00000000
-3.90050960 10.76329803 -0.19983006 6 14 34008 11.45000000 2042996454 2042996454 -1.00000000
-3.17448330 8.75985813 2.49656844 38 15 34008 9.64600000 2042996456 2042996456 15.00000000
-0.73761773 2.04433298 -0.58234286 4 0 34016 2.25000000 2042996477 2042996477 -15.00000000
-3.89309478 10.79574776 0.20031872 6 1 34017 11.47800000 2042996479 2042996479 1.00000000
-0.86624610 2.40345836 -0.58982164 3 2 34018 2.62200000 2042996481 2042996481 -13.00000000
-3.89662790 10.81145763 0.60228217 7 3 34018 11.50800000 2042996484 2042996484 3.00000000
-1.02996349 2.85926771 -0.59074467 2 4 34019 3.09600000 2042996486 2042996486 -11.00000000
-3.89753509 10.82581997 1.00664878 51 5 34020 11.55000000 2042996488 2042996488 5.00000000
-1.28478515 3.57058334 -0.60102123 2 6 34021 3.84200000 2042996490 2042996490 -9.00000000
-3.89293051 10.82488441 1.41246569 46 7 34022 11.59000000 2042996493 2042996493 7.00000000
-1.69943488 4.72812796 -0.61690259 2 8 34023 5.06200000 2042996495 2042996495 -7.00000000
-3.87533808 10.78187561 1.81463981 37 9 34023 11.60000000 2042996497 2042996497 9.00000000
-2.44580150 6.80838490 -0.63292503 4 10 34024 7.26200000 2042996500 2042996500 -5.00000000
-3.83985448 10.69488049 2.20880485 62 11 34025 11.57600000 2042996502 2042996502 11.00000000
-3.92065406 10.92592144 -0.60835314 4 12 34026 11.62400000 2042996504 2042996504 -3.00000000
-3.63934565 10.14755344 2.48885846 51 13 34027 11.06400000 2042996507 2042996507 13.00000000
-3.91014695 10.90861702 -0.20227338 8 14 34028 11.59000000 2042996509 2042996509 -1.00000000
-3.13974929 8.76416016 2.49449801 36 15 34029 9.63800000 2042996511 2042996511 15.00000000
-0.73502237 2.05963135 -0.58596629 4 0 34036 2.26400000 2042996532 2042996532 -15.00000000
-3.89569426 10.92228031 0.20241301 6 1 34037 11.59800000 2042996534 2042996534 1.00000000
-0.86046857 2.41380978 -0.59162128 3 2 34038 2.63000000 2042996537 2042996537 -13.00000000
-3.88915062 10.91597462 0.60730642 23 3 34039 11.60400000 2042996539 2042996539 3.00000000
-1.02261209 2.87024307 -0.59227115 4 4 34039 3.10400000 2042996541 2042996541 -11.00000000
-3.88645601 10.91443634 1.01362133 46 5 34040 11.63000000 2042996543 2042996543 5.00000000
-1.26237893 3.54713082 -0.59632820 2 6 34041 3.81200000 2042996546 2042996546 -9.00000000
-3.88372660 10.91883087 1.42294645 42 7 34042 11.67600000 2042996548 2042996548 7.00000000
-1.69355905 4.76395845 -0.62080246 2 8 34043 5.09400000 2042996550 2042996550 -7.00000000
-3.87473226 10.89956760 1.83216047 34 9 34043 11.71200000 2042996553 2042996553 9.00000000
-2.43135953 6.84316444 -0.63536537 4 10 34044 7.29000000 2042996555 2042996555 -5.00000000
-3.79330158 10.68231773 2.20346236 62 11 34045 11.54800000 2042996557 2042996557 11.00000000
-3.90921211 11.01482964 -0.61254001 8 12 34046 11.70400000 2042996560 2042996560 -3.00000000
-3.51334834 9.90490532 2.42632198 102 13 34047 10.78600000 2042996562 2042996562 13.00000000
-3.89877176 10.99759007 -0.20366958 6 14 34048 11.67000000 2042996564 2042996564 -1.00000000
-3.11066914 8.77452374 2.49449801 36 15 34048 9.63800000 2042996567 2042996567 15.00000000
-0.72782844 2.06218457 -0.58596629 4 0 34056 2.26400000 2042996587 2042996587 -15.00000000
-3.89013982 11.02821636 0.20412335 10 1 34057 11.69600000 2042996590 2042996590 1.00000000
-0.84685403 2.40209579 -0.58802205 3 2 34058 2.61400000 2042996592 2042996592 -13.00000000
-3.84504938 10.91252995 0.60636437 28 3 34059 11.58600000 2042996594 2042996594 3.00000000
-1.01258683 2.87379527 -0.59227115 2 4 34059 3.10400000 2042996596 2042996596 -11.00000000
-3.86289334 10.96928024 1.01745617 12 5 34060 11.67400000 2042996599 2042996599 5.00000000
-1.25392425 3.56269574 -0.59820539 2 6 34061 3.82400000 2042996601 2042996601 -9.00000000
-3.87852502 11.02595139 1.43513334 36 7 34062 11.77600000 2042996603 2042996603 7.00000000
-1.67691946 4.76984072 -0.62080246 2 8 34063 5.09400000 2042996606 2042996606 -7.00000000
-3.86815429 11.00874424 1.84811676 31 9 34064 11.81400000 2042996608 2042996608 9.00000000
-2.41670418 6.87792635 -0.63780570 4 10 34064 7.31800000 2042996610 2042996610 -5.00000000
-3.74558210 10.66585636 2.19735646 62 11 34065 11.51600000 2042996613 2042996613 11.00000000
-3.90579557 11.12828922 -0.61808765 8 12 34066 11.81000000 2042996615 2042996615 -3.00000000
-3.56647921 10.16719723 2.48750877 54 13 34067 11.05800000 2042996617 2042996617 13.00000000
-3.90931678 11.15077686 -0.20625255 6 14 34068 11.81800000 2042996620 2042996620 -1.00000000
-3.07593274 8.77857304 2.49242735 36 15 34069 9.63000000 2042996622 2042996622 15.00000000
-0.72417057 2.07370591 -0.58855450 4 0 34075 2.27400000 2042996643 2042996643 -15.00000000
-3.89176679 11.15056038 0.20614782 10 1 34076 11.81200000 2042996645 2042996645 1.00000000
-0.84530216 2.42329097 -0.59252107 3 2 34077 2.63400000 2042996647 2042996647 -13.00000000
-3.79569125 10.88750172 0.60427094 26 3 34078 11.54600000 2042996649 2042996649 3.00000000
-1.00692916 2.88826013 -0.59456080 2 4 34078 3.11600000 2042996652 2042996652 -11.00000000
-3.81207442 10.94063759 1.01362133 4 5 34079 11.63000000 2042996654 2042996654 5.00000000
-1.24730015 3.58175826 -0.60070837 2 6 34080 3.84000000 2042996656 2042996656 -9.00000000
-3.87587047 11.13624191 1.44780779 40 7 34081 11.88000000 2042996659 2042996659 7.00000000
-1.63631010 4.70412922 -0.61154038 2 8 34082 5.01800000 2042996661 2042996661 -7.00000000
-3.86729741 11.11785984 1.86438596 37 9 34082 11.91800000 2042996663 2042996663 9.00000000
-2.38734055 6.86708355 -0.63606262 4 10 34083 7.29800000 2042996666 2042996666 -5.00000000
-3.71019244 10.67821884 2.19735646 62 11 34084 11.51600000 2042996668 2042996668 11.00000000
-3.91080308 11.26193142 -0.62478667 4 12 34085 11.93800000 2042996670 2042996670 -3.00000000
-3.53018808 10.17160416 2.48570919 51 13 34086 11.05000000 2042996673 2042996673 13.00000000
-3.89984155 11.24302864 -0.20771854 8 14 34087 11.90200000 2042996675 2042996675 -1.00000000
-3.04833889 8.78819275 2.49242735 36 15 34087 9.63000000 2042996677 2042996677 15.00000000
-0.71377486 2.06709099 -0.58596629 4 0 34095 2.26400000 2042996698 2042996698 -15.00000000
-3.89130926 11.27560425 0.20820720 6 1 34096 11.93000000 2042996700 2042996700 1.00000000
-0.83683813 2.42622685 -0.59252107 3 2 34097 2.63400000 2042996702 2042996702 -13.00000000
-3.75440907 10.89124393 0.60374761 28 3 34098 11.53600000 2042996705 2042996705 3.00000000
-0.99300224 2.88062096 -0.59227115 2 4 34098 3.10400000 2042996707 2042996707 -11.00000000
-3.75114679 10.88794708 1.00752044 4 5 34099 11.56000000 2042996709 2042996709 5.00000000
-1.23478985 3.58609033 -0.60070837 2 6 34100 3.84000000 2042996712 2042996712 -9.00000000
-3.87379360 11.25669575 1.46170092 38 7 34101 11.99400000 2042996714 2042996714 7.00000000
-1.62891853 4.73609257 -0.61495268 2 8 34102 5.04600000 2042996716 2042996716 -7.00000000
-2.36983204 6.89421654 -0.63780570 4 10 34103 7.31800000 2042996721 2042996721 -5.00000000
-3.67162013 10.68739128 2.19659305 62 11 34104 11.51200000 2042996723 2042996723 11.00000000
-3.49339604 10.18017769 2.48480940 51 13 34106 11.04600000 2042996728 2042996728 13.00000000
-3.01360250 8.79199696 2.49035692 38 15 34108 9.62200000 2042996732 2042996732 15.00000000
-0.70182687 2.05689478 -0.58234286 4 0 34116 2.25000000 2042996753 2042996753 -15.00000000
-0.82919729 2.43296671 -0.59342086 3 2 34118 2.63800000 2042996758 2042996758 -13.00000000
-3.70995760 10.89169693 0.60301489 26 3 34119 11.52200000 2042996760 2042996760 3.00000000
-0.98243755 2.88424110 -0.59227115 2 4 34119 3.10400000 2042996762 2042996762 -11.00000000
-3.70543647 10.88464832 1.00595152 4 5 34120 11.54200000 2042996765 2042996765 5.00000000
-1.22418296 3.59807229 -0.60195982 2 6 34121 3.84800000 2042996767 2042996767 -9.00000000
-1.61921382 4.76458549 -0.61787754 2 8 34123 5.07000000 2042996772 2042996772 -7.00000000
-2.34454775 6.90285635 -0.63780570 4 10 34124 7.31800000 2042996776 2042996776 -5.00000000
-3.62358928 10.67474937 2.19125056 59 11 34125 11.48400000 2042996778 2042996778 11.00000000
-3.45793772 10.19845009 2.48615909 54 13 34127 11.05200000 2042996783 2042996783 13.00000000
-2.97917414 8.79148483 2.48725104 38 15 34128 9.61000000 2042996788 2042996788 15.00000000
-0.69834745 2.07031512 -0.58544868 4 0 34136 2.26200000 2042996808 2042996808 -15.00000000
-0.81696630 2.42476606 -0.59072149 3 2 34138 2.62600000 2042996813 2042996813 -13.00000000
-0.98113501 2.91370130 -0.59761375 2 4 34139 3.13200000 2042996818 2042996818 -11.00000000
-3.67568088 10.92206478 1.00821757 12 5 34140 11.56800000 2042996820 2042996820 5.00000000
-1.21161592 3.60232353 -0.60195982 2 6 34141 3.84800000 2042996822 2042996822 -9.00000000
-1.61015856 4.79278946 -0.62080246 2 8 34143 5.09400000 2042996827 2042996827 -7.00000000
-3.58005953 10.66872025 2.18743443 59 11 34145 11.46400000 2042996834 2042996834 11.00000000
-3.42355609 10.21415424 2.48705888 52 13 34147 11.05600000 2042996838 2042996838 13.00000000
-2.94877172 8.80784035 2.48880386 38 15 34149 9.61600000 2042996843 2042996843 15.00000000
-0.69673359 2.08715844 -0.58958977 4 0 34154 2.27800000 2042996864 2042996864 -15.00000000
-0.81057745 2.43101788 -0.59162128 3 2 34156 2.63000000 2042996868 2042996868 -13.00000000
-3.68815398 11.06764889 0.61138862 2 3 34157 11.68200000 2042996871 2042996871 3.00000000
-0.97197652 2.91676927 -0.59761375 2 4 34157 3.13200000 2042996873 2042996873 -11.00000000
-3.68353033 11.06020927 1.01989651 12 5 34158 11.70200000 2042996875 2042996875 5.00000000
-1.19031131 3.57612371 -0.59695393 2 6 34159 3.81600000 2042996878 2042996878 -9.00000000
-1.58757854 4.77521944 -0.61787754 2 8 34161 5.07000000 2042996882 2042996882 -7.00000000
-3.54281282 10.66873550 2.18514466 59 11 34163 11.45200000 2042996889 2042996889 11.00000000
-3.38347483 10.20081329 2.48121023 51 13 34165 11.03000000 2042996894 2042996894 13.00000000
-2.92384100 8.82021809 2.48983932 40 15 34166 9.62000000 2042996898 2042996898 15.00000000
-0.68641728 2.08040500 -0.58700162 4 0 34174 2.26800000 2042996919 2042996919 -15.00000000
-0.79964685 2.42642927 -0.58982164 3 2 34176 2.62200000 2042996924 2042996924 -13.00000000
-3.68573713 11.19048214 0.61745960 2 3 34177 11.79800000 2042996926 2042996926 3.00000000
-0.96178919 2.92014432 -0.59761375 2 4 34177 3.13200000 2042996928 2042996928 -11.00000000
-3.68165469 11.18465710 1.03018093 8 5 34178 11.82000000 2042996931 2042996931 5.00000000
-1.18893254 3.61403298 -0.60258555 2 6 34179 3.85200000 2042996933 2042996933 -9.00000000
-1.56842148 4.77318859 -0.61690259 2 8 34181 5.06200000 2042996937 2042996937 -7.00000000
-3.50310159 10.67357635 2.18361807 59 11 34183 11.44400000 2042996944 2042996944 11.00000000
-3.34966779 10.21811676 2.48255992 53 13 34185 11.03600000 2042996949 2042996949 13.00000000
-2.89089251 8.82903957 2.48932147 40 15 34187 9.61800000 2042996954 2042996954 15.00000000
-0.67759043 2.07923317 -0.58596629 4 0 34195 2.26400000 2042996974 2042996974 -15.00000000
-0.79677987 2.44787431 -0.59432071 3 2 34197 2.64200000 2042996979 2042996979 -13.00000000
-3.68362164 11.32357121 0.62405396 2 3 34198 11.92400000 2042996981 2042996981 3.00000000
-0.94622123 2.90871429 -0.59456080 2 4 34198 3.11600000 2042996984 2042996984 -11.00000000
-1.16957426 3.59957933 -0.59945685 2 6 34200 3.83200000 2042996988 2042996988 -9.00000000
-1.56072056 4.80911541 -0.62080246 2 8 34202 5.09400000 2042996993 2042996993 -7.00000000
-3.46153593 10.67887402 2.18209171 59 11 34204 11.43600000 2042997000 2042997000 11.00000000
-3.31279445 10.23217964 2.48300982 50 13 34206 11.03800000 2042997004 2042997004 13.00000000
-2.86005592 8.83907700 2.48932147 38 15 34207 9.61800000 2042997009 2042997009 15.00000000
-0.66914409 2.07790804 -0.58493102 4 0 34215 2.26000000 2042997030 2042997030 -15.00000000
-0.78823030 2.45064068 -0.59432071 3 2 34217 2.64200000 2042997034 2042997034 -13.00000000
-0.93846536 2.91947579 -0.59608728 4 4 34218 3.12400000 2042997039 2042997039 -11.00000000
-1.16424859 3.62620974 -0.60321128 2 6 34220 3.85600000 2042997043 2042997043 -9.00000000
-1.54392421 4.81453419 -0.62080246 2 8 34222 5.09400000 2042997048 2042997048 -7.00000000
-3.42064548 10.67967319 2.17980194 53 11 34224 11.42400000 2042997055 2042997055 11.00000000
-3.27408838 10.23440075 2.48076034 47 13 34226 11.02800000 2042997060 2042997060 13.00000000
-2.82447791 8.83428574 2.48518038 40 15 34227 9.60200000 2042997064 2042997064 15.00000000
-0.66422975 2.08759475 -0.58700162 4 0 34235 2.26800000 2042997085 2042997085 -15.00000000
-0.77612990 2.44223404 -0.59162128 3 2 34237 2.63000000 2042997090 2042997090 -13.00000000
-0.92589164 2.91524911 -0.59456080 4 4 34238 3.11600000 2042997094 2042997094 -11.00000000
-1.15636206 3.64531493 -0.60571426 2 6 34240 3.87200000 2042997099 2042997099 -9.00000000
-1.52351153 4.80853987 -0.61934000 2 8 34242 5.08200000 2042997103 2042997103 -7.00000000
-3.37860703 10.67657471 2.17674899 56 11 34244 11.40800000 2042997110 2042997110 11.00000000
-3.23951817 10.24948311 2.48166013 50 13 34246 11.03200000 2042997115 2042997115 13.00000000
-2.79536891 8.84961796 2.48673344 42 15 34247 9.60800000 2042997119 2042997119 15.00000000
-0.65809721 2.09358644 -0.58803689 4 0 34255 2.27200000 2042997140 2042997140 -15.00000000
-0.76993507 2.45236540 -0.59342086 3 2 34257 2.63800000 2042997145 2042997145 -13.00000000
-0.91806090 2.92595625 -0.59608728 4 4 34258 3.12400000 2042997149 2042997149 -11.00000000
-1.13890469 3.63424945 -0.60321128 2 6 34260 3.85600000 2042997154 2042997154 -9.00000000
-1.50671721 4.81382847 -0.61934000 2 8 34262 5.08200000 2042997159 2042997159 -7.00000000
-3.33546042 10.66956425 2.17293286 56 11 34264 11.38800000 2042997166 2042997166 11.00000000
-3.20139790 10.25328827 2.47986031 48 13 34266 11.02400000 2042997170 2042997170 13.00000000
-2.76348972 8.86164761 2.48725104 40 15 34268 9.61000000 2042997175 2042997175 15.00000000
-0.65229744 2.09944701 -0.58907217 4 0 34274 2.27600000 2042997196 2042997196 -15.00000000
-0.75833321 2.44373798 -0.59072149 3 2 34276 2.62600000 2042997200 2042997200 -13.00000000
-0.90951610 2.93273497 -0.59685051 4 4 34277 3.12800000 2042997205 2042997205 -11.00000000
-1.12567794 3.63423228 -0.60258555 2 6 34279 3.85200000 2042997209 2042997209 -9.00000000
-1.48722565 4.80741978 -0.61787754 2 8 34281 5.07000000 2042997214 2042997214 -7.00000000
-3.29774213 10.67306423 2.17140627 59 11 34283 11.38000000 2042997221 2042997221 11.00000000
-3.16393137 10.25267506 2.47716093 48 13 34285 11.01200000 2042997225 2042997225 13.00000000
-2.73677516 8.87397861 2.48828626 40 15 34286 9.61400000 2042997230 2042997230 15.00000000
-0.64383149 2.09801745 -0.58803689 4 0 34294 2.27200000 2042997251 2042997251 -15.00000000
-0.75436676 2.46127558 -0.59432071 3 2 34296 2.64200000 2042997255 2042997255 -13.00000000
-0.89352357 2.91712022 -0.59303439 4 4 34297 3.10800000 2042997260 2042997260 -11.00000000
-1.12107539 3.66458488 -0.60696572 2 6 34299 3.88000000 2042997265 2042997265 -9.00000000
-1.48319674 4.85434818 -0.62323982 2 8 34301 5.11400000 2042997269 2042997269 -7.00000000
-3.26161218 10.68826580 2.17216969 56 11 34303 11.38400000 2042997276 2042997276 11.00000000
-3.12925982 10.26738548 2.47806072 50 13 34305 11.01600000 2042997281 2042997281 13.00000000
-2.70353103 8.87608528 2.48621583 40 15 34306 9.60600000 2042997285 2042997285 15.00000000
-0.63650411 2.10025215 -0.58803689 4 0 34314 2.27200000 2042997306 2042997306 -15.00000000
-0.74464160 2.46016359 -0.59342086 3 2 34316 2.63800000 2042997311 2042997311 -13.00000000
-0.88901973 2.93901300 -0.59685051 4 4 34317 3.12800000 2042997315 2042997315 -11.00000000
-1.10313535 3.65145707 -0.60414988 2 6 34319 3.86200000 2042997320 2042997320 -9.00000000
-1.46738970 4.86329699 -0.62372732 2 8 34321 5.11800000 2042997324 2042997324 -7.00000000
-3.21805239 10.67890835 2.16797185 59 11 34323 11.36200000 2042997331 2042997331 11.00000000
-3.09452415 10.28197861 2.47896051 47 13 34325 11.02000000 2042997336 2042997336 13.00000000
-2.66696692 8.86696815 2.48103929 38 15 34326 9.58600000 2042997341 2042997341 15.00000000
-0.62806129 2.09875965 -0.58700162 4 0 34334 2.26800000 2042997361 2042997361 -15.00000000
-0.73716557 2.46648216 -0.59432071 3 2 34336 2.64200000 2042997366 2042997366 -13.00000000
-0.88212645 2.95338511 -0.59914023 2 4 34337 3.14000000 2042997371 2042997371 -11.00000000
-1.09377074 3.66664338 -0.60602713 2 6 34339 3.87400000 2042997375 2042997375 -9.00000000
-1.44813764 4.86077929 -0.62275237 2 8 34341 5.11000000 2042997380 2042997380 -7.00000000
-3.17459750 10.66937733 2.16377401 56 11 34343 11.34000000 2042997387 2042997387 11.00000000
-3.05861449 10.29271698 2.47896051 50 13 34345 11.02000000 2042997391 2042997391 13.00000000
-2.63499951 8.87853527 2.48155689 38 15 34347 9.58800000 2042997396 2042997396 15.00000000
-0.62401575 2.11205530 -0.59010744 4 0 34354 2.28000000 2042997417 2042997417 -15.00000000
-0.72413933 2.45408773 -0.59072149 3 2 34356 2.62600000 2042997421 2042997421 -13.00000000
-0.87070125 2.95268011 -0.59837699 2 4 34357 3.13600000 2042997426 2042997426 -11.00000000
-1.08375537 3.67991352 -0.60759145 2 6 34359 3.88400000 2042997430 2042997430 -9.00000000
-1.43452227 4.87723112 -0.62421477 2 8 34361 5.12200000 2042997435 2042997435 -7.00000000
-3.13401508 10.66909218 2.16148424 56 11 34363 11.32800000 2042997442 2042997442 11.00000000
-3.01992464 10.29398155 2.47671103 51 13 34365 11.01000000 2042997447 2042997447 13.00000000
-2.60499930 8.88537121 2.48103929 40 15 34366 9.58600000 2042997451 2042997451 15.00000000
-0.61447585 2.10680223 -0.58803689 4 0 34374 2.27200000 2042997472 2042997472 -15.00000000
-0.71883851 2.46782637 -0.59342086 3 2 34376 2.63800000 2042997476 2042997476 -13.00000000
-0.85819429 2.94816136 -0.59685051 2 4 34377 3.12800000 2042997481 2042997481 -11.00000000
-1.06980062 3.67988038 -0.60696572 2 6 34379 3.88000000 2042997486 2042997486 -9.00000000
-1.41859579 4.88602161 -0.62470227 2 8 34381 5.12600000 2042997490 2042997490 -7.00000000
-3.09675407 10.67996693 2.16148424 56 11 34383 11.32800000 2042997497 2042997497 11.00000000
-2.98072124 10.29322910 2.47401166 51 13 34385 10.99800000 2042997502 2042997502 13.00000000
-2.57504177 8.89812183 2.48207474 40 15 34386 9.59000000 2042997506 2042997506 15.00000000
-0.60604912 2.10522151 -0.58700162 4 0 34394 2.26800000 2042997527 2042997527 -15.00000000
-0.71129668 2.47406626 -0.59432071 3 2 34396 2.64200000 2042997532 2042997532 -13.00000000
-0.84681380 2.94736528 -0.59608728 2 4 34397 3.12400000 2042997536 2042997536 -11.00000000
-1.06021774 3.69498467 -0.60884291 2 6 34399 3.89200000 2042997541 2042997541 -9.00000000
-1.40590644 4.90620995 -0.62665218 2 8 34401 5.14200000 2042997546 2042997546 -7.00000000
-3.05945516 10.69071102 2.16148424 50 11 34403 11.32800000 2042997553 2042997553 11.00000000
-2.94691515 10.31106663 2.47581124 56 13 34405 11.00600000 2042997557 2042997557 13.00000000
-2.53922987 8.89635372 2.47896886 40 15 34407 9.57800000 2042997562 2042997562 15.00000000
-0.59764093 2.10360765 -0.58596629 4 0 34414 2.26400000 2042997582 2042997582 -15.00000000
-0.70584774 2.48778248 -0.59702009 3 2 34416 2.65400000 2042997587 2042997587 -13.00000000
-0.84187585 2.96919131 -0.59990346 2 4 34417 3.14400000 2042997592 2042997592 -11.00000000
-1.04623711 3.69486189 -0.60821718 2 6 34419 3.88800000 2042997596 2042997596 -9.00000000
-1.37580800 4.86524343 -0.62080246 2 8 34421 5.09400000 2042997601 2042997601 -7.00000000
-3.01678324 10.68243217 2.15766811 53 11 34423 11.30800000 2042997608 2042997608 11.00000000
-2.91196275 10.32504082 2.47671103 57 13 34425 11.01000000 2042997612 2042997612 13.00000000
-2.50397038 8.89028740 2.47482777 40 15 34427 9.56200000 2042997617 2042997617 15.00000000
-0.59170538 2.10929799 -0.58700162 4 0 34433 2.26800000 2042997638 2042997638 -15.00000000
-0.69443995 2.47885060 -0.59432071 3 2 34435 2.64200000 2042997642 2042997642 -13.00000000
-0.82990789 2.96440434 -0.59837699 2 4 34436 3.13600000 2042997647 2042997647 -11.00000000
-1.03504241 3.70211577 -0.60884291 2 6 34438 3.89200000 2042997652 2042997652 -9.00000000
-1.36607265 4.89272261 -0.62372732 2 8 34440 5.11800000 2042997656 2042997656 -7.00000000
-2.97712398 10.67724800 2.15461516 50 11 34442 11.29200000 2042997663 2042997663 11.00000000
-2.87875319 10.33839512 2.47761083 59 13 34444 11.01400000 2042997668 2042997668 13.00000000
-2.47499299 8.90040302 2.47534537 42 15 34446 9.56400000 2042997672 2042997672 15.00000000
-0.58743072 2.12252164 -0.59010744 4 0 34453 2.28000000 2042997693 2042997693 -15.00000000
-0.68578291 2.48125958 -0.59432071 3 2 34455 2.64200000 2042997698 2042997698 -13.00000000
-0.82269120 2.97863770 -0.60066670 2 4 34456 3.14800000 2042997702 2042997702 -11.00000000
-1.02736568 3.72474885 -0.61197162 2 6 34458 3.91200000 2042997707 2042997707 -9.00000000
-1.34265971 4.87449551 -0.62080246 2 8 34460 5.09400000 2042997712 2042997712 -7.00000000
-2.93827319 10.68189621 2.15347028 50 11 34462 11.28600000 2042997718 2042997718 11.00000000
-2.83955073 10.33710670 2.47491145 57 13 34464 11.00200000 2042997723 2042997723 13.00000000
-2.44493175 8.91271400 2.47638059 42 15 34466 9.56800000 2042997728 2042997728 15.00000000
-0.58001816 2.12455940 -0.59010744 4 0 34473 2.28000000 2042997748 2042997748 -15.00000000
-0.67711753 2.48363829 -0.59432071 3 2 34475 2.64200000 2042997753 2042997753 -13.00000000
-0.81435305 2.98906827 -0.60219318 2 4 34476 3.15600000 2042997758 2042997758 -11.00000000
-1.01124620 3.71687579 -0.61009443 2 6 34478 3.90000000 2042997762 2042997762 -9.00000000
-1.32563639 4.87915230 -0.62080246 2 8 34480 5.09400000 2042997767 2042997767 -7.00000000
-2.90096855 10.69208813 2.15347028 43 11 34482 11.28600000 2042997774 2042997774 11.00000000
-2.79937315 10.33190823 2.47131228 56 13 34484 10.98600000 2042997778 2042997778 13.00000000
-2.41536283 8.92077255 2.47638059 40 15 34485 9.56800000 2042997783 2042997783 15.00000000
-0.57360309 2.13030171 -0.59114271 4 0 34493 2.28400000 2042997804 2042997804 -15.00000000
-0.67046791 2.49351430 -0.59612030 3 2 34495 2.65000000 2042997808 2042997808 -13.00000000
-0.79678202 2.96534848 -0.59685051 4 4 34496 3.12800000 2042997813 2042997813 -11.00000000
-1.00031340 3.72801471 -0.61134589 2 6 34498 3.90800000 2042997817 2042997817 -9.00000000
-1.31887245 4.92209911 -0.62567723 2 8 34500 5.13400000 2042997822 2042997822 -7.00000000
-2.86565852 10.70973492 2.15499687 40 11 34502 11.29400000 2042997829 2042997829 11.00000000
-2.76228499 10.33785152 2.47041249 59 13 34504 10.98200000 2042997834 2042997834 13.00000000
-2.37916398 8.91650009 2.47275710 38 15 34506 9.55400000 2042997838 2042997838 15.00000000
-0.56355906 2.12098980 -0.58803689 4 0 34512 2.27200000 2042997859 2042997859 -15.00000000
-0.66319495 2.49949098 -0.59702009 3 2 34514 2.65400000 2042997864 2042997864 -13.00000000
-0.79197580 2.98695135 -0.60066670 2 4 34515 3.14800000 2042997868 2042997868 -11.00000000
-0.98288935 3.71221566 -0.60821718 2 6 34517 3.88800000 2042997873 2042997873 -9.00000000
-1.29239464 4.88806248 -0.62080246 2 8 34519 5.09400000 2042997877 2042997877 -7.00000000
-2.82912564 10.71538258 2.15423346 43 11 34521 11.29000000 2042997884 2042997884 11.00000000
-2.72699451 10.34318542 2.46951270 57 13 34523 10.97800000 2042997889 2042997889 13.00000000
-2.34818721 8.91272163 2.46965122 42 15 34524 9.54200000 2042997894 2042997894 15.00000000
-0.55419368 2.11546898 -0.58596629 4 0 34532 2.26400000 2042997914 2042997914 -15.00000000
-0.65249330 2.49424958 -0.59522051 3 2 34534 2.64600000 2042997919 2042997919 -13.00000000
-0.78055149 2.98589873 -0.59990346 2 4 34535 3.14400000 2042997923 2042997923 -11.00000000
-0.97591251 3.73855972 -0.61197162 2 6 34537 3.91200000 2042997928 2042997928 -9.00000000
-1.28333569 4.92327881 -0.62470227 2 8 34539 5.12600000 2042997933 2042997933 -7.00000000
-2.78873730 10.71379280 2.15194392 43 11 34541 11.27800000 2042997940 2042997940 11.00000000
-2.69185400 10.35641384 2.47041249 59 13 34543 10.98200000 2042997944 2042997944 13.00000000
-2.31162214 8.90630913 2.46551013 38 15 34545 9.52600000 2042997949 2042997949 15.00000000
-0.55007571 2.12851739 -0.58907217 4 0 34551 2.27600000 2042997970 2042997970 -15.00000000
-0.64129686 2.48507810 -0.59252107 3 2 34553 2.63400000 2042997974 2042997974 -13.00000000
-0.77652836 3.01128340 -0.60448289 2 4 34554 3.16800000 2042997979 2042997979 -11.00000000
-0.95858371 3.72264576 -0.60884291 2 6 34556 3.89200000 2042997983 2042997983 -9.00000000
-1.27293456 4.95057774 -0.62762713 2 8 34558 5.15000000 2042997988 2042997988 -7.00000000
-2.75221729 10.71917915 2.15118051 40 11 34560 11.27400000 2042997995 2042997995 11.00000000
-2.65459228 10.35395718 2.46771312 59 13 34562 10.97000000 2042998000 2042998000 13.00000000
-2.28554845 8.92101288 2.46758080 42 15 34563 9.53400000 2042998004 2042998004 15.00000000
-0.54550350 2.14165711 -0.59217799 4 0 34571 2.28800000 2042998025 2042998025 -15.00000000
-0.63742191 2.50618768 -0.59702009 3 2 34573 2.65400000 2042998029 2042998029 -13.00000000
-0.76407796 3.00636458 -0.60295641 4 4 34574 3.16000000 2042998034 2042998034 -11.00000000
-0.95432979 3.76043344 -0.61447459 2 6 34576 3.92800000 2042998039 2042998039 -9.00000000
-1.24979448 4.93190002 -0.62470227 2 8 34578 5.12600000 2042998043 2042998043 -7.00000000
-2.71526527 10.73062420 2.15156221 43 11 34580 11.27600000 2042998050 2042998050 11.00000000
-2.61270547 10.34048843 2.46231413 57 13 34582 10.94600000 2042998055 2042998055 13.00000000
-2.25047302 8.91996384 2.46499252 45 15 34584 9.52400000 2042998059 2042998059 15.00000000
-0.53483039 2.13239932 -0.58907217 4 0 34592 2.27600000 2042998080 2042998080 -15.00000000
-0.62539142 2.49716496 -0.59432071 3 2 34594 2.64200000 2042998085 2042998085 -13.00000000
-0.75210071 3.00533581 -0.60219318 4 4 34595 3.15600000 2042998089 2042998089 -11.00000000
-0.93766737 3.75240731 -0.61259735 2 6 34597 3.91600000 2042998094 2042998094 -9.00000000
-1.24804926 5.00193310 -0.63298935 2 8 34599 5.19400000 2042998099 2042998099 -7.00000000
-2.67829037 10.75002861 2.15347028 43 11 34601 11.28600000 2042998105 2042998105 11.00000000
-2.57478809 10.34999466 2.46231413 57 13 34603 10.94600000 2042998110 2042998110 13.00000000
-2.21606040 8.91464138 2.46136904 40 15 34604 9.51000000 2042998115 2042998115 15.00000000
-0.52506655 2.12487602 -0.58648396 4 0 34612 2.26600000 2042998135 2042998135 -15.00000000
-0.62040550 2.51446867 -0.59791988 3 2 34614 2.65800000 2042998140 2042998140 -13.00000000
-0.73784578 2.99269342 -0.59914023 2 4 34615 3.14000000 2042998145 2042998145 -11.00000000
-0.92267454 3.74798512 -0.61134589 2 6 34617 3.90800000 2042998149 2042998149 -9.00000000
-1.21920931 4.95999384 -0.62713963 2 8 34619 5.14600000 2042998154 2042998154 -7.00000000
-2.63794184 10.74787235 2.15118051 40 11 34621 11.27400000 2042998161 2042998161 11.00000000
-2.53771663 10.35513401 2.46141434 62 13 34623 10.94200000 2042998165 2042998165 13.00000000
-2.18153501 8.91519833 2.45929861 40 15 34625 9.50200000 2042998170 2042998170 15.00000000
-0.51993054 2.13608098 -0.58907217 4 0 34632 2.27600000 2042998191 2042998191 -15.00000000
-0.61070412 2.51283169 -0.59702009 3 2 34634 2.65400000 2042998195 2042998195 -13.00000000
-0.73202795 3.01432896 -0.60295641 4 4 34635 3.16000000 2042998200 2042998200 -11.00000000
-0.91144800 3.75886202 -0.61259735 2 6 34637 3.91600000 2042998205 2042998205 -9.00000000
-1.19721711 4.94492626 -0.62470227 2 8 34639 5.12600000 2042998209 2042998209 -7.00000000
-2.59671807 10.74174881 2.14812756 40 11 34641 11.25800000 2042998216 2042998216 11.00000000
-2.50155497 10.36392879 2.46141434 57 13 34643 10.94200000 2042998221 2042998221 13.00000000
-2.15195918 8.92238331 2.45929861 40 15 34644 9.50200000 2042998225 2042998225 15.00000000
-0.51607370 2.15291190 -0.59321326 4 0 34652 2.29200000 2042998246 2042998246 -15.00000000
-0.60102177 2.51115775 -0.59612030 3 2 34654 2.65000000 2042998251 2042998251 -13.00000000
-0.72332811 3.02450347 -0.60448289 2 4 34655 3.16800000 2042998255 2042998255 -11.00000000
-0.89419240 3.74472833 -0.60978156 2 6 34657 3.89800000 2042998260 2042998260 -9.00000000
-1.18455255 4.96838474 -0.62713963 2 8 34659 5.14600000 2042998264 2042998264 -7.00000000
-2.55738807 10.74310780 2.14660120 40 11 34661 11.25000000 2042998271 2042998271 11.00000000
-2.46265912 10.36122227 2.45871496 56 13 34663 10.93000000 2042998276 2042998276 13.00000000
-2.11835051 8.92645168 2.45826340 40 15 34665 9.49800000 2042998281 2042998281 15.00000000
-0.50855547 2.15470028 -0.59321326 4 0 34672 2.29200000 2042998301 2042998301 -15.00000000
-0.59046459 2.50565338 -0.59432071 3 2 34674 2.64200000 2042998306 2042998306 -13.00000000
-0.71276623 3.02700996 -0.60448289 2 4 34675 3.16800000 2042998311 2042998311 -11.00000000
-0.88156748 3.74974990 -0.61009443 2 6 34677 3.90000000 2042998315 2042998315 -9.00000000
-1.16720247 4.97248936 -0.62713963 2 8 34679 5.14600000 2042998320 2042998320 -7.00000000
-2.52255988 10.76343822 2.14889097 40 11 34681 11.26200000 2042998327 2042998327 11.00000000
-2.42292452 10.35457611 2.45511580 57 13 34683 10.91400000 2042998331 2042998331 13.00000000
-2.08697844 8.92590237 2.45619273 40 15 34684 9.49000000 2042998336 2042998336 15.00000000
-0.50059384 2.15458059 -0.59269559 4 0 34692 2.29000000 2042998357 2042998357 -15.00000000
-0.58259541 2.51149583 -0.59522051 3 2 34694 2.64600000 2042998361 2042998361 -13.00000000
-0.69776261 3.01035404 -0.60066670 2 4 34695 3.14800000 2042998366 2042998366 -11.00000000
-0.87426287 3.77782297 -0.61416173 2 6 34697 3.92600000 2042998370 2042998370 -9.00000000
-1.14894438 4.97266483 -0.62665218 2 8 34699 5.14200000 2042998375 2042998375 -7.00000000
-2.48409033 10.76835251 2.14812756 37 11 34701 11.25800000 2042998382 2042998382 11.00000000
-2.38545346 10.35727310 2.45376611 54 13 34703 10.90800000 2042998387 2042998387 13.00000000
-2.05320883 8.92183781 2.45308685 38 15 34704 9.47800000 2042998391 2042998391 15.00000000
-0.48913670 2.13739705 -0.58751923 4 0 34711 2.27000000 2042998412 2042998412 -15.00000000
-0.57860440 2.53241181 -0.59971952 3 2 34713 2.66600000 2042998417 2042998417 -13.00000000
-0.69127172 3.02796340 -0.60371965 2 4 34714 3.16400000 2042998421 2042998421 -11.00000000
-0.86216933 3.78262734 -0.61447459 2 6 34716 3.92800000 2042998426 2042998426 -9.00000000
-1.12628150 4.94934940 -0.62323982 6 8 34718 5.11400000 2042998430 2042998430 -7.00000000
-2.44706273 10.77078724 2.14698291 37 11 34720 11.25200000 2042998437 2042998437 11.00000000
-2.35152555 10.36702728 2.45421600 56 13 34722 10.91000000 2042998442 2042998442 13.00000000
-2.02147675 8.91917706 2.45049882 38 15 34723 9.46800000 2042998446 2042998446 15.00000000
-0.48464346 2.15228415 -0.59114271 4 0 34731 2.28400000 2042998467 2042998467 -15.00000000
-0.56805140 2.52681088 -0.59791988 3 2 34733 2.65800000 2042998472 2042998472 -13.00000000
-0.67897683 3.02269578 -0.60219318 2 4 34734 3.15600000 2042998476 2042998476 -11.00000000
-0.84463763 3.76633883 -0.61134589 2 6 34736 3.90800000 2042998481 2042998481 -9.00000000
-1.11853981 4.99586773 -0.62860209 2 8 34738 5.15800000 2042998486 2042998486 -7.00000000
-2.40345502 10.75243950 2.14164019 37 11 34740 11.22400000 2042998493 2042998493 11.00000000
-2.31617236 10.37897587 2.45511580 60 13 34742 10.91400000 2042998497 2042998497 13.00000000
-1.98919284 8.92841148 2.45101643 42 15 34744 9.47000000 2042998502 2042998502 15.00000000
-0.47833982 2.15765166 -0.59217799 4 0 34750 2.28800000 2042998523 2042998523 -15.00000000
-0.55798453 2.52107000 -0.59612030 3 2 34752 2.65000000 2042998527 2042998527 -13.00000000
-0.67318875 3.04410005 -0.60600936 2 4 34753 3.17600000 2042998532 2042998532 -11.00000000
-0.83725381 3.79226613 -0.61510032 2 6 34755 3.93200000 2042998536 2042998536 -9.00000000
-2.36778545 10.76035023 2.14164019 37 11 34759 11.22400000 2042998548 2042998548 11.00000000
-2.27881479 10.37327671 2.45196652 53 13 34761 10.90000000 2042998552 2042998552 13.00000000
-1.96196198 8.93839073 2.45205164 38 15 34762 9.47400000 2042998557 2042998557 15.00000000
-0.47245148 2.16685820 -0.59424853 4 0 34770 2.29600000 2042998578 2042998578 -15.00000000
-0.55083889 2.53061891 -0.59791988 3 2 34772 2.65800000 2042998582 2042998582 -13.00000000
-0.65922087 3.03108430 -0.60295641 2 4 34773 3.16000000 2042998587 2042998587 -11.00000000
-0.82484949 3.79902625 -0.61572605 2 6 34775 3.93600000 2042998592 2042998592 -9.00000000
-1.07946217 4.98008490 -0.62567723 2 8 34777 5.13400000 2042998596 2042998596 -7.00000000
-2.32979512 10.76663113 2.14125848 37 11 34779 11.22200000 2042998603 2042998603 11.00000000
-2.24094558 10.37354851 2.45016694 53 13 34781 10.89200000 2042998608 2042998608 13.00000000
-1.92993402 8.94140816 2.45101643 42 15 34782 9.47000000 2042998612 2042998612 15.00000000
-0.46288788 2.16101933 -0.59217799 4 0 34791 2.28800000 2042998633 2042998633 -15.00000000
-0.54400498 2.54405475 -0.60061932 3 2 34793 2.67000000 2042998638 2042998638 -13.00000000
-0.64728659 3.02964020 -0.60219318 2 4 34794 3.15600000 2042998642 2042998642 -11.00000000
-0.81174392 3.80588794 -0.61635178 2 6 34796 3.94000000 2042998647 2042998647 -9.00000000
-1.06698966 5.01118994 -0.62908953 2 8 34798 5.16200000 2042998651 2042998651 -7.00000000
-2.29195046 10.78277969 2.14278507 40 11 34800 11.23000000 2042998658 2042998658 11.00000000
-2.20371842 10.38550472 2.45106673 54 13 34802 10.89600000 2042998663 2042998663 13.00000000
-1.89594710 8.94275188 2.44946337 38 15 34803 9.46400000 2042998668 2042998668 15.00000000
-0.45454565 2.15884113 -0.59114271 4 0 34811 2.28400000 2042998688 2042998688 -15.00000000
-0.53311706 2.53640294 -0.59836978 3 2 34813 2.66000000 2042998693 2042998693 -13.00000000
-0.63912821 3.04340911 -0.60448289 2 4 34814 3.16800000 2042998698 2042998698 -11.00000000
-0.80048048 3.81836486 -0.61791611 2 6 34816 3.95000000 2042998702 2042998702 -9.00000000
-1.05599678 5.04597187 -0.63298935 2 8 34818 5.19400000 2042998707 2042998707 -7.00000000
-2.25108576 10.77534008 2.13973212 37 11 34820 11.21400000 2042998714 2042998714 11.00000000
-2.16665721 10.38931847 2.45016694 54 13 34822 10.89200000 2042998718 2042998718 13.00000000
-1.86000764 8.93451023 2.44532228 38 15 34824 9.44800000 2042998723 2042998723 15.00000000
-0.44854540 2.16404176 -0.59217799 4 0 34829 2.28800000 2042998744 2042998744 -15.00000000
-0.52396154 2.53234029 -0.59702009 3 2 34831 2.65400000 2042998748 2042998748 -13.00000000
-0.63035882 3.04924726 -0.60524613 2 4 34832 3.17200000 2042998753 2042998753 -11.00000000
-0.78329080 3.79571080 -0.61384887 2 6 34834 3.92400000 2042998757 2042998757 -9.00000000
-2.21564126 10.77466679 2.13820553 43 11 34838 11.20600000 2042998769 2042998769 11.00000000
-2.13557506 10.40371037 2.45196652 51 13 34840 10.90000000 2042998774 2042998774 13.00000000
-1.83310223 8.93809700 2.44480467 38 15 34841 9.44600000 2042998778 2042998778 15.00000000
-0.43944684 2.15802217 -0.59010744 4 0 34849 2.28000000 2042998799 2042998799 -15.00000000
-0.51589519 2.53797317 -0.59791988 3 2 34851 2.65800000 2042998803 2042998803 -13.00000000
-0.62205553 3.06297302 -0.60753584 2 4 34852 3.18400000 2042998808 2042998808 -11.00000000
-0.76846659 3.79067802 -0.61259735 2 6 34854 3.91600000 2042998813 2042998813 -9.00000000
-2.17685103 10.77656174 2.13706064 50 11 34858 11.20000000 2042998824 2042998824 11.00000000
-2.09770536 10.40345955 2.45016694 57 13 34860 10.89200000 2042998829 2042998829 13.00000000
-1.80303586 8.95012283 2.44635773 38 15 34861 9.45200000 2042998833 2042998833 15.00000000
-0.43456262 2.17477345 -0.59424853 4 0 34870 2.29600000 2042998854 2042998854 -15.00000000
-0.50887668 2.55131364 -0.60061932 3 2 34872 2.67000000 2042998859 2042998859 -13.00000000
-0.60852289 3.05367994 -0.60524613 2 4 34873 3.17200000 2042998863 2042998863 -11.00000000
-0.75765091 3.80896854 -0.61510032 2 6 34875 3.93200000 2042998868 2042998868 -9.00000000
-2.13848329 10.79024601 2.13820553 43 11 34879 11.20600000 2042998880 2042998880 11.00000000
-2.05653548 10.39578533 2.44656777 52 13 34881 10.87600000 2042998884 2042998884 13.00000000
-1.77127624 8.97024727 2.44998097 38 15 34883 9.46600000 2042998889 2042998889 15.00000000
-0.42696860 2.17627716 -0.59424853 4 0 34890 2.29600000 2042998909 2042998909 -15.00000000
-0.49996784 2.55307436 -0.60061932 3 2 34892 2.67000000 2042998914 2042998914 -13.00000000
-0.59484416 3.04037166 -0.60219318 2 4 34893 3.15600000 2042998919 2042998919 -11.00000000
-0.74548638 3.81740618 -0.61603892 2 6 34895 3.93800000 2042998923 2042998923 -9.00000000
-0.98860306 5.07174253 -0.63445181 2 8 34897 5.20600000 2042998928 2042998928 -7.00000000
-2.10230517 10.80535316 2.13973212 43 11 34899 11.21400000 2042998935 2042998935 11.00000000
-2.02023482 10.40290070 2.44656777 51 13 34901 10.87600000 2042998939 2042998939 13.00000000
-1.73664486 8.95930576 2.44532228 40 15 34903 9.44800000 2042998944 2042998944 15.00000000
-0.41755566 2.16629958 -0.59114271 4 0 34909 2.28400000 2042998965 2042998965 -15.00000000
-0.49223512 2.55854559 -0.60151911 3 2 34911 2.67400000 2042998969 2042998969 -13.00000000
-0.58772320 3.05775118 -0.60524613 2 4 34912 3.17200000 2042998974 2042998974 -11.00000000
-0.73766166 3.84507728 -0.62010622 2 6 34914 3.96400000 2042998979 2042998979 -9.00000000
-0.96953911 5.06329489 -0.63298935 2 8 34916 5.19400000 2042998983 2042998983 -7.00000000
-2.06277609 10.79298210 2.13591599 46 11 34918 11.19400000 2042998990 2042998990 11.00000000
-1.98718703 10.41719913 2.44836736 55 13 34920 10.88400000 2042998995 2042998995 13.00000000
-1.70728648 8.96691322 2.44583988 40 15 34922 9.45000000 2042998999 2042998999 15.00000000
-0.41035032 2.16964197 -0.59166032 4 0 34929 2.28600000 2042999020 2042999020 -15.00000000
-0.48257816 2.55641842 -0.60061932 3 2 34931 2.67000000 2042999025 2042999025 -13.00000000
-0.57704610 3.05978417 -0.60524613 2 4 34932 3.17200000 2042999029 2042999029 -11.00000000
-0.71948504 3.82239199 -0.61603892 2 6 34934 3.93800000 2042999034 2042999034 -9.00000000
-0.94965988 5.05494261 -0.63152695 2 8 34936 5.18200000 2042999039 2042999039 -7.00000000
