# .PCD v0.7 - Point Cloud Data file format
VERSION 0.7
FIELDS x y z intensity laser_id azimuth distance_m adjustedtime timestamp vertical_angle
SIZE 4 4 4 1 1 2 8 8 4 8
TYPE F F F U U U F U U F
COUNT 1 1 1 1 1 1 1 1 1 1
WIDTH 539
HEIGHT 1
VIEWPOINT 0 0 0 1 0 0 0
POINTS 539
DATA ascii
7.34565592 2.46637869 2.07624626 45 15 7144 8.02200000 2042422095 2042422095 15.00000000
2.14908576 0.71865696 -0.60718948 4 0 7151 2.34600000 2042422116 2042422116 -15.00000000
8.16098309 2.72745943 0.15019540 12 1 7152 8.60600000 2042422118 2042422118 1.00000000
2.53040457 0.84518856 -0.61591601 4 2 7153 2.73800000 2042422121 2042422121 -13.00000000
8.18230247 2.73140979 0.45207798 15 3 7154 8.63800000 2042422123 2042422123 3.00000000
3.04475427 1.01639748 -0.62394542 5 4 7154 3.27000000 2042422125 2042422125 -11.00000000
8.18550777 2.73089194 0.75494307 78 5 7155 8.66200000 2042422128 2042422128 5.00000000
3.82660961 1.27591133 -0.63887835 4 6 7156 4.08400000 2042422130 2042422130 -9.00000000
8.18472672 2.72745681 1.05928838 97 7 7157 8.69200000 2042422132 2042422132 7.00000000
5.15106535 1.71552861 -0.66662532 6 8 7158 5.47000000 2042422135 2042422135 -7.00000000
8.19949245 2.73078752 1.36880159 91 9 7158 8.75000000 2042422137 2042422137 9.00000000
8.07020569 2.68616462 -0.74413574 13 10 7159 8.53800000 2042422139 2042422139 -5.00000000
8.20600796 2.72977567 1.68102729 78 11 7160 8.81000000 2042422141 2042422141 11.00000000
8.14962292 2.70943904 -0.45008922 12 12 7161 8.60000000 2042422144 2042422144 -3.00000000
8.19067097 2.72149849 1.99261642 92 13 7162 8.85800000 2042422146 2042422146 13.00000000
8.16430664 2.71115613 -0.15016051 14 14 7163 8.60400000 2042422148 2042422148 -1.00000000
7.35746098 2.44322371 2.07728171 45 15 7163 8.02600000 2042422151 2042422151 15.00000000
2.14424419 0.70872581 -0.60511893 4 0 7171 2.33800000 2042422171 2042422171 -15.00000000
8.17425156 2.70021009 0.15026522 12 1 7172 8.61000000 2042422174 2042422174 1.00000000
2.54444242 0.84001619 -0.61861539 4 2 7173 2.75000000 2042422176 2042422176 -13.00000000
8.18040657 2.69907665 0.45144996 13 3 7174 8.62600000 2042422178 2042422178 3.00000000
3.02404642 0.99776620 -0.61898440 5 4 7174 3.24400000 2042422181 2042422181 -11.00000000
8.17228413 2.69481516 0.75285131 76 5 7175 8.63800000 2042422183 2042422183 5.00000000
3.83479214 1.26378286 -0.63950408 4 6 7176 4.08800000 2042422185 2042422185 -9.00000000
8.18288517 2.69514418 1.05782592 97 7 7177 8.68000000 2042422188 2042422188 7.00000000
5.16833544 1.70126164 -0.66808772 6 8 7178 5.48200000 2042422190 2042422190 -7.00000000
8.18880558 2.69392610 1.36536002 94 9 7179 8.72800000 2042422192 2042422192 9.00000000
8.07574844 2.65673280 -0.74378711 13 10 7179 8.53400000 2042422194 2042422194 -5.00000000
8.21175671 2.69988823 1.68026400 81 11 7180 8.80600000 2042422197 2042422197 11.00000000
8.16662121 2.68346906 -0.45050791 17 12 7181 8.60800000 2042422199 2042422199 -3.00000000
8.18901157 2.68924308 1.98991704 92 13 7182 8.84600000 2042422201 2042422201 13.00000000
8.15472031 2.67640519 -0.14981146 14 14 7183 8.58400000 2042422204 2042422204 -1.00000000
7.35535288 2.41262817 2.07417583 45 15 7184 8.01400000 2042422206 2042422206 15.00000000
2.14131784 0.69906336 -0.60356599 4 0 7192 2.33200000 2042422227 2042422227 -15.00000000
8.16508293 2.66402912 0.14991617 12 1 7193 8.59000000 2042422229 2042422229 1.00000000
2.55120969 0.83189297 -0.61951518 4 2 7194 2.75400000 2042422231 2042422231 -13.00000000
8.19784069 2.67155123 0.45186865 13 3 7195 8.63400000 2042422234 2042422234 3.00000000
3.04261613 0.99154228 -0.62203735 5 4 7195 3.26000000 2042422236 2042422236 -11.00000000
8.16884518 2.66052508 0.75163114 79 5 7196 8.62400000 2042422238 2042422238 5.00000000
3.82437158 1.24482787 -0.63700116 6 6 7197 4.07200000 2042422241 2042422241 -9.00000000
8.19459534 2.66574836 1.05806959 100 7 7198 8.68200000 2042422243 2042422243 7.00000000
5.18963861 1.68721735 -0.67003763 9 8 7199 5.49800000 2042422245 2042422245 -7.00000000
8.19252396 2.66349316 1.36442137 91 9 7199 8.72200000 2042422247 2042422247 9.00000000
8.08543110 2.62711596 -0.74378711 17 10 7200 8.53400000 2042422250 2042422250 -5.00000000
8.20292473 2.66370916 1.67644787 84 11 7201 8.78600000 2042422252 2042422252 11.00000000
8.18020153 2.65475202 -0.45071724 12 12 7202 8.61200000 2042422254 2042422254 -3.00000000
8.19510651 2.65800834 1.98901725 103 13 7203 8.84200000 2042422257 2042422257 13.00000000
8.16447544 2.64649868 -0.14981146 12 14 7204 8.58400000 2042422259 2042422259 -1.00000000
7.35086584 2.38276863 2.07055235 47 15 7204 8.00000000 2042422261 2042422261 15.00000000
2.15293789 0.69455016 -0.60615420 4 0 7212 2.34200000 2042422282 2042422282 -15.00000000
8.16291237 2.63182974 0.14970674 12 1 7213 8.57800000 2042422284 2042422284 1.00000000
2.54482388 0.81999421 -0.61726570 4 2 7214 2.74400000 2042422287 2042422287 -13.00000000
8.19190693 2.63802147 0.45103127 13 3 7215 8.61800000 2042422289 2042422289 3.00000000
3.04979634 0.98211908 -0.62280059 5 4 7215 3.26400000 2042422291 2042422291 -11.00000000
8.16670322 2.62833214 0.75058526 76 5 7216 8.61200000 2042422294 2042422294 5.00000000
3.82117152 1.22905135 -0.63574964 6 6 7217 4.06400000 2042422296 2042422296 -9.00000000
8.18117237 2.62983775 1.05514479 99 7 7218 8.65800000 2042422298 2042422298 7.00000000
5.18793678 1.66666317 -0.66906267 6 8 7219 5.49000000 2042422300 2042422300 -7.00000000
8.19658852 2.63163662 1.36348283 99 9 7220 8.71600000 2042422303 2042422303 9.00000000
8.12111092 2.60740328 -0.74622744 17 10 7220 8.56200000 2042422305 2042422305 -5.00000000
8.19160938 2.62846112 1.67225003 90 11 7221 8.76400000 2042422307 2042422307 11.00000000
8.16469383 2.61825299 -0.44935653 17 12 7222 8.58600000 2042422310 2042422310 -3.00000000
8.20062256 2.62819624 1.98811746 90 13 7223 8.83800000 2042422312 2042422312 13.00000000
8.16604614 2.61554337 -0.14967184 14 14 7224 8.57600000 2042422314 2042422314 -1.00000000
7.36138964 2.35639930 2.07106996 45 15 7225 8.00200000 2042422317 2042422317 15.00000000
2.15694952 0.68837041 -0.60667187 4 0 7230 2.34400000 2042422337 2042422337 -15.00000000
8.15208912 2.60009599 0.14935769 12 1 7231 8.55800000 2042422340 2042422340 1.00000000
2.53996062 0.80962801 -0.61546606 4 2 7232 2.73600000 2042422342 2042422342 -13.00000000
8.17541504 2.60439181 0.44967052 13 3 7233 8.59200000 2042422344 2042422344 3.00000000
3.06034923 0.97491670 -0.62432700 5 4 7233 3.27200000 2042422347 2042422347 -11.00000000
8.17871666 2.60387158 0.75093389 90 5 7234 8.61600000 2042422349 2042422349 5.00000000
3.82877851 1.21823859 -0.63637543 6 6 7235 4.06800000 2042422351 2042422351 -9.00000000
8.18182755 2.60171676 1.05416977 100 7 7236 8.65000000 2042422353 2042422353 7.00000000
5.20071459 1.65276146 -0.67003763 9 8 7237 5.49800000 2042422356 2042422356 -7.00000000
8.19682980 2.60491204 1.36223137 99 9 7237 8.70800000 2042422358 2042422358 9.00000000
8.11027241 2.57584620 -0.74448436 17 10 7238 8.54200000 2042422360 2042422360 -5.00000000
8.19795513 2.60211945 1.67186844 100 11 7239 8.76200000 2042422363 2042422363 11.00000000
8.16145611 2.58896637 -0.44872850 17 12 7240 8.57400000 2042422365 2042422365 -3.00000000
8.20140839 2.60006475 1.98631775 92 13 7241 8.83000000 2042422367 2042422367 13.00000000
8.16659737 2.58746004 -0.14953221 14 14 7242 8.56800000 2042422370 2042422370 -1.00000000
7.37571526 2.33688140 2.07314062 47 15 7242 8.01000000 2042422372 2042422372 15.00000000
2.15381193 0.67909431 -0.60511893 4 0 7250 2.33800000 2042422393 2042422393 -15.00000000
8.16111565 2.57162404 0.14935769 12 1 7251 8.55800000 2042422395 2042422395 1.00000000
2.55392385 0.80426908 -0.61816549 4 2 7252 2.74800000 2042422397 2042422397 -13.00000000
8.17111969 2.57164121 0.44893783 15 3 7253 8.57800000 2042422400 2042422400 3.00000000
3.06373358 0.96422815 -0.62432700 5 4 7253 3.27200000 2042422402 2042422402 -11.00000000
8.17635250 2.57171988 0.74988800 76 5 7254 8.60400000 2042422404 2042422404 5.00000000
3.84054542 1.20723569 -0.63762689 6 6 7255 4.07600000 2042422406 2042422406 -9.00000000
8.17381477 2.56778646 1.05197620 97 7 7256 8.63200000 2042422409 2042422409 7.00000000
5.18372488 1.62746215 -0.66711277 6 8 7257 5.47400000 2042422411 2042422411 -7.00000000
8.19456482 2.57273388 1.36035407 99 9 7257 8.69600000 2042422413 2042422413 9.00000000
6.65353584 2.08764267 -0.61009020 8 10 7258 7.00000000 2042422416 2042422416 -5.00000000
8.20324230 2.57231259 1.67110515 93 11 7259 8.75800000 2042422418 2042422418 11.00000000
8.15900898 2.55687833 -0.44810045 17 12 7260 8.56200000 2042422420 2042422420 -3.00000000
8.19183826 2.56559634 1.98181880 101 13 7261 8.81000000 2042422423 2042422423 13.00000000
8.16412926 2.55535364 -0.14932279 12 14 7262 8.55600000 2042422425 2042422425 -1.00000000
7.39488935 2.31458330 2.07624626 47 15 7262 8.02200000 2042422427 2042422427 15.00000000
2.16170263 0.67329544 -0.60667187 4 0 7270 2.34400000 2042422448 2042422448 -15.00000000
8.18149853 2.54668665 0.14956713 12 1 7271 8.57000000 2042422450 2042422450 1.00000000
2.54927254 0.79303390 -0.61636591 4 2 7272 2.74000000 2042422453 2042422453 -13.00000000
8.17623234 2.54191709 0.44872850 13 3 7273 8.57400000 2042422455 2042422455 3.00000000
3.06708074 0.95352787 -0.62432700 5 4 7273 3.27200000 2042422457 2042422457 -11.00000000
8.17005825 2.53843403 0.74849349 79 5 7274 8.58800000 2042422459 2042422459 5.00000000
3.85605526 1.19733703 -0.63950408 6 6 7275 4.08800000 2042422462 2042422462 -9.00000000
8.18083191 2.53865051 1.05173242 100 7 7276 8.63000000 2042422464 2042422464 7.00000000
5.18937397 1.60935760 -0.66711277 9 8 7277 5.47400000 2042422466 2042422466 -7.00000000
8.18129730 2.53566432 1.35659969 100 9 7278 8.67200000 2042422469 2042422469 9.00000000
6.65507317 2.06263518 -0.60956728 12 10 7278 6.99400000 2042422471 2042422471 -5.00000000
8.21592140 2.54482412 1.67186844 100 11 7279 8.76200000 2042422473 2042422473 11.00000000
8.17170048 2.52956367 -0.44830981 17 12 7280 8.56600000 2042422476 2042422476 -3.00000000
8.20074368 2.53698587 1.98181880 101 13 7281 8.81000000 2042422478 2042422478 13.00000000
8.15580463 2.52152395 -0.14900865 14 14 7282 8.53800000 2042422480 2042422480 -1.00000000
7.43429995 2.29845691 2.08504629 45 15 7282 8.05600000 2042422482 2042422482 15.00000000
2.15296102 0.66233730 -0.60356599 4 0 7290 2.33200000 2042422503 2042422503 -15.00000000
8.15593338 2.50753450 0.14893883 12 1 7291 8.53400000 2042422506 2042422506 1.00000000
2.55388808 0.78470278 -0.61681581 5 2 7292 2.74200000 2042422508 2042422508 -13.00000000
8.18314648 2.51277494 0.44862381 10 3 7293 8.57200000 2042422510 2042422510 3.00000000
3.05537629 0.93820560 -0.62127411 5 4 7293 3.25600000 2042422512 2042422512 -11.00000000
8.15982246 2.50405455 0.74675041 76 5 7294 8.56800000 2042422515 2042422515 5.00000000
3.83754873 1.17691922 -0.63574964 6 6 7295 4.06400000 2042422517 2042422517 -9.00000000
8.19343948 2.51124191 1.05221987 99 7 7296 8.63400000 2042422519 2042422519 7.00000000
5.19875622 1.59239626 -0.66760027 6 8 7297 5.47800000 2042422522 2042422522 -7.00000000
8.18632126 2.50593448 1.35597396 94 9 7298 8.66800000 2042422524 2042422524 9.00000000
6.65080166 2.03589296 -0.60852140 12 10 7298 6.98200000 2042422526 2042422526 -5.00000000
8.19096184 2.50579166 1.66499925 100 11 7299 8.72600000 2042422529 2042422529 11.00000000
8.17092991 2.49810410 -0.44778645 17 12 7300 8.55600000 2042422531 2042422531 -3.00000000
8.19836712 2.50492787 1.97911942 103 13 7301 8.79800000 2042422533 2042422533 13.00000000
8.15881920 2.49128771 -0.14890394 14 14 7302 8.53200000 2042422535 2042422535 -1.00000000
7.47962904 2.28247023 2.09539890 45 15 7303 8.09600000 2042422538 2042422538 15.00000000
2.15710831 0.65537965 -0.60408366 4 0 7310 2.33400000 2042422559 2042422559 -15.00000000
8.14932919 2.47440195 0.14865960 12 1 7311 8.51800000 2042422561 2042422561 1.00000000
2.54915237 0.77351987 -0.61501616 6 2 7312 2.73400000 2042422563 2042422563 -13.00000000
8.18231106 2.48129725 0.44810045 13 3 7313 8.56200000 2042422565 2042422565 3.00000000
3.06051159 0.92810434 -0.62165570 5 4 7313 3.25800000 2042422568 2042422568 -11.00000000
8.16851330 2.47555637 0.74675041 79 5 7314 8.56800000 2042422570 2042422570 5.00000000
3.83407116 1.16122615 -0.63449818 6 6 7315 4.05600000 2042422572 2042422572 -9.00000000
8.18125629 2.47630024 1.04953873 97 7 7316 8.61200000 2042422575 2042422575 7.00000000
5.20428324 1.57423961 -0.66760027 9 8 7317 5.47800000 2042422577 2042422577 -7.00000000
8.19123650 2.47620034 1.35534823 97 9 7318 8.66400000 2042422579 2042422579 9.00000000
6.64642525 2.00920582 -0.60747552 12 10 7318 6.97000000 2042422582 2042422582 -5.00000000
8.17710686 2.47037148 1.66041982 87 11 7319 8.70200000 2042422584 2042422584 11.00000000
8.15856838 2.46321702 -0.44663504 17 12 7320 8.53400000 2042422586 2042422586 -3.00000000
8.20706081 2.47629499 1.97911942 104 13 7321 8.79800000 2042422588 2042422588 13.00000000
8.15789318 2.45990634 -0.14872941 14 14 7322 8.52200000 2042422591 2042422591 -1.00000000
7.57038832 2.28275180 2.11869264 45 15 7322 8.18600000 2042422593 2042422593 15.00000000
2.16678429 0.65006649 -0.60615420 4 0 7330 2.34200000 2042422614 2042422614 -15.00000000
8.15408516 2.44479179 0.14858979 12 1 7331 8.51400000 2042422616 2042422616 1.00000000
2.54623675 0.76293892 -0.61366647 6 2 7332 2.72800000 2042422618 2042422618 -13.00000000
8.17370224 2.44756413 0.44715840 10 3 7333 8.54400000 2042422621 2042422621 3.00000000
3.07313633 0.92023140 -0.62356383 5 4 7333 3.26800000 2042422623 2042422623 -11.00000000
8.17328739 2.44588542 0.74640179 76 5 7334 8.56400000 2042422625 2042422625 5.00000000
3.85324168 1.15236366 -0.63700116 6 6 7335 4.07200000 2042422628 2042422628 -9.00000000
8.17463398 2.44317985 1.04758883 92 7 7336 8.59600000 2042422630 2042422630 7.00000000
5.19833422 1.55265498 -0.66613781 9 8 7337 5.46600000 2042422632 2042422632 -7.00000000
8.19225883 2.44533253 1.35409677 95 9 7338 8.65600000 2042422635 2042422635 9.00000000
6.64576149 1.98371375 -0.60677826 16 10 7338 6.96200000 2042422637 2042422637 -5.00000000
8.19132423 2.44349647 1.66156471 96 11 7339 8.70800000 2042422639 2042422639 11.00000000
8.14606285 2.42844677 -0.44548365 12 12 7340 8.51200000 2042422641 2042422641 -3.00000000
8.19697857 2.44206786 1.97462034 104 13 7341 8.77800000 2042422644 2042422644 13.00000000
8.16643047 2.43141508 -0.14872941 16 14 7342 8.52200000 2042422646 2042422646 -1.00000000
7.65422344 2.27891421 2.13991594 45 15 7342 8.26800000 2042422648 2042422648 15.00000000
2.17274499 0.64359635 -0.60718948 4 0 7350 2.34600000 2042422669 2042422669 -15.00000000
8.16640472 2.41744900 0.14865960 12 1 7351 8.51800000 2042422671 2042422671 1.00000000
2.54888439 0.75404626 -0.61366647 6 2 7352 2.72800000 2042422674 2042422674 -13.00000000
8.16262245 2.41477990 0.44611168 13 3 7352 8.52400000 2042422676 2042422676 3.00000000
3.06503344 0.90615892 -0.62127411 5 4 7353 3.25600000 2042422678 2042422678 -11.00000000
8.17795372 2.41621137 0.74605316 76 5 7354 8.56000000 2042422681 2042422681 5.00000000
3.85534620 1.13834691 -0.63668829 6 6 7355 4.07000000 2042422683 2042422683 -9.00000000
8.17930508 2.41350651 1.04710138 97 7 7356 8.59200000 2042422685 2042422685 7.00000000
5.21324253 1.53730726 -0.66735655 9 8 7357 5.47600000 2042422687 2042422687 -7.00000000
8.19274426 2.41591763 1.35284531 57 9 7357 8.64800000 2042422690 2042422690 9.00000000
6.63544512 1.95543480 -0.60520947 28 10 7358 6.94400000 2042422692 2042422692 -5.00000000
8.20545387 2.41655254 1.66270959 25 11 7359 8.71400000 2042422694 2042422694 11.00000000
8.14874172 2.39830518 -0.44516966 17 12 7360 8.50600000 2042422697 2042422697 -3.00000000
8.19236660 2.40959096 1.97147107 28 13 7361 8.76400000 2042422699 2042422699 13.00000000
8.16143799 2.39894652 -0.14848508 14 14 7362 8.50800000 2042422701 2042422701 -1.00000000
7.74924326 2.27778745 2.16424489 45 15 7362 8.36200000 2042422704 2042422704 15.00000000
2.16756153 0.63383931 -0.60511893 4 0 7370 2.33800000 2042422724 2042422724 -15.00000000
8.16711617 2.38668442 0.14851998 12 1 7371 8.51000000 2042422727 2042422727 1.00000000
2.55898333 0.74732959 -0.61546606 6 2 7372 2.73600000 2042422729 2042422729 -13.00000000
8.18867302 2.38988209 0.44705373 26 3 7373 8.54200000 2042422731 2042422731 3.00000000
3.06629324 0.89490438 -0.62089247 5 4 7373 3.25400000 2042422734 2042422734 -11.00000000
8.16912365 2.38262939 0.74448436 76 5 7374 8.54200000 2042422736 2042422736 5.00000000
3.86877871 1.12764609 -0.63825262 6 6 7375 4.08000000 2042422738 2042422738 -9.00000000
8.18386841 2.38383031 1.04661393 92 7 7376 8.58800000 2042422740 2042422740 7.00000000
5.21285915 1.51743579 -0.66662532 9 8 7377 5.47000000 2042422743 2042422743 -7.00000000
8.26223946 2.40353036 1.36285710 10 9 7378 8.71200000 2042422745 2042422745 9.00000000
6.63649130 1.93059134 -0.60468656 60 10 7378 6.93800000 2042422747 2042422747 -5.00000000
8.31186962 2.41639447 1.68255377 12 11 7379 8.81800000 2042422750 2042422750 11.00000000
8.16665363 2.37263227 -0.44569302 17 12 7380 8.51600000 2042422752 2042422752 -3.00000000
8.28307152 2.40488720 1.99126673 17 13 7381 8.85200000 2042422754 2042422754 13.00000000
8.15823936 2.36709976 -0.14827564 12 14 7382 8.49600000 2042422757 2042422757 -1.00000000
7.82990170 2.27035165 2.18443274 42 15 7383 8.44000000 2042422759 2042422759 15.00000000
2.15873289 0.62267810 -0.60201311 4 0 7391 2.32600000 2042422780 2042422780 -15.00000000
8.16043663 2.35230350 0.14824075 12 1 7392 8.49400000 2042422782 2042422782 1.00000000
2.56545043 0.73902428 -0.61636591 6 2 7393 2.74000000 2042422784 2042422784 -13.00000000
8.18353081 2.35741377 0.44632104 15 3 7393 8.52800000 2042422787 2042422787 3.00000000
3.07332587 0.88474607 -0.62165570 5 4 7394 3.25800000 2042422789 2042422789 -11.00000000
8.15099525 2.34496021 0.74204397 72 5 7395 8.51400000 2042422791 2042422791 5.00000000
3.86529183 1.11127555 -0.63700116 4 6 7396 4.07200000 2042422793 2042422793 -9.00000000
8.19255066 2.35381889 1.04661393 95 7 7397 8.58800000 2042422796 2042422796 7.00000000
5.21647787 1.49777174 -0.66638160 9 8 7398 5.46800000 2042422798 2042422798 -7.00000000
8.29377842 2.37976933 1.36661148 13 9 7399 8.73600000 2042422800 2042422800 9.00000000
6.63969231 1.90515530 -0.60433793 20 10 7399 6.93400000 2042422803 2042422803 -5.00000000
8.29236221 2.37779665 1.67682946 12 11 7400 8.78800000 2042422805 2042422805 11.00000000
8.16953468 2.34103346 -0.44537899 17 12 7401 8.51000000 2042422807 2042422807 -3.00000000
8.15532494 2.33388138 -0.14806622 12 14 7403 8.48400000 2042422812 2042422812 -1.00000000
7.92507172 2.26798773 2.20876169 47 15 7403 8.53400000 2042422814 2042422814 15.00000000
2.17947364 0.62042820 -0.60718948 4 0 7411 2.34600000 2042422835 2042422835 -15.00000000
8.15705776 2.32052088 0.14803131 15 1 7412 8.48200000 2042422837 2042422837 1.00000000
2.55864215 0.72740024 -0.61411637 7 2 7413 2.73000000 2042422839 2042422839 -13.00000000
8.17249870 2.32337189 0.44527432 18 3 7413 8.50800000 2042422842 2042422842 3.00000000
3.08394957 0.87615895 -0.62318218 5 4 7414 3.26600000 2042422844 2042422844 -11.00000000
8.18021393 2.32247949 0.74396139 94 5 7415 8.53600000 2042422846 2042422846 5.00000000
3.85394430 1.09346294 -0.63449818 4 6 7416 4.05600000 2042422849 2042422849 -9.00000000
8.18352795 2.32033372 1.04442024 90 7 7417 8.57000000 2042422851 2042422851 7.00000000
5.22358418 1.48009491 -0.66662532 9 8 7418 5.47000000 2042422853 2042422853 -7.00000000
8.48259640 2.40193200 1.39633405 7 9 7419 8.92600000 2042422856 2042422856 9.00000000
6.65588713 1.88468099 -0.60520947 12 10 7419 6.94400000 2042422858 2042422858 -5.00000000
8.52352333 2.41191387 1.72186041 12 11 7420 9.02400000 2042422860 2042422860 11.00000000
8.16035938 2.30761075 -0.44443694 17 12 7421 8.49200000 2042422863 2042422863 -3.00000000
8.16727161 2.30648661 -0.14813602 16 14 7423 8.48800000 2042422867 2042422867 -1.00000000
8.03147411 2.26813674 2.23619652 45 15 7423 8.64000000 2042422869 2042422869 15.00000000
2.17965937 0.61267465 -0.60667187 4 0 7430 2.34400000 2042422890 2042422890 -15.00000000
8.16470814 2.29345846 0.14803131 15 1 7431 8.48200000 2042422892 2042422892 1.00000000
2.55353546 0.71680474 -0.61231679 7 2 7432 2.72200000 2042422895 2042422895 -13.00000000
8.18055916 2.29483032 0.44527432 26 3 7433 8.50800000 2042422897 2042422897 3.00000000
3.09628963 0.86857873 -0.62509024 5 4 7433 3.27600000 2042422899 2042422899 -11.00000000
8.16293144 2.28834867 0.74169534 72 5 7434 8.51000000 2042422902 2042422902 5.00000000
3.86896205 1.08387399 -0.63637543 4 6 7435 4.06800000 2042422904 2042422904 -9.00000000
8.17779636 2.28943729 1.04271412 92 7 7436 8.55600000 2042422906 2042422906 7.00000000
5.21890497 1.46009052 -0.66540664 9 8 7437 5.46000000 2042422909 2042422909 -7.00000000
8.60994816 2.40880084 1.41604483 10 9 7437 9.05200000 2042422911 2042422911 9.00000000
6.64866877 1.85884368 -0.60398930 12 10 7438 6.93000000 2042422913 2042422913 -5.00000000
8.62601662 2.41004992 1.74094129 12 11 7439 9.12400000 2042422916 2042422916 11.00000000
8.15257740 2.27624059 -0.44359955 17 12 7440 8.47600000 2042422918 2042422918 -3.00000000
8.61000538 2.40233684 2.06370091 40 13 7441 9.17400000 2042422920 2042422920 13.00000000
8.16909599 2.27777910 -0.14803131 14 14 7442 8.48200000 2042422922 2042422922 -1.00000000
8.15286160 2.27171874 2.26777244 45 15 7443 8.76200000 2042422925 2042422925 15.00000000
2.18550801 0.60609502 -0.60770714 4 0 7450 2.34800000 2042422945 2042422945 -15.00000000
8.17266369 2.26494431 0.14803131 12 1 7451 8.48200000 2042422948 2042422948 1.00000000
2.55602193 0.70788687 -0.61231679 7 2 7452 2.72200000 2042422950 2042422950 -13.00000000
8.17080116 2.26289248 0.44433227 28 3 7452 8.49000000 2042422952 2042422952 3.00000000
3.07848930 0.85200500 -0.62089247 5 4 7453 3.25400000 2042422955 2042422955 -11.00000000
8.17855072 2.26196527 0.74239260 90 5 7454 8.51800000 2042422957 2042422957 5.00000000
3.88795376 1.07457209 -0.63887835 4 6 7455 4.08400000 2042422959 2042422959 -9.00000000
8.18191147 2.25982046 1.04222667 92 7 7456 8.55200000 2042422962 2042422962 7.00000000
5.22014284 1.44080794 -0.66491914 9 8 7457 5.45600000 2042422964 2042422964 -7.00000000
8.67965508 2.39403534 1.42605662 10 9 7458 9.11600000 2042422966 2042422966 9.00000000
6.64167213 1.83191586 -0.60276914 24 10 7458 6.91600000 2042422969 2042422969 -5.00000000
8.61923504 2.37575150 1.73788834 6 11 7459 9.10800000 2042422971 2042422971 11.00000000
8.15662289 2.24670815 -0.44339022 12 12 7460 8.47200000 2042422973 2042422973 -3.00000000
8.15964508 2.24447656 -0.14771716 12 14 7462 8.46400000 2042422978 2042422978 -1.00000000
8.22221184 2.26014352 2.28485441 47 15 7463 8.82800000 2042422980 2042422980 15.00000000
2.17280698 0.59400511 -0.60356599 4 0 7471 2.33200000 2042423001 2042423001 -15.00000000
8.17319489 2.23286676 0.14789169 12 1 7472 8.47400000 2042423003 2042423003 1.00000000
2.56611919 0.70056677 -0.61411637 7 2 7473 2.73000000 2042423005 2042423005 -13.00000000
8.17711353 2.23240376 0.44422761 42 3 7473 8.48800000 2042423008 2042423008 3.00000000
3.07969737 0.84019935 -0.62051088 5 4 7474 3.25200000 2042423010 2042423010 -11.00000000
8.16756344 2.22673345 0.74064952 76 5 7475 8.49800000 2042423012 2042423012 5.00000000
3.86899543 1.05408382 -0.63512391 4 6 7476 4.06000000 2042423015 2042423015 -9.00000000
8.18630886 2.22877431 1.04173911 92 7 7477 8.54800000 2042423017 2042423017 7.00000000
5.23496580 1.42427123 -0.66613781 9 8 7478 5.46600000 2042423019 2042423019 -7.00000000
8.10660172 2.20555377 1.33063161 5 9 7478 8.50600000 2042423022 2042423022 9.00000000
6.63488388 1.80390155 -0.60154891 32 10 7479 6.90200000 2042423024 2042423024 -5.00000000
8.08224773 2.19589806 1.62798238 12 11 7480 8.53200000 2042423026 2042423026 11.00000000
8.15709209 2.21470428 -0.44297153 12 12 7481 8.46400000 2042423028 2042423028 -3.00000000
8.05522919 2.18553829 1.92693079 16 13 7482 8.56600000 2042423031 2042423031 13.00000000
8.15430641 2.21089196 -0.14747283 14 14 7483 8.45000000 2042423033 2042423033 -1.00000000
8.08127117 2.18957567 2.24344349 15 15 7484 8.66800000 2042423035 2042423035 15.00000000
2.17300200 0.58591408 -0.60304838 4 0 7491 2.33000000 2042423056 2042423056 -15.00000000
8.10756683 2.18455362 0.14656530 12 1 7492 8.39800000 2042423058 2042423058 1.00000000
2.56854892 0.69160509 -0.61411637 7 2 7493 2.73000000 2042423061 2042423061 -13.00000000
8.11928463 2.18619108 0.44066876 26 3 7493 8.42000000 2042423063 2042423063 3.00000000
3.08640313 0.83046430 -0.62127411 5 4 7494 3.25600000 2042423065 2042423065 -11.00000000
8.08678055 2.17441177 0.73263115 21 5 7495 8.40600000 2042423068 2042423068 5.00000000
3.87265110 1.04057205 -0.63512391 4 6 7496 4.06000000 2042423070 2042423070 -9.00000000
8.06367016 2.16517973 1.02516496 26 7 7497 8.41200000 2042423072 2042423072 7.00000000
5.23415375 1.40444577 -0.66540664 9 8 7498 5.46000000 2042423075 2042423075 -7.00000000
8.07418537 2.16649246 1.32406127 22 9 7498 8.46400000 2042423077 2042423077 9.00000000
6.63536692 1.77918243 -0.60102600 40 10 7499 6.89600000 2042423079 2042423079 -5.00000000
8.07279682 2.16309929 1.62454784 25 11 7500 8.51400000 2042423081 2042423081 11.00000000
8.09146023 2.16658664 -0.43899399 17 12 7501 8.38800000 2042423084 2042423084 -3.00000000
8.06280899 2.15740705 1.92693079 33 13 7502 8.56600000 2042423086 2042423086 13.00000000
8.04026890 2.14987206 -0.14527383 18 14 7503 8.32400000 2042423088 2042423088 -1.00000000
8.06833458 2.15586782 2.23774958 22 15 7504 8.64600000 2042423091 2042423091 15.00000000
2.17856550 0.58007866 -0.60408366 4 0 7509 2.33400000 2042423111 2042423111 -15.00000000
8.02742958 2.13593388 0.14499459 28 1 7510 8.30800000 2042423114 2042423114 1.00000000
2.56694245 0.68253082 -0.61321658 7 2 7511 2.72600000 2042423116 2042423116 -13.00000000
8.06820679 2.14527607 0.43752858 36 3 7511 8.36000000 2042423118 2042423118 3.00000000
3.09658647 0.82278061 -0.62280059 5 4 7512 3.26400000 2042423121 2042423121 -11.00000000
8.05120754 2.13774705 0.72879630 36 5 7513 8.36200000 2042423123 2042423123 5.00000000
3.87971973 1.02941382 -0.63574964 6 6 7514 4.06400000 2042423125 2042423125 -9.00000000
8.05891991 2.13678384 1.02370250 28 7 7515 8.40000000 2042423127 2042423127 7.00000000
5.23278332 1.38646996 -0.66467541 9 8 7516 5.45400000 2042423130 2042423130 -7.00000000
8.06567574 2.13706851 1.32155836 25 9 7516 8.44800000 2042423132 2042423132 9.00000000
6.63514566 1.75679827 -0.60050309 48 10 7517 6.89000000 2042423134 2042423134 -5.00000000
8.06436825 2.13370991 1.62149489 28 11 7518 8.49800000 2042423137 2042423137 11.00000000
8.02099037 2.12073493 -0.43480712 34 12 7519 8.30800000 2042423139 2042423139 -3.00000000
8.08838749 2.13704419 1.93142974 28 13 7520 8.58600000 2042423141 2042423141 13.00000000
8.02764893 2.11949754 -0.14492479 36 14 7521 8.30400000 2042423144 2042423144 -1.00000000
8.09337425 2.13685060 2.24292588 18 15 7521 8.66600000 2042423146 2042423146 15.00000000
2.18805122 0.57443267 -0.60615420 4 0 7529 2.34200000 2042423167 2042423167 -15.00000000
8.03677082 2.10840726 0.14502950 34 1 7530 8.31000000 2042423169 2042423169 1.00000000
2.55988407 0.67109549 -0.61096704 10 2 7531 2.71600000 2042423171 2042423171 -13.00000000
8.05439472 2.11152840 0.43637720 26 3 7531 8.33800000 2042423174 2042423174 3.00000000
3.09943962 0.81196648 -0.62280059 5 4 7532 3.26400000 2042423176 2042423176 -11.00000000
8.05476570 2.10862112 0.72844768 25 5 7533 8.35800000 2042423178 2042423178 5.00000000
3.88520050 1.01636469 -0.63606256 6 6 7534 4.06600000 2042423180 2042423180 -9.00000000
8.08937645 2.11466455 1.02662730 23 7 7535 8.42400000 2042423183 2042423183 7.00000000
5.24527407 1.37020254 -0.66565037 9 8 7536 5.46200000 2042423185 2042423185 -7.00000000
8.09411049 2.11439300 1.32499993 10 9 7536 8.47000000 2042423187 2042423187 9.00000000
6.64894867 1.73563945 -0.60120034 52 10 7537 6.89800000 2042423190 2042423190 -5.00000000
8.02641201 2.09221959 -0.43470246 29 12 7539 8.30600000 2042423194 2042423194 -3.00000000
8.04080391 2.09297395 -0.14502950 22 14 7541 8.31000000 2042423199 2042423199 -1.00000000
8.21333027 2.13635111 2.27398419 33 15 7542 8.78600000 2042423201 2042423201 15.00000000
2.19191337 0.56727546 -0.60667187 4 0 7549 2.34400000 2042423222 2042423222 -15.00000000
8.10022545 2.09486079 0.14604174 15 1 7550 8.36800000 2042423224 2042423224 1.00000000
2.56787133 0.66361851 -0.61231679 7 2 7551 2.72200000 2042423227 2042423227 -13.00000000
8.16070366 2.10746264 0.44171548 57 3 7552 8.44000000 2042423229 2042423229 3.00000000
3.09655237 0.79966980 -0.62165570 5 4 7552 3.25800000 2042423231 2042423231 -11.00000000
8.17204094 2.10886884 0.73838347 68 5 7553 8.47200000 2042423233 2042423233 5.00000000
3.89255023 1.00378323 -0.63668829 6 6 7554 4.07000000 2042423236 2042423236 -9.00000000
8.17360020 2.10622859 1.03637695 97 7 7555 8.50400000 2042423238 2042423238 7.00000000
5.23464584 1.34792471 -0.66370046 9 8 7556 5.44600000 2042423240 2042423240 -7.00000000
6.64531898 1.70993721 -0.60032874 44 10 7557 6.88800000 2042423245 2042423245 -5.00000000
8.11878109 2.08605909 -0.43930802 17 12 7559 8.39400000 2042423250 2042423250 -3.00000000
8.14684582 2.09023881 -0.14680964 16 14 7561 8.41200000 2042423254 2042423254 -1.00000000
8.21475601 2.10766268 2.27243114 47 15 7561 8.78000000 2042423257 2042423257 15.00000000
2.17703295 0.55532336 -0.60201311 4 0 7569 2.32600000 2042423277 2042423277 -15.00000000
8.16562080 2.08139062 0.14708889 12 1 7570 8.42800000 2042423280 2042423280 1.00000000
2.57017207 0.65465093 -0.61231679 7 2 7571 2.72200000 2042423282 2042423282 -13.00000000
8.17575264 2.08093429 0.44213417 84 3 7572 8.44800000 2042423284 2042423284 3.00000000
3.09171438 0.78691888 -0.62012923 5 4 7572 3.25000000 2042423286 2042423286 -11.00000000
8.16583538 2.07689261 0.73716325 79 5 7573 8.45800000 2042423289 2042423289 5.00000000
3.89411592 0.98970294 -0.63637543 6 6 7574 4.06800000 2042423291 2042423291 -9.00000000
8.18667412 2.07915044 1.03710806 95 7 7575 8.51000000 2042423293 2042423293 7.00000000
5.23162270 1.32769096 -0.66272551 9 8 7576 5.43800000 2042423296 2042423296 -7.00000000
6.63000345 1.68134296 -0.59841132 40 10 7577 6.86600000 2042423300 2042423300 -5.00000000
8.16473579 2.06751204 -0.44140145 17 12 7579 8.43400000 2042423305 2042423305 -3.00000000
8.15409184 2.06178832 -0.14680964 12 14 7581 8.41200000 2042423310 2042423310 -1.00000000
8.22055244 2.07706666 2.27191353 51 15 7582 8.77800000 2042423312 2042423312 15.00000000
2.17324209 0.54668719 -0.60046017 4 0 7588 2.32000000 2042423333 2042423333 -15.00000000
8.15890217 2.05088854 0.14684455 12 1 7589 8.41400000 2042423335 2042423335 1.00000000
2.57232881 0.64612436 -0.61231679 7 2 7590 2.72200000 2042423337 2042423337 -13.00000000
8.18260860 2.05381107 0.44213417 99 3 7591 8.44800000 2042423339 2042423339 3.00000000
3.09240270 0.77618414 -0.61974764 5 4 7591 3.24800000 2042423342 2042423342 -11.00000000
8.16108322 2.04689407 0.73611742 90 5 7592 8.44600000 2042423344 2042423344 5.00000000
3.88779593 0.97438306 -0.63481104 6 6 7593 4.05800000 2042423346 2042423346 -9.00000000
8.17811966 2.04813290 1.03515816 99 7 7594 8.49400000 2042423349 2042423349 7.00000000
5.25525379 1.31515419 -0.66516286 9 8 7595 5.45800000 2042423351 2042423351 -7.00000000
6.62974405 1.65789783 -0.59788841 40 10 7596 6.86000000 2042423356 2042423356 -5.00000000
8.16573429 2.03897405 -0.44108742 12 12 7598 8.42800000 2042423360 2042423360 -3.00000000
8.16282463 2.03522086 -0.14684455 10 14 7600 8.41400000 2042423365 2042423365 -1.00000000
8.20829296 2.04655719 2.26673722 51 15 7600 8.75800000 2042423367 2042423367 15.00000000
2.18638778 0.54188627 -0.60356599 4 0 7608 2.33200000 2042423388 2042423388 -15.00000000
8.14271927 2.01662755 0.14642569 12 1 7609 8.39000000 2042423390 2042423390 1.00000000
2.56889343 0.63573688 -0.61096704 9 2 7610 2.71600000 2042423392 2042423392 -13.00000000
8.18778896 2.02475643 0.44202948 100 3 7611 8.44600000 2042423395 2042423395 3.00000000
3.10843420 0.76868397 -0.62241894 5 4 7611 3.26200000 2042423397 2042423397 -11.00000000
8.15463829 2.01504850 0.73489720 79 5 7612 8.43200000 2042423399 2042423399 5.00000000
3.87391329 0.95654434 -0.63199526 6 6 7613 4.04000000 2042423402 2042423402 -9.00000000
8.17172813 2.01624489 1.03345203 97 7 7614 8.48000000 2042423404 2042423404 7.00000000
5.25981236 1.29680192 -0.66516286 9 8 7615 5.45800000 2042423406 2042423406 -7.00000000
6.63162136 1.63379240 -0.59753978 12 10 7616 6.85600000 2042423411 2042423411 -5.00000000
8.16116524 2.00759530 -0.44045940 12 12 7618 8.41600000 2042423415 2042423415 -3.00000000
8.16405296 2.00528383 -0.14673984 12 14 7620 8.40800000 2042423420 2042423420 -1.00000000
8.21010971 2.01507711 2.26518416 47 15 7621 8.75200000 2042423422 2042423422 15.00000000
2.19398952 0.53524274 -0.60511893 4 0 7629 2.33800000 2042423443 2042423443 -15.00000000
8.15394115 1.98771656 0.14649551 12 1 7630 8.39400000 2042423445 2042423445 1.00000000
2.57120633 0.62631714 -0.61096704 9 2 7631 2.71600000 2042423448 2042423448 -13.00000000
8.16216469 1.98670316 0.44025007 94 3 7632 8.41200000 2042423450 2042423450 3.00000000
3.11695337 0.75867873 -0.62356383 5 4 7632 3.26800000 2042423452 2042423452 -11.00000000
8.15422535 1.98326325 0.73420000 76 5 7633 8.42400000 2042423455 2042423455 5.00000000
3.89466882 0.94653785 -0.63481104 6 6 7634 4.05800000 2042423457 2042423457 -9.00000000
8.16363049 1.98253274 1.03150213 97 7 7635 8.46400000 2042423459 2042423459 7.00000000
5.24909735 1.27376997 -0.66321295 9 8 7636 5.44200000 2042423462 2042423462 -7.00000000
6.63562870 1.60900581 -0.59736544 8 10 7637 6.85400000 2042423466 2042423466 -5.00000000
8.16070366 1.97578967 -0.44004071 12 12 7639 8.40800000 2042423471 2042423471 -3.00000000
8.16357327 1.97346818 -0.14660022 14 14 7641 8.40000000 2042423475 2042423475 -1.00000000
8.21146107 1.98504448 2.26363134 51 15 7641 8.74600000 2042423478 2042423478 15.00000000
2.20147967 0.52893490 -0.60667187 4 0 7649 2.34400000 2042423498 2042423498 -15.00000000
8.16471863 1.96017563 0.14656530 12 1 7650 8.39800000 2042423501 2042423501 1.00000000
2.57148194 0.61688352 -0.61051714 7 2 7651 2.71400000 2042423503 2042423503 -13.00000000
8.15351200 1.95447516 0.43941268 97 3 7652 8.39600000 2042423505 2042423505 3.00000000
3.10240030 0.74367511 -0.62012923 5 4 7652 3.25000000 2042423508 2042423508 -11.00000000
8.16691113 1.95617986 0.73472291 76 5 7653 8.43000000 2042423510 2042423510 5.00000000
3.89218569 0.93155771 -0.63387245 6 6 7654 4.05200000 2042423512 2042423512 -9.00000000
8.17243195 1.95448601 1.03174591 99 7 7655 8.46600000 2042423515 2042423515 7.00000000
5.24965000 1.25451672 -0.66272551 9 8 7656 5.43800000 2042423517 2042423517 -7.00000000
6.64120483 1.58583331 -0.59736544 16 10 7657 6.85400000 2042423521 2042423521 -5.00000000
8.15589428 1.94451237 -0.43941268 17 12 7659 8.39600000 2042423526 2042423526 -3.00000000
8.15485001 1.94125521 -0.14632097 14 14 7661 8.38400000 2042423531 2042423531 -1.00000000
8.22619915 1.95672274 2.26570201 56 15 7662 8.75400000 2042423533 2042423533 15.00000000
2.18630266 0.51762593 -0.60201311 4 0 7668 2.32600000 2042423554 2042423554 -15.00000000
8.15949821 1.93032742 0.14635588 18 1 7669 8.38600000 2042423556 2042423556 1.00000000
2.57920289 0.60969776 -0.61186689 9 2 7670 2.72000000 2042423558 2042423558 -13.00000000
8.16189194 1.92788553 0.43951735 99 3 7671 8.39800000 2042423561 2042423561 3.00000000
3.10484934 0.73338312 -0.62012923 5 4 7671 3.25000000 2042423563 2042423563 -11.00000000
8.15590191 1.92496765 0.73315412 76 5 7672 8.41200000 2042423565 2042423565 5.00000000
3.89717603 0.91909909 -0.63418531 6 6 7673 4.05400000 2042423568 2042423568 -9.00000000
8.18273258 1.92828512 1.03223336 100 7 7674 8.47000000 2042423570 2042423570 7.00000000
5.25378132 1.23710132 -0.66272551 9 8 7675 5.43800000 2042423572 2042423572 -7.00000000
6.62703276 1.55923843 -0.59562236 28 10 7676 6.83400000 2042423577 2042423577 -5.00000000
8.15840816 1.91654217 -0.43920335 17 12 7678 8.39200000 2042423581 2042423581 -3.00000000
8.13788033 1.90872252 -0.14590211 16 14 7680 8.36000000 2042423586 2042423586 -1.00000000
8.20973587 1.92557609 2.25949025 58 15 7680 8.73000000 2042423588 2042423588 15.00000000
2.18433332 0.50911415 -0.60097784 4 0 7688 2.32200000 2042423609 2042423609 -15.00000000
8.15060616 1.89820504 0.14607663 18 1 7689 8.37000000 2042423611 2042423611 1.00000000
2.58700943 0.60201597 -0.61321658 7 2 7690 2.72600000 2042423614 2042423614 -13.00000000
8.16857243 1.89938343 0.43951735 99 3 7691 8.39800000 2042423616 2042423616 3.00000000
3.10930252 0.72298533 -0.62051088 8 4 7691 3.25200000 2042423618 2042423618 -11.00000000
8.14704514 1.89287925 0.73175961 76 5 7692 8.39600000 2042423621 2042423621 5.00000000
3.91190577 0.90817010 -0.63606256 6 6 7693 4.06600000 2042423623 2042423623 -9.00000000
8.17974472 1.89746749 1.03101468 97 7 7694 8.46000000 2042423625 2042423625 7.00000000
5.26193523 1.21965110 -0.66321295 9 8 7695 5.44200000 2042423627 2042423627 -7.00000000
6.63049412 1.53564668 -0.59544802 32 10 7696 6.83200000 2042423632 2042423632 -5.00000000
8.16894054 1.88895226 -0.43941268 17 12 7698 8.39600000 2042423637 2042423637 -3.00000000
8.24802876 1.90572381 1.95437479 3 13 7699 8.68800000 2042423639 2042423639 13.00000000
8.13669968 1.87850511 -0.14576250 16 14 7700 8.35200000 2042423641 2042423641 -1.00000000
8.20544338 1.89286757 2.25638437 51 15 7701 8.71800000 2042423644 2042423644 15.00000000
2.18968773 0.50311458 -0.60201311 4 0 7706 2.32600000 2042423664 2042423664 -15.00000000
8.13898849 1.86856282 0.14576250 15 1 7707 8.35200000 2042423667 2042423667 1.00000000
2.58508921 0.59301424 -0.61231679 7 2 7708 2.72200000 2042423669 2042423669 -13.00000000
8.17644596 1.87415802 0.43962204 100 3 7709 8.40000000 2042423671 2042423671 3.00000000
3.12686753 0.71672267 -0.62356383 15 4 7709 3.26800000 2042423674 2042423674 -11.00000000
8.14906788 1.86638570 0.73141098 76 5 7710 8.39200000 2042423676 2042423676 5.00000000
3.88778138 0.88970667 -0.63168240 6 6 7711 4.03800000 2042423678 2042423678 -9.00000000
8.17018414 1.86822069 1.02906477 95 7 7712 8.44400000 2042423680 2042423680 7.00000000
5.26767635 1.20355642 -0.66345668 9 8 7713 5.44400000 2042423683 2042423683 -7.00000000
6.62751627 1.51303506 -0.59475076 16 10 7714 6.82400000 2042423687 2042423687 -5.00000000
8.16120338 1.86017263 -0.43867999 21 12 7716 8.38200000 2042423692 2042423692 -3.00000000
8.25017452 1.87893701 1.95347500 3 13 7717 8.68400000 2042423694 2042423694 13.00000000
8.14451027 1.85337734 -0.14579740 18 14 7718 8.35400000 2042423697 2042423697 -1.00000000
8.20348930 1.86679864 2.25431395 51 15 7718 8.71000000 2042423699 2042423699 15.00000000
2.20273614 0.49802420 -0.60511893 4 0 7726 2.33800000 2042423720 2042423720 -15.00000000
8.14741135 1.84058166 0.14579740 18 1 7727 8.35400000 2042423722 2042423722 1.00000000
2.57953978 0.58227062 -0.61051714 7 2 7728 2.71400000 2042423724 2042423724 -13.00000000
8.16930008 1.84252954 0.43888932 100 3 7729 8.38600000 2042423727 2042423727 3.00000000
3.11977458 0.70364374 -0.62165570 15 4 7729 3.25800000 2042423729 2042423729 -11.00000000
8.15358925 1.83749080 0.73123670 76 5 7730 8.39000000 2042423731 2042423731 5.00000000
3.90242600 0.87873399 -0.63355958 6 6 7731 4.05000000 2042423733 2042423733 -9.00000000
8.16503620 1.83707571 1.02760231 95 7 7732 8.43200000 2042423736 2042423736 7.00000000
5.27378225 1.18559694 -0.66370046 9 8 7733 5.44600000 2042423738 2042423738 -7.00000000
6.64053297 1.49163818 -0.59544802 12 10 7734 6.83200000 2042423743 2042423743 -5.00000000
8.15010738 1.82773983 -0.43773794 17 12 7736 8.36400000 2042423747 2042423747 -3.00000000
8.24717522 1.84799659 1.95122540 3 13 7737 8.67400000 2042423750 2042423750 13.00000000
8.16068745 1.82712090 -0.14597192 16 14 7738 8.36400000 2042423752 2042423752 -1.00000000
8.20995522 1.83815169 2.25431395 51 15 7738 8.71000000 2042423754 2042423754 15.00000000
2.20454669 0.48994744 -0.60511893 4 0 7747 2.33800000 2042423775 2042423775 -15.00000000
8.15800762 1.81157458 0.14586721 15 1 7748 8.35800000 2042423777 2042423777 1.00000000
2.58546162 0.57365650 -0.61141694 7 2 7749 2.71800000 2042423780 2042423780 -13.00000000
8.15844917 1.80868459 0.43794727 100 3 7750 8.36800000 2042423782 2042423782 3.00000000
3.11658239 0.69092971 -0.62051088 5 4 7750 3.25200000 2042423784 2042423784 -11.00000000
8.15832424 1.80716312 0.73106235 79 5 7751 8.38800000 2042423786 2042423786 5.00000000
3.90947795 0.86527878 -0.63418531 6 6 7752 4.05400000 2042423789 2042423789 -9.00000000
8.16396141 1.80542243 1.02662730 95 7 7753 8.42400000 2042423791 2042423791 7.00000000
5.25870895 1.16197658 -0.66126305 6 8 7754 5.42600000 2042423793 2042423793 -7.00000000
6.64011908 1.46600080 -0.59492511 12 10 7755 6.82600000 2042423798 2042423798 -5.00000000
8.15285110 1.79699612 -0.43752858 17 12 7757 8.36000000 2042423803 2042423803 -3.00000000
8.25008678 1.81691861 1.95032561 3 13 7758 8.67000000 2042423805 2042423805 13.00000000
8.14779949 1.79290080 -0.14562288 16 14 7759 8.34400000 2042423807 2042423807 -1.00000000
8.21663761 1.80804837 2.25431395 56 15 7759 8.71000000 2042423809 2042423809 15.00000000
2.19491982 0.47977394 -0.60201311 4 0 7767 2.32600000 2042423830 2042423830 -15.00000000
8.15646648 1.78138006 0.14572759 21 1 7768 8.35000000 2042423833 2042423833 1.00000000
2.57983255 0.56296617 -0.60961735 7 2 7769 2.71000000 2042423835 2042423835 -13.00000000
8.16080952 1.77934432 0.43773794 100 3 7770 8.36400000 2042423837 2042423837 3.00000000
3.12664795 0.68171954 -0.62203735 5 4 7770 3.26000000 2042423839 2042423839 -11.00000000
8.14900875 1.77528143 0.72966790 79 5 7771 8.37200000 2042423842 2042423842 5.00000000
3.92019510 0.85330743 -0.63543677 6 6 7772 4.06200000 2042423844 2042423844 -9.00000000
8.17603302 1.77817953 1.02735853 99 7 7773 8.43000000 2042423846 2042423846 7.00000000
5.26273298 1.14361310 -0.66126305 9 8 7774 5.42600000 2042423849 2042423849 -7.00000000
6.63351393 1.44027698 -0.59387922 8 10 7775 6.81400000 2042423853 2042423853 -5.00000000
8.15712166 1.76810336 -0.43742391 17 12 7777 8.35800000 2042423858 2042423858 -3.00000000
8.25257015 1.78728437 1.94942582 3 13 7778 8.66600000 2042423860 2042423860 13.00000000
8.14814472 1.76317990 -0.14551817 14 14 7779 8.33800000 2042423862 2042423862 -1.00000000
8.21187973 1.77547121 2.25120807 49 15 7780 8.69800000 2042423865 2042423865 15.00000000
2.18705559 0.47046134 -0.59942490 4 0 7786 2.31600000 2042423886 2042423886 -15.00000000
8.15841866 1.75348210 0.14565778 15 1 7787 8.34600000 2042423888 2042423888 1.00000000
2.59311700 0.55686295 -0.61231679 7 2 7788 2.72200000 2042423890 2042423890 -13.00000000
8.16080666 1.75101531 0.43742391 100 3 7789 8.35800000 2042423892 2042423892 3.00000000
3.12505245 0.67052370 -0.62127411 5 4 7789 3.25600000 2042423895 2042423895 -11.00000000
8.14316273 1.74574268 0.72862202 76 5 7790 8.36000000 2042423897 2042423897 5.00000000
3.91141391 0.83782047 -0.63355958 6 6 7791 4.05000000 2042423899 2042423899 -9.00000000
8.17217922 1.74897981 1.02613986 97 7 7792 8.42000000 2042423902 2042423902 7.00000000
5.27037859 1.12698519 -0.66175056 9 8 7793 5.43000000 2042423904 2042423904 -7.00000000
6.62656307 1.41577387 -0.59283334 12 10 7794 6.80200000 2042423909 2042423909 -5.00000000
8.16684723 1.74187684 -0.43763328 17 12 7796 8.36200000 2042423913 2042423913 -3.00000000
8.25273323 1.75868952 1.94807613 3 13 7797 8.66000000 2042423915 2042423915 13.00000000
8.15394688 1.73615003 -0.14551817 14 14 7798 8.33800000 2042423918 2042423918 -1.00000000
8.19663239 1.74523866 2.24551415 47 15 7798 8.67600000 2042423920 2042423920 15.00000000
2.19813466 0.46482262 -0.60201311 4 0 7806 2.32600000 2042423941 2042423941 -15.00000000
8.14492512 1.72085953 0.14530873 15 1 7807 8.32600000 2042423943 2042423943 1.00000000
2.59504509 0.54780787 -0.61231679 7 2 7808 2.72200000 2042423945 2042423945 -13.00000000
8.16296101 1.72169363 0.43721458 100 3 7809 8.35400000 2042423948 2042423948 3.00000000
3.13505793 0.66123182 -0.62280059 5 4 7809 3.26400000 2042423950 2042423950 -11.00000000
8.14725685 1.71689630 0.72844768 76 5 7810 8.35800000 2042423952 2042423952 5.00000000
3.91624761 0.82456899 -0.63387245 6 6 7811 4.05200000 2042423955 2042423955 -9.00000000
8.16657829 1.71799099 1.02467740 95 7 7812 8.40800000 2042423957 2042423957 7.00000000
5.27816582 1.10939789 -0.66223800 9 8 7813 5.43400000 2042423959 2042423959 -7.00000000
6.63536406 1.39345324 -0.59318197 12 10 7814 6.80600000 2042423964 2042423964 -5.00000000
8.14941978 1.70844114 -0.43637720 17 12 7816 8.33800000 2042423968 2042423968 -3.00000000
8.26645184 1.73146939 1.94987571 3 13 7817 8.66800000 2042423971 2042423971 13.00000000
8.15017128 1.70562875 -0.14534365 16 14 7818 8.32800000 2042423973 2042423973 -1.00000000
8.19511127 1.71503365 2.24344349 49 15 7818 8.66800000 2042423975 2042423975 15.00000000
2.20352674 0.45793301 -0.60304838 4 0 7826 2.33000000 2042423996 2042423996 -15.00000000
8.15088272 1.69241786 0.14530873 15 1 7827 8.32600000 2042423998 2042423998 1.00000000
2.57976842 0.53518355 -0.60826766 6 2 7828 2.70400000 2042424001 2042424001 -13.00000000
8.16080284 1.69299209 0.43679589 100 3 7828 8.34600000 2042424003 2042424003 3.00000000
3.13350224 0.64948750 -0.62203735 5 4 7829 3.26000000 2042424005 2042424005 -11.00000000
8.14734745 1.68723452 0.72792476 76 5 7830 8.35200000 2042424008 2042424008 5.00000000
3.91910219 0.81089371 -0.63387245 6 6 7831 4.05200000 2042424010 2042424010 -9.00000000
8.16086197 1.68706262 1.02321506 90 7 7832 8.39600000 2042424012 2042424012 7.00000000
5.27034187 1.08855772 -0.66077560 9 8 7833 5.42200000 2042424014 2042424014 -7.00000000
6.68311596 1.37914169 -0.59701681 8 10 7834 6.85000000 2042424019 2042424019 -5.00000000
8.13185978 1.67514825 -0.43512115 17 12 7836 8.31400000 2042424024 2042424024 -3.00000000
8.25335789 1.69867504 1.94537675 3 13 7837 8.64800000 2042424026 2042424026 13.00000000
8.15803432 1.67757177 -0.14537854 14 14 7838 8.33000000 2042424028 2042424028 -1.00000000
8.20483208 1.68719506 2.24447870 47 15 7838 8.67200000 2042424031 2042424031 15.00000000
2.20511174 0.45023847 -0.60304838 4 0 7846 2.33000000 2042424051 2042424051 -15.00000000
8.15282154 1.66315627 0.14523892 18 1 7847 8.32200000 2042424054 2042424054 1.00000000
2.58925867 0.52773196 -0.61006725 6 2 7848 2.71200000 2042424056 2042424056 -13.00000000
8.15129662 1.65988159 0.43595850 99 3 7849 8.33000000 2042424058 2042424058 3.00000000
3.13575006 0.63854557 -0.62203735 5 4 7849 3.26000000 2042424061 2042424061 -11.00000000
8.15513992 1.65918195 0.72809905 83 5 7850 8.35400000 2042424063 2042424063 5.00000000
3.92384458 0.79760206 -0.63418531 9 6 7851 4.05400000 2042424065 2042424065 -9.00000000
8.16281033 1.65777540 1.02272749 95 7 7852 8.39200000 2042424067 2042424067 7.00000000
5.26827288 1.06896996 -0.66004437 9 8 7853 5.41600000 2042424070 2042424070 -7.00000000
8.11138439 1.64438343 -0.72408992 17 10 7854 8.30800000 2042424074 2042424074 -5.00000000
8.13374233 1.64596033 -0.43491179 17 12 7856 8.31000000 2042424079 2042424079 -3.00000000
8.24013615 1.66599333 1.94087768 3 13 7857 8.62800000 2042424081 2042424081 13.00000000
8.14031887 1.64433348 -0.14495969 14 14 7858 8.30600000 2042424084 2042424084 -1.00000000
8.21285439 1.65749371 2.24499631 51 15 7859 8.67400000 2042424086 2042424086 15.00000000
2.20295882 0.44139424 -0.60201311 4 0 7867 2.32600000 2042424107 2042424107 -15.00000000
8.17062759 1.63561869 0.14544836 15 1 7868 8.33400000 2042424109 2042424109 1.00000000
2.59690833 0.51938486 -0.61141694 7 2 7869 2.71800000 2042424111 2042424111 -13.00000000
8.15312386 1.63063478 0.43574917 99 3 7869 8.32600000 2042424114 2042424114 3.00000000
3.13806939 0.62704813 -0.62203735 5 4 7870 3.26000000 2042424116 2042424116 -11.00000000
8.13967419 1.62498999 0.72618163 72 5 7871 8.33200000 2042424118 2042424118 5.00000000
