# .PCD v0.7 - Point Cloud Data file format
VERSION 0.7
FIELDS x y z intensity laser_id azimuth distance_m adjustedtime timestamp vertical_angle
SIZE 4 4 4 1 1 2 8 8 4 8
TYPE F F F U U U F U U F
COUNT 1 1 1 1 1 1 1 1 1 1
WIDTH 528
HEIGHT 1
VIEWPOINT 0 0 0 1 0 0 0
POINTS 528
DATA ascii
1.82417727 -1.65232325 -0.56822634 3 2 13217 2.52600000 2044339015 2044339015 -13.00000000
3.39872503 -3.07853460 0.24032672 24 3 13217 4.59200000 2044339017 2044339017 3.00000000
2.14444613 -1.94310141 -0.56250495 3 4 13218 2.94800000 2044339019 2044339019 -11.00000000
3.90160918 -3.53652263 0.46070525 26 5 13219 5.28600000 2044339022 2044339022 5.00000000
2.64869642 -2.40169120 -0.56629276 5 6 13220 3.62000000 2044339024 2044339024 -9.00000000
3.95225453 -3.58494258 0.65516961 7 7 13221 5.37600000 2044339026 2044339026 7.00000000
3.42827320 -3.11074948 -0.56839859 4 8 13222 4.66400000 2044339028 2044339028 -7.00000000
5.84430504 -5.30301046 1.24991143 50 9 13222 7.99000000 2044339031 2044339031 9.00000000
4.89937258 -4.44715643 -0.57888842 12 10 13223 6.64200000 2044339033 2044339033 -5.00000000
4.28482008 -3.89069200 1.12500989 24 11 13224 5.89600000 2044339035 2044339035 11.00000000
3.95917487 -3.59626126 -0.28031138 5 12 13225 5.35600000 2044339038 2044339038 -3.00000000
4.07439613 -3.70221877 1.27097344 12 13 13226 5.65000000 2044339040 2044339040 13.00000000
3.30722189 -3.00617647 -0.07801226 18 14 13227 4.47000000 2044339042 2044339042 -1.00000000
5.80249500 -5.27431345 2.10109305 45 15 13227 8.11800000 2044339045 2044339045 15.00000000
1.55478966 -1.41723192 -0.56370789 4 0 13235 2.17800000 2044339065 2044339065 -15.00000000
4.00880146 -3.65540981 0.09469676 67 1 13236 5.42600000 2044339068 2044339068 1.00000000
1.81551898 -1.65605426 -0.56732655 3 2 13237 2.52200000 2044339070 2044339070 -13.00000000
3.41249990 -3.11385703 0.24210614 26 3 13238 4.62600000 2044339072 2044339072 3.00000000
2.14925218 -1.96116161 -0.56555784 3 4 13238 2.96400000 2044339075 2044339075 -11.00000000
3.89512682 -3.55549312 0.46140251 26 5 13239 5.29400000 2044339077 2044339077 5.00000000
2.62716818 -2.39893413 -0.56347692 5 6 13240 3.60200000 2044339079 2044339079 -9.00000000
3.94997621 -3.60808849 0.65687579 7 7 13241 5.39000000 2044339081 2044339081 7.00000000
3.41446280 -3.12001944 -0.56791115 4 8 13242 4.66000000 2044339084 2044339084 -7.00000000
5.80150080 -5.30307102 1.24490547 52 9 13243 7.95800000 2044339086 2044339086 9.00000000
4.86617231 -4.44810057 -0.57679671 12 10 13243 6.61800000 2044339088 2044339088 -5.00000000
4.25817347 -3.89370155 1.12157524 48 11 13244 5.87800000 2044339091 2044339091 11.00000000
4.21039152 -3.85135913 -0.29904765 9 12 13245 5.71400000 2044339093 2044339093 -3.00000000
4.05282211 -3.70852518 1.26827407 9 13 13246 5.63800000 2044339095 2044339095 13.00000000
3.29375815 -3.01500225 -0.07794245 5 14 13247 4.46600000 2044339098 2044339098 -1.00000000
5.76032877 -5.27467108 2.09281087 45 15 13248 8.08600000 2044339100 2044339100 15.00000000
1.54723465 -1.41976774 -0.56267262 4 0 13254 2.17400000 2044339121 2044339121 -15.00000000
3.99223804 -3.66462660 0.09459204 95 1 13255 5.42000000 2044339123 2044339123 1.00000000
1.80284035 -1.65547538 -0.56507707 4 2 13256 2.51200000 2044339125 2044339125 -13.00000000
3.42182517 -3.14212346 0.24346687 24 3 13256 4.65200000 2044339128 2044339128 3.00000000
2.13406205 -1.96030927 -0.56326813 3 4 13257 2.95200000 2044339130 2044339130 -11.00000000
3.89651847 -3.58052301 0.46297130 26 5 13258 5.31200000 2044339132 2044339132 5.00000000
2.62065291 -2.40896988 -0.56378978 5 6 13259 3.60400000 2044339134 2044339134 -9.00000000
5.78205013 -5.31686783 0.96447396 10 7 13260 7.91400000 2044339137 2044339137 7.00000000
3.40117574 -3.12863708 -0.56742364 4 8 13261 4.65600000 2044339139 2044339139 -7.00000000
5.76934719 -5.30890465 1.24177682 52 9 13262 7.93800000 2044339141 2044339141 9.00000000
4.22096300 -3.88409448 -0.50184274 3 10 13262 5.75800000 2044339144 2044339144 -5.00000000
4.22934914 -3.89317489 1.11737752 60 11 13263 5.85600000 2044339146 2044339146 11.00000000
4.20935106 -3.87612367 -0.29988503 30 12 13264 5.73000000 2044339148 2044339148 -3.00000000
4.02330208 -3.70610070 1.26287520 10 13 13265 5.61400000 2044339151 2044339151 13.00000000
3.69843745 -3.40804243 -0.08778560 26 14 13266 5.03000000 2044339153 2044339153 -1.00000000
5.72384024 -5.27441359 2.08556390 45 15 13266 8.05800000 2044339155 2044339155 15.00000000
1.54510701 -1.42778218 -0.56370789 4 0 13274 2.17800000 2044339176 2044339176 -15.00000000
3.97354817 -3.67311001 0.09445243 67 1 13275 5.41200000 2044339178 2044339178 1.00000000
1.78703523 -1.65249693 -0.56192774 4 2 13276 2.49800000 2044339180 2044339180 -13.00000000
3.41083622 -3.15404868 0.24346687 24 3 13276 4.65200000 2044339183 2044339183 3.00000000
2.13008857 -1.97041297 -0.56403136 3 4 13277 2.95600000 2044339185 2044339185 -11.00000000
3.90593171 -3.61440063 0.46558598 28 5 13278 5.34200000 2044339187 2044339187 5.00000000
2.61802649 -2.42347050 -0.56504130 5 6 13279 3.61200000 2044339190 2044339190 -9.00000000
5.74452066 -5.31948471 0.96130538 27 7 13280 7.88800000 2044339192 2044339192 7.00000000
3.38732147 -3.13779235 -0.56693619 4 8 13281 4.65200000 2044339194 2044339194 -7.00000000
5.72759771 -5.30752850 1.23677087 52 9 13282 7.90600000 2044339197 2044339197 9.00000000
4.19861078 -3.89067936 -0.50079691 10 10 13282 5.74600000 2044339199 2044339199 -5.00000000
4.20277548 -3.89590216 1.11394286 63 11 13283 5.83800000 2044339201 2044339201 11.00000000
4.18993711 -3.88536119 -0.29946634 12 12 13284 5.72200000 2044339204 2044339204 -3.00000000
4.08749008 -3.79168844 1.28716993 31 13 13285 5.72200000 2044339206 2044339206 13.00000000
3.70264268 -3.43589401 -0.08816956 30 14 13286 5.05200000 2044339208 2044339208 -1.00000000
5.68840122 -5.27859306 2.07935214 45 15 13286 8.03400000 2044339210 2044339210 15.00000000
1.54859912 -1.44106317 -0.56681371 4 0 13294 2.19000000 2044339231 2044339231 -15.00000000
3.98119378 -3.70603323 0.09494109 60 1 13295 5.44000000 2044339233 2044339233 1.00000000
1.79266524 -1.66934907 -0.56552696 3 2 13296 2.51400000 2044339236 2044339236 -13.00000000
3.40363741 -3.17061305 0.24378088 24 3 13297 4.65800000 2044339238 2044339238 3.00000000
2.11745143 -1.97248363 -0.56250495 3 4 13297 2.94800000 2044339240 2044339240 -11.00000000
3.91224027 -3.64567065 0.46785203 28 5 13298 5.36800000 2044339243 2044339243 5.00000000
2.60955119 -2.43259430 -0.56504130 5 6 13299 3.61200000 2044339245 2044339245 -9.00000000
5.70849562 -5.32325840 0.95838052 52 7 13300 7.86400000 2044339247 2044339247 7.00000000
3.35892892 -3.13334823 -0.56401134 4 8 13301 4.62800000 2044339250 2044339250 -7.00000000
5.70418787 -5.32110310 1.23551941 12 9 13301 7.89800000 2044339252 2044339252 9.00000000
4.16315413 -3.88492179 -0.49818224 10 10 13302 5.71600000 2044339254 2044339254 -5.00000000
4.20637226 -3.92662525 1.11852229 36 11 13303 5.86200000 2044339257 2044339257 11.00000000
4.14131498 -3.86724758 -0.29695421 24 12 13304 5.67400000 2044339259 2044339259 -3.00000000
4.09701490 -3.82721782 1.29436839 26 13 13305 5.75400000 2044339261 2044339261 13.00000000
3.69062662 -3.44879770 -0.08816956 30 14 13306 5.05200000 2044339263 2044339263 -1.00000000
5.65208101 -5.28357553 2.07314062 45 15 13307 8.01000000 2044339266 2044339266 15.00000000
1.52946305 -1.43325031 -0.56163734 4 0 13314 2.17000000 2044339286 2044339286 -15.00000000
3.99449348 -3.74452472 0.09556938 97 1 13315 5.47600000 2044339289 2044339289 1.00000000
1.78682721 -1.67559648 -0.56552696 3 2 13316 2.51400000 2044339291 2044339291 -13.00000000
3.40913033 -3.19691062 0.24493228 24 3 13316 4.68000000 2044339293 2044339293 3.00000000
2.11055326 -1.97986293 -0.56250495 3 4 13317 2.94800000 2044339296 2044339296 -11.00000000
3.89803767 -3.65794134 0.46767771 26 5 13318 5.36600000 2044339298 2044339298 5.00000000
2.60104394 -2.44168854 -0.56504130 5 6 13319 3.61200000 2044339300 2044339300 -9.00000000
5.66527891 -5.32005119 0.95423698 57 7 13320 7.83000000 2044339303 2044339303 7.00000000
3.35086489 -3.14777231 -0.56449878 4 8 13321 4.63200000 2044339305 2044339305 -7.00000000
4.19762707 -3.94459271 0.91232580 61 9 13322 5.83200000 2044339307 2044339307 9.00000000
4.13650084 -3.88715076 -0.49661341 10 10 13322 5.69800000 2044339310 2044339310 -5.00000000
5.64168262 -5.30345440 1.50510132 56 11 13323 7.88800000 2044339312 2044339312 11.00000000
4.13652039 -3.88988924 -0.29758224 12 12 13324 5.68600000 2044339314 2044339314 -3.00000000
3.97291660 -3.73734689 1.25927603 9 13 13325 5.59800000 2044339316 2044339316 13.00000000
3.68730330 -3.46988177 -0.08837899 28 14 13326 5.06400000 2044339319 2044339319 -1.00000000
5.60125065 -5.27281713 2.06123495 47 15 13327 7.96400000 2044339321 2044339321 15.00000000
1.51577091 -1.43088973 -0.55853152 4 0 13335 2.15800000 2044339342 2044339342 -15.00000000
3.97928834 -3.75776696 0.09553447 100 1 13336 5.47400000 2044339344 2044339344 1.00000000
1.77784061 -1.67945790 -0.56462717 3 2 13337 2.51000000 2044339346 2044339346 -13.00000000
3.40755343 -3.21898508 0.24566498 22 3 13337 4.69400000 2044339349 2044339349 3.00000000
2.10899019 -1.99297893 -0.56403136 3 4 13338 2.95600000 2044339351 2044339351 -11.00000000
3.89039588 -3.67767859 0.46837497 26 5 13339 5.37400000 2044339353 2044339353 5.00000000
2.58777142 -2.44713378 -0.56410271 5 6 13340 3.60600000 2044339356 2044339356 -9.00000000
5.62411070 -5.32031679 0.95058089 50 7 13341 7.80000000 2044339358 2044339358 7.00000000
3.33930516 -3.16003275 -0.56449878 4 8 13342 4.63200000 2044339360 2044339360 -7.00000000
4.16661501 -3.94292808 0.90857136 52 9 13342 5.80800000 2044339363 2044339363 9.00000000
4.10052204 -3.88174009 -0.49399874 14 10 13343 5.66800000 2044339365 2044339365 -5.00000000
5.59369659 -5.29709816 1.49746895 53 11 13344 7.84800000 2044339367 2044339367 11.00000000
4.07583666 -3.86107039 -0.29423276 2 12 13345 5.62200000 2044339369 2044339369 -3.00000000
3.91534233 -3.71032953 1.24532902 8 13 13346 5.53600000 2044339372 2044339372 13.00000000
3.68617082 -3.49437904 -0.08865822 28 14 13347 5.08000000 2044339374 2044339374 -1.00000000
5.55665493 -5.26938343 2.05191731 47 15 13348 7.92800000 2044339376 2044339376 15.00000000
1.51496732 -1.44016504 -0.56008440 4 0 13355 2.16400000 2044339397 2044339397 -15.00000000
3.96179986 -3.76750040 0.09542976 87 1 13356 5.46800000 2044339399 2044339399 1.00000000
1.77337933 -1.68699658 -0.56507707 4 2 13357 2.51200000 2044339402 2044339402 -13.00000000
3.40642595 -3.24049616 0.24639769 22 3 13357 4.70800000 2044339404 2044339404 3.00000000
2.11055374 -2.00844884 -0.56632107 3 4 13358 2.96800000 2044339406 2044339406 -11.00000000
3.88907933 -3.70222616 0.46976945 27 5 13359 5.39000000 2044339409 2044339409 5.00000000
2.57349157 -2.45070291 -0.56285119 5 6 13360 3.59800000 2044339411 2044339411 -9.00000000
5.58107090 -5.31663990 0.94643730 30 7 13361 7.76600000 2044339413 2044339413 7.00000000
3.33112836 -3.17440867 -0.56498629 4 8 13362 4.63600000 2044339416 2044339416 -7.00000000
4.13995600 -3.94518328 0.90575558 57 9 13362 5.79000000 2044339418 2044339418 9.00000000
4.07829475 -3.88778162 -0.49295288 17 10 13363 5.65600000 2044339420 2044339420 -5.00000000
5.55528116 -5.29762316 1.49212635 53 11 13364 7.82000000 2044339422 2044339422 11.00000000
4.04210234 -3.85597372 -0.29276735 2 12 13365 5.59400000 2044339425 2044339425 -3.00000000
3.85866284 -3.68226767 1.23138201 7 13 13366 5.47400000 2044339427 2044339427 13.00000000
3.69130778 -3.52379441 -0.08907709 28 14 13367 5.10400000 2044339429 2044339429 -1.00000000
5.51727057 -5.26873493 2.04415274 47 15 13368 7.89800000 2044339432 2044339432 15.00000000
1.51551306 -1.45078814 -0.56215495 4 0 13375 2.17200000 2044339452 2044339452 -15.00000000
3.93418193 -3.76747608 0.09508071 72 1 13376 5.44800000 2044339455 2044339455 1.00000000
1.75622201 -1.68239200 -0.56147784 4 2 13377 2.49600000 2044339457 2044339457 -13.00000000
3.40086269 -3.25789356 0.24681637 22 3 13377 4.71600000 2044339459 2044339459 3.00000000
2.09502530 -2.00765371 -0.56403136 3 4 13378 2.95600000 2044339462 2044339462 -11.00000000
3.89626813 -3.73508167 0.47220981 27 5 13379 5.41800000 2044339464 2044339464 5.00000000
2.55921817 -2.45420218 -0.56159973 5 6 13380 3.59000000 2044339466 2044339466 -9.00000000
4.15144539 -3.98248410 0.70635474 60 7 13381 5.79600000 2044339468 2044339468 7.00000000
3.31716275 -3.18326831 -0.56449878 4 8 13382 4.63200000 2044339471 2044339471 -7.00000000
4.13898706 -3.97192001 0.90857136 45 9 13382 5.80800000 2044339473 2044339473 9.00000000
4.05032587 -3.88819599 -0.49120978 17 10 13383 5.63600000 2044339475 2044339475 -5.00000000
5.50843430 -5.28978539 1.48449397 56 11 13384 7.78000000 2044339478 2044339478 11.00000000
4.03149843 -3.87282705 -0.29297668 2 12 13385 5.59800000 2044339480 2044339480 -3.00000000
3.84157038 -3.69166374 1.23003232 8 13 13386 5.46800000 2044339482 2044339482 13.00000000
3.69340110 -3.55051637 -0.08942613 26 14 13387 5.12400000 2044339485 2044339485 -1.00000000
5.48444891 -5.27227497 2.03845882 47 15 13387 7.87600000 2044339487 2044339487 15.00000000
1.51322126 -1.45875096 -0.56319022 4 0 13395 2.17600000 2044339508 2044339508 -15.00000000
3.91237044 -3.77285743 0.09487128 67 1 13396 5.43600000 2044339510 2044339510 1.00000000
1.75875378 -1.69663000 -0.56417722 4 2 13397 2.50800000 2044339512 2044339512 -13.00000000
3.40096927 -3.28083825 0.24765374 22 3 13397 4.73200000 2044339515 2044339515 3.00000000
2.07952833 -2.00677466 -0.56174171 3 4 13398 2.94400000 2044339517 2044339517 -11.00000000
3.90614176 -3.77079988 0.47499880 27 5 13399 5.45000000 2044339519 2044339519 5.00000000
2.55347776 -2.46586490 -0.56222546 5 6 13400 3.59400000 2044339521 2044339521 -9.00000000
4.12038612 -3.98040056 0.70342988 57 7 13401 5.77200000 2044339524 2044339524 7.00000000
3.29318357 -3.18241262 -0.56230515 4 8 13402 4.61400000 2044339526 2044339526 -7.00000000
5.49018621 -5.30551577 1.20923841 52 9 13402 7.73000000 2044339528 2044339528 9.00000000
4.02526903 -3.89123249 -0.48981526 17 10 13403 5.62000000 2044339531 2044339531 -5.00000000
5.47582293 -5.29533339 1.48067784 56 11 13404 7.76000000 2044339533 2044339533 11.00000000
4.00790644 -3.87715530 -0.29224399 2 12 13405 5.58400000 2044339535 2044339535 -3.00000000
3.68673205 -3.56895065 -0.08956575 20 14 13407 5.13200000 2044339540 2044339540 -1.00000000
5.45259809 -5.28024578 2.03380013 45 15 13408 7.85800000 2044339542 2044339542 15.00000000
1.50396156 -1.45998728 -0.56163734 4 0 13415 2.17000000 2044339563 2044339563 -15.00000000
3.86187792 -3.75027013 0.09396376 15 1 13416 5.38400000 2044339565 2044339565 1.00000000
1.74583173 -1.69596958 -0.56192774 3 2 13417 2.49800000 2044339568 2044339568 -13.00000000
3.40324497 -3.30720067 0.24870047 24 3 13418 4.75200000 2044339570 2044339570 3.00000000
2.06406283 -2.00581217 -0.55945200 3 4 13418 2.93200000 2044339572 2044339572 -11.00000000
3.89581275 -3.78718948 0.47534743 27 5 13419 5.45400000 2044339574 2044339574 5.00000000
2.55051947 -2.48027182 -0.56347692 5 6 13420 3.60200000 2044339577 2044339577 -9.00000000
4.09223795 -3.98091722 0.70099247 55 7 13421 5.75200000 2044339579 2044339579 7.00000000
3.28063226 -3.19250417 -0.56206143 4 8 13422 4.61200000 2044339581 2044339581 -7.00000000
5.43907213 -5.29296160 1.20204246 55 9 13422 7.68400000 2044339584 2044339584 9.00000000
3.99310231 -3.88719249 -0.48754922 14 10 13423 5.59400000 2044339586 2044339586 -5.00000000
5.44042730 -5.29797888 1.47609842 56 11 13424 7.73600000 2044339588 2044339588 11.00000000
3.93998408 -3.83816266 -0.28826645 11 12 13425 5.50800000 2044339591 2044339591 -3.00000000
5.41232681 -5.27429676 1.74472034 60 13 13426 7.75600000 2044339593 2044339593 13.00000000
3.67425156 -3.58179808 -0.08956575 8 14 13427 5.13200000 2044339595 2044339595 -1.00000000
5.40877533 -5.27267647 2.02396488 47 15 13427 7.82000000 2044339598 2044339598 15.00000000
1.48780465 -1.45442474 -0.55749625 4 0 13435 2.15400000 2044339618 2044339618 -15.00000000
3.68434763 -3.60294437 0.08994970 11 1 13436 5.15400000 2044339621 2044339621 1.00000000
1.75104535 -1.71295512 -0.56552696 3 2 13437 2.51400000 2044339623 2044339623 -13.00000000
3.40880966 -3.33582282 0.24995653 24 3 13438 4.77600000 2044339625 2044339625 3.00000000
2.06266141 -2.01849723 -0.56097847 3 4 13438 2.94000000 2044339627 2044339627 -11.00000000
3.89111161 -3.80912781 0.47639328 27 5 13439 5.46600000 2044339630 2044339630 5.00000000
2.53055525 -2.47810292 -0.56097400 5 6 13440 3.58600000 2044339632 2044339632 -9.00000000
4.07973480 -3.99656677 0.70123619 60 7 13441 5.75400000 2044339634 2044339634 7.00000000
3.26946831 -3.20393634 -0.56206143 4 8 13442 4.61200000 2044339637 2044339637 -7.00000000
5.40270853 -5.29626751 1.19828796 55 9 13443 7.66000000 2044339639 2044339639 9.00000000
3.96812701 -3.88994932 -0.48615474 10 10 13443 5.57800000 2044339641 2044339641 -5.00000000
5.39666939 -5.29219484 1.46922922 56 11 13444 7.70000000 2044339644 2044339644 11.00000000
3.94794893 -3.87287211 -0.28983653 2 12 13445 5.53800000 2044339646 2044339646 -3.00000000
5.38275576 -5.28223753 1.74112117 64 13 13446 7.74000000 2044339648 2044339648 13.00000000
3.68598580 -3.61841631 -0.09015913 8 14 13447 5.16600000 2044339651 2044339651 -1.00000000
5.37011623 -5.27351522 2.01671791 47 15 13448 7.79200000 2044339653 2044339653 15.00000000
1.48547208 -1.46231973 -0.55853152 4 0 13455 2.15800000 2044339674 2044339674 -15.00000000
3.81138039 -3.75328684 0.09337038 10 1 13456 5.35000000 2044339676 2044339676 1.00000000
1.74505532 -1.71905696 -0.56552696 4 2 13457 2.51400000 2044339678 2044339678 -13.00000000
3.41421580 -3.36452413 0.25121260 26 3 13458 4.80000000 2044339680 2044339680 3.00000000
2.05560303 -2.02568507 -0.56097847 3 4 13458 2.94000000 2044339683 2044339683 -11.00000000
3.89481807 -3.83947182 0.47848502 27 5 13459 5.49000000 2044339685 2044339685 5.00000000
2.52470279 -2.48969507 -0.56159973 5 6 13460 3.59000000 2044339687 2044339687 -9.00000000
5.38426971 -5.31146479 0.92864442 32 7 13461 7.62000000 2044339690 2044339690 7.00000000
3.25967741 -3.21672368 -0.56230515 4 8 13462 4.61400000 2044339692 2044339692 -7.00000000
5.36402512 -5.29334164 1.19359493 52 9 13462 7.63000000 2044339694 2044339694 9.00000000
3.94318128 -3.89257932 -0.48476025 10 10 13463 5.56200000 2044339697 2044339697 -5.00000000
5.35581255 -5.28892851 1.46312332 53 11 13464 7.66800000 2044339699 2044339699 11.00000000
3.82357764 -3.77714682 -0.28167212 2 12 13465 5.38200000 2044339701 2044339701 -3.00000000
5.34765148 -5.28455782 1.73572230 68 13 13466 7.71600000 2044339704 2044339704 13.00000000
3.68755388 -3.64531898 -0.09050818 14 14 13467 5.18600000 2044339706 2044339706 -1.00000000
5.33061743 -5.26956415 2.00843573 47 15 13467 7.76000000 2044339708 2044339708 15.00000000
1.48310256 -1.47021627 -0.55956680 4 0 13475 2.16200000 2044339729 2044339729 -15.00000000
3.89338970 -3.86090827 0.09570900 22 1 13476 5.48400000 2044339731 2044339731 1.00000000
1.72520924 -1.71141362 -0.56102794 4 2 13477 2.49400000 2044339733 2044339733 -13.00000000
3.40953898 -3.38345575 0.25173596 26 3 13478 4.81000000 2044339736 2044339736 3.00000000
2.05966783 -2.04391122 -0.56403136 3 4 13478 2.95600000 2044339738 2044339738 -11.00000000
3.89694595 -3.86848402 0.48040244 27 5 13479 5.51200000 2044339740 2044339740 5.00000000
2.51319337 -2.49570894 -0.56097400 5 6 13480 3.58600000 2044339743 2044339743 -9.00000000
5.34597969 -5.31064129 0.92523205 75 7 13481 7.59200000 2044339745 2044339745 7.00000000
3.25687766 -3.23647809 -0.56376761 4 8 13482 4.62600000 2044339747 2044339747 -7.00000000
5.33478117 -5.30321789 1.19140494 52 9 13483 7.61600000 2044339750 2044339750 9.00000000
3.91826534 -3.89508271 -0.48336574 7 10 13483 5.54600000 2044339752 2044339752 -5.00000000
5.31782866 -5.28821087 1.45778072 53 11 13484 7.64000000 2044339754 2044339754 11.00000000
3.91231942 -3.89188790 -0.28920850 2 12 13485 5.52600000 2044339756 2044339756 -3.00000000
5.30707073 -5.28119898 1.72852385 62 13 13486 7.68400000 2044339759 2044339759 13.00000000
3.69889927 -3.68215227 -0.09110156 8 14 13487 5.22000000 2044339761 2044339761 -1.00000000
5.29484081 -5.27270842 2.00222421 47 15 13488 7.73600000 2044339763 2044339763 15.00000000
1.48394728 -1.48032570 -0.56163734 4 0 13493 2.17000000 2044339784 2044339784 -15.00000000
3.89256477 -3.88442087 0.09598824 22 1 13494 5.50000000 2044339786 2044339786 1.00000000
1.72809923 -1.72508574 -0.56372732 3 2 13495 2.50600000 2044339789 2044339789 -13.00000000
3.40171933 -3.39697289 0.25194529 22 3 13496 4.81400000 2044339791 2044339791 3.00000000
2.04767966 -2.04482269 -0.56250495 3 4 13496 2.94800000 2044339793 2044339793 -11.00000000
3.91014576 -3.90605330 0.48354006 31 5 13497 5.54800000 2044339796 2044339796 5.00000000
2.51092958 -2.50917721 -0.56222546 5 6 13498 3.59400000 2044339798 2044339798 -9.00000000
5.30961466 -5.30776167 0.92181969 52 7 13499 7.56400000 2044339800 2044339800 7.00000000
3.23967552 -3.23967552 -0.56254888 4 8 13500 4.61600000 2044339803 2044339803 -7.00000000
5.29527712 -5.29527712 1.18608606 50 9 13500 7.58200000 2044339805 2044339805 9.00000000
3.89474058 -3.89610052 -0.48197126 6 10 13501 5.53000000 2044339807 2044339807 -5.00000000
5.28453588 -5.28822660 1.45320129 53 11 13502 7.61600000 2044339809 2044339809 11.00000000
3.88031173 -3.88437748 -0.28774309 23 12 13503 5.49800000 2044339812 2044339812 -3.00000000
5.26566744 -5.27302456 1.72042561 60 13 13504 7.64800000 2044339814 2044339814 13.00000000
3.68590045 -3.69233918 -0.09106666 27 14 13505 5.21800000 2044339816 2044339816 -1.00000000
5.26279545 -5.27198839 1.99601245 47 15 13505 7.71200000 2044339819 2044339819 15.00000000
1.48013377 -1.48686576 -0.56215495 4 0 13513 2.17200000 2044339839 2044339839 -15.00000000
3.89590836 -3.91499424 0.09640709 20 1 13514 5.52400000 2044339842 2044339842 1.00000000
1.72481573 -1.73387051 -0.56462717 3 2 13515 2.51000000 2044339844 2044339844 -13.00000000
3.40392423 -3.42298865 0.25299200 22 3 13516 4.83400000 2044339846 2044339846 3.00000000
2.02114868 -2.03246856 -0.55716228 2 4 13516 2.92000000 2044339849 2044339849 -11.00000000
3.89367819 -3.91685247 0.48319143 25 5 13517 5.54400000 2044339851 2044339851 5.00000000
2.50354815 -2.51932788 -0.56253833 5 6 13518 3.59600000 2044339853 2044339853 -9.00000000
5.27426672 -5.30936337 0.91889483 55 7 13519 7.54000000 2044339856 2044339856 7.00000000
3.22275209 -3.24533010 -0.56157392 4 8 13520 4.60800000 2044339858 2044339858 -7.00000000
5.25495863 -5.29362106 1.18139303 52 9 13521 7.55200000 2044339860 2044339860 9.00000000
3.85725474 -3.88563418 -0.47900796 6 10 13521 5.49600000 2044339862 2044339862 -5.00000000
5.25774717 -5.29827976 1.45091164 56 11 13522 7.60400000 2044339865 2044339865 11.00000000
3.84844351 -3.87946534 -0.28638235 5 12 13523 5.47200000 2044339867 2044339867 -3.00000000
5.23076248 -5.27476835 1.71502686 64 13 13524 7.62400000 2044339869 2044339869 13.00000000
3.67439723 -3.70660305 -0.09110156 25 14 13525 5.22000000 2044339872 2044339872 -1.00000000
5.22032022 -5.26791477 1.98721266 45 15 13526 7.67800000 2044339874 2044339874 15.00000000
1.46245313 -1.47991371 -0.55749625 4 0 13534 2.15400000 2044339895 2044339895 -15.00000000
3.89699173 -3.94489574 0.09679104 10 1 13535 5.54600000 2044339897 2044339897 1.00000000
1.71571064 -1.73740745 -0.56372732 3 2 13536 2.50600000 2044339899 2044339899 -13.00000000
3.40117741 -3.44539118 0.25372472 18 3 13537 4.84800000 2044339902 2044339902 3.00000000
2.02885723 -2.05523157 -0.56136006 3 4 13537 2.94200000 2044339904 2044339904 -11.00000000
3.87509751 -3.92684269 0.48266849 8 5 13538 5.53800000 2044339906 2044339906 5.00000000
2.49013567 -2.52426815 -0.56159973 5 6 13539 3.59000000 2044339909 2044339909 -9.00000000
5.23804569 -5.31169796 0.91596997 52 7 13540 7.51600000 2044339911 2044339911 7.00000000
3.21641016 -3.26277494 -0.56254888 2 8 13541 4.61600000 2044339913 2044339913 -7.00000000
5.22258043 -5.29786444 1.17826438 55 9 13541 7.53200000 2044339915 2044339915 9.00000000
3.86676121 -3.92387056 -0.48197126 3 10 13542 5.53000000 2044339918 2044339918 -5.00000000
5.21073723 -5.28954220 1.44327927 56 11 13543 7.56400000 2044339920 2044339920 11.00000000
3.83419871 -3.89354467 -0.28638235 5 12 13544 5.47200000 2044339922 2044339922 -3.00000000
5.19772339 -5.28001738 1.71052778 64 13 13545 7.60400000 2044339925 2044339925 13.00000000
5.18292999 -5.26682758 1.97996569 45 15 13546 7.65000000 2044339929 2044339929 15.00000000
1.46675003 -1.49466145 -0.56111968 4 0 13554 2.16800000 2044339950 2044339950 -15.00000000
3.01357436 -3.07199335 0.07511516 7 1 13555 4.30400000 2044339952 2044339952 1.00000000
1.71236432 -1.74616861 -0.56462717 3 2 13556 2.51000000 2044339955 2044339955 -13.00000000
3.02560949 -3.08641624 0.22651002 5 3 13557 4.32800000 2044339957 2044339957 3.00000000
2.01205039 -2.05248737 -0.55868876 3 4 13557 2.92800000 2044339959 2044339959 -11.00000000
3.00375009 -3.06518745 0.37546694 7 5 13558 4.30800000 2044339962 2044339962 5.00000000
2.47301507 -2.52447844 -0.55972254 5 6 13559 3.57800000 2044339964 2044339964 -9.00000000
5.20141649 -5.31151199 0.91280138 15 7 13560 7.49000000 2044339966 2044339966 7.00000000
3.19944668 -3.26830840 -0.56157392 4 8 13561 4.60800000 2044339968 2044339968 -7.00000000
5.18654871 -5.30002880 1.17451000 57 9 13562 7.50800000 2044339971 2044339971 9.00000000
3.85582781 -3.94019222 -0.48231989 3 10 13562 5.53400000 2044339973 2044339973 -5.00000000
5.16478395 -5.27963066 1.43564689 56 11 13563 7.52400000 2044339975 2044339975 11.00000000
3.81360221 -3.89976501 -0.28585899 5 12 13564 5.46200000 2044339978 2044339978 -3.00000000
5.16836309 -5.28698015 1.70692861 66 13 13565 7.58800000 2044339980 2044339980 13.00000000
3.00906849 -3.07920361 -0.07515007 7 14 13566 4.30600000 2044339982 2044339982 -1.00000000
5.14469194 -5.26644182 1.97271872 47 15 13567 7.62200000 2044339985 2044339985 15.00000000
1.46178544 -1.49951720 -0.56111968 4 0 13573 2.16800000 2044340005 2044340005 -15.00000000
3.00476623 -3.08340192 0.07515007 13 1 13574 4.30600000 2044340008 2044340008 1.00000000
1.69296622 -1.73787844 -0.56012815 3 2 13575 2.49000000 2044340010 2044340010 -13.00000000
3.00978422 -3.09070897 0.22609133 14 3 13576 4.32000000 2044340012 2044340012 3.00000000
2.00934219 -2.06336784 -0.55983359 3 4 13576 2.93400000 2044340015 2044340015 -11.00000000
2.99495888 -3.07655907 0.37564126 7 5 13577 4.31000000 2044340017 2044340017 5.00000000
2.47014070 -2.53832793 -0.56097400 5 6 13578 3.58600000 2044340019 2044340019 -9.00000000
3.17336774 -3.26324558 -0.55889279 4 8 13580 4.58600000 2044340024 2044340024 -7.00000000
5.15059233 -5.29647017 1.17012978 57 9 13580 7.48000000 2044340026 2044340026 9.00000000
3.87329364 -3.98438621 -0.48615474 3 10 13581 5.57800000 2044340028 2044340028 -5.00000000
5.13082886 -5.27983332 1.43106747 56 11 13582 7.50000000 2044340031 2044340031 11.00000000
3.82848263 -3.94104147 -0.28795242 2 12 13583 5.50200000 2044340033 2044340033 -3.00000000
5.12365007 -5.27612972 1.69793057 72 13 13584 7.54800000 2044340035 2044340035 13.00000000
3.00162673 -3.09203482 -0.07521987 5 14 13585 4.31000000 2044340038 2044340038 -1.00000000
5.11870193 -5.27287579 1.96909535 47 15 13585 7.60800000 2044340040 2044340040 15.00000000
1.45519865 -1.50322258 -0.56060207 3 0 13593 2.16600000 2044340061 2044340061 -15.00000000
3.00650048 -3.10680485 0.07546420 5 1 13594 4.32400000 2044340063 2044340063 1.00000000
1.69501925 -1.75218117 -0.56282753 3 2 13595 2.50200000 2044340065 2044340065 -13.00000000
3.08783579 -3.19308352 0.23279034 7 3 13596 4.44800000 2044340068 2044340068 3.00000000
2.00076270 -2.06895781 -0.55945200 3 4 13596 2.93200000 2044340070 2044340070 -11.00000000
2.99943399 -3.10275197 0.37755868 5 5 13597 4.33200000 2044340072 2044340072 5.00000000
2.46401072 -2.54977584 -0.56159973 5 6 13598 3.59000000 2044340074 2044340074 -9.00000000
2.99150681 -3.09671426 0.52866924 7 7 13599 4.33800000 2044340077 2044340077 7.00000000
3.17436814 -3.28715444 -0.56108648 4 8 13600 4.60400000 2044340079 2044340079 -7.00000000
5.11286163 -5.29452324 1.16574967 55 9 13600 7.45200000 2044340081 2044340081 9.00000000
3.88150239 -4.02081728 -0.48894373 3 10 13601 5.61000000 2044340084 2044340084 -5.00000000
5.09873486 -5.28358412 1.42725134 59 11 13602 7.48000000 2044340086 2044340086 11.00000000
3.80638242 -3.94575691 -0.28732440 2 12 13603 5.49000000 2044340088 2044340088 -3.00000000
5.08085251 -5.26873302 1.68983233 68 13 13604 7.51200000 2044340091 2044340091 13.00000000
3.67918849 -3.81657100 -0.09253266 23 14 13605 5.30200000 2044340093 2044340093 -1.00000000
5.08283520 -5.27263021 1.96236598 45 15 13605 7.58200000 2044340095 2044340095 15.00000000
1.44834065 -1.50715315 -0.56008440 3 0 13614 2.16400000 2044340116 2044340116 -15.00000000
5.10911369 -5.31843615 0.12872896 9 1 13615 7.37600000 2044340118 2044340118 1.00000000
1.68858576 -1.75838196 -0.56282753 3 2 13616 2.50200000 2044340121 2044340121 -13.00000000
3.40944958 -3.55161667 0.25801626 24 3 13617 4.93000000 2044340123 2044340123 3.00000000
1.99180651 -2.07486081 -0.55907035 3 4 13617 2.93000000 2044340125 2044340125 -11.00000000
2.46148610 -2.56591749 -0.56316406 5 6 13619 3.60000000 2044340130 2044340130 -9.00000000
3.00624228 -3.13488030 0.53330022 5 7 13620 4.37600000 2044340132 2044340132 7.00000000
3.16229892 -3.29876709 -0.56108648 4 8 13621 4.60400000 2044340134 2044340134 -7.00000000
5.07062674 -5.29129648 1.16074371 52 9 13622 7.42000000 2044340137 2044340137 9.00000000
4.40987492 -4.60178947 -0.55762243 19 10 13622 6.39800000 2044340139 2044340139 -5.00000000
5.06847000 -5.29089451 1.42419839 56 11 13623 7.46400000 2044340141 2044340141 11.00000000
3.79742050 -3.96545148 -0.28774309 2 12 13624 5.49800000 2044340144 2044340144 -3.00000000
5.04533672 -5.27042723 1.68443346 70 13 13625 7.48800000 2044340146 2044340146 13.00000000
3.67070556 -3.83580923 -0.09267228 29 14 13626 5.31000000 2044340148 2044340148 -1.00000000
5.03542709 -5.26191378 1.95149565 47 15 13626 7.54000000 2044340150 2044340150 15.00000000
1.44040346 -1.50940442 -0.55904913 4 0 13634 2.16000000 2044340171 2044340171 -15.00000000
5.07119370 -5.31598091 0.12824029 9 1 13635 7.34800000 2044340174 2044340174 1.00000000
1.68243754 -1.76426554 -0.56282753 3 2 13636 2.50200000 2044340176 2044340176 -13.00000000
3.40667796 -3.57361579 0.25874898 22 3 13637 4.94400000 2044340178 2044340178 3.00000000
1.97506917 -2.07185364 -0.55639905 3 4 13637 2.91600000 2044340180 2044340180 -11.00000000
2.43071437 -2.55160952 -0.55815816 5 6 13639 3.56800000 2044340185 2044340185 -9.00000000
5.05419445 -5.30742741 0.89988321 30 7 13640 7.38400000 2044340187 2044340187 7.00000000
3.14939594 -3.30834770 -0.56084269 4 8 13641 4.60200000 2044340190 2044340190 -7.00000000
5.03986979 -5.29608536 1.15792787 52 9 13642 7.40200000 2044340192 2044340192 9.00000000
4.38966417 -4.61282492 -0.55709952 19 10 13642 6.39200000 2044340194 2044340194 -5.00000000
5.03373289 -5.29148531 1.41961896 56 11 13643 7.44000000 2044340197 2044340197 11.00000000
3.80282402 -3.99894524 -0.28920850 2 12 13644 5.52600000 2044340199 2044340199 -3.00000000
5.01348209 -5.27388287 1.67993450 64 13 13645 7.46800000 2044340201 2044340201 13.00000000
3.67244649 -3.86454415 -0.09305623 31 14 13646 5.33200000 2044340203 2044340203 -1.00000000
4.99481869 -5.25792456 1.94321334 47 15 13647 7.50800000 2044340206 2044340206 15.00000000
1.43273211 -1.51136863 -0.55801386 4 0 13653 2.15600000 2044340227 2044340227 -15.00000000
5.02327681 -5.30083561 0.12747237 9 1 13654 7.30400000 2044340229 2044340229 1.00000000
1.66317594 -1.75568759 -0.55832851 1 2 13655 2.48200000 2044340231 2044340231 -13.00000000
3.40991521 -3.60084534 0.25990036 20 3 13656 4.96600000 2044340233 2044340233 3.00000000
1.97493744 -2.08551931 -0.55830711 3 4 13656 2.92600000 2044340236 2044340236 -11.00000000
2.41952395 -2.55678654 -0.55753243 3 6 13658 3.56400000 2044340240 2044340240 -9.00000000
5.01610374 -5.30252695 0.89622718 55 7 13659 7.35400000 2044340243 2044340243 7.00000000
3.14931917 -3.33031178 -0.56279260 4 8 13660 4.61800000 2044340245 2044340245 -7.00000000
5.00870943 -5.29841375 1.15479922 50 9 13661 7.38200000 2044340247 2044340247 9.00000000
4.36749983 -4.62011671 -0.55622792 15 10 13661 6.38200000 2044340250 2044340250 -5.00000000
4.99458313 -5.28531790 1.41351306 56 11 13662 7.40800000 2044340252 2044340252 11.00000000
5.02117777 -5.31531858 -0.38320386 11 12 13663 7.32200000 2044340254 2044340254 -3.00000000
4.98526192 -5.27914429 1.67633522 57 13 13664 7.45200000 2044340256 2044340256 13.00000000
3.67333794 -3.89124250 -0.09340528 31 14 13665 5.35200000 2044340259 2044340259 -1.00000000
4.96236229 -5.25673246 1.93700171 47 15 13665 7.48400000 2044340261 2044340261 15.00000000
1.43274438 -1.52198720 -0.56008440 4 0 13673 2.16400000 2044340282 2044340282 -15.00000000
4.98555708 -5.29794979 0.12698370 9 1 13674 7.27600000 2044340284 2044340284 1.00000000
1.42737544 -1.51734471 -0.48094535 1 2 13675 2.13800000 2044340286 2044340286 -13.00000000
3.40963912 -3.62582111 0.26084241 20 3 13676 4.98400000 2044340289 2044340289 3.00000000
1.96495569 -2.08954000 -0.55754387 3 4 13676 2.92200000 2044340291 2044340291 -11.00000000
2.41328979 -2.56809568 -0.55815816 3 6 13678 3.56800000 2044340296 2044340296 -9.00000000
4.97853613 -5.29974842 0.89281482 57 7 13679 7.32600000 2044340298 2044340298 7.00000000
3.12272739 -3.32536697 -0.56011152 4 8 13680 4.59600000 2044340300 2044340300 -7.00000000
4.97531223 -5.30002308 1.15135765 52 9 13681 7.36000000 2044340303 2044340303 9.00000000
4.34589148 -4.62952328 -0.55553073 19 10 13681 6.37400000 2044340305 2044340305 -5.00000000
4.95998192 -5.28554058 1.40893364 56 11 13682 7.38400000 2044340307 2044340307 11.00000000
4.98073006 -5.30950689 -0.38152912 11 12 13683 7.29000000 2044340309 2044340309 -3.00000000
4.94814205 -5.27661324 1.67003667 64 13 13684 7.42400000 2044340312 2044340312 13.00000000
3.68161440 -3.92738366 -0.09396376 31 14 13685 5.38400000 2044340314 2044340314 -1.00000000
4.93341303 -5.26274729 1.93286061 47 15 13685 7.46800000 2044340316 2044340316 15.00000000
1.43665755 -1.53685796 -0.56370789 7 0 13693 2.17800000 2044340337 2044340337 -15.00000000
4.96157169 -5.30947638 0.12684409 12 1 13694 7.26800000 2044340339 2044340339 1.00000000
1.40743709 -1.50665331 -0.47599643 4 2 13695 2.11600000 2044340342 2044340342 -13.00000000
3.40168691 -3.64148641 0.26115641 20 3 13695 4.99000000 2044340344 2044340344 3.00000000
1.95229018 -2.09064674 -0.55601740 3 4 13696 2.91400000 2044340346 2044340346 -11.00000000
2.40970159 -2.58228087 -0.55940962 5 6 13698 3.57600000 2044340351 2044340351 -9.00000000
4.93698692 -5.29241800 0.88867128 52 7 13699 7.29200000 2044340353 2044340353 7.00000000
3.11110067 -3.33624697 -0.56011152 4 8 13700 4.59600000 2044340355 2044340355 -7.00000000
4.93615437 -5.29337740 1.14635181 55 9 13700 7.32800000 2044340358 2044340358 9.00000000
4.32698822 -4.64175034 -0.55518210 19 10 13701 6.37000000 2044340360 2044340360 -5.00000000
4.92142534 -5.28127766 1.40320933 59 11 13702 7.35400000 2044340362 2044340362 11.00000000
4.94855213 -5.31224632 -0.38048241 11 12 13703 7.27000000 2044340365 2044340365 -3.00000000
4.90844440 -5.27103472 1.66283822 68 13 13704 7.39200000 2044340367 2044340367 13.00000000
3.67878294 -3.95192027 -0.09424300 27 14 13705 5.40000000 2044340369 2044340369 -1.00000000
4.90053368 -5.26438189 1.92716658 47 15 13705 7.44600000 2044340372 2044340372 15.00000000
1.41814113 -1.52770495 -0.55853152 4 0 13713 2.15800000 2044340392 2044340392 -15.00000000
4.93212652 -5.31503677 0.12656485 12 1 13714 7.25200000 2044340395 2044340395 1.00000000
1.39951873 -1.50869966 -0.47509661 4 2 13715 2.11200000 2044340397 2044340397 -13.00000000
3.40461397 -3.67150378 0.26241249 21 3 13716 5.01400000 2044340399 2044340399 3.00000000
1.94364560 -2.09600925 -0.55563581 3 4 13716 2.91200000 2044340402 2044340402 -11.00000000
3.78711748 -4.08542204 0.48737490 2 5 13717 5.59200000 2044340404 2044340404 5.00000000
2.40335846 -2.59357452 -0.56003541 5 6 13718 3.58000000 2044340406 2044340406 -9.00000000
4.90364361 -5.29360008 0.88599014 57 7 13719 7.27000000 2044340408 2044340408 7.00000000
3.10078478 -3.34854293 -0.56035525 6 8 13720 4.59800000 2044340411 2044340411 -7.00000000
4.89793348 -5.29113865 1.14197159 55 9 13721 7.30000000 2044340413 2044340413 9.00000000
4.29993105 -4.64512920 -0.55378759 15 10 13721 6.35400000 2044340415 2044340415 -5.00000000
4.89095974 -5.28545570 1.39977479 59 11 13722 7.33600000 2044340418 2044340418 11.00000000
4.91912889 -5.31775856 -0.37964502 11 12 13723 7.25400000 2044340420 2044340420 -3.00000000
4.87678432 -5.27382851 1.65833914 70 13 13724 7.37200000 2044340422 2044340422 13.00000000
4.86416149 -5.26386309 1.92043734 47 15 13726 7.42000000 2044340427 2044340427 15.00000000
1.40625298 -1.52554369 -0.55594331 4 0 13733 2.14800000 2044340448 2044340448 -15.00000000
4.89457226 -5.31163263 0.12607618 9 1 13734 7.22400000 2044340450 2044340450 1.00000000
1.40084541 -1.52074218 -0.47734615 4 2 13735 2.12200000 2044340452 2044340452 -13.00000000
3.40730500 -3.69893265 0.26356387 21 3 13735 5.03600000 2044340455 2044340455 3.00000000
1.94163692 -2.10855794 -0.55716228 3 4 13736 2.92000000 2044340457 2044340457 -11.00000000
3.77013493 -4.09568453 0.48702630 2 5 13737 5.58800000 2044340459 2044340459 5.00000000
2.38358974 -2.59031916 -0.55753243 5 6 13738 3.56400000 2044340461 2044340461 -9.00000000
4.87304068 -5.29753590 0.88379645 52 7 13739 7.25200000 2044340464 2044340464 7.00000000
3.08101535 -3.35057902 -0.55889279 6 8 13740 4.58600000 2044340466 2044340466 -7.00000000
4.85804462 -5.28493500 1.13696563 55 9 13741 7.26800000 2044340468 2044340468 9.00000000
4.27020693 -4.64544249 -0.55204445 19 10 13741 6.33400000 2044340471 2044340471 -5.00000000
4.85388279 -5.28225756 1.39443219 56 11 13742 7.30800000 2044340473 2044340473 11.00000000
4.88702536 -5.32018805 -0.37859830 11 12 13743 7.23400000 2044340475 2044340475 -3.00000000
4.84252882 -5.27359533 1.65294039 70 13 13744 7.34800000 2044340478 2044340478 13.00000000
3.13048363 -3.41034365 -0.08080464 5 14 13745 4.63000000 2044340480 2044340480 -1.00000000
4.82316399 -5.25434732 1.91111982 47 15 13745 7.38400000 2044340482 2044340482 15.00000000
1.40744126 -1.53756809 -0.55853152 6 0 13753 2.15800000 2044340503 2044340503 -15.00000000
4.85440207 -5.30508137 0.12551771 9 1 13754 7.19200000 2044340505 2044340505 1.00000000
1.39289784 -1.52274704 -0.47644633 4 2 13755 2.11800000 2044340507 2044340507 -13.00000000
3.41998553 -3.73880434 0.26555264 21 3 13755 5.07400000 2044340510 2044340510 3.00000000
1.93956423 -2.12111807 -0.55868876 3 4 13756 2.92800000 2044340512 2044340512 -11.00000000
3.73296309 -4.08381987 0.48406300 2 5 13757 5.55400000 2044340514 2044340514 5.00000000
2.36387324 -2.58695745 -0.55502951 5 6 13758 3.54800000 2044340517 2044340517 -9.00000000
4.83577538 -5.29399395 0.88038415 52 7 13759 7.22400000 2044340519 2044340519 7.00000000
3.08536339 -3.37890410 -0.56181765 6 8 13760 4.61000000 2044340521 2044340521 -7.00000000
4.83157682 -5.29310656 1.13508844 55 9 13761 7.25600000 2044340524 2044340524 9.00000000
4.25396538 -4.66031981 -0.55204445 15 10 13761 6.33400000 2044340526 2044340526 -5.00000000
4.81424189 -5.27596474 1.38832629 59 11 13762 7.27600000 2044340528 2044340528 11.00000000
4.84958076 -5.31655645 -0.37713289 11 12 13763 7.20600000 2044340531 2044340531 -3.00000000
4.80964756 -5.27462673 1.64799142 74 13 13764 7.32600000 2044340533 2044340533 13.00000000
3.13337827 -3.43750668 -0.08118860 5 14 13765 4.65200000 2044340535 2044340535 -1.00000000
4.78657389 -5.25116301 1.90387285 49 15 13765 7.35600000 2044340537 2044340537 15.00000000
1.38647258 -1.52531719 -0.55231982 18 0 13773 2.13400000 2044340558 2044340558 -15.00000000
4.82240677 -5.30719423 0.12516867 12 1 13774 7.17200000 2044340560 2044340560 1.00000000
1.38233292 -1.52182984 -0.47464672 4 2 13775 2.11000000 2044340563 2044340563 -13.00000000
3.41700006 -3.76314330 0.26639003 21 3 13776 5.09000000 2044340565 2044340565 3.00000000
1.93478787 -2.13078237 -0.55945200 3 4 13776 2.93200000 2044340567 2044340567 -11.00000000
3.71868515 -4.09682560 0.48406300 2 5 13777 5.55400000 2044340570 2044340570 5.00000000
2.35482883 -2.59519315 -0.55502951 5 6 13778 3.54800000 2044340572 2044340572 -9.00000000
4.79859495 -5.29025745 0.87697178 52 7 13779 7.19600000 2044340574 2044340574 7.00000000
3.05488205 -3.36906552 -0.55840534 6 8 13780 4.58200000 2044340577 2044340577 -7.00000000
4.79807472 -5.29153919 1.13133407 55 9 13780 7.23200000 2044340579 2044340579 9.00000000
4.23499584 -4.67218828 -0.55169582 15 10 13781 6.33000000 2044340581 2044340581 -5.00000000
4.78524971 -5.28109884 1.38527334 53 11 13782 7.26000000 2044340584 2044340584 11.00000000
4.80953979 -5.30976772 -0.37545815 11 12 13783 7.17400000 2044340586 2044340586 -3.00000000
4.76897049 -5.26682615 1.64034307 68 13 13784 7.29200000 2044340588 2044340588 13.00000000
3.12806988 -3.45583606 -0.08136312 5 14 13785 4.66200000 2044340590 2044340590 -1.00000000
4.76081467 -5.26150894 1.90128469 51 15 13786 7.34600000 2044340593 2044340593 15.00000000
1.37596214 -1.52441132 -0.55024928 38 0 13793 2.12600000 2044340613 2044340613 -15.00000000
4.78777647 -5.30617952 0.12474980 12 1 13794 7.14800000 2044340616 2044340616 1.00000000
1.37962282 -1.52953994 -0.47554654 4 2 13795 2.11400000 2044340618 2044340618 -13.00000000
3.41654181 -3.78780150 0.26733208 17 3 13795 5.10800000 2044340620 2044340620 3.00000000
1.91682065 -2.12585855 -0.55639905 3 4 13796 2.91600000 2044340623 2044340623 -11.00000000
3.68435287 -4.08758211 0.48144832 2 5 13797 5.52400000 2044340625 2044340625 5.00000000
2.35104465 -2.60926747 -0.55628097 5 6 13798 3.55600000 2044340627 2044340627 -9.00000000
4.77212811 -5.29812527 0.87550938 52 7 13799 7.18400000 2044340630 2044340630 7.00000000
3.04310322 -3.37970853 -0.55840534 6 8 13800 4.58200000 2044340632 2044340632 -7.00000000
4.76014662 -5.28853416 1.12695384 52 9 13801 7.20400000 2044340634 2044340634 9.00000000
4.21066380 -4.67805719 -0.55065000 15 10 13801 6.31800000 2044340637 2044340637 -5.00000000
4.75365448 -5.28317547 1.38145709 53 11 13802 7.24000000 2044340639 2044340639 11.00000000
4.76693439 -5.29979467 -0.37357405 11 12 13803 7.13800000 2044340641 2044340641 -3.00000000
4.73231554 -5.26315355 1.63404441 64 13 13804 7.26400000 2044340643 2044340643 13.00000000
4.76554966 -5.30197620 -0.12443566 6 14 13805 7.13000000 2044340646 2044340646 -1.00000000
4.72305202 -5.25654030 1.89352012 47 15 13806 7.31600000 2044340648 2044340648 15.00000000
1.36805379 -1.52632785 -0.54921401 68 0 13813 2.12200000 2044340669 2044340669 -15.00000000
4.76922512 -5.32285929 0.12474980 3 1 13814 7.14800000 2044340671 2044340671 1.00000000
1.37687564 -1.53724968 -0.47644633 4 2 13815 2.11800000 2044340673 2044340673 -13.00000000
3.42328715 -3.82202053 0.26890215 17 3 13815 5.13800000 2044340676 2044340676 3.00000000
1.89891160 -2.12083530 -0.55334610 3 4 13816 2.90000000 2044340678 2044340678 -11.00000000
2.34455657 -2.62040257 -0.55690670 5 6 13818 3.56000000 2044340683 2044340683 -9.00000000
4.74037123 -5.29995489 0.87307197 52 7 13819 7.16400000 2044340685 2044340685 7.00000000
3.03393364 -3.39327002 -0.55889279 8 8 13820 4.58600000 2044340687 2044340687 -7.00000000
4.72546673 -5.28514671 1.12288654 52 9 13820 7.17800000 2044340690 2044340690 9.00000000
4.17837572 -4.67490053 -0.54855824 15 10 13821 6.29400000 2044340692 2044340692 -5.00000000
4.71948719 -5.28216887 1.37687767 56 11 13822 7.21600000 2044340694 2044340694 11.00000000
4.74042273 -5.30746460 -0.37294602 11 12 13823 7.12600000 2044340696 2044340696 -3.00000000
4.70353174 -5.26801109 1.63044524 60 13 13824 7.24800000 2044340699 2044340699 13.00000000
4.71905041 -5.28724909 -0.12370266 8 14 13825 7.08800000 2044340701 2044340701 -1.00000000
4.69181347 -5.25857973 1.88834381 47 15 13826 7.29600000 2044340703 2044340703 15.00000000
1.35501134 -1.52243555 -0.54610819 77 0 13833 2.11000000 2044340724 2044340724 -15.00000000
3.03326964 -3.40925622 0.07965279 8 1 13834 4.56400000 2044340726 2044340726 1.00000000
1.38704228 -1.55952013 -0.48184517 4 2 13835 2.14200000 2044340729 2044340729 -13.00000000
3.02632499 -3.40264630 0.23865196 5 3 13835 4.56000000 2044340731 2044340731 3.00000000
1.90454173 -2.14212298 -0.55716228 3 4 13836 2.92000000 2044340733 2044340733 -11.00000000
3.59484196 -4.04470015 0.47343001 2 5 13837 5.43200000 2044340736 2044340736 5.00000000
2.33277130 -2.62561703 -0.55628097 5 6 13838 3.55600000 2044340738 2044340738 -9.00000000
4.70866013 -5.30162716 0.87063462 55 7 13839 7.14400000 2044340740 2044340740 7.00000000
3.02470636 -3.40680861 -0.55938029 8 8 13840 4.59000000 2044340743 2044340743 -7.00000000
4.69518566 -5.28831482 1.12007082 52 9 13840 7.16000000 2044340745 2044340745 9.00000000
4.15277386 -4.67902660 -0.54733807 15 10 13841 6.28000000 2044340747 2044340747 -5.00000000
4.68799067 -5.28392506 1.37306154 56 11 13842 7.19600000 2044340749 2044340749 11.00000000
4.72186756 -5.32397938 -0.37294602 11 12 13843 7.12600000 2044340752 2044340752 -3.00000000
4.67477179 -5.27273226 1.62684608 64 13 13844 7.23200000 2044340754 2044340754 13.00000000
4.69128132 -5.29321384 -0.12345833 8 14 13845 7.07400000 2044340756 2044340756 -1.00000000
4.65421247 -5.25323582 1.88057923 47 15 13846 7.26600000 2044340759 2044340759 15.00000000
1.35278141 -1.52957916 -0.54714346 83 0 13851 2.11400000 2044340779 2044340779 -15.00000000
2.99870276 -3.39180183 0.07902449 12 1 13852 4.52800000 2044340782 2044340782 1.00000000
1.37439299 -1.55510867 -0.47914574 4 2 13853 2.13000000 2044340784 2044340784 -13.00000000
3.02223349 -3.41961980 0.23917532 13 3 13853 4.57000000 2044340786 2044340786 3.00000000
1.88740373 -2.13632536 -0.55410933 3 4 13854 2.90400000 2044340789 2044340789 -11.00000000
2.32974076 -2.63885617 -0.55753243 5 6 13856 3.56400000 2044340793 2044340793 -9.00000000
4.66571045 -5.28662682 0.86575979 55 7 13857 7.10400000 2044340795 2044340795 7.00000000
3.00085568 -3.40140843 -0.55694288 8 8 13858 4.57000000 2044340798 2044340798 -7.00000000
4.66286659 -5.28526354 1.11631632 55 9 13858 7.13600000 2044340800 2044340800 9.00000000
4.13541842 -4.68906116 -0.54698944 15 10 13859 6.27600000 2044340802 2044340802 -5.00000000
4.64669943 -5.27064610 1.36581075 59 11 13860 7.15800000 2044340805 2044340805 11.00000000
4.67870712 -5.30881929 -0.37085259 11 12 13861 7.08600000 2044340807 2044340807 -3.00000000
4.64787865 -5.27569437 1.62324679 66 13 13862 7.21600000 2044340809 2044340809 13.00000000
4.66537762 -5.29742098 -0.12321399 8 14 13863 7.06000000 2044340812 2044340812 -1.00000000
4.62583733 -5.25252390 1.87540281 45 15 13863 7.24600000 2044340814 2044340814 15.00000000
1.33978534 -1.52558255 -0.54403764 78 0 13871 2.10200000 2044340835 2044340835 -15.00000000
3.00267625 -3.42028189 0.07944335 6 1 13872 4.55200000 2044340837 2044340837 1.00000000
1.35867310 -1.54817927 -0.47554654 4 2 13873 2.11400000 2044340839 2044340839 -13.00000000
3.00105643 -3.41964054 0.23844261 5 3 13873 4.55600000 2044340842 2044340842 3.00000000
1.89029288 -2.15470719 -0.55716228 3 4 13874 2.92000000 2044340844 2044340844 -11.00000000
4.63201332 -5.28179884 0.61462229 6 5 13875 7.05200000 2044340846 2044340846 5.00000000
2.31009769 -2.63508916 -0.55502951 5 6 13876 3.54800000 2044340848 2044340848 -9.00000000
4.63152790 -5.28496599 0.86283493 55 7 13877 7.08000000 2044340851 2044340851 7.00000000
2.98242402 -3.40439677 -0.55572420 8 8 13878 4.56000000 2044340853 2044340853 -7.00000000
4.63137245 -5.28664923 1.11318767 52 9 13878 7.11600000 2044340855 2044340855 9.00000000
4.11246204 -4.69597340 -0.54611790 11 10 13879 6.26600000 2044340858 2044340858 -5.00000000
4.61146212 -5.26763058 1.36084974 59 11 13880 7.13200000 2044340860 2044340860 11.00000000
4.63647175 -5.29806471 -0.36896849 11 12 13881 7.05000000 2044340862 2044340862 -3.00000000
