# .PCD v0.7 - Point Cloud Data file format
VERSION 0.7
FIELDS x y z intensity laser_id azimuth distance_m adjustedtime timestamp vertical_angle
SIZE 4 4 4 1 1 2 8 8 4 8
TYPE F F F U U U F U U F
COUNT 1 1 1 1 1 1 1 1 1 1
WIDTH 540
HEIGHT 1
VIEWPOINT 0 0 0 1 0 0 0
POINTS 540
DATA ascii
3.81248212 4.31074286 0.70659846 34 7 4149 5.79800000 2044013664 2044013664 7.00000000
3.27919745 3.70645833 -0.60764056 17 8 4150 4.98600000 2044013666 2044013666 -7.00000000
3.76339626 4.24926043 -0.29747757 63 12 4153 5.68400000 2044013676 2044013676 -3.00000000
6.73543072 7.60231829 2.34488988 60 13 4154 10.42400000 2044013678 2044013678 13.00000000
3.80395675 4.29203796 -0.10010701 45 14 4155 5.73600000 2044013680 2044013680 -1.00000000
5.84421825 6.59408283 2.36094737 45 15 4155 9.12200000 2044013682 2044013682 15.00000000
1.51693523 1.70676446 -0.61184824 4 0 4163 2.36400000 2044013703 2044013703 -15.00000000
3.78412008 4.25616837 0.09940891 55 1 4164 5.69600000 2044013706 2044013706 1.00000000
1.80924189 2.03421998 -0.62851322 3 2 4165 2.79400000 2044013708 2044013708 -13.00000000
3.76771736 4.23474169 0.29705888 42 3 4166 5.67600000 2044013710 2044013710 3.00000000
2.18455791 2.45534301 -0.63882852 2 4 4166 3.34800000 2044013712 2044013712 -11.00000000
3.77383900 4.24013186 0.49661341 63 5 4167 5.69800000 2044013715 2044013715 5.00000000
2.75848770 3.09823561 -0.65702474 6 6 4168 4.20000000 2044013717 2044013717 -9.00000000
3.83278728 4.30333805 0.70757341 18 7 4169 5.80600000 2044013719 2044013719 7.00000000
3.30664134 3.71129274 -0.61032170 21 8 4170 5.00800000 2044013722 2044013722 -7.00000000
3.31281805 3.71691918 -0.43560439 18 10 4171 4.99800000 2044013726 2044013726 -5.00000000
5.62329626 6.30701590 1.64248383 9 11 4172 8.60800000 2044013729 2044013729 11.00000000
3.29562712 3.69503379 -0.25948167 25 12 4173 4.95800000 2044013731 2044013731 -3.00000000
6.76452160 7.58166885 2.34578967 57 13 4174 10.42800000 2044013733 2044013733 13.00000000
3.83888888 4.30111170 -0.10063057 47 14 4175 5.76600000 2044013735 2044013735 -1.00000000
5.87092066 6.57550049 2.36198258 45 15 4176 9.12600000 2044013738 2044013738 15.00000000
1.52288377 1.70145905 -0.61184824 4 0 4183 2.36400000 2044013759 2044013759 -15.00000000
3.81896234 4.26528025 0.09993248 49 1 4184 5.72600000 2044013761 2044013761 1.00000000
3.29592037 3.67981863 -1.14050186 17 2 4185 5.07000000 2044013763 2044013763 -13.00000000
3.77981091 4.21858931 0.29684955 45 3 4186 5.67200000 2044013765 2044013765 3.00000000
2.18263435 2.43600512 -0.63577557 2 4 4186 3.33200000 2044013768 2044013768 -11.00000000
3.79792547 4.23731852 0.49783361 60 5 4187 5.71200000 2044013770 2044013770 5.00000000
2.76928592 3.08858776 -0.65702474 6 6 4188 4.20000000 2044013772 2044013772 -9.00000000
3.29438758 3.67165494 -0.60569066 17 8 4190 4.97000000 2044013777 2044013777 -7.00000000
3.31778741 3.69643641 -0.43455854 18 10 4191 4.98600000 2044013782 2044013782 -5.00000000
5.62560320 6.26543617 1.63675952 18 11 4192 8.57800000 2044013784 2044013784 11.00000000
6.79094505 7.55801010 2.34578967 57 13 4194 10.42800000 2044013788 2044013788 13.00000000
3.87927771 4.31594276 -0.10129377 36 14 4195 5.80400000 2044013791 2044013791 -1.00000000
5.90044212 6.56461620 2.36508846 47 15 4195 9.13800000 2044013793 2044013793 15.00000000
1.53010714 1.69756782 -0.61236584 4 0 4203 2.36600000 2044013814 2044013814 -15.00000000
3.87533951 4.29796267 0.10101453 24 1 4204 5.78800000 2044013816 2044013816 1.00000000
3.79183745 4.20240355 0.29664019 35 3 4206 5.66800000 2044013821 2044013821 3.00000000
2.20690680 2.44586253 -0.64035499 2 4 4206 3.35600000 2044013823 2044013823 -11.00000000
3.83405304 4.24769926 0.50062257 100 5 4207 5.74400000 2044013825 2044013825 5.00000000
2.79064083 3.09063148 -0.65952772 6 6 4208 4.21600000 2044013828 2044013828 -9.00000000
3.29121351 3.64245820 -0.60276580 23 8 4210 4.94600000 2044013832 2044013832 -7.00000000
3.32399011 3.67744231 -0.43368697 24 10 4211 4.97600000 2044013837 2044013837 -5.00000000
5.63295555 6.22974253 1.63256180 31 11 4212 8.55600000 2044013839 2044013839 11.00000000
6.80682611 7.52269936 2.34219027 59 13 4214 10.41200000 2044013844 2044013844 13.00000000
3.92518425 4.33647394 -0.10209658 9 14 4215 5.85000000 2044013846 2044013846 -1.00000000
5.92332077 6.54397964 2.36508846 45 15 4215 9.13800000 2044013848 2044013848 15.00000000
1.53732181 1.69364679 -0.61288351 4 0 4223 2.36800000 2044013869 2044013869 -15.00000000
2.20222807 2.42361403 -0.63653880 2 4 4226 3.33600000 2044013878 2044013878 -11.00000000
3.85957789 4.24608469 0.50201708 100 5 4227 5.76000000 2044013881 2044013881 5.00000000
2.80407000 3.08379459 -0.66015345 6 6 4228 4.22000000 2044013883 2044013883 -9.00000000
3.30925202 3.63682055 -0.60374075 44 8 4230 4.95400000 2044013887 2044013887 -7.00000000
3.32071257 3.64813614 -0.43159524 39 10 4231 4.95200000 2044013892 2044013892 -5.00000000
5.65334511 6.20859003 1.63218009 21 11 4232 8.55400000 2044013894 2044013894 11.00000000
3.33010530 3.65589046 -0.25916764 221 12 4233 4.95200000 2044013897 2044013897 -3.00000000
6.83566904 7.50177431 2.34309030 59 13 4234 10.41600000 2044013899 2044013899 13.00000000
3.35026312 3.67544246 -0.08680827 6 14 4235 4.97400000 2044013901 2044013901 -1.00000000
5.93962049 6.51612520 2.36250019 45 15 4235 9.12800000 2044013904 2044013904 15.00000000
1.53801072 1.68256664 -0.61081296 4 0 4243 2.36000000 2044013924 2044013924 -15.00000000
3.32112098 3.63072348 -1.13600278 168 2 4245 5.05000000 2044013929 2044013929 -13.00000000
2.22127748 2.42749929 -0.63959175 2 4 4246 3.35200000 2044013934 2044013934 -11.00000000
3.86361384 4.22082949 0.50062257 84 5 4247 5.74400000 2044013936 2044013936 5.00000000
2.80948114 3.06816030 -0.65890199 6 6 4248 4.21200000 2044013938 2044013938 -9.00000000
3.31119800 3.61353850 -0.60179085 70 8 4250 4.93800000 2044013943 2044013943 -7.00000000
3.32265639 3.62477279 -0.43020076 66 10 4251 4.93600000 2044013947 2044013947 -5.00000000
3.33744597 3.63835669 -0.25874898 235 12 4253 4.94400000 2044013952 2044013952 -3.00000000
6.86708355 7.48361111 2.34488988 59 13 4254 10.42400000 2044013954 2044013954 13.00000000
3.34954977 3.64899397 -0.08645922 6 14 4255 4.95400000 2044013957 2044013957 -1.00000000
5.96215677 6.49288845 2.36198258 47 15 4256 9.12600000 2044013959 2044013959 15.00000000
1.54649138 1.68003035 -0.61184824 4 0 4263 2.36400000 2044013980 2044013980 -15.00000000
3.32981348 3.61480856 -1.13465309 176 2 4265 5.04400000 2044013984 2044013984 -13.00000000
2.23239827 2.42261815 -0.64035499 4 4 4266 3.35600000 2044013989 2044013989 -11.00000000
3.87967420 4.20878220 0.50079691 63 5 4267 5.74600000 2044013991 2044013991 5.00000000
2.81080031 3.04816914 -0.65671188 6 6 4268 4.19800000 2044013993 2044013993 -9.00000000
3.32917619 3.60779357 -0.60276580 27 8 4270 4.94600000 2044013998 2044013998 -7.00000000
3.34610033 3.62486458 -0.43159524 39 10 4271 4.95200000 2044014003 2044014003 -5.00000000
3.34199452 3.61788201 -0.25812092 235 12 4273 4.93200000 2044014007 2044014007 -3.00000000
6.89316416 7.45959473 2.34488988 59 13 4274 10.42400000 2044014010 2044014010 13.00000000
3.37312579 3.64902711 -0.08673846 8 14 4275 4.97000000 2044014012 2044014012 -1.00000000
5.98627758 6.47591877 2.36301780 45 15 4275 9.13000000 2044014014 2044014014 15.00000000
1.55234635 1.67462194 -0.61184824 4 0 4283 2.36400000 2044014035 2044014035 -15.00000000
3.33711004 3.59744859 -1.13285351 175 2 4285 5.03600000 2044014039 2044014039 -13.00000000
2.23015785 2.40329814 -0.63730204 2 4 4286 3.34000000 2044014044 2044014044 -11.00000000
3.90247488 4.20397520 0.50184274 33 5 4287 5.75800000 2044014046 2044014046 5.00000000
2.82679987 3.04412913 -0.65796334 6 6 4288 4.20600000 2044014049 2044014049 -9.00000000
3.34174943 3.59615064 -0.60276580 21 8 4290 4.94600000 2044014053 2044014053 -7.00000000
3.36687207 3.62191796 -0.43264112 27 10 4291 4.96400000 2044014058 2044014058 -5.00000000
3.34916162 3.60034490 -0.25770226 235 12 4293 4.92400000 2044014063 2044014063 -3.00000000
6.91385078 7.42978096 2.34309030 62 13 4294 10.41600000 2044014065 2044014065 13.00000000
3.38311768 3.63430309 -0.08666865 10 14 4295 4.96600000 2044014067 2044014067 -1.00000000
6.01411152 6.46063948 2.36508846 45 15 4295 9.13800000 2044014069 2044014069 15.00000000
1.56579912 1.67793941 -0.61495405 4 0 4302 2.37600000 2044014090 2044014090 -15.00000000
3.35567141 3.59348392 -1.13510299 163 2 4304 5.04600000 2044014095 2044014095 -13.00000000
2.23275447 2.39015079 -0.63577557 4 4 4305 3.33200000 2044014099 2044014099 -11.00000000
2.83957696 3.03762460 -0.65858912 6 6 4307 4.21000000 2044014104 2044014104 -9.00000000
3.35230017 3.58359957 -0.60252202 19 8 4309 4.94400000 2044014109 2044014109 -7.00000000
3.38294840 3.61509752 -0.43316403 27 10 4310 4.97000000 2044014113 2044014113 -5.00000000
3.37746453 3.60671282 -0.25895831 221 12 4312 4.94800000 2044014118 2044014118 -3.00000000
6.93578672 7.40396881 2.34219027 60 13 4313 10.41200000 2044014120 2044014120 13.00000000
6.04323292 6.44665384 2.36767673 47 15 4315 9.14800000 2044014125 2044014125 15.00000000
1.56370914 1.66401672 -0.61184824 4 0 4322 2.36400000 2044014145 2044014145 -15.00000000
3.38154435 3.59594488 -1.13960207 100 2 4324 5.06600000 2044014150 2044014150 -13.00000000
2.23301291 2.37376261 -0.63348585 2 4 4325 3.32000000 2044014155 2044014155 -11.00000000
2.85557890 3.03344750 -0.65984058 6 6 4327 4.21800000 2044014159 2044014159 -9.00000000
3.37295580 3.58054566 -0.60398448 19 8 4329 4.95600000 2044014164 2044014164 -7.00000000
3.39554667 3.60326672 -0.43316403 24 10 4330 4.97000000 2044014169 2044014169 -5.00000000
3.40510654 3.61088514 -0.26010969 189 12 4332 4.97000000 2044014173 2044014173 -3.00000000
6.96426344 7.38254833 2.34309030 62 13 4333 10.41600000 2044014175 2044014175 13.00000000
3.41326690 3.61700845 -0.08680827 36 14 4334 4.97400000 2044014178 2044014178 -1.00000000
6.05641603 6.41568613 2.36405325 45 15 4335 9.13400000 2044014180 2044014180 15.00000000
1.56685245 1.65574181 -0.61081296 4 0 4342 2.36000000 2044014201 2044014201 -15.00000000
2.25748730 2.38305688 -0.63806528 4 4 4345 3.34400000 2044014210 2044014210 -11.00000000
2.86343217 3.02059388 -0.65921485 6 6 4347 4.21400000 2044014215 2044014215 -9.00000000
3.39772964 3.58171153 -0.60617810 17 8 4349 4.97400000 2044014219 2044014219 -7.00000000
3.41084671 3.59428263 -0.43351266 15 10 4350 4.97400000 2044014224 2044014224 -5.00000000
6.99535942 7.36384487 2.34488988 60 13 4353 10.42400000 2044014231 2044014231 13.00000000
6.07345009 6.38890600 2.36198258 45 15 4355 9.12600000 2044014235 2044014235 15.00000000
1.57262254 1.65026248 -0.61081296 4 0 4362 2.36000000 2044014256 2044014256 -15.00000000
2.26850224 2.37800336 -0.63882852 4 4 4365 3.34800000 2044014265 2044014265 -11.00000000
2.86986661 3.00629377 -0.65827620 6 6 4367 4.20800000 2044014270 2044014270 -9.00000000
3.41706753 3.57700658 -0.60739678 6 8 4369 4.98400000 2044014275 2044014275 -7.00000000
7.02102137 7.33938169 2.34488988 59 13 4373 10.42400000 2044014286 2044014286 13.00000000
6.09838629 6.37045765 2.36301780 47 15 4375 9.13000000 2044014291 2044014291 15.00000000
1.58314764 1.65089107 -0.61288351 4 0 4380 2.36800000 2044014311 2044014311 -15.00000000
1.87957215 1.95863068 -0.62671363 3 2 4382 2.78600000 2044014316 2044014316 -13.00000000
2.27324271 2.36803222 -0.63806528 4 4 4383 3.34400000 2044014321 2044014321 -11.00000000
2.87929702 2.99726295 -0.65827620 6 6 4385 4.20800000 2044014325 2044014325 -9.00000000
2.98117995 3.10115242 -0.52818173 4 8 4387 4.33400000 2044014330 2044014330 -7.00000000
2.99544382 3.11490202 -0.37808162 2 10 4388 4.33800000 2044014334 2044014334 -5.00000000
7.04134130 7.31448030 2.34399009 60 13 4391 10.42000000 2044014341 2044014341 13.00000000
3.00999689 3.12566495 -0.07574344 1 14 4392 4.34000000 2044014344 2044014344 -1.00000000
6.11726093 6.35233545 2.36301780 45 15 4392 9.13000000 2044014346 2044014346 15.00000000
1.59829450 1.65508246 -0.61650699 4 0 4400 2.38200000 2044014367 2044014367 -15.00000000
2.99961996 3.10511279 0.07535949 1 1 4401 4.31800000 2044014369 2044014369 1.00000000
1.88368928 1.94925523 -0.62581384 3 2 4402 2.78200000 2044014371 2044014371 -13.00000000
2.97985172 3.08357191 0.22473060 1 3 4402 4.29400000 2044014374 2044014374 3.00000000
2.28695297 2.36572886 -0.63959175 2 4 4403 3.35200000 2044014376 2044014376 -11.00000000
2.98474002 3.08647370 0.37564126 1 5 4404 4.31000000 2044014378 2044014378 5.00000000
2.89935613 2.99713254 -0.66046631 9 6 4405 4.22200000 2044014380 2044014380 -9.00000000
2.98094106 3.07931709 -0.52623183 24 8 4407 4.31800000 2044014385 2044014385 -7.00000000
2.98689413 3.08438921 -0.37564126 25 10 4408 4.31000000 2044014390 2044014390 -5.00000000
2.98415422 3.07940841 -0.22473060 18 12 4410 4.29400000 2044014394 2044014394 -3.00000000
2.99304676 3.08642817 -0.07504535 19 14 4412 4.30000000 2044014399 2044014399 -1.00000000
1.60569704 1.65059793 -0.61702460 6 0 4421 2.38400000 2044014422 2044014422 -15.00000000
3.00261283 3.08549905 0.07515007 20 1 4422 4.30600000 2044014424 2044014424 1.00000000
1.89353967 1.94513071 -0.62671363 3 2 4423 2.78600000 2044014427 2044014427 -13.00000000
3.00421047 3.08498549 0.22567265 28 3 4424 4.31200000 2044014429 2044014429 3.00000000
2.28739023 2.34889174 -0.63730204 4 4 4424 3.34000000 2044014431 2044014431 -11.00000000
3.00715470 3.08693075 0.37703574 28 5 4425 4.32600000 2044014433 2044014433 5.00000000
2.91859341 2.99497390 -0.66234350 9 6 4426 4.23400000 2044014436 2044014436 -9.00000000
3.02354217 3.10158610 0.53183782 18 7 4427 4.36400000 2044014438 2044014438 7.00000000
2.97834802 3.05415869 -0.52379441 6 8 4428 4.29800000 2044014440 2044014440 -7.00000000
3.01617861 3.09295225 0.68424433 16 9 4428 4.37400000 2044014443 2044014443 9.00000000
2.99261379 3.06771636 -0.37494400 11 10 4429 4.30200000 2044014445 2044014445 -5.00000000
3.03576350 3.11086226 0.84490222 29 11 4430 4.42800000 2044014447 2044014447 11.00000000
2.98565459 3.05844593 -0.22399789 10 12 4431 4.28000000 2044014450 2044014450 -3.00000000
3.01167488 3.08402348 0.99518347 35 13 4432 4.42400000 2044014452 2044014452 13.00000000
2.96800756 3.03824615 -0.07413782 5 14 4433 4.24800000 2044014454 2044014454 -1.00000000
3.03065681 3.10237789 1.16209745 32 15 4433 4.49000000 2044014457 2044014457 15.00000000
1.59387434 1.62704277 -0.61029530 4 0 4441 2.35800000 2044014477 2044014477 -15.00000000
2.99237084 3.05357552 0.07462649 5 1 4442 4.27600000 2044014480 2044014480 1.00000000
1.90850306 1.94685888 -0.62941307 3 2 4443 2.79800000 2044014482 2044014482 -13.00000000
3.00097680 3.06021976 0.22462593 5 3 4444 4.29200000 2044014484 2044014484 3.00000000
2.30932140 2.35491037 -0.64111823 4 4 4444 3.36000000 2044014486 2044014486 -11.00000000
3.01233077 3.07072568 0.37633851 5 5 4445 4.31800000 2044014489 2044014489 5.00000000
2.92211223 2.97771835 -0.66077918 9 6 4446 4.22400000 2044014491 2044014491 -9.00000000
3.03574109 3.09242964 0.53208154 71 7 4447 4.36600000 2044014493 2044014493 7.00000000
2.99594522 3.05082560 -0.52501315 8 8 4448 4.30800000 2044014496 2044014496 -7.00000000
3.02749443 3.08187652 0.68424433 68 9 4449 4.37400000 2044014498 2044014498 9.00000000
2.97817159 3.03166771 -0.37180641 9 10 4449 4.26600000 2044014500 2044014500 -5.00000000
3.03697133 3.09044456 0.84223092 76 11 4450 4.41400000 2044014503 2044014503 11.00000000
2.98651147 3.03803515 -0.22326519 6 12 4451 4.26600000 2044014505 2044014505 -3.00000000
3.01832271 3.06932354 0.99383378 49 13 4452 4.41800000 2044014507 2044014507 13.00000000
2.98560667 3.03499508 -0.07431234 5 14 4453 4.25800000 2044014510 2044014510 -1.00000000
3.02303696 3.07197189 1.15485060 50 15 4454 4.46200000 2044014512 2044014512 15.00000000
1.60497093 1.62697029 -0.61236584 4 0 4461 2.36600000 2044014533 2044014533 -15.00000000
2.99879789 3.03884149 0.07452177 7 1 4462 4.27000000 2044014535 2044014535 1.00000000
1.91254914 1.93741143 -0.62851322 3 2 4463 2.79400000 2044014537 2044014537 -13.00000000
3.01865745 3.05683136 0.22514929 5 3 4464 4.30200000 2044014539 2044014539 3.00000000
2.30373263 2.33286572 -0.63730204 4 4 4464 3.34000000 2044014542 2044014542 -11.00000000
3.00342846 3.04034829 0.37389815 5 5 4465 4.29000000 2044014544 2044014544 5.00000000
2.93387699 2.96890521 -0.66109204 11 6 4466 4.22600000 2044014546 2044014546 -9.00000000
3.02697921 3.06204987 0.52866924 56 7 4467 4.33800000 2044014549 2044014549 7.00000000
3.00099325 3.03470325 -0.52403820 8 8 4468 4.30000000 2044014551 2044014551 -7.00000000
3.02658582 3.06058335 0.68174142 66 9 4468 4.35800000 2044014553 2044014553 9.00000000
2.99714327 3.02975202 -0.37285227 9 10 4469 4.27800000 2044014556 2044014556 -5.00000000
3.01459789 3.04633331 0.83307207 44 11 4470 4.36600000 2044014558 2044014558 11.00000000
2.99850297 3.02901125 -0.22336987 10 12 4471 4.26800000 2044014560 2044014560 -3.00000000
3.02627563 3.05599952 0.99293393 52 13 4472 4.41400000 2044014563 2044014563 13.00000000
3.00181174 3.03023744 -0.07445197 7 14 4473 4.26600000 2044014565 2044014565 -1.00000000
3.02233076 3.05095077 1.15070951 50 15 4473 4.44600000 2044014567 2044014567 15.00000000
1.61064029 1.62135804 -0.61236584 4 0 4481 2.36600000 2044014588 2044014588 -15.00000000
2.99952030 3.01842618 0.07427744 7 1 4482 4.25600000 2044014590 2044014590 1.00000000
1.90830934 1.91966712 -0.62491405 3 2 4483 2.77800000 2044014592 2044014592 -13.00000000
3.01240945 3.02928114 0.22389323 7 3 4484 4.27800000 2044014595 2044014595 3.00000000
2.32985830 2.34290719 -0.64226305 4 4 4484 3.36600000 2044014597 2044014597 -11.00000000
3.02104878 3.03690839 0.37476969 7 5 4485 4.30000000 2044014599 2044014599 5.00000000
2.93864918 2.95304513 -0.65984058 13 6 4486 4.21800000 2044014602 2044014602 -9.00000000
3.02364445 3.03739667 0.52623183 67 7 4487 4.31800000 2044014604 2044014604 7.00000000
2.99195790 3.00451684 -0.52062583 10 8 4488 4.27200000 2044014606 2044014606 -7.00000000
3.03499484 3.04667091 0.68111569 68 9 4489 4.35400000 2044014609 2044014609 9.00000000
2.99223328 3.00374484 -0.37093484 9 10 4489 4.25600000 2044014611 2044014611 -5.00000000
3.02382755 3.03440118 0.83269048 61 11 4490 4.36400000 2044014613 2044014613 11.00000000
2.99777746 3.00721025 -0.22253248 8 12 4491 4.25200000 2044014615 2044014615 -3.00000000
3.02454042 3.03299832 0.98888481 55 13 4492 4.39600000 2044014618 2044014618 13.00000000
3.00954652 3.01690912 -0.07438216 7 14 4493 4.26200000 2044014620 2044014620 -1.00000000
3.03076363 3.03711796 1.14967418 58 15 4494 4.44200000 2044014622 2044014622 15.00000000
1.61874008 1.61874008 -0.61340111 4 0 4500 2.37000000 2044014643 2044014643 -15.00000000
3.00102782 2.99998045 0.07406801 7 1 4501 4.24400000 2044014645 2044014645 1.00000000
1.91466463 1.91332841 -0.62491405 3 2 4502 2.77800000 2044014648 2044014648 -13.00000000
3.01113439 3.00798273 0.22305584 7 3 4503 4.26200000 2044014650 2044014650 3.00000000
2.32511425 2.32268071 -0.63882852 4 4 4503 3.34800000 2044014652 2044014652 -11.00000000
3.02123404 3.01701856 0.37354952 7 5 4504 4.28600000 2044014655 2044014655 5.00000000
2.95541573 2.95026207 -0.66140491 13 6 4505 4.22800000 2044014657 2044014657 -9.00000000
3.02386427 3.01753759 0.52452564 63 7 4506 4.30400000 2044014659 2044014659 7.00000000
2.98644543 2.97915697 -0.51794469 8 8 4507 4.25000000 2044014662 2044014662 -7.00000000
3.02497220 3.01758981 0.67673552 70 9 4507 4.32600000 2044014664 2044014664 9.00000000
3.00358844 2.99521255 -0.37110916 9 10 4508 4.25800000 2044014666 2044014666 -5.00000000
3.02414036 3.01465464 0.83001912 65 11 4509 4.35000000 2044014668 2044014668 11.00000000
2.99783015 2.98738408 -0.22179978 8 12 4510 4.23800000 2044014671 2044014671 -3.00000000
3.01663351 3.00507259 0.98303610 57 13 4511 4.37000000 2044014673 2044014673 13.00000000
3.00111389 2.98856926 -0.07392839 7 14 4512 4.23600000 2044014675 2044014675 -1.00000000
3.03344560 3.02076578 1.14708602 60 15 4512 4.43200000 2044014678 2044014678 15.00000000
1.62300992 1.61171854 -0.61288351 4 0 4520 2.36800000 2044014698 2044014698 -15.00000000
3.01006222 2.98807788 0.07403311 7 1 4521 4.24200000 2044014701 2044014701 1.00000000
1.93793070 1.92310536 -0.63031286 3 2 4522 2.80200000 2044014703 2044014703 -13.00000000
3.01027226 2.98620081 0.22221847 7 3 4523 4.24600000 2044014705 2044014705 3.00000000
2.32763267 2.30901980 -0.63730204 4 4 4523 3.34000000 2044014708 2044014708 -11.00000000
3.01901460 2.99382782 0.37198070 7 5 4524 4.26800000 2044014710 2044014710 5.00000000
2.96429300 2.93853688 -0.66109204 15 6 4525 4.22600000 2044014712 2044014712 -9.00000000
3.02450871 2.99718308 0.52281946 65 7 4526 4.29000000 2044014715 2044014715 7.00000000
2.98977518 2.96172905 -0.51672602 10 8 4527 4.24000000 2044014717 2044014717 -7.00000000
3.01916862 2.98980284 0.67298108 70 9 4528 4.30200000 2044014719 2044014719 9.00000000
2.99562120 2.96648479 -0.36884311 9 10 4528 4.23200000 2044014721 2044014721 -5.00000000
3.02906418 2.99855542 0.82849264 63 11 4529 4.34200000 2044014724 2044014724 11.00000000
2.99830222 2.96706748 -0.22106709 8 12 4530 4.22400000 2044014726 2044014726 -3.00000000
3.02433395 2.99178338 0.98213631 60 13 4531 4.36600000 2044014728 2044014728 13.00000000
2.99873090 2.96542048 -0.07361425 7 14 4532 4.21800000 2044014731 2044014731 -1.00000000
3.03075814 2.99604583 1.14190960 62 15 4533 4.41200000 2044014733 2044014733 15.00000000
1.62065172 1.59762180 -0.60977769 4 0 4541 2.35600000 2044014754 2044014754 -15.00000000
3.00105333 2.95737481 0.07354444 7 1 4542 4.21400000 2044014756 2044014756 1.00000000
1.93941319 1.91051924 -0.62851322 3 2 4543 2.79400000 2044014758 2044014758 -13.00000000
3.00981236 2.96393657 0.22138110 7 3 4544 4.23000000 2044014761 2044014761 3.00000000
2.33887768 2.30322814 -0.63806528 2 4 4544 3.34400000 2044014763 2044014763 -11.00000000
3.01292896 2.96596980 0.36988896 7 5 4545 4.24400000 2044014765 2044014765 5.00000000
2.96941161 2.92211032 -0.65984058 13 6 4546 4.21800000 2044014768 2044014768 -9.00000000
3.02839804 2.97911692 0.52160078 63 7 4547 4.28000000 2044014770 2044014770 7.00000000
2.99777961 2.94796729 -0.51623851 8 8 4548 4.23600000 2044014772 2044014772 -7.00000000
3.02113581 2.97093558 0.67110384 70 9 4548 4.29000000 2044014774 2044014774 9.00000000
2.99226570 2.94151807 -0.36710000 9 10 4549 4.21200000 2044014777 2044014777 -5.00000000
3.02323055 2.97092032 0.82391322 61 11 4550 4.31800000 2044014779 2044014779 11.00000000
3.00630736 2.95325875 -0.22085774 8 12 4551 4.22000000 2044014781 2044014781 -3.00000000
3.02693677 2.97248602 0.97943687 60 13 4552 4.35400000 2044014784 2044014784 13.00000000
3.00244451 2.94740534 -0.07343972 7 14 4553 4.20800000 2044014786 2044014786 -1.00000000
3.02189755 2.96650171 1.13466275 62 15 4553 4.38400000 2044014788 2044014788 15.00000000
1.62897956 1.59465778 -0.61081296 4 0 4561 2.36000000 2044014809 2044014809 -15.00000000
2.99706602 2.93289518 0.07319539 7 1 4562 4.19400000 2044014811 2044014811 1.00000000
1.94328427 1.90101230 -0.62761343 3 2 4563 2.79000000 2044014814 2044014814 -13.00000000
3.01728415 2.95061946 0.22117175 7 3 4564 4.22600000 2044014816 2044014816 3.00000000
2.34409595 2.29230475 -0.63730204 4 4 4564 3.34000000 2044014818 2044014818 -11.00000000
3.01614022 2.94847083 0.36901742 7 5 4565 4.23400000 2044014821 2044014821 5.00000000
2.96687841 2.89930177 -0.65702474 11 6 4566 4.20000000 2044014823 2044014823 -9.00000000
3.02173877 2.95188189 0.51867592 60 7 4567 4.25600000 2044014825 2044014825 7.00000000
2.99242902 2.92222905 -0.51355743 8 8 4568 4.21400000 2044014827 2044014827 -7.00000000
3.02776384 2.95570302 0.67016524 72 9 4569 4.28400000 2044014830 2044014830 9.00000000
2.99110961 2.91992092 -0.36570549 9 10 4569 4.19600000 2044014832 2044014832 -5.00000000
3.01531649 2.94252419 0.81895220 31 11 4570 4.29200000 2044014834 2044014834 11.00000000
3.00230122 2.92880011 -0.21981102 8 12 4571 4.20000000 2044014837 2044014837 -3.00000000
3.01915693 2.94421506 0.97358817 57 13 4572 4.32800000 2044014839 2044014839 13.00000000
3.00555491 2.92992759 -0.07326520 8 14 4573 4.19800000 2044014841 2044014841 -1.00000000
3.02168155 2.94461989 1.13052154 64 15 4574 4.36800000 2044014844 2044014844 15.00000000
1.63979852 1.59463441 -0.61288351 4 0 4580 2.36800000 2044014864 2044014864 -15.00000000
2.99817228 2.91457725 0.07298596 8 1 4581 4.18200000 2044014867 2044014867 1.00000000
1.93839717 1.88369286 -0.62401420 3 2 4582 2.77400000 2044014869 2044014869 -13.00000000
3.01559162 2.92946410 0.22033438 7 3 4583 4.21000000 2044014871 2044014871 3.00000000
2.35168457 2.28451872 -0.63730204 4 4 4583 3.34000000 2044014874 2044014874 -11.00000000
3.01875448 2.93151259 0.36814585 7 5 4584 4.22400000 2044014876 2044014876 5.00000000
2.97647643 2.88944745 -0.65702474 11 6 4585 4.20000000 2044014878 2044014878 -9.00000000
3.01156688 2.92249084 0.51526356 35 7 4586 4.22800000 2044014880 2044014880 7.00000000
2.99070454 2.90123224 -0.51160753 8 8 4587 4.19800000 2044014883 2044014883 -7.00000000
3.02852750 2.93792367 0.66828805 74 9 4587 4.27200000 2044014885 2044014885 9.00000000
2.99791551 2.90721202 -0.36535686 9 10 4588 4.19200000 2044014887 2044014887 -5.00000000
3.01237106 2.92021036 0.81551766 10 11 4589 4.27400000 2044014890 2044014890 11.00000000
2.99765420 2.90492892 -0.21876429 7 12 4590 4.18000000 2044014892 2044014892 -3.00000000
3.01770616 2.92333961 0.96998894 18 13 4591 4.31200000 2044014894 2044014894 13.00000000
3.00088930 2.90603352 -0.07291616 8 14 4592 4.17800000 2044014897 2044014897 -1.00000000
3.02397847 2.92839289 1.12793338 22 15 4592 4.35800000 2044014899 2044014899 15.00000000
1.65369272 1.59695256 -0.61598933 4 0 4600 2.38000000 2044014920 2044014920 -15.00000000
2.99825692 2.89437175 0.07274163 7 1 4601 4.16800000 2044014922 2044014922 1.00000000
1.94496071 1.87691510 -0.62401420 3 2 4602 2.77400000 2044014924 2044014924 -13.00000000
3.00567484 2.89950657 0.21886897 7 3 4603 4.18200000 2044014927 2044014927 3.00000000
2.36247063 2.27902198 -0.63806528 2 4 4603 3.34400000 2044014929 2044014929 -11.00000000
3.02610064 2.91819143 0.36779723 7 5 4604 4.22000000 2044014931 2044014931 5.00000000
2.98085570 2.87355614 -0.65577328 9 6 4605 4.19200000 2044014933 2044014933 -9.00000000
3.01603222 2.90645099 0.51428860 29 7 4606 4.22000000 2044014936 2044014936 7.00000000
2.98508739 2.87562561 -0.50892639 8 8 4607 4.17600000 2044014938 2044014938 -7.00000000
3.02026987 2.90951824 0.66422075 66 9 4607 4.24600000 2044014940 2044014940 9.00000000
2.99943447 2.88843751 -0.36431101 9 10 4608 4.18000000 2044014943 2044014943 -5.00000000
3.01971722 2.90695429 0.81475443 17 11 4609 4.27000000 2044014945 2044014945 11.00000000
2.99626303 2.88336825 -0.21792692 7 12 4610 4.16400000 2044014947 2044014947 -3.00000000
3.01103926 2.89657593 0.96459013 11 13 4611 4.28800000 2044014950 2044014950 13.00000000
2.99948406 2.88445210 -0.07263692 8 14 4612 4.16200000 2044014952 2044014952 -1.00000000
3.02721977 2.91112399 1.12534523 16 15 4612 4.34800000 2044014954 2044014954 15.00000000
1.65089107 1.58314764 -0.61288351 4 0 4620 2.36800000 2044014975 2044014975 -15.00000000
3.00112414 2.87696934 0.07256711 7 1 4621 4.15800000 2044014977 2044014977 1.00000000
1.96275640 1.88090098 -0.62761343 3 2 4622 2.79000000 2044014980 2044014980 -13.00000000
3.00423956 2.87794423 0.21803160 7 3 4623 4.16600000 2044014982 2044014982 3.00000000
2.36190534 2.26261282 -0.63577557 2 4 4623 3.33200000 2044014984 2044014984 -11.00000000
3.01612258 2.88831830 0.36535686 7 5 4624 4.19200000 2044014986 2044014986 5.00000000
2.98801422 2.86040139 -0.65514755 9 6 4625 4.18800000 2044014989 2044014989 -9.00000000
3.02759337 2.89727783 0.51453239 15 7 4626 4.22200000 2044014991 2044014991 7.00000000
2.98936915 2.85969949 -0.50795144 8 8 4627 4.16800000 2044014993 2044014993 -7.00000000
3.01949239 2.88750672 0.66171777 70 9 4628 4.23000000 2044014996 2044014996 9.00000000
3.00085902 2.86968780 -0.36326513 9 10 4628 4.16800000 2044014998 2044014998 -5.00000000
3.02558875 2.89232588 0.81360954 19 11 4629 4.26400000 2044015000 2044015000 11.00000000
3.00630951 2.87289166 -0.21792692 7 12 4630 4.16400000 2044015003 2044015003 -3.00000000
3.01549554 2.88066339 0.96279049 10 13 4631 4.28000000 2044015005 2044015005 13.00000000
2.99218011 2.85739160 -0.07221806 8 14 4632 4.13800000 2044015007 2044015007 -1.00000000
3.01361179 2.87785792 1.11654532 12 15 4632 4.31400000 2044015009 2044015009 15.00000000
1.64801323 1.56938183 -0.60977769 4 0 4640 2.35600000 2044015030 2044015030 -15.00000000
2.99521637 2.85130930 0.07218315 8 1 4641 4.13600000 2044015033 2044015033 1.00000000
1.97778022 1.88209867 -0.63031286 3 2 4642 2.80200000 2044015035 2044015035 -13.00000000
3.01426721 2.86743975 0.21803160 7 3 4643 4.16600000 2044015037 2044015037 3.00000000
2.38116837 2.26517987 -0.63882852 2 4 4643 3.34800000 2044015039 2044015039 -11.00000000
3.00886083 2.86129665 0.36326513 7 5 4644 4.16800000 2044015042 2044015042 5.00000000
2.99368572 2.84587073 -0.65420896 9 6 4645 4.18200000 2044015044 2044015044 -9.00000000
3.03049350 2.87985444 0.51331365 8 7 4646 4.21200000 2044015046 2044015046 7.00000000
2.99357629 2.84377837 -0.50697649 10 8 4647 4.16000000 2044015049 2044015049 -7.00000000
3.02239108 2.87014794 0.66015345 62 9 4648 4.22000000 2044015051 2044015051 9.00000000
2.99929976 2.84821963 -0.36187065 9 10 4648 4.15200000 2044015053 2044015053 -5.00000000
3.02997088 2.87634015 0.81208307 10 11 4649 4.25600000 2044015056 2044015056 11.00000000
3.00183177 2.84863210 -0.21688020 7 12 4650 4.14400000 2044015058 2044015058 -3.00000000
3.02553248 2.87011981 0.96279049 10 13 4651 4.28000000 2044015060 2044015060 13.00000000
2.99923396 2.84417772 -0.07214825 8 14 4652 4.13400000 2044015062 2044015062 -1.00000000
3.01853132 2.86147690 1.11447477 16 15 4653 4.30600000 2044015065 2044015065 15.00000000
1.65601528 1.56656337 -0.61081296 4 0 4659 2.36000000 2044015086 2044015086 -15.00000000
2.99739051 2.83449125 0.07200863 8 1 4660 4.12600000 2044015088 2044015088 1.00000000
1.97551370 1.86749744 -0.62761343 3 2 4661 2.79000000 2044015090 2044015090 -13.00000000
3.01795292 2.85194135 0.21761291 7 3 4662 4.15800000 2044015092 2044015092 3.00000000
2.39437461 2.26266479 -0.64035499 2 4 4662 3.35600000 2044015095 2044015095 -11.00000000
3.01253939 2.84583044 0.36256790 7 5 4663 4.16000000 2044015097 2044015097 5.00000000
2.97725463 2.81151509 -0.64857727 9 6 4664 4.14600000 2044015099 2044015099 -9.00000000
3.02847862 2.85888791 0.51136374 7 7 4665 4.19600000 2044015102 2044015102 7.00000000
2.99432778 2.82566118 -0.50551403 10 8 4666 4.14800000 2044015104 2044015104 -7.00000000
3.02758169 2.85604310 0.65921485 66 9 4667 4.21400000 2044015106 2044015106 9.00000000
2.99423528 2.82458615 -0.36012754 9 10 4667 4.13200000 2044015109 2044015109 -5.00000000
3.01092577 2.83933806 0.80445075 30 11 4668 4.21600000 2044015111 2044015111 11.00000000
2.99236870 2.82085180 -0.21551947 7 12 4669 4.11800000 2044015113 2044015113 -3.00000000
3.02226949 2.84804249 0.95874137 40 13 4670 4.26200000 2044015115 2044015115 13.00000000
2.99700451 2.82324672 -0.07186901 10 14 4671 4.11800000 2044015118 2044015118 -1.00000000
3.01906896 2.84403205 1.11136901 10 15 4671 4.29400000 2044015120 2044015120 15.00000000
1.66992176 1.56870937 -0.61391878 4 0 4679 2.37200000 2044015141 2044015141 -15.00000000
2.99997783 2.81716681 0.07183410 8 1 4680 4.11600000 2044015143 2044015143 1.00000000
1.97633731 1.85525525 -0.62581384 3 2 4681 2.78200000 2044015145 2044015145 -13.00000000
3.00895619 2.82362199 0.21625218 7 3 4682 4.13200000 2044015148 2044015148 3.00000000
2.39653158 2.24891925 -0.63882852 2 4 4682 3.34800000 2044015150 2044015150 -11.00000000
3.01518941 2.82848167 0.36169633 6 5 4683 4.15000000 2044015152 2044015152 5.00000000
2.98993254 2.80380797 -0.64920300 9 6 4684 4.15000000 2044015155 2044015155 -9.00000000
3.01381922 2.82521939 0.50722021 7 7 4685 4.16200000 2044015157 2044015157 7.00000000
2.99258494 2.80433273 -0.50356412 10 8 4686 4.13200000 2044015159 2044015159 -7.00000000
3.02599955 2.83465362 0.65671188 64 9 4687 4.19800000 2044015162 2044015162 9.00000000
2.99535251 2.80594444 -0.35908166 9 10 4687 4.12000000 2044015164 2044015164 -5.00000000
3.00935459 2.81807518 0.80139780 52 11 4688 4.20000000 2044015166 2044015166 11.00000000
2.98907423 2.79810500 -0.21457742 7 12 4689 4.10000000 2044015168 2044015168 -3.00000000
3.00373459 2.81084514 0.94974333 50 13 4690 4.22200000 2044015171 2044015171 13.00000000
3.00099993 2.80730367 -0.07172939 8 14 4691 4.11000000 2044015173 2044015173 -1.00000000
3.03321052 2.83743525 1.11292195 10 15 4691 4.30000000 2044015175 2044015175 15.00000000
1.67228973 1.56052709 -0.61288351 4 0 4698 2.36800000 2044015196 2044015196 -15.00000000
3.00053000 2.79901862 0.07162467 8 1 4699 4.10400000 2044015198 2044015198 1.00000000
1.98247862 1.84869123 -0.62581384 3 2 4700 2.78200000 2044015201 2044015201 -13.00000000
3.00612640 2.80325818 0.21541479 7 3 4700 4.11600000 2044015203 2044015203 3.00000000
2.40972042 2.24631453 -0.64035499 4 4 4701 3.35600000 2044015205 2044015205 -11.00000000
3.01580667 2.81031775 0.36065045 6 5 4702 4.13800000 2044015208 2044015208 5.00000000
2.98186898 2.77772021 -0.64544863 9 6 4703 4.12600000 2044015210 2044015210 -9.00000000
3.01736045 2.80979848 0.50624526 7 7 4704 4.15400000 2044015212 2044015212 7.00000000
2.98879123 2.78222060 -0.50137049 10 8 4705 4.11400000 2044015214 2044015214 -7.00000000
3.02332282 2.81436563 0.65420896 68 9 4705 4.18200000 2044015217 2044015217 9.00000000
3.00172377 2.79328156 -0.35873303 9 10 4706 4.11600000 2044015219 2044015219 -5.00000000
3.02012038 2.80941749 0.80177939 54 11 4707 4.20200000 2044015221 2044015221 11.00000000
2.98517323 2.77593660 -0.21363537 7 12 4708 4.08200000 2044015224 2044015224 -3.00000000
3.01589370 2.80352259 0.95064318 16 13 4709 4.22600000 2044015226 2044015226 13.00000000
2.99124956 2.77964067 -0.07127563 7 14 4710 4.08400000 2044015228 2044015228 -1.00000000
3.02845144 2.81421065 1.10774553 10 15 4710 4.28000000 2044015231 2044015231 15.00000000
1.67205882 1.54942787 -0.61081296 4 0 4718 2.36000000 2044015251 2044015251 -15.00000000
3.00588107 2.78445101 0.07151996 8 1 4719 4.09800000 2044015254 2044015254 1.00000000
1.99177945 1.84440792 -0.62671363 3 2 4720 2.78600000 2044015256 2044015256 -13.00000000
3.01198363 2.78815103 0.21510078 7 3 4721 4.11000000 2044015258 2044015258 3.00000000
2.40890241 2.22988725 -0.63806528 4 4 4721 3.34400000 2044015261 2044015261 -11.00000000
3.01243687 2.78759456 0.35908166 6 5 4722 4.12000000 2044015263 2044015263 5.00000000
2.98864675 2.76461196 -0.64482284 9 6 4723 4.12200000 2044015265 2044015265 -9.00000000
3.01840544 2.79116225 0.50478280 7 7 4724 4.14200000 2044015267 2044015267 7.00000000
2.98682308 2.76099086 -0.49942058 10 8 4725 4.09800000 2044015270 2044015270 -7.00000000
3.02491283 2.79522181 0.65233171 64 9 4726 4.17000000 2044015272 2044015272 9.00000000
2.99535966 2.76791263 -0.35681561 9 10 4726 4.09400000 2044015274 2044015274 -5.00000000
3.03423524 2.80285454 0.80292428 16 11 4727 4.20800000 2044015277 2044015277 11.00000000
2.99631238 2.76685452 -0.21374005 7 12 4728 4.08400000 2044015279 2044015279 -3.00000000
3.01563811 2.78372526 0.94749385 15 13 4729 4.21200000 2044015281 2044015281 13.00000000
2.98623800 2.75562119 -0.07092658 7 14 4730 4.06400000 2044015284 2044015284 -1.00000000
3.02312589 2.78868365 1.10205150 12 15 4731 4.25800000 2044015286 2044015286 15.00000000
1.67488289 1.54067338 -0.60977769 4 0 4739 2.35600000 2044015307 2044015307 -15.00000000
2.99987483 2.75852633 0.07113601 10 1 4740 4.07600000 2044015309 2044015309 1.00000000
2.01574254 1.85292101 -0.63211244 3 2 4741 2.81000000 2044015311 2044015311 -13.00000000
3.01434565 2.77086210 0.21457742 7 3 4741 4.10000000 2044015314 2044015314 3.00000000
2.41850495 2.22237158 -0.63844693 4 4 4742 3.34600000 2044015316 2044015316 -11.00000000
3.00942802 2.76440430 0.35751286 6 5 4743 4.10200000 2044015318 2044015318 5.00000000
2.97838926 2.73493433 -0.64044273 9 6 4744 4.09400000 2044015320 2044015320 -9.00000000
3.02861524 2.78008056 0.50478280 7 7 4745 4.14200000 2044015323 2044015323 7.00000000
2.99399734 2.74734092 -0.49893311 10 8 4746 4.09400000 2044015325 2044015325 -7.00000000
3.02640343 2.77610445 0.65045452 48 9 4747 4.15800000 2044015327 2044015327 9.00000000
2.98492908 2.73806000 -0.35437524 11 10 4747 4.06600000 2044015330 2044015330 -5.00000000
3.01988864 2.76915812 0.79643673 16 11 4748 4.17400000 2044015332 2044015332 11.00000000
2.99907160 2.74910593 -0.21321669 7 12 4749 4.07400000 2044015334 2044015334 -3.00000000
3.00283241 2.75158906 0.94029540 45 13 4750 4.18000000 2044015337 2044015337 13.00000000
2.99631786 2.74465752 -0.07092658 7 14 4751 4.06400000 2044015339 2044015339 -1.00000000
3.00577569 2.75332093 1.09221637 24 15 4751 4.22000000 2044015341 2044015341 15.00000000
1.68310332 1.53742337 -0.61081296 4 0 4759 2.36000000 2044015362 2044015362 -15.00000000
2.99324203 2.73320556 0.07075205 10 1 4760 4.05400000 2044015364 2044015364 1.00000000
2.00780511 1.83273554 -0.62761343 3 2 4761 2.79000000 2044015366 2044015366 -13.00000000
3.02104926 2.75763011 0.21436808 7 3 4761 4.09600000 2044015369 2044015369 3.00000000
2.42914820 2.21656251 -0.63921010 4 4 4762 3.35000000 2044015371 2044015371 -11.00000000
3.01317143 2.74851179 0.35681561 6 5 4763 4.09400000 2044015373 2044015373 5.00000000
2.97332144 2.71121144 -0.63731402 9 6 4764 4.07400000 2044015376 2044015376 -9.00000000
3.01922917 2.75210738 0.50161421 8 7 4765 4.11600000 2044015378 2044015378 7.00000000
2.99769998 2.73152494 -0.49795812 10 8 4766 4.08600000 2044015380 2044015380 -7.00000000
3.02439260 2.75488162 0.64795154 36 9 4767 4.14200000 2044015383 2044015383 9.00000000
2.99004960 2.72359896 -0.35385230 11 10 4767 4.06000000 2044015385 2044015385 -5.00000000
3.00921369 2.74009466 0.79109412 16 11 4768 4.14600000 2044015387 2044015387 11.00000000
2.98944855 2.72114277 -0.21185595 7 12 4769 4.04800000 2044015390 2044015390 -3.00000000
3.01241899 2.74109030 0.94029540 47 13 4770 4.18000000 2044015392 2044015392 13.00000000
2.99700451 2.72610831 -0.07071715 8 14 4771 4.05200000 2044015394 2044015394 -1.00000000
3.01965547 2.74671173 1.09376931 20 15 4771 4.22600000 2044015396 2044015396 15.00000000
1.69391513 1.53702617 -0.61288351 4 0 4778 2.36800000 2044015417 2044015417 -15.00000000
2.99488354 2.71654701 0.07057753 7 1 4779 4.04400000 2044015419 2044015419 1.00000000
2.01387167 1.82606733 -0.62761343 3 2 4780 2.79000000 2044015422 2044015422 -13.00000000
3.00993919 2.72828913 0.21290267 8 3 4781 4.06800000 2044015424 2044015424 3.00000000
2.43939447 2.21113205 -0.63997334 4 4 4781 3.35400000 2044015426 2044015426 -11.00000000
3.01636338 2.73315334 0.35611835 6 5 4782 4.08600000 2044015429 2044015429 5.00000000
2.97643948 2.69603205 -0.63606256 9 6 4783 4.06600000 2044015431 2044015431 -9.00000000
3.02392435 2.73808289 0.50088298 8 7 4784 4.11000000 2044015433 2044015433 7.00000000
2.99202418 2.70824790 -0.49552074 10 8 4785 4.06600000 2044015436 2044015436 -7.00000000
3.02570963 2.73873854 0.64638722 20 9 4785 4.13200000 2044015438 2044015438 9.00000000
2.99167800 2.70698476 -0.35298076 11 10 4786 4.05000000 2044015440 2044015440 -5.00000000
3.01391578 2.72614980 0.78994924 28 11 4787 4.14000000 2044015443 2044015443 11.00000000
2.98512268 2.69915867 -0.21091390 7 12 4788 4.03000000 2044015445 2044015445 -3.00000000
3.02004647 2.72977901 0.93984550 23 13 4789 4.17800000 2044015447 2044015447 13.00000000
3.00009322 2.71079230 -0.07057753 7 14 4790 4.04400000 2044015449 2044015449 -1.00000000
3.01202154 2.72061563 1.08755767 50 15 4791 4.20200000 2044015452 2044015452 15.00000000
1.69927001 1.53110397 -0.61288351 4 0 4798 2.36800000 2044015472 2044015472 -15.00000000
2.99691844 2.69938493 0.07040301 7 1 4799 4.03400000 2044015475 2044015475 1.00000000
2.01733732 1.81641865 -0.62671363 3 2 4800 2.78600000 2044015477 2044015477 -13.00000000
3.00858021 2.70893788 0.21216996 8 3 4800 4.05400000 2044015479 2044015479 3.00000000
2.44417930 2.19997668 -0.63921010 4 4 4801 3.35000000 2044015482 2044015482 -11.00000000
3.02144217 2.71860957 0.35559544 6 5 4802 4.08000000 2044015484 2044015484 5.00000000
2.98289490 2.68298388 -0.63543677 9 6 4803 4.06200000 2044015486 2044015486 -9.00000000
3.02017832 2.71556544 0.49868935 7 7 4804 4.09200000 2044015489 2044015489 7.00000000
2.98079038 2.67920923 -0.49210840 12 8 4805 4.03800000 2044015491 2044015491 -7.00000000
3.02544165 2.71838856 0.64419711 10 9 4806 4.11800000 2044015493 2044015493 9.00000000
2.99666286 2.69253063 -0.35245782 11 10 4806 4.04400000 2044015496 2044015496 -5.00000000
3.02049232 2.71298885 0.78918600 58 11 4807 4.13600000 2044015498 2044015498 11.00000000
2.99304032 2.68738794 -0.21080923 7 12 4808 4.02800000 2044015500 2044015500 -3.00000000
3.00345254 2.69579005 0.93174726 12 13 4809 4.14200000 2044015502 2044015502 13.00000000
2.99465346 2.68694901 -0.07022848 7 14 4810 4.02400000 2044015505 2044015505 -1.00000000
3.02006173 2.70879507 1.08703995 56 15 4811 4.20000000 2044015507 2044015507 15.00000000
1.70433795 1.52546060 -0.61288351 4 0 4817 2.36800000 2044015528 2044015528 -15.00000000
3.00138283 2.68543172 0.07029829 8 1 4818 4.02800000 2044015530 2044015530 1.00000000
2.03206468 1.81751382 -0.62941307 3 2 4819 2.79800000 2044015532 2044015532 -13.00000000
3.01010346 2.69228864 0.21164660 8 3 4819 4.04400000 2044015535 2044015535 3.00000000
2.43536210 2.17746520 -0.63501233 5 4 4820 3.32800000 2044015537 2044015537 -11.00000000
3.01855683 2.69795346 0.35420093 8 5 4821 4.06400000 2044015539 2044015539 5.00000000
2.98293710 2.66518068 -0.63355958 9 6 4822 4.05000000 2044015542 2044015542 -9.00000000
3.02028370 2.69760108 0.49722692 7 7 4823 4.08000000 2044015544 2044015544 7.00000000
2.98373556 2.66402149 -0.49113345 12 8 4824 4.03000000 2044015546 2044015546 -7.00000000
3.01039052 2.68782043 0.63919121 8 9 4824 4.08600000 2044015549 2044015549 9.00000000
2.98773789 2.66665816 -0.35036609 13 10 4825 4.02000000 2044015551 2044015551 -5.00000000
3.02214766 2.69642234 0.78727794 64 11 4826 4.12600000 2044015553 2044015553 11.00000000
2.99299216 2.66947126 -0.21018121 9 12 4827 4.01600000 2044015555 2044015555 -3.00000000
2.99757600 2.67168140 -0.07008886 7 14 4829 4.01600000 2044015560 2044015560 -1.00000000
3.02181578 2.69233966 1.08445179 68 15 4830 4.19000000 2044015562 2044015562 15.00000000
1.70387661 1.51436853 -0.61081296 4 0 4837 2.36000000 2044015583 2044015583 -15.00000000
2.99728417 2.66298509 0.06998415 7 1 4838 4.01000000 2044015585 2044015585 1.00000000
2.03548241 1.80782139 -0.62851322 3 2 4839 2.79400000 2044015588 2044015588 -13.00000000
3.01500320 2.67778611 0.21133259 10 3 4839 4.03800000 2044015590 2044015590 3.00000000
2.45322490 2.17807508 -0.63768369 4 4 4840 3.34200000 2044015592 2044015592 -11.00000000
3.01156449 2.67285228 0.35228351 6 5 4841 4.04200000 2044015595 2044015595 5.00000000
2.98040104 2.64426398 -0.63105661 9 6 4842 4.03400000 2044015597 2044015597 -9.00000000
3.02077103 2.67913890 0.49576449 7 7 4843 4.06800000 2044015599 2044015599 7.00000000
2.98707509 2.64832234 -0.49015850 10 8 4844 4.02200000 2044015602 2044015602 -7.00000000
3.01532030 2.67336440 0.63825262 8 9 4844 4.08000000 2044015604 2044015604 9.00000000
2.98659062 2.64696217 -0.34914592 13 10 4845 4.00600000 2044015606 2044015606 -5.00000000
3.01390767 2.67023373 0.78269851 66 11 4846 4.10200000 2044015608 2044015608 11.00000000
2.99631166 2.65371084 -0.20976251 9 12 4847 4.00800000 2044015611 2044015611 -3.00000000
3.01005983 2.66494966 0.92814803 57 13 4848 4.12600000 2044015613 2044015613 13.00000000
2.99340653 2.64927387 -0.06977472 8 14 4849 3.99800000 2044015615 2044015615 -1.00000000
3.00804543 2.66129398 1.07616961 72 15 4850 4.15800000 2044015618 2044015618 15.00000000
1.70625544 1.50585508 -0.60977769 4 0 4857 2.35600000 2044015638 2044015638 -15.00000000
2.98856711 2.63663101 0.06956529 6 1 4858 3.98600000 2044015641 2044015641 1.00000000
2.04178071 1.80070519 -0.62851322 3 2 4859 2.79400000 2044015643 2044015643 -13.00000000
3.01684237 2.66064024 0.21080923 8 3 4859 4.02800000 2044015645 2044015645 3.00000000
2.45492220 2.16430521 -0.63615721 4 4 4860 3.33400000 2044015648 2044015648 -11.00000000
3.01489711 2.65705442 0.35158625 8 5 4861 4.03400000 2044015650 2044015650 5.00000000
2.97182679 2.61817455 -0.62730223 9 6 4862 4.01000000 2044015652 2044015652 -9.00000000
3.02414560 2.66333008 0.49478954 8 7 4863 4.06000000 2044015654 2044015654 7.00000000
2.98885131 2.63132071 -0.48893979 10 8 4864 4.01200000 2044015657 2044015657 -7.00000000
3.01870298 2.65760159 0.63700116 8 9 4864 4.07200000 2044015659 2044015659 9.00000000
2.98235130 2.62467432 -0.34757710 12 10 4865 3.98800000 2044015661 2044015661 -5.00000000
3.01436615 2.65191627 0.78040880 68 11 4866 4.09000000 2044015664 2044015664 11.00000000
2.98755908 2.62740779 -0.20850645 8 12 4867 3.98400000 2044015666 2044015666 -3.00000000
3.01056242 2.64670634 0.92544866 61 13 4868 4.11400000 2044015668 2044015668 13.00000000
2.99812984 2.63484859 -0.06967001 8 14 4869 3.99200000 2044015671 2044015671 -1.00000000
3.01395202 2.64875364 1.07513428 68 15 4869 4.15400000 2044015673 2044015673 15.00000000
1.72167170 1.50880265 -0.61340111 4 0 4877 2.37000000 2044015694 2044015694 -15.00000000
2.99173594 2.62091208 0.06942567 6 1 4878 3.97800000 2044015696 2044015696 1.00000000
2.04218960 1.78843153 -0.62671363 3 2 4879 2.78600000 2044015698 2044015698 -13.00000000
3.00808072 2.63430309 0.20955317 7 3 4879 4.00400000 2044015701 2044015701 3.00000000
2.47132516 2.16348171 -0.63844693 4 4 4880 3.34600000 2044015703 2044015703 -11.00000000
3.01965570 2.64257789 0.35106334 8 5 4881 4.02800000 2044015705 2044015705 5.00000000
2.98094773 2.60778499 -0.62730223 9 6 4882 4.01000000 2044015707 2044015707 -9.00000000
3.00503230 2.62792873 0.49015850 7 7 4883 4.02200000 2044015710 2044015710 7.00000000
2.98905110 2.61303258 -0.48747736 10 8 4884 4.00000000 2044015712 2044015712 -7.00000000
3.02498698 2.64444780 0.63637543 8 9 4884 4.06800000 2044015714 2044015714 9.00000000
2.98999453 2.61293697 -0.34740278 10 10 4885 3.98600000 2044015717 2044015717 -5.00000000
3.01177621 2.63104486 0.77735585 66 11 4886 4.07400000 2044015719 2044015719 11.00000000
2.98768616 2.60908079 -0.20787841 8 12 4887 3.97200000 2044015721 2044015721 -3.00000000
3.00950646 2.62721038 0.92229933 58 13 4888 4.10000000 2044015724 2044015724 13.00000000
2.99676228 2.61516356 -0.06942567 9 14 4889 3.97800000 2044015726 2044015726 -1.00000000
3.02072835 2.63514924 1.07409906 76 15 4890 4.15000000 2044015728 2044015728 15.00000000
1.72666562 1.50308514 -0.61340111 4 0 4896 2.37000000 2044015749 2044015749 -15.00000000
3.00041080 2.61097670 0.06942567 6 1 4897 3.97800000 2044015751 2044015751 1.00000000
2.05104971 1.78420758 -0.62761343 3 2 4898 2.79000000 2044015754 2044015754 -13.00000000
3.00972223 2.61723399 0.20902981 8 3 4899 3.99400000 2044015756 2044015756 3.00000000
2.47552299 2.15269804 -0.63768369 4 4 4899 3.34200000 2044015758 2044015758 -11.00000000
3.00735068 2.61425018 0.34862298 6 5 4900 4.00000000 2044015760 2044015760 5.00000000
2.98361492 2.59270263 -0.62605071 9 6 4901 4.00200000 2044015763 2044015763 -9.00000000
3.02122331 2.62445831 0.49137720 7 7 4902 4.03200000 2044015765 2044015765 7.00000000
2.98121238 2.58878922 -0.48479626 5 8 4903 3.97800000 2044015767 2044015767 -7.00000000
3.01733303 2.62015510 0.63293386 8 9 4903 4.04600000 2044015770 2044015770 9.00000000
2.99262452 2.59778309 -0.34670556 10 10 4904 3.97800000 2044015772 2044015772 -5.00000000
3.02048469 2.62104297 0.77735585 64 11 4905 4.07400000 2044015774 2044015774 11.00000000
2.99028683 2.59392405 -0.20745973 8 12 4906 3.96400000 2044015777 2044015777 -3.00000000
3.00642371 2.60700250 0.91870010 55 13 4907 4.08400000 2044015779 2044015779 13.00000000
2.98728561 2.58949375 -0.06900682 9 14 4908 3.95400000 2044015781 2044015781 -1.00000000
