# .PCD v0.7 - Point Cloud Data file format
VERSION 0.7
FIELDS x y z intensity laser_id azimuth distance_m adjustedtime timestamp vertical_angle
SIZE 4 4 4 1 1 2 8 8 4 8
TYPE F F F U U U F U U F
COUNT 1 1 1 1 1 1 1 1 1 1
WIDTH 527
HEIGHT 1
VIEWPOINT 0 0 0 1 0 0 0
POINTS 527
DATA ascii
8.05880547 -2.48999405 0.14722849 12 1 10717 8.43600000 2687730228 2687730228 1.00000000
2.44453073 -0.75577366 -0.59072149 4 2 10718 2.62600000 2687730230 2687730230 -13.00000000
8.07483101 -2.49803352 0.44297153 13 3 10719 8.46400000 2687730232 2687730232 3.00000000
2.90523577 -0.89876509 -0.59112626 4 4 10719 3.09800000 2687730235 2687730235 -11.00000000
8.07374096 -2.49924040 0.73942930 76 5 10720 8.48400000 2687730237 2687730237 5.00000000
3.62102365 -1.12158668 -0.60039550 6 6 10721 3.83800000 2687730239 2687730239 -9.00000000
8.09260082 -2.50817418 1.04027677 83 7 10722 8.53600000 2687730241 2687730241 7.00000000
4.80258846 -1.48940551 -0.61739010 8 8 10723 5.06600000 2687730244 2687730244 -7.00000000
9.52231884 -2.95311451 1.57904947 46 9 10723 10.09400000 2687730246 2687730246 9.00000000
9.73472500 -3.02271247 1.98136055 12 11 10725 10.38400000 2687730251 2687730251 11.00000000
8.06032944 -2.50434136 -0.44234350 12 12 10726 8.45200000 2687730253 2687730253 -3.00000000
8.05401039 -2.50546122 -0.14722849 16 14 10728 8.43600000 2687730258 2687730258 -1.00000000
8.11279964 -2.52374959 2.27657223 47 15 10728 8.79600000 2687730260 2687730260 15.00000000
2.08355451 -0.65134931 -0.58493102 4 0 10736 2.26000000 2687730281 2687730281 -15.00000000
8.05006504 -2.51810932 0.14722849 12 1 10737 8.43600000 2687730283 2687730283 1.00000000
2.44373751 -0.76488417 -0.59117138 4 2 10738 2.62800000 2687730285 2687730285 -13.00000000
8.07368660 -2.52859259 0.44339022 13 3 10739 8.47200000 2687730288 2687730288 3.00000000
2.90208077 -0.90890080 -0.59112626 4 4 10739 3.09800000 2687730290 2687730290 -11.00000000
8.08017826 -2.53217435 0.74082381 83 5 10740 8.50000000 2687730292 2687730292 5.00000000
3.60954714 -1.13185537 -0.59914398 4 6 10741 3.83000000 2687730294 2687730294 -9.00000000
8.08379555 -2.53640723 1.04027677 83 7 10742 8.53600000 2687730297 2687730297 7.00000000
4.78978443 -1.50378215 -0.61641514 8 8 10743 5.05800000 2687730299 2687730299 -7.00000000
9.49499035 -2.98101020 1.57623363 63 9 10743 10.07600000 2687730301 2687730301 9.00000000
6.55206394 -2.05831695 -0.60085171 172 10 10744 6.89400000 2687730304 2687730304 -5.00000000
9.65669060 -3.03548050 1.96762240 25 11 10745 10.31200000 2687730306 2687730306 11.00000000
8.04010677 -2.52886629 -0.44171548 12 12 10746 8.44000000 2687730308 2687730308 -3.00000000
8.05284500 -2.53596234 -0.14736812 14 14 10748 8.44400000 2687730313 2687730313 -1.00000000
8.11868191 -2.55669522 2.28071332 47 15 10748 8.81200000 2687730315 2687730315 15.00000000
2.07942653 -0.65803546 -0.58441341 4 0 10756 2.25800000 2687730336 2687730336 -15.00000000
8.05266476 -2.54981565 0.14743793 15 1 10757 8.44800000 2687730338 2687730338 1.00000000
2.43176389 -0.77046680 -0.58892184 4 2 10758 2.61800000 2687730341 2687730341 -13.00000000
8.06861877 -2.55796671 0.44359955 13 3 10759 8.47600000 2687730343 2687730343 3.00000000
2.90824771 -0.92199188 -0.59303439 5 4 10759 3.10800000 2687730345 2687730345 -11.00000000
8.07888603 -2.56277370 0.74152106 76 5 10760 8.50800000 2687730347 2687730347 5.00000000
3.60557413 -1.14444816 -0.59914398 6 6 10761 3.83000000 2687730350 2687730350 -9.00000000
8.07489300 -2.56460953 1.04027677 83 7 10762 8.53600000 2687730352 2687730352 7.00000000
4.78639793 -1.52109373 -0.61665887 8 8 10763 5.06000000 2687730354 2687730354 -7.00000000
9.63481045 -3.06559849 1.96533263 43 11 10765 10.30000000 2687730361 2687730361 11.00000000
8.03313351 -2.55752206 -0.44182014 17 12 10766 8.44200000 2687730364 2687730364 -3.00000000
8.05728054 -2.56830764 -0.14761245 16 14 10768 8.45800000 2687730368 2687730368 -1.00000000
8.12443256 -2.58971286 2.28485441 45 15 10768 8.82800000 2687730370 2687730370 15.00000000
2.07711673 -0.66529000 -0.58441341 4 0 10776 2.25800000 2687730391 2687730391 -15.00000000
8.06085396 -2.58340192 0.14775208 18 1 10777 8.46600000 2687730394 2687730394 1.00000000
2.43462658 -0.78073579 -0.59027159 4 2 10778 2.62400000 2687730396 2687730396 -13.00000000
8.05773830 -2.58550549 0.44349489 15 3 10779 8.47400000 2687730398 2687730398 3.00000000
2.89940357 -0.93033850 -0.59188950 5 4 10779 3.10200000 2687730400 2687730400 -11.00000000
8.08316994 -2.59522200 0.74274123 76 5 10780 8.52200000 2687730403 2687730403 5.00000000
3.60155725 -1.15702701 -0.59914398 4 6 10781 3.83000000 2687730405 2687730405 -9.00000000
8.07723045 -2.59642553 1.04173911 85 7 10782 8.54800000 2687730407 2687730407 7.00000000
4.77350044 -1.53536081 -0.61568391 6 8 10783 5.05200000 2687730410 2687730410 -7.00000000
6.54322481 -2.10583973 -0.60137463 36 10 10784 6.90000000 2687730414 2687730414 -5.00000000
9.59975719 -3.09138846 1.96037161 53 11 10785 10.27400000 2687730417 2687730417 11.00000000
8.03746414 -2.58983517 -0.44255283 17 12 10786 8.45600000 2687730419 2687730419 -3.00000000
8.04255676 -2.59457517 -0.14750774 14 14 10788 8.45200000 2687730423 2687730423 -1.00000000
8.12591743 -2.62303376 2.28796029 45 15 10789 8.84000000 2687730426 2687730426 15.00000000
2.07478189 -0.67253643 -0.58441341 4 0 10796 2.25800000 2687730447 2687730447 -15.00000000
8.06700420 -2.61645937 0.14803131 21 1 10797 8.48200000 2687730449 2687730449 1.00000000
2.43003297 -0.78862792 -0.58982164 4 2 10798 2.62200000 2687730451 2687730451 -13.00000000
8.06006241 -2.61731768 0.44412291 13 3 10799 8.48600000 2687730453 2687730453 3.00000000
2.88866925 -0.93802822 -0.59036303 4 4 10799 3.09400000 2687730456 2687730456 -11.00000000
8.08164120 -2.62588453 0.74343848 79 5 10800 8.53000000 2687730458 2687730458 5.00000000
3.60876822 -1.17325628 -0.60102123 4 6 10801 3.84200000 2687730460 2687730460 -9.00000000
8.08133221 -2.62890315 1.04344535 80 7 10802 8.56200000 2687730463 2687730463 7.00000000
4.76056147 -1.54955637 -0.61470896 8 8 10803 5.04400000 2687730465 2687730465 -7.00000000
9.44768906 -3.07703400 1.57373071 186 9 10804 10.06000000 2687730467 2687730467 9.00000000
6.54151726 -2.13051796 -0.60189754 28 10 10804 6.90600000 2687730470 2687730470 -5.00000000
9.59450722 -3.12670374 1.96151650 43 11 10805 10.28000000 2687730472 2687730472 11.00000000
8.04356670 -2.62282872 -0.44339022 17 12 10806 8.47200000 2687730474 2687730474 -3.00000000
8.03915405 -2.62449503 -0.14761245 16 14 10808 8.45800000 2687730479 2687730479 -1.00000000
8.12452030 -2.65236402 2.29003096 45 15 10808 8.84800000 2687730481 2687730481 15.00000000
2.05590105 -0.67435575 -0.57975465 4 0 10816 2.24000000 2687730502 2687730502 -15.00000000
8.05782127 -2.64460254 0.14803131 18 1 10817 8.48200000 2687730504 2687730504 1.00000000
2.43467116 -0.79953754 -0.59162128 4 2 10818 2.63000000 2687730506 2687730506 -13.00000000
8.06985092 -2.65167141 0.44516966 15 3 10819 8.50600000 2687730509 2687730509 3.00000000
2.88537741 -0.94810581 -0.59036303 4 4 10819 3.09400000 2687730511 2687730511 -11.00000000
8.07621193 -2.65532327 0.74378711 79 5 10820 8.53400000 2687730513 2687730513 5.00000000
3.58588624 -1.17967296 -0.59789252 2 6 10821 3.82200000 2687730516 2687730516 -9.00000000
8.08341980 -2.66082025 1.04490781 76 7 10822 8.57400000 2687730518 2687730518 7.00000000
4.76266527 -1.56864846 -0.61568391 8 8 10823 5.05200000 2687730520 2687730520 -7.00000000
9.44439507 -3.11246705 1.57498217 186 9 10824 10.06800000 2687730523 2687730523 9.00000000
6.53214836 -2.15271544 -0.60172325 16 10 10824 6.90400000 2687730525 2687730525 -5.00000000
9.57048321 -3.15587211 1.95884514 53 11 10825 10.26600000 2687730527 2687730527 11.00000000
8.05143166 -2.65652227 -0.44433227 17 12 10826 8.49000000 2687730529 2687730529 -3.00000000
8.03753948 -2.65504980 -0.14775208 16 14 10828 8.46600000 2687730534 2687730534 -1.00000000
8.11154366 -2.67949581 2.28899574 45 15 10828 8.84400000 2687730536 2687730536 15.00000000
2.05377221 -0.68081123 -0.57975465 4 0 10834 2.24000000 2687730558 2687730558 -15.00000000
8.05137157 -2.67053342 0.14806622 15 1 10835 8.48400000 2687730560 2687730560 1.00000000
2.42844820 -0.80595469 -0.59072149 4 2 10836 2.62600000 2687730563 2687730563 -13.00000000
8.07332134 -2.67937803 0.44579768 10 3 10836 8.51800000 2687730565 2687730565 3.00000000
2.87679505 -0.95530963 -0.58921820 4 4 10837 3.08800000 2687730567 2687730567 -11.00000000
8.07539272 -2.68319535 0.74448436 76 5 10838 8.54200000 2687730570 2687730570 5.00000000
3.56341743 -1.18470049 -0.59476382 2 6 10839 3.80200000 2687730572 2687730572 -9.00000000
8.07502079 -2.68620205 1.04490781 78 7 10840 8.57400000 2687730574 2687730574 7.00000000
4.76336432 -1.58548379 -0.61641514 4 8 10841 5.05800000 2687730576 2687730576 -7.00000000
9.43699360 -3.14109921 1.57529509 192 9 10841 10.07000000 2687730579 2687730579 9.00000000
6.55748844 -2.18392873 -0.60468656 68 10 10842 6.93800000 2687730581 2687730581 -5.00000000
9.54748344 -3.18157840 1.95617378 46 11 10843 10.25200000 2687730583 2687730583 11.00000000
8.05251980 -2.68496227 -0.44485563 21 12 10844 8.50000000 2687730586 2687730586 -3.00000000
8.04622936 -2.68598604 -0.14806622 14 14 10846 8.48400000 2687730590 2687730590 -1.00000000
8.11408043 -2.70863581 2.29210138 47 15 10846 8.85600000 2687730593 2687730593 15.00000000
2.06420445 -0.69227594 -0.58337814 4 0 10854 2.25400000 2687730613 2687730613 -15.00000000
8.05337524 -2.70243859 0.14827564 15 1 10855 8.49600000 2687730616 2687730616 1.00000000
2.40529895 -0.80760354 -0.58577257 4 2 10856 2.60400000 2687730618 2687730618 -13.00000000
8.06534004 -2.70958638 0.44590235 10 3 10857 8.52000000 2687730620 2687730620 3.00000000
2.86785960 -0.96347004 -0.58807331 4 4 10857 3.08200000 2687730623 2687730623 -11.00000000
8.08108616 -2.71644592 0.74587888 76 5 10858 8.55800000 2687730625 2687730625 5.00000000
3.57798362 -1.20342934 -0.59789252 4 6 10859 3.82200000 2687730627 2687730627 -9.00000000
8.06559467 -2.71437263 1.04490781 80 7 10860 8.57400000 2687730629 2687730629 7.00000000
4.73146248 -1.59323239 -0.61300278 4 8 10861 5.03000000 2687730632 2687730632 -7.00000000
9.43477726 -3.17882013 1.57685935 186 9 10862 10.08000000 2687730634 2687730634 9.00000000
9.53818035 -3.21551299 1.95655549 56 11 10863 10.25400000 2687730639 2687730639 11.00000000
8.03931427 -2.71177769 -0.44464630 25 12 10864 8.49600000 2687730641 2687730641 -3.00000000
8.05196095 -2.71917462 -0.14834546 14 14 10866 8.50000000 2687730646 2687730646 -1.00000000
8.11690903 -2.74268627 2.29572487 47 15 10867 8.87000000 2687730648 2687730648 15.00000000
2.06897068 -0.70232087 -0.58544868 4 0 10875 2.26200000 2687730669 2687730669 -15.00000000
8.06045723 -2.73772573 0.14858979 12 1 10876 8.51400000 2687730671 2687730671 1.00000000
2.41892862 -0.82205743 -0.58982164 4 2 10877 2.62200000 2687730673 2687730673 -13.00000000
8.06150627 -2.73965120 0.44621637 13 3 10877 8.52600000 2687730676 2687730676 3.00000000
2.87546158 -0.97776705 -0.59036303 4 4 10878 3.09400000 2687730678 2687730678 -11.00000000
8.08050632 -2.74925518 0.74675041 83 5 10879 8.56800000 2687730680 2687730680 5.00000000
3.55858874 -1.21144247 -0.59538954 4 6 10880 3.80600000 2687730682 2687730682 -9.00000000
8.07250404 -2.74967670 1.04710138 83 7 10881 8.59200000 2687730685 2687730685 7.00000000
4.73122835 -1.61248457 -0.61373401 6 8 10882 5.03600000 2687730687 2687730687 -7.00000000
9.43428040 -3.21720433 1.57873666 186 9 10883 10.09200000 2687730689 2687730689 9.00000000
9.53004646 -3.25171852 1.95731866 56 11 10884 10.25800000 2687730694 2687730694 11.00000000
8.04066181 -2.74509668 -0.44527432 21 12 10885 8.50800000 2687730696 2687730696 -3.00000000
8.04383373 -2.74931502 -0.14838035 12 14 10887 8.50200000 2687730701 2687730701 -1.00000000
8.12373829 -2.77662611 2.30038357 47 15 10887 8.88800000 2687730703 2687730703 15.00000000
2.05188918 -0.70451981 -0.58130759 4 0 10895 2.24600000 2687730724 2687730724 -15.00000000
8.06219959 -2.76974344 0.14879921 12 1 10896 8.52600000 2687730726 2687730726 1.00000000
2.41235852 -0.82922906 -0.58892184 4 2 10897 2.61800000 2687730728 2687730728 -13.00000000
8.06133747 -2.77102065 0.44673973 10 3 10897 8.53600000 2687730731 2687730731 3.00000000
2.86089182 -0.98396719 -0.58807331 4 4 10898 3.08200000 2687730733 2687730733 -11.00000000
8.07274437 -2.77809286 0.74692470 79 5 10899 8.57000000 2687730735 2687730735 5.00000000
3.57675147 -1.23157430 -0.59914398 4 6 10900 3.83000000 2687730738 2687730738 -9.00000000
8.07224083 -2.78107142 1.04832006 78 7 10901 8.60200000 2687730740 2687730740 7.00000000
4.70680380 -1.62252045 -0.61129665 4 8 10902 5.01600000 2687730742 2687730742 -7.00000000
9.42299271 -3.25011659 1.57873666 147 9 10903 10.09200000 2687730745 2687730745 9.00000000
9.52420616 -3.28688622 1.95846355 59 11 10904 10.26400000 2687730749 2687730749 11.00000000
8.04613304 -2.77836227 -0.44611168 17 12 10905 8.52400000 2687730752 2687730752 -3.00000000
8.03796768 -2.77868319 -0.14845017 14 14 10907 8.50600000 2687730756 2687730756 -1.00000000
8.11034489 -2.80370378 2.29934835 45 15 10907 8.88400000 2687730758 2687730758 15.00000000
2.04954171 -0.71132022 -0.58130759 4 0 10914 2.24600000 2687730779 2687730779 -15.00000000
8.04919243 -2.79515147 0.14872941 12 1 10915 8.52200000 2687730781 2687730781 1.00000000
2.41511798 -0.83914298 -0.59027159 4 2 10916 2.62400000 2687730784 2687730784 -13.00000000
8.07236767 -2.80635738 0.44789112 13 3 10917 8.55800000 2687730786 2687730786 3.00000000
2.86503077 -0.99602753 -0.58959979 4 4 10917 3.09000000 2687730788 2687730788 -11.00000000
8.06913280 -2.80681157 0.74744767 83 5 10918 8.57600000 2687730791 2687730791 5.00000000
3.56331968 -1.24018192 -0.59757966 6 6 10919 3.82000000 2687730793 2687730793 -9.00000000
8.07234764 -2.81108880 1.04953873 83 7 10920 8.61200000 2687730795 2687730795 7.00000000
4.73139000 -1.64857042 -0.61519647 6 8 10921 5.04800000 2687730798 2687730798 -7.00000000
9.51696110 -3.31974483 1.95922673 59 11 10923 10.26800000 2687730805 2687730805 11.00000000
8.05384731 -2.81095243 -0.44705373 17 12 10924 8.54200000 2687730807 2687730807 -3.00000000
8.04381084 -2.81059980 -0.14872941 12 14 10926 8.52200000 2687730811 2687730811 -1.00000000
8.10050869 -2.83199716 2.29934835 47 15 10927 8.88400000 2687730814 2687730814 15.00000000
2.04340053 -0.71719056 -0.58027232 4 0 10934 2.24200000 2687730834 2687730834 -15.00000000
8.04315948 -2.82455659 0.14879921 12 1 10935 8.52600000 2687730837 2687730837 1.00000000
2.41033554 -0.84692216 -0.58982164 4 2 10936 2.62200000 2687730839 2687730839 -13.00000000
8.06866932 -2.83509707 0.44820514 10 3 10936 8.56400000 2687730841 2687730841 3.00000000
2.86153650 -1.00602233 -0.58959979 4 4 10937 3.09000000 2687730844 2687730844 -11.00000000
8.07432175 -2.84025002 0.74884212 83 5 10938 8.59200000 2687730846 2687730846 5.00000000
3.55151558 -1.24998939 -0.59632820 8 6 10939 3.81200000 2687730848 2687730848 -9.00000000
8.06623077 -2.84056807 1.05002630 83 7 10940 8.61600000 2687730851 2687730851 7.00000000
4.70875645 -1.65913868 -0.61300278 4 8 10941 5.03000000 2687730853 2687730853 -7.00000000
9.40065193 -3.31418109 1.57873666 63 9 10942 10.09200000 2687730855 2687730855 9.00000000
6.52964926 -2.30201459 -0.60573244 12 10 10942 6.95000000 2687730858 2687730858 -5.00000000
9.50161171 -3.35163879 1.95846355 59 11 10943 10.26400000 2687730860 2687730860 11.00000000
8.04775238 -2.84037781 -0.44726309 17 12 10944 8.54600000 2687730862 2687730862 -3.00000000
8.18803501 -2.89149618 2.00476384 0 13 10945 8.91200000 2687730864 2687730864 13.00000000
8.04714966 -2.84332418 -0.14897375 16 14 10946 8.53600000 2687730867 2687730867 -1.00000000
8.11243057 -2.86798286 2.30556011 47 15 10947 8.90800000 2687730869 2687730869 15.00000000
2.05532193 -0.72984684 -0.58441341 4 0 10955 2.25800000 2687730890 2687730890 -15.00000000
8.04971123 -2.86004257 0.14911336 12 1 10956 8.54400000 2687730892 2687730892 1.00000000
2.40537906 -0.85509807 -0.58937174 4 2 10957 2.62000000 2687730894 2687730894 -13.00000000
8.04881477 -2.86130619 0.44768175 10 3 10957 8.55400000 2687730897 2687730897 3.00000000
2.85783005 -1.01650357 -0.58959979 4 4 10958 3.09000000 2687730899 2687730899 -11.00000000
8.07324314 -2.87316489 0.74971372 76 5 10959 8.60200000 2687730901 2687730901 5.00000000
3.54318857 -1.26167262 -0.59570247 8 6 10960 3.80800000 2687730904 2687730904 -9.00000000
8.05950451 -2.87144566 1.05051374 83 7 10961 8.62000000 2687730906 2687730906 7.00000000
4.70264387 -1.67638600 -0.61300278 4 8 10962 5.03000000 2687730908 2687730908 -7.00000000
9.40019035 -3.35095501 1.58061385 63 9 10962 10.10400000 2687730911 2687730911 9.00000000
6.54556370 -2.33463287 -0.60799849 12 10 10963 6.97600000 2687730913 2687730913 -5.00000000
9.48371696 -3.38446188 1.95731866 56 11 10964 10.25800000 2687730915 2687730915 11.00000000
8.03164577 -2.86784029 -0.44694906 17 12 10965 8.54000000 2687730917 2687730917 -3.00000000
8.17371178 -2.92017627 2.00386405 0 13 10966 8.90800000 2687730920 2687730920 13.00000000
8.04797173 -2.87683797 -0.14918317 16 14 10967 8.54800000 2687730922 2687730922 -1.00000000
8.10550213 -2.89899826 2.30659533 47 15 10968 8.91200000 2687730924 2687730924 15.00000000
2.04912543 -0.73571122 -0.58337814 4 0 10975 2.25400000 2687730945 2687730945 -15.00000000
8.05285263 -2.89285636 0.14935769 12 1 10976 8.55800000 2687730947 2687730947 1.00000000
2.38954234 -0.85887510 -0.58622247 4 2 10977 2.60600000 2687730950 2687730950 -13.00000000
8.05569363 -2.89546442 0.44862381 13 3 10977 8.57200000 2687730952 2687730952 3.00000000
2.85056949 -1.02514434 -0.58883655 4 4 10978 3.08600000 2687730954 2687730954 -11.00000000
8.07066345 -2.90402675 0.75041097 76 5 10979 8.61000000 2687730957 2687730957 5.00000000
3.54247999 -1.27537131 -0.59632820 8 6 10980 3.81200000 2687730959 2687730959 -9.00000000
8.06437397 -2.90494323 1.05246365 83 7 10981 8.63600000 2687730961 2687730961 7.00000000
4.69116068 -1.69077182 -0.61227161 6 8 10982 5.02400000 2687730964 2687730964 -7.00000000
9.39586926 -3.38642645 1.58186531 63 9 10982 10.11200000 2687730966 2687730966 9.00000000
6.54112291 -2.35881877 -0.60834706 12 10 10983 6.98000000 2687730968 2687730968 -5.00000000
9.48292542 -3.42154360 1.95960844 56 11 10984 10.27000000 2687730970 2687730970 11.00000000
8.03473568 -2.90060592 -0.44768175 17 12 10985 8.55400000 2687730973 2687730973 -3.00000000
8.15247154 -2.94471788 2.00116467 1 13 10986 8.89600000 2687730975 2687730975 13.00000000
8.03976154 -2.90559268 -0.14921808 16 14 10987 8.55000000 2687730977 2687730977 -1.00000000
8.11895084 -2.93581438 2.31332469 47 15 10988 8.93800000 2687730980 2687730980 15.00000000
2.03941035 -0.73986697 -0.58130759 4 0 10994 2.24600000 2687731000 2687731000 -15.00000000
8.05825329 -2.92500305 0.14963694 12 1 10995 8.57400000 2687731003 2687731003 1.00000000
2.39400792 -0.86945534 -0.58802205 4 2 10996 2.61400000 2687731005 2687731005 -13.00000000
8.06482124 -2.92898011 0.44967052 13 3 10996 8.59200000 2687731007 2687731007 3.00000000
2.84530926 -1.03392100 -0.58845496 4 4 10997 3.08400000 2687731010 2687731010 -11.00000000
8.06847954 -2.93349719 0.75110817 79 5 10998 8.61800000 2687731012 2687731012 5.00000000
3.54565668 -1.28981268 -0.59757966 8 6 10999 3.82000000 2687731014 2687731014 -9.00000000
8.06961918 -2.93710113 1.05441356 85 7 11000 8.65200000 2687731016 2687731016 7.00000000
4.67806721 -1.70360196 -0.61129665 6 8 11001 5.01600000 2687731019 2687731019 -7.00000000
9.39015675 -3.41959357 1.58280396 60 9 11001 10.11800000 2687731021 2687731021 9.00000000
6.53326464 -2.38049698 -0.60834706 12 10 11002 6.98000000 2687731023 2687731023 -5.00000000
9.48628330 -3.45835066 1.96266139 59 11 11003 10.28600000 2687731026 2687731026 11.00000000
8.04758930 -2.93544698 -0.44893783 17 12 11004 8.57800000 2687731028 2687731028 -3.00000000
8.14449215 -2.97240424 2.00161457 1 13 11005 8.89800000 2687731030 2687731030 13.00000000
8.02444649 -2.93017983 -0.14911336 16 14 11006 8.54400000 2687731033 2687731033 -1.00000000
8.10968781 -2.96130610 2.31332469 47 15 11006 8.93800000 2687731035 2687731035 15.00000000
2.02956033 -0.74432069 -0.57923704 4 0 11014 2.23800000 2687731056 2687731056 -15.00000000
8.04423904 -2.95173597 0.14956713 12 1 11015 8.57000000 2687731058 2687731058 1.00000000
2.39095831 -0.87780666 -0.58802205 4 2 11016 2.61400000 2687731060 2687731060 -13.00000000
8.05829716 -2.95849061 0.44987988 10 3 11016 8.59600000 2687731063 2687731063 3.00000000
2.84168267 -1.04384673 -0.58845496 4 4 11017 3.08400000 2687731065 2687731065 -11.00000000
8.05819035 -2.96164346 0.75110817 72 5 11018 8.61800000 2687731067 2687731067 5.00000000
3.53371692 -1.29945445 -0.59632820 8 6 11019 3.81200000 2687731069 2687731069 -9.00000000
8.07608414 -2.97142053 1.05660725 80 7 11020 8.67000000 2687731072 2687731072 7.00000000
4.67209196 -1.71992099 -0.61129665 6 8 11021 5.01600000 2687731074 2687731074 -7.00000000
9.38928509 -3.45644498 1.58468115 60 9 11021 10.13000000 2687731076 2687731076 9.00000000
7.10636187 -2.61744881 -0.66255796 17 10 11022 7.60200000 2687731079 2687731079 -5.00000000
9.47415352 -3.49144292 1.96266139 56 11 11023 10.28600000 2687731081 2687731081 11.00000000
8.05415916 -2.96973920 -0.44987988 17 12 11024 8.59600000 2687731083 2687731083 -3.00000000
8.15417862 -3.00823522 2.00656343 3 13 11025 8.92000000 2687731086 2687731086 13.00000000
8.03668118 -2.96648192 -0.14953221 16 14 11026 8.56800000 2687731088 2687731088 -1.00000000
8.09877968 -2.99100971 2.31332469 47 15 11027 8.93800000 2687731090 2687731090 15.00000000
2.02694988 -0.75140065 -0.57923704 4 0 11034 2.23800000 2687731111 2687731111 -15.00000000
8.03388691 -2.97979760 0.14956713 12 1 11035 8.57000000 2687731113 2687731113 1.00000000
2.38239861 -0.88411331 -0.58667237 4 2 11036 2.60800000 2687731116 2687731116 -13.00000000
8.06425095 -2.99426270 0.45082194 10 3 11037 8.61400000 2687731118 2687731118 3.00000000
2.83434081 -1.05239296 -0.58769172 4 4 11037 3.08000000 2687731120 2687731120 -11.00000000
8.05714130 -2.99322295 0.75197977 76 5 11038 8.62800000 2687731122 2687731122 5.00000000
3.52175307 -1.30902851 -0.59507668 8 6 11039 3.80400000 2687731125 2687731125 -9.00000000
8.07124519 -3.00166917 1.05733848 87 7 11040 8.67600000 2687731127 2687731127 7.00000000
4.66605997 -1.73621917 -0.61129665 6 8 11041 5.01600000 2687731129 2687731129 -7.00000000
9.39197350 -3.49470973 1.58718407 60 9 11041 10.14600000 2687731132 2687731132 9.00000000
7.09531498 -2.64154363 -0.66238362 17 10 11042 7.60000000 2687731134 2687731134 -5.00000000
9.46374798 -3.52517796 1.96304297 46 11 11043 10.28800000 2687731136 2687731136 11.00000000
8.04374313 -2.99783540 -0.44987988 17 12 11044 8.59600000 2687731139 2687731139 -3.00000000
8.16006088 -3.04280806 2.01061249 3 13 11045 8.93800000 2687731141 2687731141 13.00000000
8.03564548 -2.99801207 -0.14970674 16 14 11046 8.57800000 2687731143 2687731143 -1.00000000
8.09967613 -3.02190161 2.31643057 47 15 11046 8.95000000 2687731146 2687731146 15.00000000
2.03878689 -0.76389390 -0.58337814 4 0 11054 2.25400000 2687731166 2687731166 -15.00000000
8.04590607 -3.01624632 0.14998598 12 1 11055 8.59400000 2687731169 2687731169 1.00000000
2.38112259 -0.89310843 -0.58712226 4 2 11056 2.61000000 2687731171 2687731171 -13.00000000
8.05187988 -3.02169204 0.45071724 10 3 11057 8.61200000 2687731173 2687731173 3.00000000
2.84719276 -1.06848836 -0.59112626 4 4 11057 3.09800000 2687731175 2687731175 -11.00000000
8.06902695 -3.02973366 0.75407147 76 5 11058 8.65200000 2687731178 2687731178 5.00000000
3.50976539 -1.31853497 -0.59382522 8 6 11059 3.79600000 2687731180 2687731180 -9.00000000
8.05885983 -3.02912617 1.05709469 80 7 11060 8.67400000 2687731182 2687731182 7.00000000
4.66740322 -1.75529122 -0.61227161 6 8 11061 5.02400000 2687731185 2687731185 -7.00000000
7.10096884 -2.67190814 -0.66377813 17 10 11062 7.61600000 2687731189 2687731189 -5.00000000
8.03509903 -3.02659893 -0.44998455 17 12 11064 8.59800000 2687731194 2687731194 -3.00000000
8.15850830 -3.07470965 2.01286197 3 13 11065 8.94800000 2687731196 2687731196 13.00000000
8.03635788 -3.03027678 -0.14991617 18 14 11066 8.59000000 2687731199 2687731199 -1.00000000
8.11927414 -3.06316066 2.32523036 47 15 11067 8.98400000 2687731201 2687731201 15.00000000
2.03791475 -0.77169007 -0.58389574 4 0 11074 2.25600000 2687731222 2687731222 -15.00000000
8.04280758 -3.04714727 0.15012559 12 1 11075 8.60200000 2687731224 2687731224 1.00000000
2.37616825 -0.90072393 -0.58667237 3 2 11076 2.60800000 2687731226 2687731226 -13.00000000
8.05062103 -3.05332136 0.45124063 10 3 11077 8.62200000 2687731228 2687731228 3.00000000
2.82876039 -1.07285070 -0.58807331 4 4 11077 3.08200000 2687731231 2687731231 -11.00000000
8.07330418 -3.06353617 0.75546598 71 5 11078 8.66800000 2687731233 2687731233 5.00000000
3.51622200 -1.33498526 -0.59570247 8 6 11079 3.80800000 2687731235 2687731235 -9.00000000
8.06493855 -3.06358266 1.05928838 85 7 11080 8.69200000 2687731238 2687731238 7.00000000
4.62784672 -1.75887847 -0.60788429 4 8 11081 4.98800000 2687731240 2687731240 -7.00000000
7.08414984 -2.69384623 -0.66308087 12 10 11082 7.60800000 2687731245 2687731245 -5.00000000
8.03755188 -3.05960202 -0.45071724 12 12 11084 8.61200000 2687731249 2687731249 -3.00000000
8.13679886 -3.09900784 2.01016259 3 13 11085 8.93600000 2687731252 2687731252 13.00000000
8.04628658 -3.06614304 -0.15030013 14 14 11086 8.61200000 2687731254 2687731254 -1.00000000
8.11629200 -3.09281993 2.32730079 45 15 11086 8.99200000 2687731256 2687731256 15.00000000
2.03340435 -0.77810860 -0.58337814 4 0 11094 2.25400000 2687731277 2687731277 -15.00000000
8.05079746 -3.08235335 0.15047465 12 1 11095 8.62200000 2687731279 2687731279 1.00000000
2.37119007 -0.90831572 -0.58622247 4 2 11096 2.60600000 2687731281 2687731281 -13.00000000
8.05669880 -3.08783770 0.45218265 10 3 11097 8.64000000 2687731284 2687731284 3.00000000
2.82133174 -1.08131325 -0.58731008 4 4 11097 3.07800000 2687731286 2687731286 -11.00000000
8.05884075 -3.09027195 0.75511736 71 5 11098 8.66400000 2687731288 2687731288 5.00000000
3.51522923 -1.34866619 -0.59632820 8 6 11099 3.81200000 2687731291 2687731291 -9.00000000
8.07643414 -3.10025263 1.06221318 85 7 11100 8.71600000 2687731293 2687731293 7.00000000
4.64391661 -1.78356254 -0.61080915 4 8 11101 5.01200000 2687731295 2687731295 -7.00000000
7.01147032 -2.69425964 -0.65715432 12 10 11102 7.54000000 2687731300 2687731300 -5.00000000
9.46846104 -3.64029121 1.97182012 50 11 11103 10.33400000 2687731302 2687731302 11.00000000
8.04359913 -3.09409308 -0.45165929 12 12 11104 8.63000000 2687731304 2687731304 -3.00000000
8.14229965 -3.13369131 2.01421165 3 13 11105 8.95400000 2687731307 2687731307 13.00000000
8.03740025 -3.09492970 -0.15033503 12 14 11106 8.61400000 2687731309 2687731309 -1.00000000
8.11211300 -3.12532496 2.32937145 47 15 11107 9.00000000 2687731311 2687731311 15.00000000
2.00918913 -0.77649051 -0.57716650 4 0 11113 2.23000000 2687731332 2687731332 -15.00000000
8.04426193 -3.11047626 0.15054446 12 1 11114 8.62600000 2687731334 2687731334 1.00000000
2.37543464 -0.91898638 -0.58802205 4 2 11115 2.61400000 2687731337 2687731337 -13.00000000
8.05759048 -3.11886334 0.45281070 10 3 11116 8.65200000 2687731339 2687731339 3.00000000
2.82139230 -1.09208047 -0.58807331 4 4 11116 3.08200000 2687731341 2687731341 -11.00000000
8.05040646 -3.11769867 0.75529164 71 5 11117 8.66600000 2687731344 2687731344 5.00000000
3.49600196 -1.35460603 -0.59382522 8 6 11118 3.79600000 2687731346 2687731346 -9.00000000
8.07536316 -3.13060570 1.06343186 80 7 11119 8.72600000 2687731348 2687731348 7.00000000
4.63427496 -1.79751682 -0.61032170 4 8 11120 5.00800000 2687731351 2687731351 -7.00000000
9.37788868 -3.63744354 1.59312856 8 9 11120 10.18400000 2687731353 2687731353 9.00000000
6.61429501 -2.56684422 -0.62072319 4 10 11121 7.12200000 2687731355 2687731355 -5.00000000
8.04074192 -3.12364268 -0.45207798 12 12 11123 8.63800000 2687731360 2687731360 -3.00000000
8.15910912 -3.17126465 2.02096033 3 13 11124 8.98400000 2687731362 2687731362 13.00000000
8.03827572 -3.12591434 -0.15054446 14 14 11125 8.62600000 2687731364 2687731364 -1.00000000
8.10225391 -3.15079427 2.32937145 45 15 11125 9.00000000 2687731367 2687731367 15.00000000
2.01546407 -0.78701258 -0.57975465 4 0 11133 2.24000000 2687731387 2687731387 -15.00000000
8.03894329 -3.14072013 0.15064918 12 1 11134 8.63200000 2687731390 2687731390 1.00000000
2.36858249 -0.92585367 -0.58712226 4 2 11135 2.61000000 2687731392 2687731392 -13.00000000
8.06153488 -3.15279031 0.45364806 10 3 11136 8.66800000 2687731394 2687731394 3.00000000
2.81390619 -1.10049224 -0.58731008 4 4 11136 3.07800000 2687731397 2687731397 -11.00000000
8.05246258 -3.15086269 0.75651187 71 5 11137 8.68000000 2687731399 2687731399 5.00000000
3.49125218 -1.36680114 -0.59382522 8 6 11138 3.79600000 2687731401 2687731401 -9.00000000
8.06808281 -3.16022301 1.06391943 80 7 11139 8.73000000 2687731404 2687731404 7.00000000
4.62612391 -1.81295824 -0.61007792 4 8 11140 5.00600000 2687731406 2687731406 -7.00000000
8.15071487 -3.19587111 1.38663507 2 9 11141 8.86400000 2687731408 2687731408 9.00000000
6.53480864 -2.56227922 -0.61409938 4 10 11141 7.04600000 2687731410 2687731410 -5.00000000
9.45077419 -3.70752406 1.97334659 28 11 11142 10.34200000 2687731413 2687731413 11.00000000
8.02607059 -3.15023160 -0.45186865 12 12 11143 8.63400000 2687731415 2687731415 -3.00000000
8.14798927 -3.19972587 2.02096033 3 13 11144 8.98400000 2687731417 2687731417 13.00000000
8.04220486 -3.15980434 -0.15082370 12 14 11145 8.64200000 2687731420 2687731420 -1.00000000
8.10503483 -3.18612361 2.33351254 47 15 11146 9.01600000 2687731422 2687731422 15.00000000
2.01809597 -0.79617000 -0.58130759 4 0 11153 2.24600000 2687731443 2687731443 -15.00000000
8.04095078 -3.17390132 0.15089351 12 1 11154 8.64600000 2687731445 2687731445 1.00000000
2.36171103 -0.93268430 -0.58622247 4 2 11155 2.60600000 2687731447 2687731447 -13.00000000
8.04862309 -3.18017721 0.45354339 10 3 11156 8.66600000 2687731450 2687731450 3.00000000
2.81735110 -1.11319363 -0.58883655 4 4 11156 3.08600000 2687731452 2687731452 -11.00000000
8.05994320 -3.18627667 0.75825495 67 5 11157 8.70000000 2687731454 2687731454 5.00000000
3.48278618 -1.37752652 -0.59319949 8 6 11158 3.79200000 2687731457 2687731457 -9.00000000
8.06807804 -3.19274926 1.06538177 78 7 11159 8.74200000 2687731459 2687731459 7.00000000
4.59761906 -1.82032621 -0.60715306 4 8 11160 4.98200000 2687731461 2687731461 -7.00000000
6.52397251 -2.58434057 -0.61392504 8 10 11161 7.04400000 2687731466 2687731466 -5.00000000
9.45785141 -3.74844766 1.97754443 34 11 11162 10.36400000 2687731468 2687731468 11.00000000
8.01502514 -3.17822862 -0.45186865 12 12 11163 8.63400000 2687731470 2687731470 -3.00000000
8.15307331 -3.23461604 2.02500939 3 13 11164 9.00200000 2687731473 2687731473 13.00000000
8.05714607 -3.19818616 -0.15131237 12 14 11165 8.67000000 2687731475 2687731475 -1.00000000
8.10519791 -3.21725965 2.33661842 45 15 11165 9.02800000 2687731477 2687731477 15.00000000
2.01889348 -0.80464005 -0.58234286 4 0 11173 2.25000000 2687731498 2687731498 -15.00000000
8.03911018 -3.20565367 0.15106803 12 1 11174 8.65600000 2687731500 2687731500 1.00000000
2.35120106 -0.93803406 -0.58442283 4 2 11175 2.59800000 2687731503 2687731503 -13.00000000
8.04860210 -3.21269512 0.45417142 10 3 11176 8.67800000 2687731505 2687731505 3.00000000
2.80615473 -1.12011003 -0.58731008 4 4 11176 3.07800000 2687731507 2687731507 -11.00000000
8.05802345 -3.21808648 0.75912654 71 5 11177 8.71000000 2687731510 2687731510 5.00000000
3.47795653 -1.38967526 -0.59319949 8 6 11178 3.79200000 2687731512 2687731512 -9.00000000
8.06794357 -3.22531390 1.06684422 78 7 11179 8.75400000 2687731514 2687731514 7.00000000
4.60229588 -1.84078693 -0.60861552 4 8 11180 4.99400000 2687731516 2687731516 -7.00000000
9.39365196 -3.75909448 1.60251462 60 9 11181 10.24400000 2687731519 2687731519 9.00000000
6.52416039 -2.61079884 -0.61479664 8 10 11181 7.05400000 2687731521 2687731521 -5.00000000
9.46293545 -3.78873634 1.98136055 50 11 11182 10.38400000 2687731523 2687731523 11.00000000
8.02613068 -3.21509910 -0.45312470 12 12 11183 8.65800000 2687731526 2687731526 -3.00000000
8.03850937 -3.22331452 -0.15117274 12 14 11185 8.66200000 2687731530 2687731530 -1.00000000
8.10948849 -3.25341892 2.34127712 42 15 11186 9.04600000 2687731533 2687731533 15.00000000
2.00159526 -0.80625981 -0.57820177 4 0 11194 2.23400000 2687731553 2687731553 -15.00000000
8.04399967 -3.24182415 0.15138218 12 1 11195 8.67400000 2687731556 2687731556 1.00000000
2.35859132 -0.95101786 -0.58712226 4 2 11196 2.61000000 2687731558 2687731558 -13.00000000
8.05159092 -3.24815106 0.45500880 10 3 11197 8.69400000 2687731560 2687731560 3.00000000
2.79110646 -1.12598062 -0.58502036 4 4 11197 3.06600000 2687731563 2687731563 -11.00000000
8.06465054 -3.25505614 0.76086962 75 5 11198 8.73000000 2687731565 2687731565 5.00000000
3.47650290 -1.40389264 -0.59382522 8 6 11199 3.79600000 2687731567 2687731567 -9.00000000
8.06711102 -3.25932455 1.06830668 78 7 11200 8.76600000 2687731569 2687731569 7.00000000
4.60472012 -1.86136258 -0.60983419 4 8 11201 5.00400000 2687731572 2687731572 -7.00000000
9.38230419 -3.79260182 1.60282755 60 9 11201 10.24600000 2687731574 2687731574 9.00000000
6.53486538 -2.64291072 -0.61671406 8 10 11202 7.07600000 2687731576 2687731576 -5.00000000
9.48174381 -3.83664942 1.98822975 50 11 11203 10.42000000 2687731579 2687731579 11.00000000
8.02169800 -3.24749279 -0.45354339 12 12 11204 8.66600000 2687731581 2687731581 -3.00000000
8.03034782 -3.25425744 -0.15124255 14 14 11206 8.66600000 2687731586 2687731586 -1.00000000
8.10524464 -3.28460860 2.34334755 45 15 11206 9.05400000 2687731588 2687731588 15.00000000
1.98982167 -0.80960149 -0.57561356 4 0 11214 2.22400000 2687731609 2687731609 -15.00000000
8.04004288 -3.27289915 0.15152179 12 1 11215 8.68200000 2687731611 2687731611 1.00000000
2.34803796 -0.95630485 -0.58532262 4 2 11216 2.60200000 2687731613 2687731613 -13.00000000
8.05500031 -3.28226590 0.45584619 10 3 11217 8.71000000 2687731616 2687731616 3.00000000
2.79806757 -1.14016151 -0.58731008 4 4 11217 3.07800000 2687731618 2687731618 -11.00000000
8.04585934 -3.28017855 0.76017237 75 5 11218 8.72200000 2687731620 2687731620 5.00000000
3.46792316 -1.41452718 -0.59319949 8 6 11219 3.79200000 2687731622 2687731622 -9.00000000
8.07222652 -3.29421449 1.07050025 73 7 11220 8.78400000 2687731625 2687731625 7.00000000
4.57062769 -1.86616921 -0.60617810 4 8 11221 4.97400000 2687731627 2687731627 -7.00000000
9.38363838 -3.83130264 1.60533047 60 9 11221 10.26200000 2687731629 2687731629 9.00000000
6.51453304 -2.66118479 -0.61566818 8 10 11222 7.06400000 2687731632 2687731632 -5.00000000
9.48283195 -3.87566543 1.99128270 46 11 11223 10.43600000 2687731634 2687731634 11.00000000
8.03619480 -3.28605700 -0.45500880 12 12 11224 8.69400000 2687731636 2687731636 -3.00000000
8.03004360 -3.28681374 -0.15145199 12 14 11226 8.67800000 2687731641 2687731641 -1.00000000
8.09372902 -3.31288123 2.34334755 45 15 11226 9.05400000 2687731643 2687731643 15.00000000
1.99963498 -0.82133341 -0.57923704 4 0 11233 2.23800000 2687731664 2687731664 -15.00000000
8.04394245 -3.30562353 0.15180103 12 1 11234 8.69800000 2687731666 2687731666 1.00000000
2.34845853 -0.96556807 -0.58622247 4 2 11235 2.60600000 2687731669 2687731669 -13.00000000
8.05330753 -3.31275821 0.45636955 10 3 11236 8.72000000 2687731671 2687731671 3.00000000
2.79427123 -1.14943397 -0.58731008 4 4 11236 3.07800000 2687731673 2687731673 -11.00000000
8.04783440 -3.31214952 0.76139259 78 5 11237 8.73600000 2687731675 2687731675 5.00000000
3.46138668 -1.42526734 -0.59288663 6 6 11238 3.79000000 2687731678 2687731678 -9.00000000
8.06125736 -3.32096481 1.07050025 85 7 11239 8.78400000 2687731680 2687731680 7.00000000
4.58276701 -1.88888025 -0.60861552 4 8 11240 4.99400000 2687731682 2687731682 -7.00000000
9.39394855 -3.87382436 1.60939777 63 9 11241 10.28800000 2687731685 2687731685 9.00000000
6.53330135 -2.69416666 -0.61828285 24 10 11241 7.09400000 2687731687 2687731687 -5.00000000
9.48263168 -3.91233182 1.99395394 50 11 11242 10.45000000 2687731689 2687731689 11.00000000
8.04371548 -3.32030845 -0.45605552 12 12 11243 8.71400000 2687731692 2687731692 -3.00000000
8.03758144 -3.32106066 -0.15180103 12 14 11245 8.69800000 2687731696 2687731696 -1.00000000
8.10233879 -3.34781790 2.34904170 45 15 11245 9.07600000 2687731698 2687731698 15.00000000
2.00210905 -0.83052915 -0.58078992 4 0 11253 2.24400000 2687731719 2687731719 -15.00000000
8.03420162 -3.33444858 0.15183593 12 1 11254 8.70000000 2687731722 2687731722 1.00000000
2.33787489 -0.97077054 -0.58442283 4 2 11255 2.59800000 2687731724 2687731724 -13.00000000
8.05460548 -3.34621310 0.45710224 10 3 11256 8.73400000 2687731726 2687731726 3.00000000
2.79568100 -1.16144049 -0.58845496 5 4 11256 3.08400000 2687731728 2687731728 -11.00000000
8.05278206 -3.34710383 0.76296139 75 5 11257 8.75400000 2687731731 2687731731 5.00000000
3.45456672 -1.43658268 -0.59257376 6 6 11258 3.78800000 2687731733 2687731733 -9.00000000
8.05144882 -3.34984612 1.07074404 76 7 11259 8.78600000 2687731735 2687731735 7.00000000
4.56514978 -1.90028846 -0.60715306 4 8 11260 4.98200000 2687731738 2687731738 -7.00000000
9.39678097 -3.91342688 1.61221361 60 9 11261 10.30600000 2687731740 2687731740 9.00000000
6.52201796 -2.71618962 -0.61810851 24 10 11261 7.09200000 2687731742 2687731742 -5.00000000
9.48703957 -3.95295954 1.99777019 50 11 11262 10.47000000 2687731745 2687731745 11.00000000
8.02838993 -3.34682918 -0.45584619 12 12 11263 8.71000000 2687731747 2687731747 -3.00000000
8.04070377 -3.35525751 -0.15208027 14 14 11265 8.71400000 2687731751 2687731751 -1.00000000
8.09714508 -3.38046908 2.35111213 45 15 11266 9.08400000 2687731754 2687731754 15.00000000
2.00454307 -0.83975208 -0.58234286 4 0 11273 2.25000000 2687731775 2687731775 -15.00000000
8.04095650 -3.37020254 0.15218498 12 1 11274 8.72000000 2687731777 2687731777 1.00000000
2.33806610 -0.98043251 -0.58532262 4 2 11275 2.60200000 2687731779 2687731779 -13.00000000
8.04287624 -3.37430859 0.45710224 10 3 11276 8.73400000 2687731781 2687731781 3.00000000
2.77531648 -1.16435635 -0.58502036 5 4 11276 3.06600000 2687731784 2687731784 -11.00000000
8.05758381 -3.38213301 0.76453018 78 5 11277 8.77200000 2687731786 2687731786 5.00000000
3.44770956 -1.44786775 -0.59226090 6 6 11278 3.78600000 2687731788 2687731788 -9.00000000
8.06532860 -3.38869572 1.07415640 87 7 11279 8.81400000 2687731791 2687731791 7.00000000
4.56031895 -1.91698146 -0.60739678 2 8 11280 4.98400000 2687731793 2687731793 -7.00000000
9.39398861 -3.95079875 1.61409080 60 9 11281 10.31800000 2687731795 2687731795 9.00000000
6.52902603 -2.74589086 -0.61967731 33 10 11281 7.11000000 2687731798 2687731798 -5.00000000
9.50756550 -4.00051832 2.00502086 50 11 11282 10.50800000 2687731800 2687731800 11.00000000
8.02402115 -3.37793279 -0.45626485 12 12 11283 8.71800000 2687731802 2687731802 -3.00000000
8.02894306 -3.38330436 -0.15208027 12 14 11285 8.71400000 2687731807 2687731807 -1.00000000
8.10191250 -3.41405320 2.35577106 47 15 11285 9.10200000 2687731809 2687731809 15.00000000
1.98736608 -0.84072280 -0.57820177 4 0 11293 2.23400000 2687731830 2687731830 -15.00000000
8.04387474 -3.40448570 0.15246423 12 1 11294 8.73600000 2687731832 2687731832 1.00000000
2.34180760 -0.99162740 -0.58712226 4 2 11295 2.61000000 2687731834 2687731834 -13.00000000
8.05311680 -3.41171217 0.45835832 10 3 11296 8.75800000 2687731837 2687731837 3.00000000
2.78027368 -1.17786610 -0.58692849 5 4 11296 3.07600000 2687731839 2687731839 -11.00000000
8.05673504 -3.41490364 0.76557606 78 5 11297 8.78400000 2687731841 2687731841 5.00000000
3.45172763 -1.46374977 -0.59382522 6 6 11298 3.79600000 2687731844 2687731844 -9.00000000
8.06076050 -3.41992950 1.07513130 80 7 11299 8.82200000 2687731846 2687731846 7.00000000
4.55177212 -1.93211269 -0.60715306 4 8 11300 4.98200000 2687731848 2687731848 -7.00000000
9.39468670 -3.98974299 1.61659372 60 9 11301 10.33400000 2687731851 2687731851 9.00000000
6.51389980 -2.76632833 -0.61915439 16 10 11301 7.10400000 2687731853 2687731853 -5.00000000
9.52245426 -4.04596519 2.01112676 43 11 11302 10.54000000 2687731855 2687731855 11.00000000
8.03791428 -3.41686010 -0.45773026 12 12 11303 8.74600000 2687731857 2687731857 -3.00000000
8.02260399 -3.41365886 -0.15218498 10 14 11305 8.72000000 2687731862 2687731862 -1.00000000
8.09527874 -3.44458246 2.35732388 47 15 11305 9.10800000 2687731864 2687731864 15.00000000
1.97746038 -0.84427434 -0.57613117 4 0 11312 2.22600000 2687731885 2687731885 -15.00000000
8.04173565 -3.43506885 0.15263875 12 1 11313 8.74600000 2687731887 2687731887 1.00000000
2.33850622 -0.99938768 -0.58712226 4 2 11314 2.61000000 2687731890 2687731890 -13.00000000
8.04603195 -3.43856454 0.45856765 10 3 11314 8.76200000 2687731892 2687731892 3.00000000
2.77635264 -1.18707943 -0.58692849 5 4 11315 3.07600000 2687731894 2687731894 -11.00000000
8.04353523 -3.44081831 0.76540172 78 5 11316 8.78200000 2687731897 2687731897 5.00000000
3.43414235 -1.46974742 -0.59163517 6 6 11317 3.78200000 2687731899 2687731899 -9.00000000
8.06579876 -3.45367360 1.07732499 90 7 11318 8.84000000 2687731901 2687731901 7.00000000
4.54351521 -1.94641459 -0.60690933 6 8 11319 4.98000000 2687731903 2687731903 -7.00000000
9.40389538 -4.02857208 1.62034822 57 9 11319 10.35800000 2687731906 2687731906 9.00000000
6.51201582 -2.79105353 -0.61985165 12 10 11320 7.11200000 2687731908 2687731908 -5.00000000
9.53965855 -4.09067392 2.01761436 37 11 11321 10.57400000 2687731910 2687731910 11.00000000
8.04489422 -3.45137048 -0.45877698 12 12 11322 8.76600000 2687731913 2687731913 -3.00000000
8.03145123 -3.44892359 -0.15256894 12 14 11324 8.74200000 2687731917 2687731917 -1.00000000
8.08736229 -3.47293305 2.35835910 45 15 11324 9.11200000 2687731920 2687731920 15.00000000
1.98159742 -0.85423082 -0.57820177 4 0 11332 2.23400000 2687731940 2687731940 -15.00000000
8.03520489 -3.46549463 0.15274346 12 1 11333 8.75200000 2687731943 2687731943 1.00000000
2.33142495 -1.00600040 -0.58622247 4 2 11334 2.60600000 2687731945 2687731945 -13.00000000
8.06088066 -3.47990584 0.46013772 15 3 11335 8.79200000 2687731947 2687731947 3.00000000
2.76858711 -1.19520724 -0.58616525 5 4 11335 3.07200000 2687731950 2687731950 -11.00000000
8.04976559 -3.47677469 0.76714486 75 5 11336 8.80200000 2687731952 2687731952 5.00000000
3.41085792 -1.47389019 -0.58850646 6 6 11337 3.76200000 2687731954 2687731954 -9.00000000
8.05187225 -3.48101974 1.07708120 80 7 11338 8.83800000 2687731956 2687731956 7.00000000
4.52940559 -1.95911026 -0.60593438 6 8 11339 4.97200000 2687731959 2687731959 -7.00000000
9.41625977 -4.07477951 1.62504125 54 9 11340 10.38800000 2687731961 2687731961 9.00000000
6.51686144 -2.82009792 -0.62124616 12 10 11340 7.12800000 2687731963 2687731963 -5.00000000
9.55054474 -4.13486910 2.02295709 34 11 11341 10.60200000 2687731966 2687731966 11.00000000
8.02913189 -3.47784376 -0.45856765 12 12 11342 8.76200000 2687731968 2687731968 -3.00000000
8.03037167 -3.48171020 -0.15277837 12 14 11344 8.75400000 2687731973 2687731973 -1.00000000
8.09052944 -3.50947022 2.36301780 47 15 11345 9.13000000 2687731975 2687731975 15.00000000
1.98229682 -0.86233860 -0.57923704 4 0 11351 2.23800000 2687731996 2687731996 -15.00000000
8.03650379 -3.49770737 0.15298779 12 1 11352 8.76600000 2687731998 2687731998 1.00000000
2.31735587 -1.00905812 -0.58352304 4 2 11353 2.59400000 2687732000 2687732000 -13.00000000
8.05906391 -3.50919938 0.46066108 18 3 11353 8.80200000 2687732003 2687732003 3.00000000
2.76820803 -1.20594978 -0.58692849 5 4 11354 3.07600000 2687732005 2687732005 -11.00000000
8.05280399 -3.50981784 0.76853937 75 5 11355 8.81800000 2687732007 2687732007 5.00000000
3.41681600 -1.48993027 -0.59038365 4 6 11356 3.77400000 2687732009 2687732009 -9.00000000
8.04028416 -3.50770140 1.07708120 78 7 11357 8.83800000 2687732012 2687732012 7.00000000
4.52288389 -1.97411954 -0.60593438 6 8 11358 4.97200000 2687732014 2687732014 -7.00000000
9.42079926 -4.11388779 1.62816989 51 9 11359 10.40800000 2687732016 2687732016 9.00000000
6.51477766 -2.84488225 -0.62194335 28 10 11359 7.13600000 2687732019 2687732019 -5.00000000
9.56736469 -4.17987871 2.02944446 12 11 11360 10.63600000 2687732021 2687732021 11.00000000
8.02121544 -3.50605011 -0.45877698 8 12 11361 8.76600000 2687732023 2687732023 -3.00000000
8.04076576 -3.51793909 -0.15319723 12 14 11363 8.77800000 2687732028 2687732028 -1.00000000
8.09362316 -3.54106474 2.36715889 47 15 11363 9.14600000 2687732030 2687732030 15.00000000
1.98281217 -0.87080646 -0.58027232 4 0 11371 2.24200000 2687732051 2687732051 -15.00000000
8.04072285 -3.53297853 0.15330194 12 1 11372 8.78400000 2687732053 2687732053 1.00000000
2.31917143 -1.01949370 -0.58487272 3 2 11373 2.60000000 2687732055 2687732055 -13.00000000
8.04493713 -3.53650570 0.46055642 13 3 11373 8.80000000 2687732058 2687732058 3.00000000
2.75499606 -1.21165335 -0.58502036 5 4 11374 3.06600000 2687732060 2687732060 -11.00000000
8.05509281 -3.54432559 0.76993382 71 5 11375 8.83400000 2687732062 2687732062 5.00000000
3.41882610 -1.50503170 -0.59163517 4 6 11376 3.78200000 2687732065 2687732065 -9.00000000
8.05160809 -3.54614758 1.08024991 83 7 11377 8.86400000 2687732067 2687732067 7.00000000
4.49598312 -1.98109055 -0.60325325 4 8 11378 4.95000000 2687732069 2687732069 -7.00000000
9.42807198 -4.15630960 1.63192439 51 9 11379 10.43200000 2687732072 2687732072 9.00000000
6.52850771 -2.87805390 -0.62420940 28 10 11379 7.16200000 2687732074 2687732074 -5.00000000
6.42468405 -2.83496284 -0.36802644 7 12 11381 7.03200000 2687732079 2687732079 -3.00000000
8.03575420 -3.54921699 -0.15333684 12 14 11383 8.78600000 2687732083 2687732083 -1.00000000
8.10065174 -3.57788086 2.37285304 45 15 11383 9.16800000 2687732085 2687732085 15.00000000
1.96755016 -0.87189823 -0.57664883 4 0 11390 2.22800000 2687732106 2687732106 -15.00000000
8.04724312 -3.56772780 0.15365098 12 1 11391 8.80400000 2687732108 2687732108 1.00000000
2.31221533 -1.02559853 -0.58397293 3 2 11392 2.59600000 2687732111 2687732111 -13.00000000
8.04349709 -3.56942701 0.46118444 15 3 11393 8.81200000 2687732113 2687732113 3.00000000
2.74378490 -1.21759725 -0.58349389 5 4 11393 3.05800000 2687732115 2687732115 -11.00000000
3.41742706 -1.51796448 -0.59226090 6 6 11395 3.78600000 2687732120 2687732120 -9.00000000
8.05794430 -3.58088970 1.08268726 83 7 11396 8.88400000 2687732122 2687732122 7.00000000
4.49483061 -1.99840820 -0.60398448 4 8 11397 4.95600000 2687732125 2687732125 -7.00000000
9.42579746 -4.19072342 1.63380158 54 9 11397 10.44400000 2687732127 2687732127 9.00000000
6.51892757 -2.89968753 -0.62420940 28 10 11398 7.16200000 2687732129 2687732129 -5.00000000
6.40247583 -2.85056591 -0.36729375 45 12 11400 7.01800000 2687732134 2687732134 -3.00000000
8.02394009 -3.57584500 -0.15333684 12 14 11402 8.78600000 2687732138 2687732138 -1.00000000
8.09164238 -3.60770893 2.37388825 47 15 11403 9.17200000 2687732141 2687732141 15.00000000
1.96273124 -0.87797213 -0.57613117 4 0 11410 2.22600000 2687732161 2687732161 -15.00000000
8.03474045 -3.59579635 0.15365098 12 1 11411 8.80400000 2687732164 2687732164 1.00000000
2.31217837 -1.03525615 -0.58487272 3 2 11412 2.60000000 2687732166 2687732166 -13.00000000
2.74668479 -1.23037779 -0.58502036 5 4 11413 3.06600000 2687732171 2687732171 -11.00000000
3.40850258 -1.52826786 -0.59163517 4 6 11415 3.78200000 2687732175 2687732175 -9.00000000
8.07256413 -3.62118244 1.08634329 80 7 11416 8.91400000 2687732178 2687732178 7.00000000
4.49326086 -2.01652431 -0.60471570 4 8 11417 4.96200000 2687732180 2687732180 -7.00000000
9.43920803 -4.23818827 1.63880742 63 9 11418 10.47600000 2687732182 2687732182 9.00000000
6.50513124 -2.92079282 -0.62386084 16 10 11418 7.15800000 2687732185 2687732185 -5.00000000
6.39612961 -2.87453461 -0.36750308 26 12 11420 7.02200000 2687732189 2687732189 -3.00000000
