# .PCD v0.7 - Point Cloud Data file format
VERSION 0.7
FIELDS x y z intensity laser_id azimuth distance_m adjustedtime timestamp vertical_angle
SIZE 4 4 4 1 1 2 8 8 4 8
TYPE F F F U U U F U U F
COUNT 1 1 1 1 1 1 1 1 1 1
WIDTH 542
HEIGHT 1
VIEWPOINT 0 0 0 1 0 0 0
POINTS 542
DATA ascii
2.98703599 2.67541265 -0.63512391 9 6 4815 4.06000000 2687113909 2687113909 -9.00000000
3.03029609 2.71320653 0.49942058 8 7 4816 4.09800000 2687113911 2687113911 7.00000000
2.98787427 2.67428422 -0.49235216 10 8 4817 4.04000000 2687113914 2687113914 -7.00000000
3.01299214 2.69676614 0.64044273 8 9 4817 4.09400000 2687113916 2687113916 9.00000000
2.98596263 2.67163491 -0.35054040 11 10 4818 4.02200000 2687113918 2687113918 -5.00000000
3.02031446 2.70142150 0.78765953 64 11 4819 4.12800000 2687113921 2687113921 11.00000000
2.99568439 2.67845082 -0.21059988 9 12 4820 4.02400000 2687113923 2687113923 -3.00000000
3.00618601 2.68689656 0.93084747 30 13 4821 4.13800000 2687113925 2687113925 13.00000000
2.99878335 2.67933869 -0.07019358 7 14 4822 4.02200000 2687113928 2687113928 -1.00000000
3.02093482 2.69913054 1.08548713 68 15 4822 4.19400000 2687113930 2687113930 15.00000000
1.70779479 1.52158964 -0.61288351 4 0 4830 2.36800000 2687113951 2687113951 -15.00000000
2.99552178 2.66797495 0.07001905 7 1 4831 4.01200000 2687113953 2687113953 1.00000000
2.03618336 1.81289852 -0.62941307 3 2 4832 2.79800000 2687113955 2687113955 -13.00000000
3.01769614 2.68678021 0.21175128 10 3 4832 4.04600000 2687113958 2687113958 3.00000000
2.45496178 2.18498635 -0.63882852 4 4 4833 3.34800000 2687113960 2687113960 -11.00000000
3.01276231 2.68050265 0.35280645 8 5 4834 4.04800000 2687113962 2687113962 5.00000000
2.97274017 2.64396501 -0.63011801 9 6 4835 4.02800000 2687113964 2687113964 -9.00000000
3.02788019 2.69206023 0.49747065 8 7 4836 4.08200000 2687113967 2687113967 7.00000000
2.99273968 2.65988231 -0.49162093 10 8 4837 4.03400000 2687113969 2687113969 -7.00000000
3.01795793 2.68229556 0.63950408 8 9 4837 4.08800000 2687113971 2687113971 9.00000000
2.98335457 2.65060902 -0.34914592 11 10 4838 4.00600000 2687113974 2687113974 -5.00000000
3.01211095 2.67521763 0.78308010 62 11 4839 4.10400000 2687113976 2687113976 11.00000000
3.00202847 2.66532564 -0.21039054 9 12 4840 4.02000000 2687113978 2687113978 -3.00000000
3.01117420 2.67250586 0.92949778 55 13 4841 4.13200000 2687113981 2687113981 13.00000000
2.99914265 2.66089177 -0.06998415 8 14 4842 4.01000000 2687113983 2687113983 -1.00000000
3.01635432 2.67522168 1.08031070 68 15 4843 4.17400000 2687113985 2687113985 15.00000000
1.71046603 1.51276040 -0.61184824 4 0 4851 2.36400000 2687114006 2687114006 -15.00000000
2.99329519 2.64638186 0.06973982 6 1 4852 3.99600000 2687114008 2687114008 1.00000000
2.04281425 1.80542338 -0.62941307 3 2 4853 2.79800000 2687114011 2687114011 -13.00000000
3.01900959 2.66723895 0.21112324 8 3 4854 4.03400000 2687114013 2687114013 3.00000000
2.46295357 2.17597389 -0.63882852 4 4 4854 3.34800000 2687114015 2687114015 -11.00000000
3.01509976 2.66284800 0.35193488 8 5 4855 4.03800000 2687114017 2687114017 5.00000000
2.97352576 2.62520742 -0.62824082 9 6 4856 4.01600000 2687114020 2687114020 -9.00000000
3.02582002 2.67043614 0.49552074 10 7 4857 4.06600000 2687114022 2687114022 7.00000000
2.98758292 2.63576245 -0.48918355 10 8 4858 4.01400000 2687114024 2687114024 -7.00000000
3.02036214 2.66468191 0.63793975 8 9 4858 4.07800000 2687114027 2687114027 9.00000000
2.99155521 2.63833880 -0.34897161 13 10 4859 4.00400000 2687114029 2687114029 -5.00000000
3.01305985 2.65636969 0.78079039 72 11 4860 4.09200000 2687114031 2687114031 11.00000000
2.99079967 2.63581705 -0.20892514 8 12 4861 3.99200000 2687114034 2687114034 -3.00000000
3.01802468 2.65887499 0.92859793 61 13 4862 4.12800000 2687114036 2687114036 13.00000000
2.99987102 2.64195180 -0.06977472 8 14 4863 3.99800000 2687114038 2687114038 -1.00000000
3.01117659 2.65190840 1.07513428 72 15 4863 4.15400000 2687114041 2687114041 15.00000000
1.72444546 1.51442909 -0.61495405 4 0 4871 2.37600000 2687114061 2687114061 -15.00000000
2.99650359 2.63064003 0.06960019 6 1 4872 3.98800000 2687114064 2687114064 1.00000000
2.03592157 1.78671300 -0.62536395 3 2 4873 2.78000000 2687114066 2687114066 -13.00000000
3.01328778 2.64351296 0.21007653 7 3 4874 4.01400000 2687114068 2687114068 3.00000000
2.47643733 2.17254210 -0.64035499 4 4 4874 3.35600000 2687114070 2687114070 -11.00000000
3.02138066 2.64967966 0.35158625 6 5 4875 4.03400000 2687114073 2687114073 5.00000000
2.97970057 2.61220741 -0.62761509 9 6 4876 4.01200000 2687114075 2687114075 -9.00000000
3.01272917 2.64023256 0.49186468 7 7 4877 4.03600000 2687114077 2687114077 7.00000000
2.98481989 2.61485314 -0.48723364 9 8 4878 3.99800000 2687114080 2687114080 -7.00000000
3.02267814 2.64708662 0.63637543 8 9 4879 4.06800000 2687114082 2687114082 9.00000000
2.99325228 2.62131715 -0.34810004 10 10 4879 3.99400000 2687114084 2687114084 -5.00000000
3.01640534 2.64066339 0.77926391 68 11 4880 4.08400000 2687114087 2687114087 11.00000000
2.98795819 2.61483860 -0.20808776 8 12 4881 3.97600000 2687114089 2687114089 -3.00000000
3.00968719 2.63292670 0.92319912 58 13 4882 4.10400000 2687114091 2687114091 13.00000000
3.00455904 2.62751508 -0.06967001 8 14 4883 3.99200000 2687114094 2687114094 -1.00000000
3.02087593 2.64085412 1.07513428 68 15 4884 4.15400000 2687114096 2687114096 15.00000000
1.72654641 1.50616241 -0.61391878 4 0 4890 2.37200000 2687114117 2687114117 -15.00000000
2.99616790 2.61280298 0.06939077 8 1 4891 3.97600000 2687114119 2687114119 1.00000000
2.04477334 1.78251290 -0.62626374 3 2 4892 2.78400000 2687114121 2687114121 -13.00000000
3.00848556 2.62169647 0.20913447 8 3 4893 3.99600000 2687114123 2687114123 3.00000000
2.47474766 2.15657902 -0.63806528 4 4 4893 3.34400000 2687114126 2687114126 -11.00000000
3.01512766 2.62655878 0.34984314 8 5 4894 4.01400000 2687114128 2687114128 5.00000000
2.98238778 2.59712291 -0.62636358 9 6 4895 4.00400000 2687114130 2687114130 -9.00000000
3.01547885 2.62501407 0.49088973 7 7 4896 4.02800000 2687114133 2687114133 7.00000000
2.98149467 2.59451580 -0.48528373 7 8 4897 3.98200000 2687114135 2687114135 -7.00000000
3.01458740 2.62331343 0.63293386 8 9 4897 4.04600000 2687114137 2687114137 9.00000000
2.99591541 2.60614610 -0.34740278 10 10 4898 3.98600000 2687114140 2687114140 -5.00000000
3.01921964 2.62549281 0.77773744 66 11 4899 4.07600000 2687114142 2687114142 11.00000000
2.99510550 2.60360551 -0.20798309 8 12 4900 3.97400000 2687114144 2687114144 -3.00000000
3.00075006 2.60759306 0.91780031 58 13 4901 4.08000000 2687114147 2687114147 13.00000000
2.99664950 2.60311174 -0.06928606 9 14 4902 3.97000000 2687114149 2687114149 -1.00000000
3.02332377 2.62628317 1.07306373 76 15 4902 4.14600000 2687114151 2687114151 15.00000000
1.72741282 1.49633193 -0.61236584 4 0 4910 2.36600000 2687114172 2687114172 -15.00000000
2.99771142 2.59578347 0.06921624 6 1 4911 3.96600000 2687114174 2687114174 1.00000000
2.05392981 1.77791524 -0.62716353 3 2 4912 2.78800000 2687114176 2687114176 -13.00000000
3.00553608 2.60072374 0.20829710 6 3 4913 3.98000000 2687114179 2687114179 3.00000000
2.47038341 2.13765025 -0.63501233 4 4 4913 3.32800000 2687114181 2687114181 -11.00000000
3.02277064 2.61471462 0.34966883 8 5 4914 4.01200000 2687114183 2687114183 5.00000000
2.98545837 2.58152843 -0.62511212 8 6 4915 3.99600000 2687114186 2687114186 -9.00000000
3.02612519 2.61577010 0.49113345 7 7 4916 4.03000000 2687114188 2687114188 7.00000000
2.97701502 2.57241178 -0.48309007 7 8 4917 3.96400000 2687114190 2687114190 -7.00000000
3.01072812 2.60062528 0.63011801 8 9 4918 4.02800000 2687114193 2687114193 9.00000000
2.99443984 2.58655572 -0.34618261 8 10 4918 3.97200000 2687114195 2687114195 -5.00000000
3.02242208 2.60980558 0.77621096 64 11 4919 4.06800000 2687114197 2687114197 11.00000000
2.99812794 2.58791471 -0.20756440 5 12 4920 3.96600000 2687114199 2687114199 -3.00000000
3.00393248 2.59201026 0.91600066 56 13 4921 4.07200000 2687114202 2687114202 13.00000000
2.98451877 2.57435012 -0.06879739 4 14 4922 3.94200000 2687114204 2687114204 -1.00000000
3.01244640 2.59752274 1.06581688 68 15 4923 4.11800000 2687114206 2687114206 15.00000000
1.72797215 1.48681533 -0.61081296 4 0 4929 2.36000000 2687114227 2687114227 -15.00000000
2.99569058 2.57670045 0.06897191 3 1 4930 3.95200000 2687114229 2687114229 1.00000000
2.06276941 1.77363539 -0.62806332 3 2 4931 2.79200000 2687114232 2687114232 -13.00000000
2.99445367 2.57381845 0.20693637 4 3 4932 3.95400000 2687114234 2687114234 3.00000000
2.47448087 2.12688708 -0.63424909 4 4 4932 3.32400000 2687114236 2687114236 -11.00000000
2.98608947 2.56572318 0.34443951 3 5 4933 3.95200000 2687114239 2687114239 5.00000000
2.97901773 2.55874324 -0.62198341 8 6 4934 3.97600000 2687114241 2687114241 -9.00000000
3.02273417 2.59537554 0.48918355 5 7 4935 4.01400000 2687114243 2687114243 7.00000000
2.97649097 2.55476809 -0.48162764 37 8 4936 3.95200000 2687114246 2687114246 -7.00000000
3.01588535 2.58858085 0.62949228 8 9 4936 4.02400000 2687114248 2687114248 9.00000000
2.97427130 2.55196142 -0.34287068 31 10 4937 3.93400000 2687114250 2687114250 -5.00000000
3.01913834 2.58954310 0.77315807 62 11 4938 4.05200000 2687114252 2687114252 11.00000000
2.97485232 2.55065751 -0.20536630 19 12 4939 3.92400000 2687114255 2687114255 -3.00000000
3.00955200 2.57949805 0.91510087 59 13 4940 4.06800000 2687114257 2687114257 13.00000000
2.97481680 2.54882598 -0.06837853 17 14 4941 3.91800000 2687114259 2687114259 -1.00000000
3.00592184 2.57547665 1.06064045 76 15 4941 4.09800000 2687114262 2687114262 15.00000000
1.74196422 1.48830390 -0.61391878 4 0 4949 2.37200000 2687114282 2687114282 -15.00000000
2.98794031 2.55194211 0.06858796 39 1 4950 3.93000000 2687114285 2687114285 1.00000000
2.06894803 1.76642418 -0.62806332 3 2 4951 2.79200000 2687114287 2687114287 -13.00000000
2.99886203 2.55946040 0.20662236 27 3 4952 3.94800000 2687114289 2687114289 3.00000000
2.48786330 2.12333465 -0.63577557 4 4 4952 3.33200000 2687114292 2687114292 -11.00000000
2.99048018 2.55140471 0.34391657 24 5 4953 3.94600000 2687114294 2687114294 5.00000000
2.97590733 2.53807402 -0.61948049 8 6 4954 3.96000000 2687114296 2687114296 -9.00000000
3.00458431 2.56162620 0.48479626 19 7 4955 3.97800000 2687114299 2687114299 7.00000000
3.01783442 2.57110429 0.62792796 8 9 4957 4.01400000 2687114303 2687114303 9.00000000
2.98467779 2.54285574 -0.34304500 8 10 4957 3.93600000 2687114305 2687114305 -5.00000000
3.01919127 2.57135105 0.77086836 62 11 4958 4.04000000 2687114308 2687114308 11.00000000
2.98221684 2.53896308 -0.20526162 8 12 4959 3.92200000 2687114310 2687114310 -3.00000000
3.01408577 2.56518817 0.91375118 53 13 4960 4.06200000 2687114312 2687114312 13.00000000
2.97303414 2.52935576 -0.06813420 6 14 4961 3.90400000 2687114315 2687114315 -1.00000000
3.00945473 2.55943584 1.05856991 72 15 4962 4.09000000 2687114317 2687114317 15.00000000
1.75330091 1.48690724 -0.61598933 4 0 4970 2.38000000 2687114338 2687114338 -15.00000000
2.06946182 1.75378966 -0.62626374 3 2 4972 2.78400000 2687114342 2687114342 -13.00000000
2.49862504 2.11673975 -0.63653880 5 4 4973 3.33600000 2687114347 2687114347 -11.00000000
2.97312856 2.51693892 -0.61697751 8 6 4975 3.94400000 2687114352 2687114352 -9.00000000
3.00940704 2.54674959 0.48406503 3 7 4976 3.97200000 2687114354 2687114354 7.00000000
2.97347879 2.51545429 -0.47821531 3 8 4977 3.92400000 2687114356 2687114356 -7.00000000
3.03282332 2.56565762 0.62917942 8 9 4977 4.02200000 2687114358 2687114358 9.00000000
2.98637104 2.52546668 -0.34217346 2 10 4978 3.92600000 2687114361 2687114361 -5.00000000
3.02259827 2.55519795 0.76934189 60 11 4979 4.03200000 2687114363 2687114363 11.00000000
2.97929859 2.51770258 -0.20442425 1 12 4980 3.90600000 2687114365 2687114365 -3.00000000
3.01304674 2.54532075 0.91060185 39 13 4981 4.04800000 2687114368 2687114368 13.00000000
3.00214624 2.53521466 -0.06858796 1 14 4982 3.93000000 2687114370 2687114370 -1.00000000
3.01394248 2.54517603 1.05701697 54 15 4982 4.08400000 2687114372 2687114372 15.00000000
1.75848043 1.48077810 -0.61598933 4 0 4990 2.38000000 2687114393 2687114393 -15.00000000
2.98929667 2.51633000 0.06820401 1 1 4991 3.90800000 2687114395 2687114395 1.00000000
2.06960678 1.74153626 -0.62446415 3 2 4992 2.77600000 2687114398 2687114398 -13.00000000
2.98806024 2.51350760 0.20463359 1 3 4993 3.91000000 2687114400 2687114400 3.00000000
2.50599861 2.10800505 -0.63653880 5 4 4993 3.33600000 2687114402 2687114402 -11.00000000
2.99341178 2.51711726 0.34217346 3 5 4994 3.92600000 2687114405 2687114405 5.00000000
2.98189616 2.50654554 -0.61697751 8 6 4995 3.94400000 2687114407 2687114407 -9.00000000
3.01827860 2.53622937 0.48406503 3 7 4996 3.97200000 2687114409 2687114409 7.00000000
2.97008109 2.49484539 -0.47626540 7 8 4997 3.90800000 2687114411 2687114411 -7.00000000
3.01648927 2.53292990 0.62386066 11 9 4998 3.98800000 2687114414 2687114414 9.00000000
2.97991014 2.50221467 -0.34043032 10 10 4998 3.90600000 2687114416 2687114416 -5.00000000
2.97582912 2.49701715 -0.20358688 12 12 5000 3.89000000 2687114421 2687114421 -3.00000000
3.00847602 2.52351642 0.90655273 10 13 5001 4.03000000 2687114423 2687114423 13.00000000
2.98186374 2.50030756 -0.06792477 11 14 5002 3.89200000 2687114425 2687114425 -1.00000000
1.75745392 1.46998084 -0.61391878 4 0 5009 2.37200000 2687114448 2687114448 -15.00000000
2.99148846 2.50127244 0.06806438 6 1 5010 3.90000000 2687114451 2687114451 1.00000000
2.07836080 1.73716319 -0.62536395 3 2 5011 2.78000000 2687114453 2687114453 -13.00000000
2.99944425 2.50614619 0.20484294 8 3 5012 3.91400000 2687114455 2687114455 3.00000000
2.50996208 2.09716582 -0.63577557 5 4 5012 3.33200000 2687114458 2687114458 -11.00000000
2.99409652 2.50079083 0.34130189 4 5 5013 3.91600000 2687114460 2687114460 5.00000000
3.00232220 2.50677180 -0.61948049 8 6 5014 3.96000000 2687114462 2687114462 -9.00000000
3.02362442 2.52366233 0.48357755 6 7 5015 3.96800000 2687114464 2687114464 7.00000000
2.99815297 2.50151515 -0.47943398 1 8 5016 3.93400000 2687114467 2687114467 -7.00000000
3.03049898 2.52850294 0.62511212 13 9 5016 3.99600000 2687114469 2687114469 9.00000000
2.98819160 2.49231911 -0.34043032 4 10 5017 3.90600000 2687114471 2687114471 -5.00000000
3.04896808 2.54210806 0.77163160 10 11 5018 4.04400000 2687114474 2687114474 11.00000000
3.03479385 2.52849483 0.91195160 10 13 5020 4.05400000 2687114478 2687114478 13.00000000
2.98552918 2.48656631 -0.06782005 1 14 5021 3.88600000 2687114481 2687114481 -1.00000000
3.02822828 2.52212930 1.05598176 12 15 5021 4.08000000 2687114483 2687114483 15.00000000
1.75365746 1.45643163 -0.61081296 4 0 5029 2.36000000 2687114504 2687114504 -15.00000000
3.02020264 2.50742054 0.06851815 1 1 5030 3.92600000 2687114506 2687114506 1.00000000
2.09640861 1.73985398 -0.62896317 3 2 5031 2.79600000 2687114508 2687114508 -13.00000000
3.00509977 2.49311042 0.20463359 1 3 5032 3.91000000 2687114511 2687114511 3.00000000
2.52180004 2.09215212 -0.63692045 5 4 5032 3.33800000 2687114513 2687114513 -11.00000000
3.03808069 2.51957726 0.34531105 1 5 5033 3.96200000 2687114515 2687114515 5.00000000
3.02017856 2.50384092 -0.62135768 8 6 5034 3.97200000 2687114517 2687114517 -9.00000000
3.05381322 2.53082609 0.48698989 4 7 5035 3.99600000 2687114520 2687114520 7.00000000
3.03132510 2.51129699 -0.48333383 7 8 5036 3.96600000 2687114522 2687114522 -7.00000000
3.05603957 2.53177142 0.62855369 8 9 5036 4.01800000 2687114524 2687114524 9.00000000
3.01835608 2.49966455 -0.34287068 4 10 5037 3.93400000 2687114527 2687114527 -5.00000000
3.05328631 2.52769399 0.77048671 8 11 5038 4.03800000 2687114529 2687114529 11.00000000
3.02045298 2.49962425 -0.20547096 1 12 5039 3.92600000 2687114531 2687114531 -3.00000000
3.04960752 2.52285480 0.91375118 7 13 5040 4.06200000 2687114534 2687114534 13.00000000
3.04042101 2.51436138 -0.06886720 4 14 5041 3.94600000 2687114536 2687114536 -1.00000000
3.04445720 2.51769924 1.05856991 8 15 5041 4.09000000 2687114538 2687114538 15.00000000
1.76145804 1.45306695 -0.61184824 4 0 5048 2.36400000 2687114559 2687114559 -15.00000000
3.01461577 2.48594117 0.06820401 8 1 5049 3.90800000 2687114561 2687114561 1.00000000
2.10216665 1.73289251 -0.62896317 3 2 5050 2.79600000 2687114564 2687114564 -13.00000000
3.03492975 2.50091362 0.20609899 3 3 5051 3.93800000 2687114566 2687114566 3.00000000
2.52569389 2.08128095 -0.63615721 5 4 5051 3.33400000 2687114568 2687114568 -11.00000000
3.02796555 2.49428749 0.34321931 4 5 5052 3.93800000 2687114570 2687114570 5.00000000
3.02998996 2.49506760 -0.62167054 8 6 5053 3.97400000 2687114573 2687114573 -9.00000000
3.05605865 2.51563907 0.48601493 6 7 5054 3.98800000 2687114575 2687114575 7.00000000
3.03810334 2.49996948 -0.48309007 20 8 5055 3.96400000 2687114577 2687114577 -7.00000000
3.06790948 2.52359819 0.62917942 8 9 5056 4.02200000 2687114580 2687114580 9.00000000
3.02201247 2.48584437 -0.34234777 34 10 5056 3.92800000 2687114582 2687114582 -5.00000000
3.06771731 2.52254272 0.77201319 8 11 5057 4.04600000 2687114584 2687114584 11.00000000
3.02255392 2.48452115 -0.20505227 21 12 5058 3.91800000 2687114587 2687114587 -3.00000000
3.06849647 2.52138829 0.91690052 7 13 5059 4.07600000 2687114589 2687114589 13.00000000
3.02865434 2.48776460 -0.06841344 19 14 5060 3.92000000 2687114591 2687114591 -1.00000000
3.06622481 2.51862550 1.06322861 8 15 5060 4.10800000 2687114593 2687114593 15.00000000
1.76950848 1.44935763 -0.61288351 4 0 5068 2.36800000 2687114614 2687114614 -15.00000000
3.04803061 2.49567246 0.06876248 17 1 5069 3.94000000 2687114617 2687114617 1.00000000
2.09613872 1.71566963 -0.62536395 3 2 5070 2.78000000 2687114619 2687114619 -13.00000000
3.05600739 2.50042248 0.20693637 21 3 5071 3.95400000 2687114621 2687114621 3.00000000
2.53142405 2.07120872 -0.63577557 5 4 5071 3.33200000 2687114623 2687114623 -11.00000000
3.06904054 2.51019216 0.34687987 16 5 5072 3.98000000 2687114626 2687114626 5.00000000
3.05550313 2.49822974 -0.62511212 8 6 5073 3.99600000 2687114628 2687114628 -9.00000000
3.07404327 2.51249361 0.48747736 8 7 5074 4.00000000 2687114630 2687114630 7.00000000
3.07755613 2.51446891 -0.48796484 8 8 5075 4.00400000 2687114633 2687114633 -7.00000000
3.09505916 2.52786875 0.63293386 8 9 5076 4.04600000 2687114635 2687114635 9.00000000
3.08159399 2.51687121 -0.34810004 6 10 5076 3.99400000 2687114637 2687114637 -5.00000000
3.08714938 2.52051044 0.77468455 8 11 5077 4.06000000 2687114640 2687114640 11.00000000
3.05751252 2.49542403 -0.20683169 5 12 5078 3.95200000 2687114642 2687114642 -3.00000000
3.09086847 2.52174926 0.92094964 8 13 5079 4.09400000 2687114644 2687114644 13.00000000
3.07916045 2.51130199 -0.06935586 4 14 5080 3.97400000 2687114646 2687114646 -1.00000000
3.09340286 2.52201891 1.06944025 8 15 5081 4.13200000 2687114649 2687114649 15.00000000
1.78954470 1.45536101 -0.61805987 4 0 5088 2.38800000 2687114670 2687114670 -15.00000000
3.08620453 2.50898504 0.06942567 8 1 5089 3.97800000 2687114672 2687114672 1.00000000
2.10816407 1.71325839 -0.62716353 3 2 5090 2.78800000 2687114674 2687114674 -13.00000000
3.07866859 2.50107384 0.20787841 4 3 5091 3.97200000 2687114676 2687114676 3.00000000
2.54016232 2.06359792 -0.63615721 5 4 5091 3.33400000 2687114679 2687114679 -11.00000000
3.08861041 2.50825596 0.34810004 6 5 5092 3.99400000 2687114681 2687114681 5.00000000
3.07647395 2.49750900 -0.62761509 11 6 5093 4.01200000 2687114683 2687114683 -9.00000000
3.10437441 2.51925993 0.49088973 7 7 5094 4.02800000 2687114686 2687114686 7.00000000
3.08323145 2.50120974 -0.48747736 8 8 5095 4.00000000 2687114688 2687114688 -7.00000000
3.11153555 2.52327061 0.63449818 8 9 5096 4.05600000 2687114690 2687114690 9.00000000
3.09345579 2.50860906 -0.34844866 8 10 5096 3.99800000 2687114693 2687114693 -5.00000000
3.10965466 2.52084565 0.77811909 8 11 5097 4.07800000 2687114695 2687114695 11.00000000
3.09568739 2.50862789 -0.20882046 7 12 5098 3.99000000 2687114697 2687114697 -3.00000000
3.10873771 2.51830459 0.92364901 8 13 5099 4.10600000 2687114699 2687114699 13.00000000
3.09412384 2.50557208 -0.06949548 6 14 5100 3.98200000 2687114702 2687114702 -1.00000000
3.11826396 2.52512026 1.07513428 8 15 5100 4.15400000 2687114704 2687114704 15.00000000
1.78860188 1.44425082 -0.61598933 4 0 5108 2.38000000 2687114725 2687114725 -15.00000000
3.11361623 2.51326895 0.06984453 7 1 5109 4.00200000 2687114727 2687114727 1.00000000
2.11109829 1.70344162 -0.62626374 3 2 5110 2.78400000 2687114729 2687114729 -13.00000000
3.11225319 2.51037502 0.20955317 7 3 5111 4.00400000 2687114732 2687114732 3.00000000
2.53970957 2.04855537 -0.63424909 5 4 5111 3.32400000 2687114734 2687114734 -11.00000000
3.11440802 2.51121616 0.35001746 6 5 5112 4.01600000 2687114736 2687114736 5.00000000
3.10362887 2.50163078 -0.63136947 9 6 5113 4.03600000 2687114739 2687114739 -9.00000000
3.13015270 2.52210879 0.49357083 7 7 5114 4.05000000 2687114741 2687114741 7.00000000
3.10740328 2.50288415 -0.48991477 8 8 5115 4.02000000 2687114743 2687114743 -7.00000000
3.12494040 2.51611042 0.63543677 8 9 5116 4.06200000 2687114746 2687114746 9.00000000
3.11150479 2.50529265 -0.34949452 9 10 5116 4.01000000 2687114748 2687114748 -5.00000000
3.13219953 2.52105451 0.78155363 8 11 5117 4.09600000 2687114750 2687114750 11.00000000
3.11376190 2.50531888 -0.20944850 7 12 5118 4.00200000 2687114752 2687114752 -3.00000000
3.12965751 2.51720858 0.92724824 8 13 5119 4.12200000 2687114755 2687114755 13.00000000
3.11376023 2.50352740 -0.06973982 6 14 5120 3.99600000 2687114757 2687114757 -1.00000000
3.13759828 2.52269363 1.07875776 8 15 5120 4.16800000 2687114759 2687114759 15.00000000
1.77253079 1.42108107 -0.60874242 4 0 5128 2.35200000 2687114780 2687114780 -15.00000000
3.13173246 2.50988841 0.07005396 8 1 5129 4.01400000 2687114782 2687114782 1.00000000
2.12311506 1.70093584 -0.62806332 3 2 5130 2.79200000 2687114785 2687114785 -13.00000000
3.14082432 2.51627469 0.21091390 7 3 5130 4.03000000 2687114787 2687114787 3.00000000
2.55144215 2.04335952 -0.63539398 5 4 5131 3.33000000 2687114789 2687114789 -11.00000000
3.12937641 2.50531030 0.35071471 6 5 5132 4.02400000 2687114792 2687114792 5.00000000
3.12622285 2.50189042 -0.63418531 11 6 5133 4.05400000 2687114794 2687114794 -9.00000000
3.16218877 2.52976823 0.49722692 7 7 5134 4.08000000 2687114796 2687114796 7.00000000
3.13317442 2.50566006 -0.49259588 10 8 5135 4.04200000 2687114798 2687114798 -7.00000000
3.14098048 2.51190281 0.63700116 8 9 5135 4.07200000 2687114801 2687114801 9.00000000
3.12645578 2.49939251 -0.35019177 9 10 5136 4.01800000 2687114803 2687114803 -5.00000000
3.15631747 2.52236199 0.78536981 8 11 5137 4.11600000 2687114805 2687114805 11.00000000
3.13809276 2.50690055 -0.21049522 7 12 5138 4.02200000 2687114808 2687114808 -3.00000000
3.15365267 2.51842928 0.93174726 8 13 5139 4.14200000 2687114810 2687114810 13.00000000
3.13810825 2.50511885 -0.07008886 7 14 5140 4.01600000 2687114812 2687114812 -1.00000000
3.15242410 2.51654696 1.08082831 8 15 5140 4.17600000 2687114815 2687114815 15.00000000
1.78352630 1.41969764 -0.61081296 4 0 5148 2.36000000 2687114835 2687114835 -15.00000000
3.13890982 2.49769616 0.07001905 8 1 5149 4.01200000 2687114838 2687114838 1.00000000
2.12293911 1.68866205 -0.62626374 3 2 5150 2.78400000 2687114840 2687114840 -13.00000000
3.16565871 2.51717663 0.21196063 7 3 5151 4.05000000 2687114842 2687114842 3.00000000
2.56931591 2.04299402 -0.63806528 5 4 5151 3.34400000 2687114845 2687114845 -11.00000000
3.15837836 2.51048803 0.35298076 6 5 5152 4.05000000 2687114847 2687114847 5.00000000
3.13493705 2.49096251 -0.63418531 9 6 5153 4.05400000 2687114849 2687114849 -9.00000000
3.17100000 2.51871490 0.49722692 7 7 5154 4.08000000 2687114851 2687114851 7.00000000
3.15744781 2.50705171 -0.49503326 10 8 5155 4.06200000 2687114854 2687114854 -7.00000000
3.17337441 2.51879478 0.64169419 8 9 5156 4.10200000 2687114856 2687114856 9.00000000
3.15544868 2.50456643 -0.35245782 9 10 5156 4.04400000 2687114858 2687114858 -5.00000000
3.17125463 2.51621032 0.78689629 8 11 5157 4.12400000 2687114861 2687114861 11.00000000
3.15621305 2.50337815 -0.21112324 7 12 5158 4.03400000 2687114863 2687114863 -3.00000000
3.18227553 2.52314496 0.93759602 8 13 5159 4.16800000 2687114865 2687114865 13.00000000
3.15937066 2.50408649 -0.07036810 7 14 5160 4.03200000 2687114868 2687114868 -1.00000000
3.17828250 2.51817274 1.08652234 8 15 5161 4.19800000 2687114870 2687114870 15.00000000
1.80362761 1.42544186 -0.61598933 4 0 5168 2.38000000 2687114891 2687114891 -15.00000000
3.16800761 2.50283957 0.07047281 7 1 5169 4.03800000 2687114893 2687114893 1.00000000
2.12270331 1.67641008 -0.62446415 3 2 5170 2.77600000 2687114895 2687114895 -13.00000000
3.18339300 2.51409221 0.21258865 7 3 5170 4.06200000 2687114898 2687114898 3.00000000
2.56718612 2.02671385 -0.63577557 5 4 5171 3.33200000 2687114900 2687114900 -11.00000000
3.18901849 2.51672816 0.35542113 6 5 5172 4.07800000 2687114902 2687114902 5.00000000
3.15601993 2.48979235 -0.63668829 11 6 5173 4.07000000 2687114904 2687114904 -9.00000000
3.19224238 2.51746440 0.49917683 7 7 5174 4.09600000 2687114907 2687114907 7.00000000
3.17553353 2.50338864 -0.49649569 10 8 5175 4.07400000 2687114909 2687114909 -7.00000000
3.19611096 2.51870632 0.64450997 8 9 5176 4.12000000 2687114911 2687114911 9.00000000
3.17669106 2.50340223 -0.35385230 9 10 5176 4.06000000 2687114914 2687114914 -5.00000000
3.18927193 2.51241446 0.78918600 8 11 5177 4.13600000 2687114916 2687114916 11.00000000
3.17748547 2.50223088 -0.21196063 7 12 5178 4.05000000 2687114918 2687114918 -3.00000000
3.19871974 2.51804829 0.93984550 8 13 5179 4.17800000 2687114921 2687114921 13.00000000
3.18852162 2.50911903 -0.07082187 7 14 5180 4.05800000 2687114923 2687114923 -1.00000000
3.20938802 2.52553940 1.09428692 8 15 5180 4.22800000 2687114925 2687114925 15.00000000
1.81163204 1.42152238 -0.61702460 4 0 5188 2.38400000 2687114946 2687114946 -15.00000000
3.18931222 2.50163913 0.07075205 7 1 5189 4.05400000 2687114948 2687114948 1.00000000
2.13160920 1.67139518 -0.62536395 3 2 5190 2.78000000 2687114950 2687114950 -13.00000000
3.19843626 2.50789428 0.21300735 7 3 5190 4.07000000 2687114953 2687114953 3.00000000
2.56960940 2.01410699 -0.63463074 5 4 5191 3.32600000 2687114955 2687114955 -11.00000000
3.21033072 2.51541162 0.35681561 6 5 5192 4.09400000 2687114957 2687114957 5.00000000
3.17868805 2.48972321 -0.63950408 9 6 5193 4.08800000 2687114960 2687114960 -9.00000000
3.21820331 2.51976776 0.50185794 7 7 5194 4.11800000 2687114962 2687114962 7.00000000
3.19050550 2.49718285 -0.49747065 10 8 5195 4.08200000 2687114964 2687114964 -7.00000000
3.22044110 2.51970696 0.64763868 8 9 5196 4.14000000 2687114967 2687114967 9.00000000
3.20110178 2.50457573 -0.35559544 9 10 5196 4.08000000 2687114969 2687114969 -5.00000000
3.22121882 2.51940918 0.79491025 8 11 5197 4.16600000 2687114971 2687114971 11.00000000
3.19878793 2.50096560 -0.21279800 7 12 5198 4.06600000 2687114974 2687114974 -3.00000000
3.21670222 2.51406741 0.94254494 8 13 5199 4.19000000 2687114976 2687114976 13.00000000
3.20356369 2.50289822 -0.07096148 7 14 5200 4.06600000 2687114978 2687114978 -1.00000000
3.23036289 2.52383590 1.09842801 8 15 5200 4.24400000 2687114980 2687114980 15.00000000
1.80134320 1.40331757 -0.61184824 4 0 5208 2.36400000 2687115001 2687115001 -15.00000000
3.22484612 2.51137829 0.07134544 7 1 5209 4.08800000 2687115003 2687115003 1.00000000
2.14358139 1.66873264 -0.62716353 3 2 5210 2.78800000 2687115006 2687115006 -13.00000000
3.21706390 2.50351429 0.21363537 7 3 5211 4.08200000 2687115008 2687115008 3.00000000
2.57507491 2.00391936 -0.63424909 5 4 5211 3.32400000 2687115010 2687115010 -11.00000000
3.22538185 2.50908351 0.35751286 6 5 5212 4.10200000 2687115013 2687115013 5.00000000
3.20607185 2.49316382 -0.64325851 9 6 5213 4.11200000 2687115015 2687115015 -9.00000000
3.24735379 2.52435684 0.50502658 7 7 5214 4.14400000 2687115017 2687115017 7.00000000
3.21801233 2.50064731 -0.50039554 10 8 5215 4.10600000 2687115020 2687115020 -7.00000000
3.24281716 2.51992249 0.65045452 8 9 5215 4.15800000 2687115022 2687115022 9.00000000
3.21769214 2.49949765 -0.35646698 9 10 5216 4.09000000 2687115024 2687115024 -5.00000000
3.25015187 2.52380300 0.79987133 8 11 5217 4.19200000 2687115027 2687115027 11.00000000
3.21854234 2.49835730 -0.21353070 7 12 5218 4.08000000 2687115029 2687115029 -3.00000000
3.24239397 2.51596522 0.94749385 8 13 5219 4.21200000 2687115031 2687115031 13.00000000
3.21544099 2.49415183 -0.07103129 7 14 5220 4.07000000 2687115033 2687115033 -1.00000000
3.25333142 2.52263331 1.10308683 8 15 5221 4.26200000 2687115036 2687115036 15.00000000
1.80470264 1.39583921 -0.61133057 4 0 5228 2.36200000 2687115056 2687115056 -15.00000000
3.23675680 2.50255251 0.07141525 7 1 5229 4.09200000 2687115059 2687115059 1.00000000
2.14939332 1.66123998 -0.62716353 3 2 5230 2.78800000 2687115061 2687115061 -13.00000000
3.25063252 2.51237440 0.21531013 7 3 5230 4.11400000 2687115063 2687115063 3.00000000
2.58360791 1.99611890 -0.63463074 5 4 5231 3.32600000 2687115066 2687115066 -11.00000000
3.24831223 2.50877023 0.35908166 6 5 5232 4.12000000 2687115068 2687115068 5.00000000
3.21788216 2.48437166 -0.64388424 9 6 5233 4.11600000 2687115070 2687115070 -9.00000000
3.27343202 2.52634740 0.50770766 7 7 5234 4.16600000 2687115073 2687115073 7.00000000
3.24558210 2.50394988 -0.50332040 8 8 5235 4.13000000 2687115075 2687115075 -7.00000000
3.25672412 2.51163912 0.65139312 8 9 5236 4.16400000 2687115077 2687115077 9.00000000
3.23901892 2.49798465 -0.35786149 9 10 5236 4.10600000 2687115080 2687115080 -5.00000000
3.26516128 2.51723742 0.80139780 8 11 5237 4.20000000 2687115082 2687115082 11.00000000
3.24939156 2.50417566 -0.21499611 7 12 5238 4.10800000 2687115084 2687115084 -3.00000000
3.27122545 2.52009249 0.95334256 8 13 5239 4.23800000 2687115086 2687115086 13.00000000
3.24472404 2.49877405 -0.07148506 7 14 5240 4.09600000 2687115089 2687115089 -1.00000000
3.27130198 2.51833224 1.10619259 8 15 5241 4.27400000 2687115091 2687115091 15.00000000
1.81061077 1.39133990 -0.61184824 4 0 5246 2.36400000 2687115112 2687115112 -15.00000000
3.24777460 2.49480796 0.07148506 7 1 5247 4.09600000 2687115114 2687115114 1.00000000
2.15769291 1.65685296 -0.62806332 3 2 5248 2.79200000 2687115116 2687115116 -13.00000000
3.27276635 2.51309752 0.21625218 7 3 5248 4.13200000 2687115119 2687115119 3.00000000
2.59765267 1.99396956 -0.63653880 6 4 5249 3.33600000 2687115121 2687115121 -11.00000000
3.26566172 2.50583029 0.36012754 6 5 5250 4.13200000 2687115123 2687115123 5.00000000
3.23194075 2.47905922 -0.64513576 9 6 5251 4.12400000 2687115126 2687115126 -9.00000000
3.28765392 2.52088284 0.50868267 7 7 5252 4.17400000 2687115128 2687115128 7.00000000
3.26918769 2.50581741 -0.50575775 8 8 5253 4.15000000 2687115130 2687115130 -7.00000000
3.28140783 2.51518416 0.65483469 8 9 5253 4.18600000 2687115133 2687115133 9.00000000
3.26266575 2.49991465 -0.35960460 9 10 5254 4.12600000 2687115135 2687115135 -5.00000000
3.28552198 2.51651740 0.80445075 8 11 5255 4.21600000 2687115137 2687115137 11.00000000
3.26199985 2.49759769 -0.21531013 7 12 5256 4.11400000 2687115139 2687115139 -3.00000000
3.29924369 2.52520061 0.95919132 7 13 5257 4.26400000 2687115142 2687115142 13.00000000
3.27161622 2.50314951 -0.07190391 7 14 5258 4.12000000 2687115144 2687115144 -1.00000000
3.28993893 2.51625824 1.10981607 8 15 5259 4.28800000 2687115146 2687115146 15.00000000
1.81852818 1.38735461 -0.61288351 4 0 5266 2.36800000 2687115167 2687115167 -15.00000000
3.27554417 2.49800730 0.07190391 7 1 5267 4.12000000 2687115169 2687115169 1.00000000
2.15416479 1.64222240 -0.62536395 3 2 5268 2.78000000 2687115172 2687115172 -13.00000000
3.28946042 2.50771236 0.21677554 7 3 5268 4.14200000 2687115174 2687115174 3.00000000
2.60303569 1.98369992 -0.63615721 5 4 5269 3.33400000 2687115176 2687115176 -11.00000000
3.29499245 2.51011157 0.36239359 7 5 5270 4.15800000 2687115179 2687115179 5.00000000
3.24057460 2.46776271 -0.64513576 9 6 5271 4.12400000 2687115181 2687115181 -9.00000000
3.30906940 2.51901054 0.51063257 7 7 5272 4.19000000 2687115183 2687115183 7.00000000
3.28739309 2.50160336 -0.50722021 8 8 5273 4.16200000 2687115186 2687115186 -7.00000000
3.31689119 2.52405047 0.66015345 8 9 5273 4.22000000 2687115188 2687115188 9.00000000
3.29040098 2.50298548 -0.36169633 9 10 5274 4.15000000 2687115190 2687115190 -5.00000000
3.30835104 2.51572871 0.80788529 8 11 5275 4.23400000 2687115192 2687115192 11.00000000
3.28500867 2.49707389 -0.21625218 7 12 5276 4.13200000 2687115195 2687115195 -3.00000000
3.31424475 2.51838493 0.96099091 8 13 5277 4.27200000 2687115197 2687115197 13.00000000
3.30581212 2.51106739 -0.07246239 7 14 5278 4.15200000 2687115199 2687115199 -1.00000000
3.31562638 2.51760960 1.11551011 8 15 5279 4.31000000 2687115202 2687115202 15.00000000
1.83567989 1.39032948 -0.61702460 4 0 5286 2.38400000 2687115222 2687115222 -15.00000000
3.30656385 2.50345731 0.07239258 7 1 5287 4.14800000 2687115225 2687115225 1.00000000
2.15988398 1.63469291 -0.62536395 3 2 5288 2.78000000 2687115227 2687115227 -13.00000000
3.31093454 2.50585747 0.21761291 7 3 5288 4.15800000 2687115229 2687115229 3.00000000
2.60994434 1.97460151 -0.63615721 6 4 5289 3.33400000 2687115232 2687115232 -11.00000000
3.32439256 2.51421833 0.36465964 7 5 5290 4.18400000 2687115234 2687115234 5.00000000
3.26019907 2.46477485 -0.64732581 9 6 5291 4.13800000 2687115236 2687115236 -9.00000000
3.33051181 2.51701927 0.51258248 7 7 5292 4.20600000 2687115238 2687115238 7.00000000
3.30244088 2.49489927 -0.50819516 8 8 5293 4.17000000 2687115241 2687115241 -7.00000000
3.32883382 2.51483846 0.66077918 8 9 5293 4.22400000 2687115243 2687115243 9.00000000
3.32137704 2.50829458 -0.36413670 9 10 5294 4.17800000 2687115245 2687115245 -5.00000000
3.33748198 2.51954246 0.81284630 8 11 5295 4.26000000 2687115248 2687115248 11.00000000
3.31283593 2.50002885 -0.21750824 7 12 5296 4.15600000 2687115250 2687115250 -3.00000000
3.33079386 2.51266861 0.96324039 7 13 5297 4.28200000 2687115252 2687115252 13.00000000
3.32413697 2.50673652 -0.07267182 7 14 5298 4.16400000 2687115255 2687115255 -1.00000000
3.34400868 2.52172184 1.12223935 8 15 5298 4.33600000 2687115257 2687115257 15.00000000
1.82662535 1.37346423 -0.61236584 4 0 5306 2.36600000 2687115278 2687115278 -15.00000000
3.33446431 2.50631785 0.07281144 7 1 5307 4.17200000 2687115280 2687115280 1.00000000
2.16869283 1.62948477 -0.62626374 3 2 5308 2.78400000 2687115282 2687115282 -13.00000000
3.34041929 2.50988150 0.21897364 7 3 5308 4.18400000 2687115285 2687115285 3.00000000
2.61054182 1.96076286 -0.63463074 6 4 5309 3.32600000 2687115287 2687115287 -11.00000000
3.34270811 2.50977635 0.36570549 7 5 5310 4.19600000 2687115289 2687115289 5.00000000
3.27510238 2.45812273 -0.64857727 9 6 5311 4.14600000 2687115291 2687115291 -9.00000000
3.35833192 2.51967430 0.51550734 7 7 5312 4.23000000 2687115294 2687115294 7.00000000
3.33018637 2.49764919 -0.51112002 8 8 5313 4.19400000 2687115296 2687115296 -7.00000000
3.35655546 2.51742601 0.66453362 8 9 5313 4.24800000 2687115298 2687115298 9.00000000
3.33489490 2.50027108 -0.36465964 9 10 5314 4.18400000 2687115301 2687115301 -5.00000000
3.36510873 2.52200603 0.81742573 8 11 5315 4.28400000 2687115303 2687115303 11.00000000
3.33912516 2.50162244 -0.21865962 7 12 5316 4.17800000 2687115305 2687115305 -3.00000000
3.35514259 2.51270819 0.96773946 8 13 5317 4.30200000 2687115308 2687115308 13.00000000
3.34567332 2.50470519 -0.07295106 7 14 5318 4.18000000 2687115310 2687115310 -1.00000000
3.36560225 2.51870847 1.12638044 8 15 5319 4.35200000 2687115312 2687115312 15.00000000
1.82211983 1.36014616 -0.60926002 4 0 5326 2.35400000 2687115333 2687115333 -15.00000000
3.35280895 2.50183868 0.07302087 7 1 5327 4.18400000 2687115335 2687115335 1.00000000
2.18373990 1.62889564 -0.62896317 3 2 5328 2.79600000 2687115338 2687115338 -13.00000000
3.36240530 2.50717258 0.21981102 7 3 5329 4.20000000 2687115340 2687115340 3.00000000
2.61894417 1.95281196 -0.63501233 5 4 5329 3.32800000 2687115342 2687115342 -11.00000000
3.35304618 2.49928355 0.36587980 7 5 5330 4.19800000 2687115344 2687115344 5.00000000
3.28841496 2.45021629 -0.64951593 9 6 5331 4.15200000 2687115347 2687115347 -9.00000000
3.38939500 2.52453709 0.51891965 7 7 5332 4.25800000 2687115349 2687115349 7.00000000
3.35799122 2.50023556 -0.51404488 8 8 5333 4.21800000 2687115351 2687115351 -7.00000000
3.37799788 2.51513171 0.66703653 8 9 5333 4.26400000 2687115354 2687115354 9.00000000
3.34999514 2.49337316 -0.36535686 9 10 5334 4.19200000 2687115356 2687115356 -5.00000000
3.38964272 2.52196336 0.82124192 8 11 5335 4.30400000 2687115358 2687115358 11.00000000
3.37027359 2.50663853 -0.22012503 8 12 5336 4.20600000 2687115361 2687115361 -3.00000000
3.38265967 2.51493382 0.97313827 8 13 5337 4.32600000 2687115363 2687115363 13.00000000
3.37044573 2.50493979 -0.07330011 7 14 5338 4.20000000 2687115365 2687115365 -1.00000000
3.37703705 2.50983858 1.12741578 8 15 5338 4.35600000 2687115368 2687115368 15.00000000
1.82685649 1.35377741 -0.60926002 3 0 5346 2.35400000 2687115388 2687115388 -15.00000000
3.36634207 2.49369073 0.07312559 7 1 5347 4.19000000 2687115391 2687115391 1.00000000
2.18314815 1.61662424 -0.62716353 3 2 5348 2.78800000 2687115393 2687115393 -13.00000000
3.39361072 2.51205659 0.22127642 7 3 5349 4.22800000 2687115395 2687115395 3.00000000
2.62890077 1.94599438 -0.63577557 6 4 5349 3.33200000 2687115397 2687115397 -11.00000000
3.38897681 2.50771093 0.36884311 7 5 5350 4.23200000 2687115400 2687115400 5.00000000
3.29218340 2.43519855 -0.64857727 9 6 5351 4.14600000 2687115402 2687115402 -9.00000000
3.40457129 2.51741147 0.51989460 7 7 5352 4.26600000 2687115404 2687115404 7.00000000
3.38106537 2.49911809 -0.51623851 8 8 5353 4.23600000 2687115407 2687115407 -7.00000000
3.39990354 2.51212502 0.66953951 8 9 5354 4.28000000 2687115409 2687115409 9.00000000
3.37950993 2.49705648 -0.36762291 9 10 5354 4.21800000 2687115411 2687115411 -5.00000000
3.40474224 2.51478171 0.82276839 8 11 5355 4.31200000 2687115414 2687115414 11.00000000
3.38060951 2.49604511 -0.22022970 8 12 5356 4.20800000 2687115416 2687115416 -3.00000000
3.41493654 2.52046943 0.97988677 8 13 5357 4.35600000 2687115418 2687115418 13.00000000
3.39847851 2.50740600 -0.07371897 7 14 5358 4.22400000 2687115421 2687115421 -1.00000000
3.40797973 2.51349759 1.13466275 8 15 5359 4.38400000 2687115423 2687115423 15.00000000
1.84246397 1.35540569 -0.61288351 4 0 5366 2.36800000 2687115444 2687115444 -15.00000000
3.39596891 2.49732590 0.07357935 7 1 5367 4.21600000 2687115446 2687115446 1.00000000
2.17621684 1.59976006 -0.62356430 3 2 5368 2.77200000 2687115448 2687115448 -13.00000000
3.41040587 2.50610876 0.22179978 7 3 5369 4.23800000 2687115450 2687115450 3.00000000
2.63567758 1.93680596 -0.63577557 5 4 5369 3.33200000 2687115453 2687115453 -11.00000000
3.42179561 2.51355886 0.37145779 7 5 5370 4.26200000 2687115455 2687115455 5.00000000
3.31180930 2.43187594 -0.65076739 9 6 5371 4.16000000 2687115457 2687115457 -9.00000000
3.42453957 2.51373458 0.52160078 7 7 5372 4.28000000 2687115460 2687115460 7.00000000
3.40417242 2.49786997 -0.51843220 8 8 5373 4.25400000 2687115462 2687115462 -7.00000000
3.43369746 2.51953459 0.67454541 8 9 5373 4.31200000 2687115464 2687115464 9.00000000
3.40427113 2.49702859 -0.36936605 9 10 5374 4.23800000 2687115467 2687115467 -5.00000000
3.43249869 2.51681232 0.82734782 8 11 5375 4.33600000 2687115469 2687115469 11.00000000
3.40218902 2.49367523 -0.22106709 8 12 5376 4.22400000 2687115471 2687115471 -3.00000000
3.43314552 2.51544428 0.98258621 9 13 5377 4.36800000 2687115474 2687115474 13.00000000
3.42656946 2.50970697 -0.07413782 7 14 5378 4.24800000 2687115476 2687115476 -1.00000000
3.44434953 2.52272964 1.14398015 8 15 5378 4.42000000 2687115478 2687115478 15.00000000
1.84718394 1.34896600 -0.61288351 4 0 5386 2.36800000 2687115499 2687115499 -15.00000000
3.42727733 2.50196338 0.07406801 7 1 5387 4.24400000 2687115501 2687115501 1.00000000
2.19123268 1.59904623 -0.62626374 3 2 5388 2.78400000 2687115503 2687115503 -13.00000000
3.43688226 2.50713658 0.22295117 7 3 5389 4.26000000 2687115506 2687115506 3.00000000
2.64559436 1.92990792 -0.63653880 5 4 5389 3.33600000 2687115508 2687115508 -11.00000000
3.45630598 2.52038169 0.37424675 7 5 5390 4.29400000 2687115510 2687115510 5.00000000
3.32027793 2.42030072 -0.65076739 9 6 5391 4.16000000 2687115513 2687115513 -9.00000000
3.44773245 2.51228666 0.52379441 7 7 5392 4.29800000 2687115515 2687115515 7.00000000
3.42089343 2.49181581 -0.51965088 8 8 5393 4.26400000 2687115517 2687115517 -7.00000000
3.45568419 2.51623464 0.67704839 8 9 5394 4.32800000 2687115520 2687115520 9.00000000
3.43873692 2.50389481 -0.37215501 9 10 5394 4.27000000 2687115522 2687115522 -5.00000000
3.45396161 2.51405811 0.83040076 8 11 5395 4.35200000 2687115524 2687115524 11.00000000
3.43025279 2.49588513 -0.22232315 8 12 5396 4.24800000 2687115526 2687115526 -3.00000000
3.45608878 2.51376152 0.98663533 8 13 5397 4.38600000 2687115529 2687115529 13.00000000
3.44177866 2.50243449 -0.07427744 7 14 5398 4.25600000 2687115531 2687115531 -1.00000000
3.47545052 2.52598953 1.15122712 8 15 5399 4.44800000 2687115533 2687115533 15.00000000
1.84851933 1.34056485 -0.61184824 4 0 5405 2.36400000 2687115554 2687115554 -15.00000000
3.46307850 2.51053715 0.07466140 7 1 5406 4.27800000 2687115556 2687115556 1.00000000
2.19967914 1.59405816 -0.62716353 3 2 5407 2.78800000 2687115559 2687115559 -13.00000000
3.45488191 2.50275588 0.22357920 7 3 5408 4.27200000 2687115561 2687115561 3.00000000
2.63926029 1.91191018 -0.63348585 5 4 5408 3.32000000 2687115563 2687115563 -11.00000000
3.46948600 2.51241207 0.37476969 7 5 5409 4.30000000 2687115566 2687115566 5.00000000
3.33148599 2.41159368 -0.65139312 9 6 5410 4.16400000 2687115568 2687115568 -9.00000000
3.48660040 2.52295065 0.52842546 7 7 5411 4.33600000 2687115570 2687115570 7.00000000
3.44039679 2.48860216 -0.52135706 8 8 5412 4.27800000 2687115573 2687115573 -7.00000000
3.46837354 2.50883913 0.67798698 8 9 5412 4.33400000 2687115575 2687115575 9.00000000
3.45025039 2.49481249 -0.37250364 9 10 5413 4.27400000 2687115577 2687115577 -5.00000000
3.48773742 2.52099204 0.83650666 8 11 5414 4.38400000 2687115579 2687115579 11.00000000
3.45146155 2.49385405 -0.22316052 8 12 5415 4.26400000 2687115582 2687115582 -3.00000000
3.48020339 2.51369715 0.99113435 9 13 5416 4.40600000 2687115584 2687115584 13.00000000
3.45978570 2.49803090 -0.07448687 7 14 5417 4.26800000 2687115586 2687115586 -1.00000000
3.48493528 2.51618958 1.15174472 8 15 5417 4.45000000 2687115589 2687115589 15.00000000
1.83594131 1.32168853 -0.60615420 3 0 5425 2.34200000 2687115609 2687115609 -15.00000000
3.47669005 2.50193763 0.07476611 7 1 5426 4.28400000 2687115612 2687115612 1.00000000
2.20523000 1.58637011 -0.62716353 3 2 5427 2.78800000 2687115614 2687115614 -13.00000000
3.49278474 2.51166964 0.22546330 7 3 5428 4.30800000 2687115616 2687115616 3.00000000
2.64591813 1.90268588 -0.63348585 5 4 5428 3.32000000 2687115619 2687115619 -11.00000000
3.48308825 2.50377464 0.37529263 7 5 5429 4.30600000 2687115621 2687115621 5.00000000
3.33346701 2.39533901 -0.65014166 9 6 5430 4.15600000 2687115623 2687115623 -9.00000000
3.51312089 2.52350378 0.53110659 7 7 5431 4.35800000 2687115626 2687115626 7.00000000
3.47647452 2.49626064 -0.52550060 8 8 5432 4.31200000 2687115628 2687115628 -7.00000000
3.49840784 2.51108456 0.68205428 8 9 5433 4.36000000 2687115630 2687115630 9.00000000
3.46703076 2.48856282 -0.37337521 9 10 5433 4.28400000 2687115632 2687115632 -5.00000000
3.50768185 2.51681376 0.83917797 8 11 5434 4.39800000 2687115635 2687115635 11.00000000
3.48611307 2.50041628 -0.22483526 8 12 5435 4.29600000 2687115637 2687115637 -3.00000000
3.51429629 2.51970196 0.99833280 8 13 5436 4.43800000 2687115639 2687115639 13.00000000
3.47986174 2.49409342 -0.07473120 7 14 5437 4.28200000 2687115642 2687115642 -1.00000000
3.50669742 2.51240063 1.15588582 8 15 5438 4.46600000 2687115644 2687115644 15.00000000
1.85783315 1.32762718 -0.61184824 4 0 5445 2.36400000 2687115665 2687115665 -15.00000000
3.50167418 2.50141001 0.07511516 7 1 5446 4.30400000 2687115667 2687115667 1.00000000
2.20123863 1.57186794 -0.62446415 3 2 5447 2.77600000 2687115669 2687115669 -13.00000000
3.52266359 2.51454735 0.22682403 7 3 5448 4.33400000 2687115672 2687115672 3.00000000
2.65254354 1.89343822 -0.63348585 5 4 5448 3.32000000 2687115674 2687115674 -11.00000000
3.51775622 2.51011753 0.37808162 7 5 5449 4.33800000 2687115676 2687115676 5.00000000
3.32894254 2.37451172 -0.64763868 9 6 5450 4.14000000 2687115679 2687115679 -9.00000000
3.53160596 2.51814008 0.53256905 7 7 5451 4.37000000 2687115681 2687115681 7.00000000
3.50941443 2.50139308 -0.52915668 8 8 5452 4.34200000 2687115683 2687115683 -7.00000000
3.52923584 2.51552105 0.68643445 8 9 5452 4.38800000 2687115685 2687115685 9.00000000
3.50652647 2.49841189 -0.37668711 10 10 5453 4.32200000 2687115688 2687115688 -5.00000000
3.53883338 2.52049971 0.84452063 8 11 5454 4.42600000 2687115690 2687115690 11.00000000
3.49970078 2.49170732 -0.22514929 8 12 5455 4.30200000 2687115692 2687115692 -3.00000000
3.53577185 2.51645923 1.00193202 8 13 5456 4.45400000 2687115695 2687115695 13.00000000
3.51461697 2.50047898 -0.07528968 7 14 5457 4.31400000 2687115697 2687115697 -1.00000000
3.53389907 2.51419711 1.16209745 8 15 5457 4.49000000 2687115699 2687115699 15.00000000
1.86245608 1.32113397 -0.61184824 4 0 5465 2.36400000 2687115720 2687115720 -15.00000000
3.52669644 2.50073862 0.07546420 7 1 5466 4.32400000 2687115722 2687115722 1.00000000
2.20035267 1.55966687 -0.62266451 3 2 5467 2.76800000 2687115725 2687115725 -13.00000000
3.53630853 2.50569963 0.22713806 7 3 5468 4.34000000 2687115727 2687115727 3.00000000
2.66073871 1.88530266 -0.63386750 5 4 5468 3.32200000 2687115729 2687115729 -11.00000000
3.53625178 2.50473261 0.37912747 7 5 5469 4.35000000 2687115732 2687115732 5.00000000
3.34527183 2.36858439 -0.64920300 6 6 5470 4.15000000 2687115734 2687115734 -9.00000000
3.55657744 2.51726532 0.53500640 7 7 5471 4.39000000 2687115736 2687115736 7.00000000
3.52298594 2.49256730 -0.52988791 8 8 5472 4.34800000 2687115738 2687115738 -7.00000000
3.55617237 2.51511598 0.68987602 8 9 5473 4.41000000 2687115741 2687115741 9.00000000
3.53149295 2.49766135 -0.37843025 10 10 5473 4.34200000 2687115743 2687115743 -5.00000000
3.55402231 2.51266503 0.84604710 8 11 5474 4.43400000 2687115745 2687115745 11.00000000
3.52958083 2.49446106 -0.22651002 8 12 5475 4.32800000 2687115748 2687115748 -3.00000000
3.55567551 2.51197267 1.00508130 8 13 5476 4.46800000 2687115750 2687115750 13.00000000
3.54455853 2.50319147 -0.07574344 7 14 5477 4.34000000 2687115752 2687115752 -1.00000000
3.56202888 2.51459742 1.16830921 8 15 5478 4.51400000 2687115755 2687115755 15.00000000
1.87314439 1.31940055 -0.61391878 4 0 5484 2.37200000 2687115775 2687115775 -15.00000000
3.55132031 2.50054240 0.07581326 7 1 5485 4.34400000 2687115778 2687115778 1.00000000
2.22144842 1.56357813 -0.62716353 3 2 5486 2.78800000 2687115780 2687115780 -13.00000000
3.54786515 2.49625754 0.22734739 7 3 5487 4.34400000 2687115782 2687115782 3.00000000
2.67500401 1.88211763 -0.63577557 5 4 5487 3.33200000 2687115785 2687115785 -11.00000000
3.56083512 2.50445414 0.38087061 7 5 5488 4.37000000 2687115787 2687115787 5.00000000
3.34664416 2.35293365 -0.64795154 6 6 5489 4.14200000 2687115789 2687115789 -9.00000000
3.57465005 2.51230621 0.53646886 7 7 5490 4.40200000 2687115791 2687115791 7.00000000
3.54422665 2.49000025 -0.53183782 8 8 5491 4.36400000 2687115794 2687115794 -7.00000000
3.58021998 2.51528716 0.69300467 8 9 5491 4.43000000 2687115796 2687115796 9.00000000
3.55932164 2.49967742 -0.38052198 10 10 5492 4.36600000 2687115798 2687115798 -5.00000000
