# .PCD v0.7 - Point Cloud Data file format
VERSION 0.7
FIELDS x y z intensity laser_id azimuth distance_m adjustedtime timestamp vertical_angle
SIZE 4 4 4 1 1 2 8 8 4 8
TYPE F F F U U U F U U F
COUNT 1 1 1 1 1 1 1 1 1 1
WIDTH 519
HEIGHT 1
VIEWPOINT 0 0 0 1 0 0 0
POINTS 519
DATA ascii
-1.71630442 -3.52050471 -0.48089644 1 8 20599 3.94600000 2688057597 2688057597 -7.00000000
-2.48920727 -5.10363102 -0.49678773 10 10 20600 5.70000000 2688057602 2688057602 -5.00000000
-2.53124738 -5.18523169 -0.30239716 15 12 20602 5.77800000 2688057607 2688057607 -3.00000000
-4.75399256 -9.73418999 2.50100589 66 13 20603 11.11800000 2688057609 2688057609 13.00000000
-2.51858974 -5.15473747 -0.10014191 13 14 20604 5.73800000 2688057611 2688057611 -1.00000000
-4.33538485 -8.87312889 2.64616585 68 15 20604 10.22400000 2688057614 2688057614 15.00000000
-0.85390472 -1.74149752 -0.51970863 5 0 20612 2.00800000 2688057634 2688057634 -15.00000000
-0.98046255 -1.99784160 -0.51378822 4 2 20614 2.28400000 2688057639 2688057639 -13.00000000
-1.14299619 -2.32800126 -0.50411737 3 4 20615 2.64200000 2688057643 2688057643 -11.00000000
-2.52738667 -5.14312410 -0.90763277 11 6 20617 5.80200000 2688057648 2688057648 -9.00000000
-1.72244990 -3.50202322 -0.47919026 1 8 20619 3.93200000 2688057653 2688057653 -7.00000000
-2.50172901 -5.08418465 -0.49574187 10 10 20620 5.68800000 2688057657 2688057657 -5.00000000
-2.53168321 -5.14052916 -0.30030373 12 12 20622 5.73800000 2688057662 2688057662 -3.00000000
-4.79310989 -9.72802448 2.50370526 62 13 20623 11.13000000 2688057664 2688057664 13.00000000
-2.54364085 -5.16026402 -0.10042115 6 14 20624 5.75400000 2688057667 2688057667 -1.00000000
-4.33284569 -8.78614140 2.62494278 71 15 20625 10.14200000 2688057669 2688057669 15.00000000
-0.85997850 -1.73850620 -0.51970863 5 0 20632 2.00800000 2688057690 2688057690 -15.00000000
-0.98397177 -1.98742127 -0.51198858 4 2 20634 2.27600000 2688057694 2688057694 -13.00000000
-1.15285826 -2.32751560 -0.50488061 3 4 20635 2.64600000 2688057699 2688057699 -11.00000000
-1.72936976 -3.48532009 -0.47772783 3 8 20639 3.92000000 2688057708 2688057708 -7.00000000
-2.51768923 -5.07185221 -0.49539325 10 10 20640 5.68400000 2688057713 2688057713 -5.00000000
-2.55227757 -5.13702679 -0.30061772 12 12 20642 5.74400000 2688057717 2688057717 -3.00000000
-4.82703781 -9.71123409 2.50370526 62 13 20643 11.13000000 2688057720 2688057720 13.00000000
-4.33443213 -8.71637249 2.60837841 71 15 20644 10.07800000 2688057724 2688057724 15.00000000
-0.86431658 -1.73203659 -0.51867336 5 0 20652 2.00400000 2688057745 2688057745 -15.00000000
-0.99177390 -1.98571789 -0.51243848 4 2 20654 2.27800000 2688057749 2688057749 -13.00000000
-1.15571058 -2.31293988 -0.50259089 3 4 20655 2.63400000 2688057754 2688057754 -11.00000000
-1.38985229 -2.77910447 -0.49214283 3 6 20657 3.14600000 2688057759 2688057759 -9.00000000
-1.74241388 -3.48103738 -0.47797155 3 8 20659 3.92200000 2688057763 2688057763 -7.00000000
-2.53983855 -5.07194042 -0.49626479 7 10 20660 5.69400000 2688057768 2688057768 -5.00000000
-2.59793591 -5.18343830 -0.30386257 3 12 20662 5.80600000 2688057772 2688057772 -3.00000000
-4.85566616 -9.68387318 2.50100589 64 13 20663 11.11800000 2688057775 2688057775 13.00000000
-4.33948803 -8.64690208 2.59233165 66 15 20665 10.01600000 2688057779 2688057779 15.00000000
-0.86801767 -1.72586095 -0.51763809 5 0 20670 2.00000000 2688057800 2688057800 -15.00000000
-0.99800730 -1.98259234 -0.51243848 4 2 20672 2.27800000 2688057805 2688057805 -13.00000000
-1.16120505 -2.30579090 -0.50182766 3 4 20673 2.63000000 2688057809 2688057809 -11.00000000
-1.39679801 -2.77119660 -0.49151710 2 6 20675 3.14200000 2688057814 2688057814 -9.00000000
-1.75691760 -3.48263550 -0.47894651 1 8 20677 3.93000000 2688057819 2688057819 -7.00000000
-2.38250327 -4.72064877 -0.46262267 3 10 20678 5.30800000 2688057823 2688057823 -5.00000000
-3.46970081 -6.86883974 -0.40330088 4 12 20680 7.70600000 2688057828 2688057828 -3.00000000
-4.89133835 -9.67900658 2.50370526 59 13 20681 11.13000000 2688057830 2688057830 13.00000000
-4.32764482 -8.55985451 2.57007313 72 15 20682 9.93000000 2688057835 2688057835 15.00000000
-0.87491077 -1.72454333 -0.51815575 5 0 20690 2.00200000 2688057855 2688057855 -15.00000000
-1.01021552 -1.98952198 -0.51513791 4 2 20692 2.29000000 2688057860 2688057860 -13.00000000
-1.17102504 -2.30522418 -0.50259089 3 4 20693 2.63400000 2688057865 2688057865 -11.00000000
-1.41004384 -2.77334738 -0.49276856 3 6 20695 3.15000000 2688057869 2688057869 -9.00000000
-1.76186132 -3.46232796 -0.47699660 1 8 20697 3.91400000 2688057874 2688057874 -7.00000000
-2.39896679 -4.71230316 -0.46262267 3 10 20698 5.30800000 2688057878 2688057878 -5.00000000
-3.49184275 -6.85312748 -0.40309155 4 12 20700 7.70200000 2688057883 2688057883 -3.00000000
-4.92686462 -9.66534615 2.50460505 66 13 20701 11.13400000 2688057885 2688057885 13.00000000
-4.32650518 -8.48026466 2.55092049 60 15 20703 9.85600000 2688057890 2688057890 15.00000000
-0.88004518 -1.71975911 -0.51763809 5 0 20710 2.00000000 2688057911 2688057911 -15.00000000
-1.01182401 -1.97557664 -0.51243848 4 2 20712 2.27800000 2688057915 2688057915 -13.00000000
-1.18175042 -2.30636430 -0.50373572 4 4 20713 2.64000000 2688057920 2688057920 -11.00000000
-1.41791320 -2.76489305 -0.49214283 3 6 20715 3.14600000 2688057925 2688057925 -9.00000000
-1.77756214 -3.46322107 -0.47797155 1 8 20717 3.92200000 2688057929 2688057929 -7.00000000
-2.41540122 -4.70390081 -0.46262267 3 10 20718 5.30800000 2688057934 2688057934 -5.00000000
-3.51391745 -6.83734417 -0.40288219 4 12 20720 7.69800000 2688057938 2688057938 -3.00000000
-4.96413755 -9.65502167 2.50640464 66 13 20721 11.14200000 2688057941 2688057941 13.00000000
-4.33162832 -8.42120552 2.53746200 63 15 20722 9.80400000 2688057945 2688057945 15.00000000
-0.89135915 -1.72697675 -0.52074391 5 0 20730 2.01200000 2688057966 2688057966 -15.00000000
-1.01603067 -1.96683860 -0.51108879 4 2 20732 2.27200000 2688057971 2688057971 -13.00000000
-1.19249809 -2.30745745 -0.50488061 3 4 20733 2.64600000 2688057975 2688057975 -11.00000000
-1.42392576 -2.75290847 -0.49089134 2 6 20735 3.13800000 2688057980 2688057980 -9.00000000
-1.79602861 -3.46933508 -0.47967774 1 8 20737 3.93600000 2688057984 2688057984 -7.00000000
-2.43180633 -4.69544077 -0.46262267 3 10 20738 5.30800000 2688057989 2688057989 -5.00000000
-3.52673316 -6.80375814 -0.40162614 4 12 20740 7.67400000 2688057994 2688057994 -3.00000000
-4.99422121 -9.63071442 2.50460505 60 13 20741 11.13400000 2688057996 2688057996 13.00000000
-4.32864714 -8.34011555 2.51779175 65 15 20743 9.72800000 2688058001 2688058001 15.00000000
-0.89381391 -1.71700048 -0.51867336 5 0 20750 2.00400000 2688058021 2688058021 -15.00000000
-1.02919304 -1.97537768 -0.51423812 4 2 20752 2.28600000 2688058026 2688058026 -13.00000000
-1.19691551 -2.29631710 -0.50335413 3 4 20753 2.63800000 2688058031 2688058031 -11.00000000
-1.44814503 -2.77594352 -0.49589726 3 6 20755 3.17000000 2688058035 2688058035 -9.00000000
-1.80812788 -3.46304464 -0.47967774 1 8 20757 3.93600000 2688058040 2688058040 -7.00000000
-3.55231190 -6.79494619 -0.40183547 4 12 20760 7.67800000 2688058049 2688058049 -3.00000000
-5.02419567 -9.60631561 2.50280547 60 13 20761 11.12600000 2688058051 2688058051 13.00000000
-4.33478498 -8.28463459 2.50536847 54 15 20762 9.68000000 2688058056 2688058056 15.00000000
-0.89980191 -1.71387005 -0.51867336 5 0 20770 2.00400000 2688058077 2688058077 -15.00000000
-1.03336275 -1.96659780 -0.51288843 4 2 20772 2.28000000 2688058081 2688058081 -13.00000000
-1.19944286 -2.28169847 -0.50106442 3 4 20773 2.62600000 2688058086 2688058086 -11.00000000
-1.44310987 -2.74290061 -0.49089134 2 6 20775 3.13800000 2688058090 2688058090 -9.00000000
-1.82020509 -3.45671201 -0.47967774 1 8 20777 3.93600000 2688058095 2688058095 -7.00000000
-3.58346105 -6.79663849 -0.40267286 4 12 20780 7.69400000 2688058104 2688058104 -3.00000000
-5.06133366 -9.59561443 2.50460505 62 13 20781 11.13400000 2688058107 2688058107 13.00000000
-4.34203959 -8.22844696 2.49294496 63 15 20782 9.63200000 2688058111 2688058111 15.00000000
-0.89793909 -1.69519627 -0.51401460 4 0 20791 1.98600000 2688058132 2688058132 -15.00000000
-1.04238927 -1.96624064 -0.51378822 4 2 20793 2.28400000 2688058137 2688058137 -13.00000000
-1.21331692 -2.28769326 -0.50335413 3 4 20794 2.63800000 2688058141 2688058141 -11.00000000
-1.46056271 -2.75155139 -0.49339432 3 6 20796 3.15400000 2688058146 2688058146 -9.00000000
-1.83006835 -3.44475842 -0.47894651 1 8 20798 3.93000000 2688058150 2688058150 -7.00000000
-2.48165751 -4.66928482 -0.46262267 3 10 20799 5.30800000 2688058155 2688058155 -5.00000000
-3.60084414 -6.76935244 -0.40183547 4 12 20801 7.67800000 2688058160 2688058160 -3.00000000
-5.10379314 -9.59076118 2.50820422 64 13 20802 11.15000000 2688058162 2688058162 13.00000000
-4.35219669 -8.17496204 2.48155689 65 15 20803 9.58800000 2688058166 2688058166 15.00000000
-0.91022247 -1.70397937 -0.51763809 5 0 20811 2.00000000 2688058187 2688058187 -15.00000000
-1.04924643 -1.96258998 -0.51378822 4 2 20813 2.28400000 2688058192 2688058192 -13.00000000
-1.22129500 -2.28344417 -0.50335413 3 4 20814 2.63800000 2688058196 2688058196 -11.00000000
-1.46829402 -2.74295306 -0.49276856 3 6 20816 3.15000000 2688058201 2688058201 -9.00000000
-1.84489405 -3.44359851 -0.47967774 1 8 20818 3.93600000 2688058206 2688058206 -7.00000000
-2.49794126 -4.66059351 -0.46262267 3 10 20819 5.30800000 2688058210 2688058210 -5.00000000
-3.63011646 -6.76730204 -0.40246350 4 12 20821 7.69000000 2688058215 2688058215 -3.00000000
-5.14276934 -9.58318996 2.51090360 64 13 20822 11.16200000 2688058217 2688058217 13.00000000
-4.37755966 -8.15044594 2.47896886 69 15 20824 9.57800000 2688058222 2688058222 15.00000000
-0.91312051 -1.69584882 -0.51608515 5 0 20830 1.99400000 2688058243 2688058243 -15.00000000
-1.04557967 -1.94022930 -0.50883931 4 2 20832 2.26200000 2688058247 2688058247 -13.00000000
-1.22886050 -2.27938151 -0.50335413 3 4 20833 2.63800000 2688058252 2688058252 -11.00000000
-1.47925794 -2.74154592 -0.49339432 3 6 20835 3.15400000 2688058256 2688058256 -9.00000000
-1.85441673 -3.43396831 -0.47919026 1 8 20837 3.93200000 2688058261 2688058261 -7.00000000
-2.49065423 -4.61021423 -0.45843920 3 10 20838 5.26000000 2688058266 2688058266 -5.00000000
-3.62973905 -6.71306181 -0.39995137 4 12 20840 7.64200000 2688058270 2688058270 -3.00000000
-5.17081118 -9.55922699 2.50910401 60 13 20841 11.15400000 2688058272 2688058272 13.00000000
-4.40406275 -8.13835239 2.47948647 63 15 20842 9.58000000 2688058277 2688058277 15.00000000
-0.92456532 -1.70283747 -0.51919103 5 0 20850 2.00600000 2688058298 2688058298 -15.00000000
-1.05606771 -1.94341683 -0.51063889 4 2 20852 2.27000000 2688058302 2688058302 -13.00000000
-1.23305881 -2.26817870 -0.50182766 3 4 20853 2.63000000 2688058307 2688058307 -11.00000000
-1.48881865 -2.73636556 -0.49339432 3 6 20855 3.15400000 2688058312 2688058312 -9.00000000
-1.85594964 -3.40829730 -0.47650912 3 8 20857 3.91000000 2688058316 2688058316 -7.00000000
-2.49338794 -4.57699728 -0.45599884 3 10 20858 5.23200000 2688058321 2688058321 -5.00000000
-3.67035913 -6.73191500 -0.40183547 4 12 20860 7.67800000 2688058325 2688058325 -3.00000000
-5.20134830 -9.53598690 2.50775433 51 13 20861 11.14800000 2688058328 2688058328 13.00000000
-4.43799639 -8.13310432 2.48259234 60 15 20862 9.59200000 2688058332 2688058332 15.00000000
-0.92586511 -1.69112718 -0.51660281 5 0 20870 1.99600000 2688058353 2688058353 -15.00000000
-1.06940007 -1.95168161 -0.51378822 4 2 20872 2.28400000 2688058358 2688058358 -13.00000000
-1.24474347 -2.27074718 -0.50335413 3 4 20873 2.63800000 2688058362 2688058362 -11.00000000
-1.49836135 -2.73115206 -0.49339432 3 6 20875 3.15400000 2688058367 2688058367 -9.00000000
-1.87165713 -3.40875816 -0.47748408 3 8 20877 3.91800000 2688058371 2688058371 -7.00000000
-2.52661562 -4.59969902 -0.45913646 3 10 20878 5.26800000 2688058376 2688058376 -5.00000000
-3.69383550 -6.71906185 -0.40183547 4 12 20880 7.67800000 2688058381 2688058381 -3.00000000
-5.20361280 -9.46142483 2.49290752 20 13 20881 11.08200000 2688058383 2688058383 13.00000000
-4.46077156 -8.10740852 2.47948647 63 15 20882 9.58000000 2688058388 2688058388 15.00000000
-0.92896169 -1.68281126 -0.51504987 5 0 20890 1.99000000 2688058408 2688058408 -15.00000000
-1.07337904 -1.94281960 -0.51243848 4 2 20892 2.27800000 2688058413 2688058413 -13.00000000
-1.25076294 -2.26295185 -0.50259089 3 4 20893 2.63400000 2688058418 2688058418 -11.00000000
-1.50979805 -2.72936225 -0.49402004 3 6 20895 3.15800000 2688058422 2688058422 -9.00000000
-1.88450599 -3.40394092 -0.47772783 3 8 20897 3.92000000 2688058427 2688058427 -7.00000000
-2.56196260 -4.62571001 -0.46262267 3 10 20898 5.30800000 2688058431 2688058431 -5.00000000
-3.70758390 -6.68865871 -0.40078875 4 12 20900 7.65800000 2688058436 2688058436 -3.00000000
-5.03152847 -9.07338238 2.39527893 14 13 20901 10.64800000 2688058438 2688058438 13.00000000
-4.48670673 -8.08424759 2.47741580 60 15 20903 9.57200000 2688058443 2688058443 15.00000000
-0.93794274 -1.68445861 -0.51660281 5 0 20911 1.99600000 2688058464 2688058464 -15.00000000
-1.08144128 -1.94057477 -0.51288843 4 2 20913 2.28000000 2688058468 2688058468 -13.00000000
-1.26096058 -2.26178193 -0.50335413 3 4 20914 2.63800000 2688058473 2688058473 -11.00000000
-1.50439143 -2.69620991 -0.48901415 2 6 20916 3.12600000 2688058477 2688058477 -9.00000000
-1.89987290 -3.40221047 -0.47845903 3 8 20918 3.92600000 2688058482 2688058482 -7.00000000
-2.53031421 -4.52932024 -0.45390710 3 10 20919 5.20800000 2688058487 2688058487 -5.00000000
-3.73597288 -6.68199778 -0.40120745 4 12 20921 7.66600000 2688058491 2688058491 -3.00000000
-5.06950665 -9.06338406 2.39752841 17 13 20922 10.65800000 2688058494 2688058494 13.00000000
-4.52055883 -8.07865143 2.48052168 60 15 20923 9.58400000 2688058498 2688058498 15.00000000
-0.94854546 -1.68959701 -0.51919103 5 0 20931 2.00600000 2688058519 2688058519 -15.00000000
-1.08248115 -1.92659438 -0.51018900 4 2 20933 2.26800000 2688058523 2688058523 -13.00000000
-1.26884806 -2.25736642 -0.50335413 3 4 20934 2.63800000 2688058528 2688058528 -11.00000000
-1.51379383 -2.69094205 -0.48901415 2 6 20936 3.12600000 2688058533 2688058533 -9.00000000
-1.90978944 -3.39209843 -0.47797155 3 8 20938 3.92200000 2688058537 2688058537 -7.00000000
-2.56566453 -4.55517960 -0.45739335 3 10 20939 5.24800000 2688058542 2688058542 -5.00000000
-3.75731325 -6.66543627 -0.40099809 4 12 20941 7.66200000 2688058547 2688058547 -3.00000000
-5.10685635 -9.05581760 2.40022779 23 13 20942 10.67000000 2688058549 2688058549 13.00000000
-4.55252790 -8.06955338 2.48259234 60 15 20943 9.59200000 2688058553 2688058553 15.00000000
-0.95253432 -1.68291330 -0.51815575 4 0 20951 2.00200000 2688058574 2688058574 -15.00000000
-1.09592307 -1.93467319 -0.51333833 4 2 20953 2.28200000 2688058579 2688058579 -13.00000000
-1.27671993 -2.25292349 -0.50335413 3 4 20954 2.63800000 2688058583 2688058583 -11.00000000
-1.53487206 -2.70626068 -0.49276856 3 6 20956 3.15000000 2688058588 2688058588 -9.00000000
-1.91181934 -3.36814761 -0.47553417 3 8 20958 3.90200000 2688058593 2688058593 -7.00000000
-2.55400229 -4.49768496 -0.45251262 3 10 20959 5.19200000 2688058597 2688058597 -5.00000000
-3.77858329 -6.64880753 -0.40078875 4 12 20961 7.65800000 2688058602 2688058602 -3.00000000
-5.14132547 -9.04301834 2.40157747 22 13 20962 10.67600000 2688058604 2688058604 13.00000000
-4.58780622 -8.06288719 2.48569822 60 15 20964 9.60400000 2688058609 2688058609 15.00000000
-0.95648807 -1.67622221 -0.51712048 4 0 20971 1.99800000 2688058629 2688058629 -15.00000000
-1.10266972 -1.93083596 -0.51333833 4 2 20973 2.28200000 2688058634 2688058634 -13.00000000
-1.27678514 -2.23481607 -0.50030118 3 4 20974 2.62200000 2688058639 2688058639 -11.00000000
-1.54627025 -2.70431614 -0.49339432 3 6 20976 3.15400000 2688058643 2688058643 -9.00000000
-1.93046629 -3.37351418 -0.47724035 3 8 20978 3.91600000 2688058648 2688058648 -7.00000000
-2.59146357 -4.52678251 -0.45634747 3 10 20979 5.23600000 2688058653 2688058653 -5.00000000
-3.79382586 -6.62171316 -0.39995137 4 12 20981 7.64200000 2688058657 2688058657 -3.00000000
-5.18351984 -9.04361439 2.40652633 31 13 20982 10.69800000 2688058659 2688058659 13.00000000
-4.61015558 -8.03676987 2.48259234 63 15 20984 9.59200000 2688058664 2688058664 15.00000000
-0.95501035 -1.66148484 -0.51349699 4 0 20989 1.98400000 2688058685 2688058685 -15.00000000
-1.10484326 -1.92060554 -0.51153868 4 2 20991 2.27400000 2688058689 2688058689 -13.00000000
-1.28771675 -2.23760009 -0.50182766 3 4 20992 2.63000000 2688058694 2688058694 -11.00000000
-1.54687130 -2.68575096 -0.49089134 2 6 20994 3.13800000 2688058699 2688058699 -9.00000000
-1.94402897 -3.37259221 -0.47797155 3 8 20996 3.92200000 2688058703 2688058703 -7.00000000
-2.61164379 -4.52897453 -0.45739335 3 10 20997 5.24800000 2688058708 2688058708 -5.00000000
-3.80861998 -6.59938288 -0.39932334 4 12 20999 7.63000000 2688058712 2688058712 -3.00000000
-5.22262335 -9.04584980 2.41147542 31 13 21000 10.72000000 2688058715 2688058715 13.00000000
-4.62764883 -8.00886536 2.47845125 60 15 21002 9.57600000 2688058719 2688058719 15.00000000
-0.96274132 -1.66148424 -0.51453227 4 0 21009 1.98800000 2688058740 2688058740 -15.00000000
-1.11154068 -1.91673720 -0.51153868 4 2 21011 2.27400000 2688058745 2688058745 -13.00000000
-1.29748988 -2.23648787 -0.50259089 3 4 21012 2.63400000 2688058749 2688058749 -11.00000000
-1.56317997 -2.69229317 -0.49308142 3 6 21014 3.15200000 2688058754 2688058754 -9.00000000
-1.95977902 -3.37265134 -0.47894651 3 8 21016 3.93000000 2688058759 2688058759 -7.00000000
-2.61942649 -4.50605059 -0.45599884 3 10 21017 5.23200000 2688058763 2688058763 -5.00000000
-3.81757188 -6.56187916 -0.39785793 4 12 21019 7.60200000 2688058768 2688058768 -3.00000000
-5.26789141 -9.05114365 2.41777396 31 13 21020 10.74800000 2688058770 2688058770 13.00000000
-4.66335535 -8.00601768 2.48259234 65 15 21022 9.59200000 2688058775 2688058775 15.00000000
-0.97272319 -1.66461623 -0.51660281 4 0 21030 1.99600000 2688058795 2688058795 -15.00000000
-1.11855841 -1.91265035 -0.51153868 4 2 21032 2.27400000 2688058800 2688058800 -13.00000000
-1.30766118 -2.23510647 -0.50335413 3 4 21033 2.63800000 2688058805 2688058805 -11.00000000
-1.56605041 -2.67461324 -0.49089134 2 6 21035 3.13800000 2688058809 2688058809 -9.00000000
-1.95908010 -3.34318066 -0.47577792 3 8 21037 3.90400000 2688058814 2688058814 -7.00000000
-2.60771132 -4.44829321 -0.45111811 3 10 21038 5.17600000 2688058818 2688058818 -5.00000000
-3.84361815 -6.55128813 -0.39806730 4 12 21040 7.60600000 2688058823 2688058823 -3.00000000
-5.30990791 -9.04690075 2.42182302 30 13 21041 10.76600000 2688058825 2688058825 13.00000000
-4.70105505 -8.00634956 2.48776865 58 15 21042 9.61200000 2688058830 2688058830 15.00000000
-0.98343027 -1.66953337 -0.51919103 4 0 21050 2.00600000 2688058851 2688058851 -15.00000000
-1.12324870 -1.90537667 -0.51063889 4 2 21052 2.27000000 2688058855 2688058855 -13.00000000
-1.31346059 -2.22714615 -0.50259089 3 4 21053 2.63400000 2688058860 2688058860 -11.00000000
-1.58140135 -2.67933726 -0.49276856 3 6 21055 3.15000000 2688058864 2688058864 -9.00000000
-1.97679567 -3.34657693 -0.47724035 3 8 21057 3.91600000 2688058869 2688058869 -7.00000000
-2.69012094 -4.55237246 -0.46262267 3 10 21058 5.30800000 2688058874 2688058874 -5.00000000
-3.86849618 -6.54126978 -0.39827663 4 12 21060 7.61000000 2688058878 2688058878 -3.00000000
-5.35137796 -9.04508209 2.42632198 23 13 21061 10.78600000 2688058881 2688058881 13.00000000
-4.72446251 -7.97909164 2.48466277 60 15 21063 9.60000000 2688058885 2688058885 15.00000000
-0.98530686 -1.65944588 -0.51712048 5 0 21070 1.99800000 2688058906 2688058906 -15.00000000
-1.13188386 -1.90479481 -0.51153868 4 2 21072 2.27400000 2688058911 2688058911 -13.00000000
-1.31922030 -2.21917248 -0.50182766 3 4 21073 2.63000000 2688058915 2688058915 -11.00000000
-1.58973444 -2.67210317 -0.49245569 3 6 21075 3.14800000 2688058920 2688058920 -9.00000000
-1.99049640 -3.34306741 -0.47772783 3 8 21077 3.92000000 2688058924 2688058924 -7.00000000
-3.89335132 -6.53115749 -0.39848596 4 12 21080 7.61400000 2688058934 2688058934 -3.00000000
-5.39489603 -9.04643154 2.43172097 20 13 21081 10.81000000 2688058936 2688058936 13.00000000
-4.75089598 -7.96338081 2.48466277 65 15 21082 9.60000000 2688058941 2688058941 15.00000000
-0.98514092 -1.64605057 -0.51401460 4 0 21090 1.98600000 2688058961 2688058961 -15.00000000
-1.13852596 -1.90083218 -0.51153868 4 2 21092 2.27400000 2688058966 2688058966 -13.00000000
-1.33301318 -2.22465849 -0.50411737 3 4 21093 2.64200000 2688058970 2688058970 -11.00000000
-1.59397256 -2.65806723 -0.49089134 2 6 21095 3.13800000 2688058975 2688058975 -9.00000000
-1.99602473 -3.32588649 -0.47626540 3 8 21097 3.90800000 2688058980 2688058980 -7.00000000
-2.69517231 -4.48906851 -0.45809057 3 10 21098 5.25600000 2688058984 2688058984 -5.00000000
-3.90686774 -6.50211954 -0.39754394 4 12 21100 7.59600000 2688058989 2688058989 -3.00000000
-5.43949270 -9.04925823 2.43756962 18 13 21101 10.83600000 2688058991 2688058991 13.00000000
-4.77805996 -7.94260359 2.48362756 58 15 21103 9.59600000 2688058996 2688058996 15.00000000
-0.99587005 -1.65087259 -0.51660281 4 0 21110 1.99600000 2688059017 2688059017 -15.00000000
-1.14918280 -1.90351951 -0.51333833 4 2 21112 2.28200000 2688059021 2688059021 -13.00000000
-1.33062088 -2.20318651 -0.50030118 3 4 21113 2.62200000 2688059026 2688059026 -11.00000000
-1.60324121 -2.65248704 -0.49089134 2 6 21115 3.13800000 2688059030 2688059030 -9.00000000
-2.00967693 -3.32229567 -0.47675288 1 8 21117 3.91200000 2688059035 2688059035 -7.00000000
-3.93367910 -6.49527597 -0.39796260 4 12 21120 7.60400000 2688059044 2688059044 -3.00000000
-5.48316479 -9.05021572 2.44296837 15 13 21121 10.86000000 2688059047 2688059047 13.00000000
-4.80637503 -7.93001986 2.48466277 60 15 21122 9.60000000 2688059051 2688059051 15.00000000
-0.99961931 -1.64408493 -0.51556754 4 0 21130 1.99200000 2688059072 2688059072 -15.00000000
-1.14366448 -1.87951934 -0.50793946 4 2 21132 2.25800000 2688059076 2688059076 -13.00000000
-1.34851170 -2.21529818 -0.50411737 3 4 21133 2.64200000 2688059081 2688059081 -11.00000000
-1.62071204 -2.66037035 -0.49339432 3 6 21135 3.15400000 2688059086 2688059086 -9.00000000
-2.02332854 -3.31865025 -0.47724035 1 8 21137 3.91600000 2688059090 2688059090 -7.00000000
-2.73267055 -4.48034906 -0.45913646 3 10 21138 5.26800000 2688059095 2688059095 -5.00000000
-3.95736837 -6.48321009 -0.39806730 4 12 21140 7.60600000 2688059099 2688059099 -3.00000000
-4.84145164 -7.92224073 2.48776865 58 15 21143 9.61200000 2688059106 2688059106 15.00000000
-1.01039910 -1.64882147 -0.51815575 5 0 21150 2.00200000 2688059127 2688059127 -15.00000000
-1.15429342 -1.88216066 -0.50973910 4 2 21152 2.26600000 2688059132 2688059132 -13.00000000
-1.34802282 -2.19719028 -0.50106442 3 4 21153 2.62600000 2688059136 2688059136 -11.00000000
-1.63102221 -2.65638018 -0.49370718 1 6 21155 3.15600000 2688059141 2688059141 -9.00000000
-2.02450752 -3.29465437 -0.47480297 1 8 21157 3.89600000 2688059146 2688059146 -7.00000000
-2.72951221 -4.44023085 -0.45599884 3 10 21158 5.23200000 2688059150 2688059150 -5.00000000
-3.99044037 -6.48636818 -0.39911401 4 12 21160 7.62600000 2688059155 2688059155 -3.00000000
-4.86567068 -7.90285206 2.48673344 60 15 21162 9.60800000 2688059162 2688059162 15.00000000
-1.01310301 -1.64035356 -0.51660281 5 0 21170 1.99600000 2688059182 2688059182 -15.00000000
-1.16393018 -1.88309288 -0.51108879 4 2 21172 2.27200000 2688059187 2688059187 -13.00000000
-1.35981429 -2.19915056 -0.50259089 3 4 21173 2.63400000 2688059192 2688059192 -11.00000000
-1.63716638 -2.64563131 -0.49276856 3 6 21175 3.15000000 2688059196 2688059196 -9.00000000
-2.02867961 -3.27575374 -0.47309679 1 8 21177 3.88200000 2688059201 2688059201 -7.00000000
-2.74709368 -4.43406343 -0.45634747 3 10 21178 5.23600000 2688059205 2688059205 -5.00000000
-4.00042820 -6.45202971 -0.39785793 4 12 21180 7.60200000 2688059210 2688059210 -3.00000000
-4.89867878 -7.89153099 2.48880386 58 15 21183 9.61600000 2688059217 2688059217 15.00000000
-1.01706612 -1.63334954 -0.51556754 5 0 21191 1.99200000 2688059238 2688059238 -15.00000000
-1.17288554 -1.88212204 -0.51198858 4 2 21193 2.27600000 2688059242 2688059242 -13.00000000
-1.36371100 -2.18748784 -0.50106442 3 4 21194 2.62600000 2688059247 2688059247 -11.00000000
-1.64476085 -2.63626122 -0.49214283 3 6 21196 3.14600000 2688059252 2688059252 -9.00000000
-2.05223703 -3.28681827 -0.47577792 1 8 21198 3.90400000 2688059256 2688059256 -7.00000000
-2.74221659 -4.39016867 -0.45286125 3 10 21199 5.19600000 2688059261 2688059261 -5.00000000
-4.00922728 -6.41361380 -0.39639252 4 12 21201 7.57400000 2688059265 2688059265 -3.00000000
-4.91902351 -7.86291885 2.48518038 58 15 21203 9.60200000 2688059272 2688059272 15.00000000
-1.02686882 -1.63633466 -0.51763809 5 0 21211 2.00000000 2688059293 2688059293 -15.00000000
-1.17737532 -1.87471581 -0.51108879 4 2 21213 2.27200000 2688059298 2688059298 -13.00000000
-1.36924958 -2.17938948 -0.50030118 3 4 21214 2.62200000 2688059302 2688059302 -11.00000000
-1.65185022 -2.62715936 -0.49151710 2 6 21216 3.14200000 2688059307 2688059307 -9.00000000
-2.06792665 -3.28635526 -0.47675288 1 8 21218 3.91200000 2688059311 2688059311 -7.00000000
-2.76389289 -4.39068651 -0.45390710 3 10 21219 5.20800000 2688059316 2688059316 -5.00000000
-4.04436588 -6.41985846 -0.39764860 4 12 21221 7.59800000 2688059321 2688059321 -3.00000000
-4.94987059 -7.84810495 2.48621583 56 15 21224 9.60600000 2688059328 2688059328 15.00000000
-1.02947676 -1.62784207 -0.51608515 5 0 21231 1.99400000 2688059348 2688059348 -15.00000000
-1.17870128 -1.86236143 -0.50883931 4 2 21233 2.26200000 2688059353 2688059353 -13.00000000
-1.38104963 -2.18123150 -0.50182766 3 4 21234 2.63000000 2688059358 2688059358 -11.00000000
-1.65678144 -2.61470294 -0.49026561 2 6 21236 3.13400000 2688059362 2688059362 -9.00000000
-2.06981778 -3.26402879 -0.47455922 1 8 21238 3.89400000 2688059367 2688059367 -7.00000000
-2.77066398 -4.36755276 -0.45251262 3 10 21239 5.19200000 2688059371 2688059371 -5.00000000
-4.04641151 -6.37366533 -0.39565983 4 12 21241 7.56000000 2688059376 2688059376 -3.00000000
-4.98001242 -7.83816957 2.48828626 58 15 21243 9.61400000 2688059383 2688059383 15.00000000
-1.04034400 -1.63238418 -0.51867336 5 0 21251 2.00400000 2688059404 2688059404 -15.00000000
-1.19043458 -1.86645055 -0.51108879 4 2 21253 2.27200000 2688059408 2688059408 -13.00000000
-1.38865519 -2.17639756 -0.50182766 3 4 21254 2.63000000 2688059413 2688059413 -11.00000000
-1.67227709 -2.61889315 -0.49214283 3 6 21256 3.14600000 2688059417 2688059417 -9.00000000
-2.08012986 -3.25511122 -0.47431549 1 8 21258 3.89200000 2688059422 2688059422 -7.00000000
-2.78803921 -4.36121225 -0.45286125 3 10 21259 5.19600000 2688059427 2688059427 -5.00000000
-4.07509327 -6.36959600 -0.39628786 4 12 21261 7.57200000 2688059431 2688059431 -3.00000000
-5.01150942 -7.82724619 2.49035692 58 15 21263 9.62200000 2688059438 2688059438 15.00000000
-1.03948951 -1.61917126 -0.51556754 4 0 21270 1.99200000 2688059459 2688059459 -15.00000000
-1.20083082 -1.86905074 -0.51288843 4 2 21272 2.28000000 2688059464 2688059464 -13.00000000
-1.39161873 -2.16517448 -0.50030118 3 4 21273 2.62200000 2688059468 2688059468 -11.00000000
-1.68095243 -2.61333323 -0.49214283 3 6 21275 3.14600000 2688059473 2688059473 -9.00000000
-2.08876371 -3.24485707 -0.47382802 1 8 21277 3.88800000 2688059477 2688059477 -7.00000000
-2.78738403 -4.32849121 -0.45042089 3 10 21278 5.16800000 2688059482 2688059482 -5.00000000
-4.10160303 -6.36444187 -0.39681122 4 12 21280 7.58200000 2688059487 2688059487 -3.00000000
-5.03534365 -7.80733728 2.48932147 56 15 21282 9.61800000 2688059493 2688059493 15.00000000
-1.04198718 -1.61066687 -0.51401460 5 0 21290 1.98600000 2688059514 2688059514 -15.00000000
-1.20628858 -1.86321187 -0.51243848 4 2 21292 2.27800000 2688059519 2688059519 -13.00000000
-1.40343714 -2.16689491 -0.50182766 3 4 21293 2.63000000 2688059523 2688059523 -11.00000000
-1.69436204 -2.61408019 -0.49339432 3 6 21295 3.15400000 2688059528 2688059528 -9.00000000
-2.10872006 -3.25086927 -0.47577792 1 8 21297 3.90400000 2688059533 2688059533 -7.00000000
-2.80681467 -4.32542038 -0.45111811 3 10 21298 5.17600000 2688059537 2688059537 -5.00000000
-4.12161827 -6.34673548 -0.39660189 4 12 21300 7.57800000 2688059542 2688059542 -3.00000000
-5.05971289 -7.78235102 2.48725104 65 15 21303 9.61000000 2688059549 2688059549 15.00000000
-1.04443812 -1.60216475 -0.51246172 4 0 21310 1.98000000 2688059570 2688059570 -15.00000000
-1.20746124 -1.85082924 -0.51018900 4 2 21312 2.26800000 2688059574 2688059574 -13.00000000
-1.40670049 -2.15540648 -0.50030118 3 4 21313 2.62200000 2688059579 2688059579 -11.00000000
-1.69051421 -2.58830333 -0.48963988 2 6 21315 3.13000000 2688059583 2688059583 -9.00000000
-2.11788273 -3.24016547 -0.47529045 1 8 21317 3.90000000 2688059588 2688059588 -7.00000000
-2.83498049 -4.33560658 -0.45320988 3 10 21318 5.20000000 2688059593 2688059593 -5.00000000
-4.13937283 -6.32562494 -0.39618319 4 12 21320 7.57000000 2688059597 2688059597 -3.00000000
-5.08549261 -7.76552963 2.48725104 60 15 21322 9.61000000 2688059604 2688059604 15.00000000
-1.05850935 -1.61142647 -0.51660281 4 0 21330 1.99600000 2688059625 2688059625 -15.00000000
-1.20749164 -1.83683264 -0.50748956 4 2 21332 2.25600000 2688059629 2688059629 -13.00000000
-1.41637313 -2.15376353 -0.50106442 3 4 21333 2.62600000 2688059634 2688059634 -11.00000000
-1.70822644 -2.59558725 -0.49214283 3 6 21335 3.14600000 2688059639 2688059639 -9.00000000
-2.12699628 -3.22943735 -0.47480297 1 8 21337 3.89600000 2688059643 2688059643 -7.00000000
-2.82598114 -4.28908253 -0.44937500 3 10 21338 5.15600000 2688059648 2688059648 -5.00000000
-4.15043354 -6.29446316 -0.39513648 4 12 21340 7.55000000 2688059652 2688059652 -3.00000000
-5.11256838 -7.74773073 2.48725104 60 15 21342 9.61000000 2688059659 2688059659 15.00000000
-1.06945920 -1.61577654 -0.51919103 5 0 21350 2.00600000 2688059680 2688059680 -15.00000000
-1.22142899 -1.84397912 -0.51063889 4 2 21352 2.27000000 2688059685 2688059685 -13.00000000
-1.42171359 -2.14553332 -0.50030118 3 4 21353 2.62200000 2688059689 2688059689 -11.00000000
-1.71509290 -2.58631611 -0.49151710 2 6 21355 3.14200000 2688059694 2688059694 -9.00000000
-2.12947488 -3.20876098 -0.47285306 1 8 21357 3.88000000 2688059698 2688059698 -7.00000000
-2.87034178 -4.32184792 -0.45390710 3 10 21359 5.20800000 2688059703 2688059703 -5.00000000
-4.17459059 -6.28326416 -0.39534581 4 12 21360 7.55400000 2688059708 2688059708 -3.00000000
-5.14307070 -7.73215723 2.48828626 65 15 21363 9.61400000 2688059715 2688059715 15.00000000
-1.06679678 -1.59898973 -0.51504987 5 0 21371 1.99000000 2688059735 2688059735 -15.00000000
-1.22353101 -1.83322072 -0.50883931 4 2 21372 2.26200000 2688059740 2688059740 -13.00000000
-1.43065834 -2.14194059 -0.50068283 4 4 21374 2.62400000 2688059745 2688059745 -11.00000000
-1.72456074 -2.58001256 -0.49151710 2 6 21376 3.14200000 2688059749 2688059749 -9.00000000
-2.16162777 -3.23266125 -0.47748408 3 8 21377 3.91800000 2688059754 2688059754 -7.00000000
-2.85216832 -4.26212740 -0.44867778 3 10 21379 5.14800000 2688059758 2688059758 -5.00000000
-5.17218065 -7.71736670 2.48932147 58 15 21383 9.61800000 2688059770 2688059770 15.00000000
-1.07317090 -1.59704673 -0.51556754 4 0 21390 1.99200000 2688059791 2688059791 -15.00000000
-1.23970985 -1.84349263 -0.51288843 4 2 21392 2.28000000 2688059795 2688059795 -13.00000000
-1.43446577 -2.13229775 -0.49953794 4 4 21393 2.61800000 2688059800 2688059800 -11.00000000
-1.73751962 -2.58083415 -0.49276856 3 6 21395 3.15000000 2688059804 2688059804 -9.00000000
-2.16957116 -3.22015715 -0.47675288 3 8 21397 3.91200000 2688059809 2688059809 -7.00000000
-2.88039470 -4.27196884 -0.45076951 3 10 21399 5.17200000 2688059814 2688059814 -5.00000000
-5.19260120 -7.68965960 2.48621583 60 15 21403 9.60600000 2688059825 2688059825 15.00000000
-1.07901716 -1.59310269 -0.51556754 5 0 21411 1.99200000 2688059846 2688059846 -15.00000000
-1.23629940 -1.82463431 -0.50883931 4 2 21412 2.26200000 2688059850 2688059850 -13.00000000
-1.44227147 -2.12702584 -0.49953794 3 4 21414 2.61800000 2688059855 2688059855 -11.00000000
-1.74696720 -2.57444835 -0.49276856 3 6 21416 3.15000000 2688059860 2688059860 -9.00000000
-2.17745352 -3.20763707 -0.47602165 3 8 21417 3.90600000 2688059864 2688059864 -7.00000000
-2.90424585 -4.27507305 -0.45216399 3 10 21419 5.18800000 2688059869 2688059869 -5.00000000
-5.21615124 -7.66669559 2.48466277 22 15 21423 9.60000000 2688059880 2688059880 15.00000000
-1.08566046 -1.59092224 -0.51608515 4 0 21431 1.99400000 2688059901 2688059901 -15.00000000
-1.24297869 -1.82009077 -0.50883931 4 2 21433 2.26200000 2688059906 2688059906 -13.00000000
-1.45411730 -2.12846279 -0.50106442 4 4 21434 2.62600000 2688059910 2688059910 -11.00000000
-1.75036860 -2.56018114 -0.49120423 1 6 21436 3.14000000 2688059915 2688059915 -9.00000000
-2.18134904 -3.18816662 -0.47431549 3 8 21438 3.89200000 2688059920 2688059920 -7.00000000
-2.89287996 -4.22494459 -0.44798052 3 10 21440 5.14000000 2688059924 2688059924 -5.00000000
-6.36554909 -9.29664993 2.19010568 37 11 21440 11.47800000 2688059927 2688059927 11.00000000
-6.19943953 -9.04727650 2.53204918 8 13 21442 11.25600000 2688059931 2688059931 13.00000000
-5.94453716 -8.66878891 2.81646895 52 15 21444 10.88200000 2688059936 2688059936 15.00000000
-1.08929467 -1.58374894 -0.51504987 4 0 21452 1.99000000 2688059956 2688059956 -15.00000000
-1.25153363 -1.81895173 -0.50973910 4 2 21453 2.26600000 2688059961 2688059961 -13.00000000
-1.46413553 -2.12635279 -0.50182766 3 4 21455 2.63000000 2688059966 2688059966 -11.00000000
-1.75861955 -2.55212212 -0.49089134 2 6 21457 3.13800000 2688059970 2688059970 -9.00000000
-2.19133782 -3.17889833 -0.47407174 1 8 21458 3.89000000 2688059975 2688059975 -7.00000000
-2.91213560 -4.22138119 -0.44867778 3 10 21460 5.14800000 2688059980 2688059980 -5.00000000
-5.97805500 -8.65275383 2.81802177 49 15 21464 10.88800000 2688059991 2688059991 15.00000000
-1.09398890 -1.58051002 -0.51504987 4 0 21469 1.99000000 2688060012 2688060012 -15.00000000
-1.25946116 -1.81821489 -0.51063889 4 2 21471 2.27000000 2688060016 2688060016 -13.00000000
-1.46372890 -2.11231709 -0.49953794 3 4 21472 2.61800000 2688060021 2688060021 -11.00000000
-1.77293813 -2.55663252 -0.49276856 3 6 21474 3.15000000 2688060026 2688060026 -9.00000000
-2.20584083 -3.17852187 -0.47504669 3 8 21476 3.89800000 2688060030 2688060030 -7.00000000
-2.94129443 -4.23512173 -0.45111811 3 10 21478 5.17600000 2688060035 2688060035 -5.00000000
-4.30418062 -6.19521141 -0.39534581 4 12 21479 7.55400000 2688060039 2688060039 -3.00000000
-5.99859047 -8.62441540 2.81491590 52 15 21482 10.87600000 2688060046 2688060046 15.00000000
-1.09756386 -1.57332087 -0.51401460 4 0 21490 1.98600000 2688060067 2688060067 -15.00000000
-1.26803076 -1.81700361 -0.51153868 4 2 21491 2.27400000 2688060072 2688060072 -13.00000000
-1.46921289 -2.10371900 -0.49877471 3 4 21493 2.61400000 2688060076 2688060076 -11.00000000
-1.77437544 -2.53878331 -0.49057847 2 6 21495 3.13600000 2688060081 2688060081 -9.00000000
-2.21123528 -3.16266823 -0.47382802 3 8 21496 3.88800000 2688060086 2688060086 -7.00000000
-2.93549991 -4.19544458 -0.44798052 3 10 21498 5.14000000 2688060090 2688060090 -5.00000000
-4.32227612 -6.17285013 -0.39492711 4 12 21500 7.54600000 2688060095 2688060095 -3.00000000
-6.02422428 -8.59709549 2.81284547 49 15 21502 10.86800000 2688060102 2688060102 15.00000000
-1.10554516 -1.57244825 -0.51504987 4 0 21511 1.99000000 2688060122 2688060122 -15.00000000
-1.27499819 -1.81212127 -0.51153868 4 2 21513 2.27400000 2688060127 2688060127 -13.00000000
-1.48595345 -2.11116338 -0.50182766 3 4 21514 2.63000000 2688060132 2688060132 -11.00000000
-1.77911842 -2.52580285 -0.48932701 1 6 21516 3.12800000 2688060136 2688060136 -9.00000000
-2.23251224 -3.16713428 -0.47577792 1 8 21518 3.90400000 2688060141 2688060141 -7.00000000
-2.95388436 -4.18739796 -0.44832915 3 10 21520 5.14400000 2688060145 2688060145 -5.00000000
-4.35178137 -6.16675758 -0.39555517 4 12 21521 7.55800000 2688060150 2688060150 -3.00000000
-6.35100412 -8.99645329 2.54239678 26 13 21522 11.30200000 2688060152 2688060152 13.00000000
-6.05719042 -8.57390022 2.81284547 49 15 21524 10.86800000 2688060157 2688060157 15.00000000
-1.11437714 -1.57330894 -0.51660281 5 0 21531 1.99600000 2688060178 2688060178 -15.00000000
-1.27680826 -1.80130029 -0.50973910 4 2 21533 2.26600000 2688060182 2688060182 -13.00000000
-1.49027371 -2.10089922 -0.50068283 3 4 21535 2.62400000 2688060187 2688060187 -11.00000000
-1.79408133 -2.52731919 -0.49089134 2 6 21537 3.13800000 2688060191 2688060191 -9.00000000
-2.22746301 -3.13666320 -0.47236559 1 8 21538 3.87600000 2688060196 2688060196 -7.00000000
-2.98694968 -4.20304632 -0.45111811 3 10 21540 5.17600000 2688060201 2688060201 -5.00000000
-4.36509371 -6.13774538 -0.39471778 4 12 21542 7.54200000 2688060205 2688060205 -3.00000000
-6.09268284 -8.56057453 2.81543350 54 15 21544 10.87800000 2688060212 2688060212 15.00000000
-1.11819279 -1.56822729 -0.51608515 4 0 21549 1.99400000 2688060233 2688060233 -15.00000000
-1.28019702 -1.79410768 -0.50883931 4 2 21551 2.26200000 2688060238 2688060238 -13.00000000
-1.49878180 -2.09966397 -0.50144607 3 4 21552 2.62800000 2688060242 2688060242 -11.00000000
-1.80157208 -2.52198482 -0.49089134 2 6 21554 3.13800000 2688060247 2688060247 -9.00000000
-2.22922492 -3.11834574 -0.47065940 1 8 21556 3.86200000 2688060251 2688060251 -7.00000000
-3.00477624 -4.20012379 -0.45181537 3 10 21558 5.18400000 2688060256 2688060256 -5.00000000
-4.38793516 -6.13126373 -0.39513648 4 12 21559 7.55000000 2688060261 2688060261 -3.00000000
-6.11842155 -8.53982067 2.81491590 49 15 21562 10.87600000 2688060268 2688060268 15.00000000
-1.11829650 -1.55627429 -0.51349699 4 0 21570 1.98400000 2688060288 2688060288 -15.00000000
-1.29782629 -1.80545139 -0.51333833 4 2 21571 2.28200000 2688060293 2688060293 -13.00000000
-1.50761390 -2.09575033 -0.50182766 3 4 21573 2.63000000 2688060297 2688060297 -11.00000000
-1.81542003 -2.52177739 -0.49214283 3 6 21575 3.14600000 2688060302 2688060302 -9.00000000
-2.25169730 -3.12665367 -0.47309679 1 8 21576 3.88200000 2688060307 2688060307 -7.00000000
-2.99495625 -4.15566587 -0.44815484 3 10 21578 5.14200000 2688060311 2688060311 -5.00000000
-4.41037798 -6.11513996 -0.39513648 4 12 21580 7.55000000 2688060316 2688060316 -3.00000000
-6.15158558 -8.52311134 2.81646895 47 15 21582 10.88200000 2688060323 2688060323 15.00000000
-1.12258935 -1.55079639 -0.51297933 4 0 21590 1.98200000 2688060344 2688060344 -15.00000000
-1.30214846 -1.79752612 -0.51243848 4 2 21592 2.27800000 2688060348 2688060348 -13.00000000
-1.51261616 -2.08729553 -0.50106442 3 4 21593 2.62600000 2688060353 2688060353 -11.00000000
-1.82305193 -2.51382589 -0.49182996 3 6 21595 3.14400000 2688060357 2688060357 -9.00000000
-2.26897168 -3.12641263 -0.47431549 1 8 21597 3.89200000 2688060362 2688060362 -7.00000000
-3.01133823 -4.14627314 -0.44832915 3 10 21599 5.14400000 2688060367 2688060367 -5.00000000
-4.42700100 -6.09324408 -0.39471778 4 12 21600 7.54200000 2688060371 2688060371 -3.00000000
-6.18051004 -8.49738216 2.81543350 21 15 21603 10.87800000 2688060378 2688060378 15.00000000
-1.13281977 -1.55291426 -0.51504987 5 0 21611 1.99000000 2688060399 2688060399 -15.00000000
-1.30956376 -1.79454398 -0.51288843 4 2 21612 2.28000000 2688060403 2688060403 -13.00000000
-1.52025640 -2.08173752 -0.50106442 3 4 21614 2.62600000 2688060408 2688060408 -11.00000000
-1.81476998 -2.48320436 -0.48713693 2 6 21616 3.11400000 2688060413 2688060413 -9.00000000
-2.28455734 -3.12488341 -0.47529045 1 8 21617 3.90000000 2688060417 2688060417 -7.00000000
-3.04461598 -4.16146374 -0.45111811 3 10 21619 5.17600000 2688060422 2688060422 -5.00000000
-4.45638323 -6.08664656 -0.39534581 4 12 21621 7.55400000 2688060426 2688060426 -3.00000000
-1.13540602 -1.54623353 -0.51401460 4 0 21629 1.98600000 2688060454 2688060454 -15.00000000
-1.29819822 -1.76663637 -0.50613987 4 2 21631 2.25000000 2688060459 2688060459 -13.00000000
-1.52678883 -2.07695127 -0.50106442 3 4 21632 2.62600000 2688060463 2688060463 -11.00000000
-1.82958555 -2.48703790 -0.48901415 2 6 21634 3.12600000 2688060468 2688060468 -9.00000000
-2.29255342 -3.11409330 -0.47480297 1 8 21636 3.89600000 2688060473 2688060473 -7.00000000
-3.04658151 -4.13530397 -0.44937500 3 10 21638 5.15600000 2688060477 2688060477 -5.00000000
-6.34874773 -8.61752892 2.08058119 6 11 21638 10.90400000 2688060479 2688060479 11.00000000
-4.45889425 -6.05010748 -0.39388040 4 12 21639 7.52600000 2688060482 2688060482 -3.00000000
-5.13255644 -6.95654488 2.31643057 6 15 21642 8.95000000 2688060489 2688060489 15.00000000
-1.14910936 -1.55293226 -0.51763809 4 0 21650 2.00000000 2688060509 2688060509 -15.00000000
-1.31363237 -1.77462447 -0.50973910 4 2 21651 2.26600000 2688060514 2688060514 -13.00000000
-1.53205371 -2.06818628 -0.50030118 3 4 21653 2.62200000 2688060519 2688060519 -11.00000000
-1.83515954 -2.47555470 -0.48807552 1 6 21655 3.12000000 2688060523 2688060523 -9.00000000
-2.28449059 -3.08055997 -0.47090313 1 8 21656 3.86400000 2688060528 2688060528 -7.00000000
-3.05624843 -4.11824465 -0.44867778 3 10 21658 5.14800000 2688060532 2688060532 -5.00000000
-6.38965225 -8.60681152 2.08363414 21 11 21659 10.92000000 2688060535 2688060535 11.00000000
-4.46674919 -6.01448298 -0.39262435 4 12 21660 7.50200000 2688060537 2688060537 -3.00000000
-5.16602659 -6.95099068 2.32057166 9 15 21662 8.96600000 2688060544 2688060544 15.00000000
-1.14528692 -1.53652036 -0.51349699 4 0 21670 1.98400000 2688060565 2688060565 -15.00000000
-1.32362342 -1.77448392 -0.51108879 4 2 21672 2.27200000 2688060569 2688060569 -13.00000000
-1.53926373 -2.06282568 -0.50030118 3 4 21673 2.62200000 2688060574 2688060574 -11.00000000
-1.85679078 -2.48654437 -0.49151710 2 6 21675 3.14200000 2688060579 2688060579 -9.00000000
-2.30527234 -3.08488727 -0.47285306 1 8 21677 3.88000000 2688060583 2688060583 -7.00000000
-3.07609487 -4.11339760 -0.44937500 3 10 21679 5.15600000 2688060588 2688060588 -5.00000000
-4.50685883 -6.02444267 -0.39429909 4 12 21680 7.53400000 2688060592 2688060592 -3.00000000
-5.20536518 -6.95056486 2.32678318 9 15 21683 8.99000000 2688060599 2688060599 15.00000000
-1.14627016 -1.52613366 -0.51142645 4 0 21691 1.97600000 2688060620 2688060620 -15.00000000
-1.33098006 -1.77141082 -0.51153868 4 2 21692 2.27400000 2688060625 2688060625 -13.00000000
-1.54681408 -2.05717015 -0.50030118 3 4 21694 2.62200000 2688060629 2688060629 -11.00000000
-1.85876572 -2.47025156 -0.48963988 2 6 21696 3.13000000 2688060634 2688060634 -9.00000000
-2.31602645 -3.07682157 -0.47285306 1 8 21697 3.88000000 2688060638 2688060638 -7.00000000
-3.08803701 -4.09945202 -0.44902638 3 10 21699 5.15200000 2688060643 2688060643 -5.00000000
-4.50967312 -5.98236561 -0.39262435 4 12 21701 7.50200000 2688060648 2688060648 -3.00000000
-5.23541260 -6.94006348 2.32937145 9 15 21703 9.00000000 2688060655 2688060655 15.00000000
-1.15571904 -1.52868903 -0.51349699 4 0 21709 1.98400000 2688060675 2688060675 -15.00000000
-1.33449543 -1.76387918 -0.51063889 4 2 21711 2.27000000 2688060680 2688060680 -13.00000000
-1.55563879 -2.05543137 -0.50106442 3 4 21712 2.62600000 2688060685 2688060685 -11.00000000
-1.86651707 -2.46439981 -0.48963988 2 6 21714 3.13000000 2688060689 2688060689 -9.00000000
-2.34060597 -3.08810878 -0.47577792 1 8 21716 3.90400000 2688060694 2688060694 -7.00000000
-3.09439015 -4.07966471 -0.44798052 3 10 21718 5.14000000 2688060698 2688060698 -5.00000000
-4.54293203 -5.98726177 -0.39388040 4 12 21719 7.52600000 2688060703 2688060703 -3.00000000
-5.27242041 -6.94112492 2.33558297 11 15 21722 9.02400000 2688060710 2688060710 15.00000000
-1.16248488 -1.52597964 -0.51401460 5 0 21730 1.98600000 2688060731 2688060731 -15.00000000
-1.33119488 -1.74681056 -0.50703967 4 2 21731 2.25400000 2688060735 2688060735 -13.00000000
-1.56554294 -2.05283809 -0.50182766 3 4 21733 2.63000000 2688060740 2688060740 -11.00000000
-1.87793386 -2.46068287 -0.49026561 2 6 21735 3.13400000 2688060744 2688060744 -9.00000000
-2.33450675 -3.05783010 -0.47236559 1 8 21736 3.87600000 2688060749 2688060749 -7.00000000
-3.10135436 -4.05933905 -0.44693464 3 10 21738 5.12800000 2688060754 2688060754 -5.00000000
-4.52602720 -5.91979790 -0.39053091 3 12 21740 7.46200000 2688060758 2688060758 -3.00000000
-5.30366039 -6.93188381 2.33868885 15 15 21742 9.03600000 2688060765 2688060765 15.00000000
-1.17341769 -1.52978051 -0.51660281 5 0 21749 1.99600000 2688060786 2688060786 -15.00000000
-1.34203064 -1.74833643 -0.50883931 4 2 21751 2.26200000 2688060791 2688060791 -13.00000000
-1.56516755 -2.03829241 -0.49953794 3 4 21752 2.61800000 2688060795 2688060795 -11.00000000
-1.88487983 -2.45287561 -0.48995274 2 6 21754 3.13200000 2688060800 2688060800 -9.00000000
-2.34395623 -3.04808879 -0.47212183 1 8 21756 3.87400000 2688060804 2688060804 -7.00000000
-3.12036562 -4.05480433 -0.44763190 3 10 21758 5.13600000 2688060809 2688060809 -5.00000000
-4.56512642 -5.93007851 -0.39220566 3 12 21759 7.49400000 2688060814 2688060814 -3.00000000
-5.34669304 -6.93781137 2.34697104 18 15 21762 9.06800000 2688060820 2688060820 15.00000000
-1.17783535 -1.52394092 -0.51608515 5 0 21770 1.99400000 2688060841 2688060841 -15.00000000
-1.34812534 -1.74364126 -0.50883931 4 2 21771 2.26200000 2688060846 2688060846 -13.00000000
-1.57262778 -2.03254223 -0.49953794 3 4 21773 2.61800000 2688060850 2688060850 -11.00000000
-1.88901997 -2.43970299 -0.48870125 1 6 21775 3.12400000 2688060855 2688060855 -9.00000000
-2.35822868 -3.04459643 -0.47285306 1 8 21776 3.88000000 2688060860 2688060860 -7.00000000
-3.12473583 -4.03129005 -0.44623742 3 10 21778 5.12000000 2688060864 2688060864 -5.00000000
-4.57581377 -5.89910316 -0.39126360 3 12 21780 7.47600000 2688060869 2688060869 -3.00000000
-5.37561607 -6.92520952 2.34904170 18 15 21782 9.07600000 2688060876 2688060876 15.00000000
-1.17721426 -1.51219821 -0.51349699 5 0 21790 1.98400000 2688060897 2688060897 -15.00000000
-1.36648321 -1.75406146 -0.51333833 4 2 21792 2.28200000 2688060901 2688060901 -13.00000000
-1.58454037 -2.03323436 -0.50106442 3 4 21793 2.62600000 2688060906 2688060906 -11.00000000
-1.90359855 -2.44088268 -0.49026561 2 6 21795 3.13400000 2688060910 2688060910 -9.00000000
-2.36448646 -3.02967310 -0.47187811 1 8 21797 3.87200000 2688060915 2688060915 -7.00000000
-3.13703752 -4.01666975 -0.44588879 3 10 21799 5.11600000 2688060920 2688060920 -5.00000000
-4.60744429 -5.89725971 -0.39220566 3 12 21800 7.49400000 2688060924 2688060924 -3.00000000
-5.41167355 -6.91915607 2.35370040 20 15 21803 9.09400000 2688060931 2688060931 15.00000000
-1.18513334 -1.51091349 -0.51453227 5 0 21811 1.98800000 2688060952 2688060952 -15.00000000
-1.36898875 -1.74468148 -0.51198858 4 2 21812 2.27600000 2688060956 2688060956 -13.00000000
-1.59440684 -2.03050137 -0.50182766 3 4 21814 2.63000000 2688060961 2688060961 -11.00000000
-1.91375256 -2.43544245 -0.49057847 2 6 21816 3.13600000 2688060966 2688060966 -9.00000000
-2.37259388 -3.01827979 -0.47139063 1 8 21817 3.86800000 2688060970 2688060970 -7.00000000
-3.13872075 -3.99003530 -0.44414568 3 10 21819 5.09600000 2688060975 2688060975 -5.00000000
-4.60308456 -5.84737635 -0.39000756 3 12 21821 7.45200000 2688060979 2688060979 -3.00000000
-5.44774771 -6.91539860 2.35887671 9 15 21823 9.11400000 2688060986 2688060986 15.00000000
-1.19107127 -1.50869906 -0.51504987 5 0 21829 1.99000000 2688061007 2688061007 -15.00000000
-4.31920195 -5.46905804 0.12164328 5 1 21830 6.97000000 2688061009 2688061009 1.00000000
-1.36389434 -1.72637010 -0.50793946 4 2 21831 2.25800000 2688061012 2688061012 -13.00000000
-4.32851219 -5.47888088 0.36593300 10 3 21831 6.99200000 2688061014 2688061014 3.00000000
