# .PCD v0.7 - Point Cloud Data file format
VERSION 0.7
FIELDS x y z intensity laser_id azimuth distance_m adjustedtime timestamp vertical_angle
SIZE 4 4 4 1 1 2 8 8 4 8
TYPE F F F U U U F U U F
COUNT 1 1 1 1 1 1 1 1 1 1
WIDTH 539
HEIGHT 1
VIEWPOINT 0 0 0 1 0 0 0
POINTS 539
DATA ascii
8.23529720 4.56114292 0.82362175 77 5 6102 9.45000000 2687417428 2687417428 5.00000000
3.56494141 1.97445285 -0.64544863 4 6 6102 4.12600000 2687417430 2687417430 -9.00000000
8.24587345 4.56511974 1.15727127 90 7 6103 9.49600000 2687417432 2687417432 7.00000000
4.79897833 2.65573907 -0.67344999 4 8 6104 5.52600000 2687417435 2687417435 -7.00000000
8.21571159 4.54093075 -0.49195799 17 12 6107 9.40000000 2687417444 2687417444 -3.00000000
8.27105522 4.56963587 2.18157530 78 13 6108 9.69800000 2687417446 2687417446 13.00000000
8.20806503 4.53296471 -0.16366866 16 14 6109 9.37800000 2687417449 2687417449 -1.00000000
7.72063637 4.26202059 2.36301780 45 15 6110 9.13000000 2687417451 2687417451 15.00000000
1.99365544 1.09738111 -0.60977769 4 0 6117 2.35600000 2687417472 2687417472 -15.00000000
8.22218323 4.52392149 0.16380829 16 1 6118 9.38600000 2687417474 2687417474 1.00000000
2.35980654 1.29785109 -0.62176472 3 2 6119 2.76400000 2687417476 2687417476 -13.00000000
8.23395443 4.52852631 0.49248135 15 3 6119 9.41000000 2687417479 2687417479 3.00000000
2.82491803 1.55301178 -0.62661672 4 4 6120 3.28400000 2687417481 2687417481 -11.00000000
8.23117065 4.52325344 0.82170433 81 5 6121 9.42800000 2687417483 2687417483 5.00000000
3.58220005 1.96770310 -0.64732581 4 6 6122 4.13800000 2687417485 2687417485 -9.00000000
8.24609756 4.52770948 1.15507770 85 7 6123 9.47800000 2687417488 2687417488 7.00000000
4.81866026 2.64470196 -0.67491245 4 8 6124 5.53800000 2687417490 2687417490 -7.00000000
8.21925259 4.50550461 -0.49122527 17 12 6127 9.38600000 2687417499 2687417499 -3.00000000
8.27328396 4.53324509 2.17797613 72 13 6128 9.68200000 2687417502 2687417502 13.00000000
8.20200729 4.49418974 -0.16324981 16 14 6128 9.35400000 2687417504 2687417504 -1.00000000
7.72625589 4.23175430 2.36042976 45 15 6129 9.12000000 2687417506 2687417506 15.00000000
1.98729992 1.08486140 -0.60667187 4 0 6137 2.34400000 2687417527 2687417527 -15.00000000
8.21432209 4.48417521 0.16335453 13 1 6137 9.36000000 2687417529 2687417529 1.00000000
2.37436128 1.29561913 -0.62446415 3 2 6138 2.77600000 2687417531 2687417531 -13.00000000
8.23217773 4.49019337 0.49143463 10 3 6139 9.39000000 2687417534 2687417534 3.00000000
2.83376932 1.54502118 -0.62737995 4 4 6140 3.28800000 2687417536 2687417536 -11.00000000
8.22066784 4.48019218 0.81908965 85 5 6141 9.39800000 2687417538 2687417538 5.00000000
3.57482934 1.94825101 -0.64482284 4 6 6141 4.12200000 2687417541 2687417541 -9.00000000
8.24363422 4.49084330 1.15264022 87 7 6142 9.45800000 2687417543 2687417543 7.00000000
4.82043076 2.62491083 -0.67393744 4 8 6143 5.53000000 2687417545 2687417545 -7.00000000
8.21660328 4.46868181 -0.49017856 21 12 6146 9.36600000 2687417555 2687417555 -3.00000000
8.27457523 4.49833918 2.17437696 72 13 6147 9.66600000 2687417557 2687417557 13.00000000
8.22291565 4.46839619 -0.16335453 16 14 6148 9.36000000 2687417559 2687417559 -1.00000000
7.73928261 4.20383692 2.35991216 45 15 6149 9.11800000 2687417561 2687417561 15.00000000
1.99768138 1.08194530 -0.60874242 4 0 6156 2.35200000 2687417582 2687417582 -15.00000000
8.20354652 4.44119406 0.16283095 13 1 6157 9.33000000 2687417584 2687417584 1.00000000
2.37544155 1.28546834 -0.62356430 3 2 6158 2.77200000 2687417587 2687417587 -13.00000000
8.24526596 4.46191931 0.49132997 10 3 6158 9.38800000 2687417589 2687417589 3.00000000
2.84233069 1.53748369 -0.62814319 4 4 6159 3.29200000 2687417591 2687417591 -11.00000000
8.22846889 4.44911623 0.81839240 85 5 6160 9.39000000 2687417594 2687417594 5.00000000
3.58160830 1.93576062 -0.64482284 4 6 6161 4.12200000 2687417596 2687417596 -9.00000000
8.23830223 4.45071745 1.14971542 87 7 6162 9.43400000 2687417598 2687417598 7.00000000
4.82910872 2.60891128 -0.67393744 4 8 6162 5.53000000 2687417601 2687417601 -7.00000000
6.67818117 3.60485601 -0.66395247 12 10 6164 7.61800000 2687417605 2687417605 -5.00000000
8.22336197 4.43523264 -0.48965520 17 12 6166 9.35600000 2687417610 2687417610 -3.00000000
8.27821922 4.46295452 2.17122769 74 13 6167 9.65200000 2687417612 2687417612 13.00000000
8.21304607 4.42781830 -0.16286586 16 14 6167 9.33200000 2687417614 2687417614 -1.00000000
7.75318050 4.17814922 2.35991216 45 15 6168 9.11800000 2687417617 2687417617 15.00000000
2.02016687 1.08502054 -0.61443639 4 0 6176 2.37400000 2687417637 2687417637 -15.00000000
8.21294403 4.41112709 0.16272624 13 1 6176 9.32400000 2687417640 2687417640 1.00000000
2.37625742 1.27574039 -0.62266451 3 2 6177 2.76800000 2687417642 2687417642 -13.00000000
8.22559357 4.41422224 0.48923653 10 3 6178 9.34800000 2687417644 2687417644 3.00000000
2.85114026 1.52940881 -0.62890643 4 4 6179 3.29600000 2687417647 2687417647 -11.00000000
8.23692513 4.41660070 0.81769520 96 5 6180 9.38200000 2687417649 2687417649 5.00000000
3.58104420 1.92013907 -0.64357138 6 6 6180 4.11400000 2687417651 2687417651 -9.00000000
8.23202038 4.41212082 1.14679050 87 7 6181 9.41000000 2687417654 2687417654 7.00000000
4.83818626 2.59203863 -0.67393744 4 8 6182 5.53000000 2687417656 2687417656 -7.00000000
6.68545389 3.57870197 -0.66342950 17 10 6184 7.61200000 2687417661 2687417661 -5.00000000
8.20104313 4.38815069 -0.48745710 17 12 6185 9.31400000 2687417665 2687417665 -3.00000000
8.27750778 4.42720652 2.16717839 72 13 6186 9.63400000 2687417667 2687417667 13.00000000
8.21963406 4.39440823 -0.16269134 16 14 6187 9.32200000 2687417670 2687417670 -1.00000000
7.77282906 4.15379190 2.36146498 45 15 6188 9.12400000 2687417672 2687417672 15.00000000
2.01522923 1.07377326 -0.61184824 4 0 6195 2.36400000 2687417693 2687417693 -15.00000000
8.21240711 4.37397146 0.16241209 12 1 6196 9.30600000 2687417695 2687417695 1.00000000
2.38069606 1.26743793 -0.62266451 3 2 6197 2.76800000 2687417697 2687417697 -13.00000000
8.21903133 4.37565804 0.48798046 10 3 6197 9.32400000 2687417700 2687417700 3.00000000
2.83193254 1.50703347 -0.62356383 4 4 6198 3.26800000 2687417702 2687417702 -11.00000000
8.22338200 4.37429094 0.81490618 77 5 6199 9.35000000 2687417704 2687417704 5.00000000
3.60167813 1.91504622 -0.64607435 6 6 6200 4.13000000 2687417707 2687417707 -9.00000000
8.23334789 4.37590599 1.14484060 87 7 6201 9.39400000 2687417709 2687417709 7.00000000
4.84720469 2.57513428 -0.67393744 4 8 6202 5.53000000 2687417711 2687417711 -7.00000000
8.20572567 4.35388041 -0.48682907 17 12 6205 9.30200000 2687417720 2687417720 -3.00000000
8.27569485 4.38915491 2.16267943 68 13 6206 9.61400000 2687417723 2687417723 13.00000000
8.20412922 4.35119867 -0.16209795 14 14 6206 9.28800000 2687417725 2687417725 -1.00000000
7.78826761 4.12889814 2.36198258 45 15 6207 9.12600000 2687417727 2687417727 15.00000000
2.00871658 1.06131732 -0.60874242 4 0 6215 2.35200000 2687417748 2687417748 -15.00000000
8.21802616 4.34204292 0.16223757 12 1 6215 9.29600000 2687417750 2687417750 1.00000000
2.38833237 1.26135647 -0.62356430 3 2 6216 2.77200000 2687417753 2687417753 -13.00000000
8.22012520 4.33948231 0.48714307 10 3 6217 9.30800000 2687417755 2687417755 3.00000000
2.84759378 1.50263643 -0.62585348 5 4 6218 3.28000000 2687417757 2687417757 -11.00000000
8.22450256 4.33812284 0.81351173 81 5 6219 9.33400000 2687417760 2687417760 5.00000000
3.60102010 1.89940572 -0.64482284 6 6 6219 4.12200000 2687417762 2687417762 -9.00000000
8.24079037 4.34487581 1.14386570 85 7 6220 9.38600000 2687417764 2687417764 7.00000000
4.84869289 2.55534434 -0.67296249 4 8 6221 5.52200000 2687417767 2687417767 -7.00000000
8.20951366 4.32106400 -0.48620105 17 12 6224 9.29000000 2687417776 2687417776 -3.00000000
8.27295876 4.35261393 2.15818048 70 13 6225 9.59400000 2687417778 2687417778 13.00000000
8.20687866 4.31601906 -0.16185361 16 14 6226 9.27400000 2687417780 2687417780 -1.00000000
7.79408312 4.09719229 2.35939431 42 15 6227 9.11600000 2687417783 2687417783 15.00000000
2.00935388 1.05180478 -0.60770714 4 0 6237 2.34800000 2687417803 2687417803 -15.00000000
8.21590042 4.29882097 0.16185361 15 1 6238 9.27400000 2687417806 2687417806 1.00000000
2.39337659 1.25175893 -0.62356430 4 2 6239 2.77200000 2687417808 2687417808 -13.00000000
8.22256756 4.30048227 0.48630571 13 3 6239 9.29200000 2687417810 2687417810 3.00000000
2.85856223 1.49442017 -0.62699836 5 4 6240 3.28600000 2687417813 2687417813 -11.00000000
8.21637726 4.29359245 0.81107134 75 5 6241 9.30600000 2687417815 2687417815 5.00000000
3.60161209 1.88127673 -0.64357138 6 6 6242 4.11400000 2687417817 2687417817 -9.00000000
8.24232769 4.30349112 1.14167202 85 7 6243 9.36800000 2687417819 2687417819 7.00000000
4.86771059 2.54045200 -0.67418122 6 8 6244 5.53200000 2687417822 2687417822 -7.00000000
8.21616650 4.28253508 -0.48557299 17 12 6247 9.27800000 2687417831 2687417831 -3.00000000
8.28345108 4.31576777 2.15638089 72 13 6248 9.58600000 2687417833 2687417833 13.00000000
8.20742989 4.27615929 -0.16153948 14 14 6248 9.25600000 2687417836 2687417836 -1.00000000
7.80290365 4.06366587 2.35732388 45 15 6249 9.10800000 2687417838 2687417838 15.00000000
2.01625967 1.04691625 -0.60874242 4 0 6256 2.35200000 2687417859 2687417859 -15.00000000
8.19993782 4.25589228 0.16126023 12 1 6257 9.24000000 2687417861 2687417861 1.00000000
2.39059520 1.24022567 -0.62176472 3 2 6258 2.76400000 2687417863 2687417863 -13.00000000
8.22334480 4.26439810 0.48546833 13 3 6259 9.27600000 2687417866 2687417866 3.00000000
2.86550426 1.48533630 -0.62737995 5 4 6260 3.28800000 2687417868 2687417868 -11.00000000
8.21716309 4.25755310 0.80967683 75 5 6261 9.29000000 2687417870 2687417870 5.00000000
3.60783076 1.86932302 -0.64357138 6 6 6261 4.11400000 2687417872 2687417872 -9.00000000
8.24245167 4.26883173 1.13972211 85 7 6262 9.35200000 2687417875 2687417875 7.00000000
4.87258244 2.52247095 -0.67369372 6 8 6263 5.52800000 2687417877 2687417877 -7.00000000
8.36148930 4.32678127 1.49113333 2 9 6264 9.53200000 2687417879 2687417879 9.00000000
8.20548439 4.24242353 -0.48410758 17 12 6266 9.25000000 2687417886 2687417886 -3.00000000
8.28733063 4.28290701 2.15368128 72 13 6267 9.57400000 2687417889 2687417889 13.00000000
8.21164608 4.24197721 -0.16133004 14 14 6268 9.24400000 2687417891 2687417891 -1.00000000
7.81189156 4.03374481 2.35577106 45 15 6269 9.10200000 2687417893 2687417893 15.00000000
2.02677226 1.04340875 -0.61081296 4 0 6276 2.36000000 2687417914 2687417914 -15.00000000
8.21118736 4.22541332 0.16119042 12 1 6277 9.23600000 2687417916 2687417916 1.00000000
2.39664268 1.23276472 -0.62221462 4 2 6278 2.76600000 2687417919 2687417919 -13.00000000
8.22856045 4.23253727 0.48494497 13 3 6278 9.26600000 2687417921 2687417921 3.00000000
2.87914395 1.48031425 -0.62928808 5 4 6279 3.29800000 2687417923 2687417923 -11.00000000
8.22237587 4.22572708 0.80880529 78 5 6280 9.28000000 2687417925 2687417925 5.00000000
3.62487650 1.86213374 -0.64544863 6 6 6281 4.12600000 2687417928 2687417928 -9.00000000
8.23787785 4.23005962 1.13704097 85 7 6282 9.33000000 2687417930 2687417930 7.00000000
4.89195442 2.51088595 -0.67515618 6 8 6283 5.54000000 2687417932 2687417932 -7.00000000
8.37579155 4.29902983 1.49113333 2 9 6283 9.53200000 2687417935 2687417935 9.00000000
6.69371176 3.43419528 -0.65820014 12 10 6284 7.55200000 2687417937 2687417937 -5.00000000
8.21313381 4.21011114 -0.48368892 17 12 6286 9.24200000 2687417942 2687417942 -3.00000000
8.27794933 4.24151134 2.14738274 75 13 6287 9.54600000 2687417944 2687417944 13.00000000
8.21143055 4.20742846 -0.16105081 18 14 6287 9.22800000 2687417946 2687417946 -1.00000000
7.83382225 4.01222038 2.35835910 45 15 6288 9.11200000 2687417949 2687417949 15.00000000
2.02696061 1.03457117 -0.60977769 4 0 6296 2.35600000 2687417969 2687417969 -15.00000000
8.20021820 4.18543386 0.16070175 12 1 6296 9.20800000 2687417972 2687417972 1.00000000
8.17250729 4.16949224 -2.11813903 8 2 6297 9.41600000 2687417974 2687417974 -13.00000000
8.21481705 4.18927097 0.48327023 15 3 6298 9.23400000 2687417976 2687417976 3.00000000
2.87729716 1.46668875 -0.62776160 5 4 6299 3.29000000 2687417978 2687417978 -11.00000000
8.22464943 4.19066811 0.80758512 75 5 6300 9.26600000 2687417981 2687417981 5.00000000
3.62751150 1.84830940 -0.64482284 6 6 6300 4.12200000 2687417983 2687417983 -9.00000000
8.23770905 4.19551134 1.13509107 97 7 6301 9.31400000 2687417985 2687417985 7.00000000
4.88963938 2.48924613 -0.67369372 6 8 6302 5.52800000 2687417988 2687417988 -7.00000000
6.68967581 3.40267944 -0.65663135 12 10 6304 7.53400000 2687417992 2687417992 -5.00000000
8.20212555 4.17017937 -0.48222351 17 12 6305 9.21400000 2687417997 2687417997 -3.00000000
8.26417255 4.19991112 2.14018440 76 13 6306 9.51400000 2687417999 2687417999 13.00000000
8.20289040 4.16696548 -0.16059704 16 14 6307 9.20200000 2687418002 2687418002 -1.00000000
7.84605742 3.98397636 2.35784149 45 15 6308 9.11000000 2687418004 2687418004 15.00000000
2.02711225 1.02574503 -0.60874242 4 0 6316 2.35200000 2687418025 2687418025 -15.00000000
8.21193504 4.15354538 0.16063195 12 1 6317 9.20400000 2687418027 2687418027 1.00000000
2.40866876 1.21776164 -0.62311441 4 2 6318 2.77000000 2687418029 2687418029 -13.00000000
8.22047806 4.15606451 0.48274687 13 3 6318 9.22400000 2687418031 2687418031 3.00000000
2.87539053 1.45309424 -0.62623513 5 4 6319 3.28200000 2687418034 2687418034 -11.00000000
8.22500038 4.15474701 0.80619061 78 5 6320 9.25000000 2687418036 2687418036 5.00000000
3.64307833 1.83945322 -0.64638722 6 6 6321 4.13200000 2687418038 2687418038 -9.00000000
8.24239826 4.15992403 1.13362861 95 7 6322 9.30200000 2687418041 2687418041 7.00000000
4.90581942 2.47488451 -0.67466867 6 8 6323 5.53600000 2687418043 2687418043 -7.00000000
6.67482758 3.36585116 -0.65401667 12 10 6324 7.50400000 2687418048 2687418048 -5.00000000
8.21200371 4.13739347 -0.48190948 17 12 6326 9.20800000 2687418052 2687418052 -3.00000000
8.26558685 4.16258097 2.13658500 78 13 6327 9.49800000 2687418055 2687418055 13.00000000
8.20488358 4.13201094 -0.16035271 16 14 6327 9.18800000 2687418057 2687418057 -1.00000000
7.85301399 3.95308971 2.35577106 45 15 6328 9.10200000 2687418059 2687418059 15.00000000
2.02031970 1.01346552 -0.60563654 4 0 6336 2.34000000 2687418080 2687418080 -15.00000000
8.19706535 4.11194468 0.16007347 12 1 6336 9.17200000 2687418082 2687418082 1.00000000
8.19270611 4.10796881 -2.11588955 8 2 6337 9.40600000 2687418084 2687418084 -13.00000000
8.22243690 4.12107992 0.48201415 13 3 6338 9.21000000 2687418087 2687418087 3.00000000
2.88571119 1.44568646 -0.62737995 5 4 6339 3.28800000 2687418089 2687418089 -11.00000000
8.21985722 4.11619759 0.80427319 86 5 6340 9.22800000 2687418091 2687418091 5.00000000
3.65092444 1.82824671 -0.64670008 6 6 6340 4.13400000 2687418094 2687418094 -9.00000000
8.24194622 4.12546015 1.13167870 95 7 6341 9.28600000 2687418096 2687418096 7.00000000
4.90334797 2.45327330 -0.67320627 9 8 6342 5.52400000 2687418098 2687418098 -7.00000000
8.30374527 4.15276909 1.47048402 2 9 6343 9.40000000 2687418101 2687418101 9.00000000
6.70970345 3.35411239 -0.65628272 8 10 6344 7.53000000 2687418103 2687418103 -5.00000000
8.22031879 4.10746050 -0.48159546 17 12 6345 9.20200000 2687418107 2687418107 -3.00000000
8.26191139 4.12644100 2.13208604 78 13 6346 9.47800000 2687418110 2687418110 13.00000000
8.20315456 4.09530640 -0.16003856 16 14 6347 9.17000000 2687418112 2687418112 -1.00000000
7.86676502 3.92565346 2.35577106 45 15 6348 9.10200000 2687418114 2687418114 15.00000000
2.03058791 1.01020229 -0.60770714 4 0 6355 2.34800000 2687418135 2687418135 -15.00000000
8.20420647 4.07974482 0.15993385 12 1 6356 9.16400000 2687418137 2687418137 1.00000000
8.19827080 4.07500887 -2.11364007 8 2 6357 9.39600000 2687418140 2687418140 -13.00000000
8.23248005 4.09201288 0.48180482 13 3 6357 9.20600000 2687418142 2687418142 3.00000000
2.89224768 1.43698275 -0.62776160 5 4 6358 3.29000000 2687418144 2687418144 -11.00000000
8.22097015 4.08271360 0.80305302 82 5 6359 9.21400000 2687418147 2687418147 5.00000000
3.63959026 1.80670834 -0.64357138 4 6 6360 4.11400000 2687418149 2687418149 -9.00000000
8.23140144 4.08431244 1.12826633 97 7 6361 9.25800000 2687418151 2687418151 7.00000000
4.91899490 2.43967056 -0.67418122 6 8 6362 5.53200000 2687418154 2687418154 -7.00000000
6.75470591 3.34865785 -0.65959466 4 10 6363 7.56800000 2687418158 2687418158 -5.00000000
8.20775986 4.06544399 -0.48002538 17 12 6365 9.17200000 2687418163 2687418163 -3.00000000
8.27102566 4.09498262 2.13073635 74 13 6366 9.47200000 2687418165 2687418165 13.00000000
8.20235348 4.06098318 -0.15975933 16 14 6366 9.15400000 2687418167 2687418167 -1.00000000
7.87973976 3.89954495 2.35577106 45 15 6367 9.10200000 2687418170 2687418170 15.00000000
2.04796290 1.00994349 -0.61184824 4 0 6375 2.36400000 2687418190 2687418190 -15.00000000
8.19975567 4.04367161 0.15958481 12 1 6375 9.14400000 2687418193 2687418193 1.00000000
8.18901634 4.03659916 -2.10779142 8 2 6376 9.37000000 2687418195 2687418195 -13.00000000
8.22163200 4.05089283 0.48033941 13 3 6377 9.17800000 2687418197 2687418197 3.00000000
2.90252972 1.42948031 -0.62890643 5 4 6378 3.29600000 2687418200 2687418200 -11.00000000
8.22265911 4.04783249 0.80183285 86 5 6379 9.20000000 2687418202 2687418202 5.00000000
3.64910603 1.79637396 -0.64419711 4 6 6379 4.11800000 2687418204 2687418204 -9.00000000
8.21640205 4.04297113 1.12436652 92 7 6380 9.22600000 2687418207 2687418207 7.00000000
4.92349577 2.42159295 -0.67369372 6 8 6381 5.52800000 2687418209 2687418209 -7.00000000
7.54598618 3.70817900 -0.73559445 13 10 6383 8.44000000 2687418213 2687418213 -5.00000000
8.20506287 4.03027868 -0.47908333 17 12 6384 9.15400000 2687418218 2687418218 -3.00000000
8.26006985 4.05550861 2.12443781 74 13 6385 9.44400000 2687418220 2687418220 13.00000000
8.20391273 4.02615976 -0.15951499 18 14 6386 9.14000000 2687418223 2687418223 -1.00000000
7.90197563 3.87626958 2.35835910 45 15 6387 9.11200000 2687418225 2687418225 15.00000000
2.04453325 0.99939513 -0.60977769 4 0 6395 2.35600000 2687418246 2687418246 -15.00000000
8.20733452 4.01007938 0.15944518 12 1 6396 9.13600000 2687418248 2687418248 1.00000000
8.19149876 4.00057125 -2.10464215 8 2 6397 9.35600000 2687418250 2687418250 -13.00000000
8.21239090 4.01077509 0.47897866 13 3 6397 9.15200000 2687418253 2687418253 3.00000000
2.90220904 1.41675615 -0.62776160 5 4 6398 3.29000000 2687418255 2687418255 -11.00000000
8.22420406 4.01298952 0.80061263 82 5 6399 9.18600000 2687418257 2687418257 5.00000000
3.66631818 1.78818285 -0.64607435 4 6 6400 4.13000000 2687418260 2687418260 -9.00000000
8.22402763 4.00934982 1.12339163 92 7 6401 9.21800000 2687418262 2687418262 7.00000000
4.92876911 2.40179205 -0.67320627 6 8 6402 5.52400000 2687418264 2687418264 -7.00000000
7.55888414 3.68181610 -0.73559445 13 10 6403 8.44000000 2687418269 2687418269 -5.00000000
8.20720768 3.99406052 -0.47835064 12 12 6405 9.14000000 2687418273 2687418273 -3.00000000
8.25910664 4.01753473 2.12038875 70 13 6406 9.42600000 2687418276 2687418276 13.00000000
8.19633865 3.98700166 -0.15909614 14 14 6406 9.11600000 2687418278 2687418278 -1.00000000
7.92067051 3.85119724 2.35991216 45 15 6407 9.11800000 2687418280 2687418280 15.00000000
2.04453230 0.99056762 -0.60874242 4 0 6415 2.35200000 2687418301 2687418301 -15.00000000
8.20439053 3.97499394 0.15913104 18 1 6415 9.11800000 2687418303 2687418303 1.00000000
8.19770432 3.96998787 -2.10284257 8 2 6416 9.34800000 2687418306 2687418306 -13.00000000
8.21195984 3.97512221 0.47814131 10 3 6417 9.13600000 2687418308 2687418308 3.00000000
2.88946414 1.39806604 -0.62394542 5 4 6418 3.27000000 2687418310 2687418310 -11.00000000
8.21843147 3.97471499 0.79869521 86 5 6419 9.16400000 2687418313 2687418313 5.00000000
3.67222786 1.77601516 -0.64607435 4 6 6419 4.13000000 2687418315 2687418315 -9.00000000
8.22655487 3.97687197 1.12192917 95 7 6420 9.20600000 2687418317 2687418317 7.00000000
4.94385624 2.38888907 -0.67418122 9 8 6421 5.53200000 2687418319 2687418319 -7.00000000
7.56092453 3.65021110 -0.73454863 13 10 6423 8.42800000 2687418324 2687418324 -5.00000000
8.20421886 3.95901036 -0.47740859 17 12 6424 9.12200000 2687418329 2687418329 -3.00000000
8.26536274 3.98673797 2.11858892 66 13 6425 9.41800000 2687418331 2687418331 13.00000000
8.19579506 3.95141935 -0.15881690 18 14 6426 9.10000000 2687418333 2687418333 -1.00000000
7.93406534 3.82352543 2.35991216 47 15 6427 9.11800000 2687418336 2687418336 15.00000000
2.04101181 0.98007983 -0.60667187 4 0 6435 2.34400000 2687418356 2687418356 -15.00000000
8.20628548 3.93883967 0.15888670 18 1 6436 9.10400000 2687418359 2687418359 1.00000000
8.19287300 3.93064284 -2.09789348 8 2 6437 9.32600000 2687418361 2687418361 -13.00000000
8.21498108 3.94124937 0.47751325 10 3 6437 9.12400000 2687418363 2687418363 3.00000000
2.90140772 1.39136708 -0.62547189 5 4 6438 3.27800000 2687418366 2687418366 -11.00000000
8.20889950 3.93480754 0.79642916 78 5 6439 9.13800000 2687418368 2687418368 5.00000000
3.67514992 1.76083672 -0.64544863 4 6 6440 4.12600000 2687418370 2687418370 -9.00000000
8.23033333 3.94154882 1.12046671 92 7 6441 9.19400000 2687418372 2687418372 7.00000000
4.95615959 2.37246704 -0.67466867 6 8 6442 5.53600000 2687418375 2687418375 -7.00000000
7.57362032 3.62379622 -0.73454863 13 10 6443 8.42800000 2687418379 2687418379 -5.00000000
8.21146584 3.92546821 -0.47698990 17 12 6445 9.11400000 2687418384 2687418384 -3.00000000
8.26585293 3.94969559 2.11498976 70 13 6446 9.40200000 2687418386 2687418386 13.00000000
8.20051670 3.91847587 -0.15864238 16 14 6446 9.09000000 2687418389 2687418389 -1.00000000
7.94039059 3.79247689 2.35784149 45 15 6447 9.11000000 2687418391 2687418391 15.00000000
2.05314231 0.97710025 -0.60926002 4 0 6455 2.35400000 2687418412 2687418412 -15.00000000
8.20124531 3.90301180 0.15853766 21 1 6455 9.08400000 2687418414 2687418414 1.00000000
8.18474483 3.89340734 -2.09249473 8 2 6456 9.30200000 2687418416 2687418416 -13.00000000
8.22327709 3.90997696 0.47719926 10 3 6457 9.11800000 2687418419 2687418419 3.00000000
2.91156626 1.38375902 -0.62661672 5 4 6458 3.28400000 2687418421 2687418421 -11.00000000
8.20818710 3.89928985 0.79503471 82 5 6459 9.12200000 2687418423 2687418423 5.00000000
3.65955734 1.73846841 -0.64169419 6 6 6459 4.10200000 2687418425 2687418425 -9.00000000
8.22542667 3.90571976 1.11802936 92 7 6460 9.17400000 2687418428 2687418428 7.00000000
4.96399975 2.35601878 -0.67466867 6 8 6461 5.53600000 2687418430 2687418430 -7.00000000
7.58262300 3.59562993 -0.73420000 13 10 6463 8.42400000 2687418435 2687418435 -5.00000000
8.20097637 3.88709569 -0.47562918 17 12 6464 9.08800000 2687418439 2687418439 -3.00000000
8.27186108 3.91892600 2.11319017 72 13 6465 9.39400000 2687418442 2687418442 13.00000000
8.19607258 3.88126826 -0.15829332 16 14 6466 9.07000000 2687418444 2687418444 -1.00000000
7.96405697 3.76969552 2.36094737 45 15 6467 9.12200000 2687418446 2687418446 15.00000000
2.05986547 0.97193515 -0.61029530 4 0 6474 2.35800000 2687418467 2687418467 -15.00000000
8.20215893 3.86838913 0.15829332 18 1 6475 9.07000000 2687418469 2687418469 1.00000000
8.17713356 3.85484195 -2.08709598 8 2 6476 9.27800000 2687418472 2687418472 -13.00000000
8.20909882 3.86991119 0.47562918 10 3 6476 9.08800000 2687418474 2687418474 3.00000000
2.91613913 1.37409627 -0.62661672 5 4 6477 3.28400000 2687418476 2687418476 -11.00000000
8.21566582 3.86950207 0.79451174 78 5 6478 9.11600000 2687418478 2687418478 5.00000000
3.66917801 1.72736633 -0.64231992 6 6 6479 4.10600000 2687418481 2687418481 -9.00000000
8.22464085 3.87022209 1.11607945 90 7 6480 9.15800000 2687418483 2687418483 7.00000000
4.96500826 2.33529711 -0.67369372 9 8 6481 5.52800000 2687418485 2687418485 -7.00000000
8.34057331 3.92299795 1.45984638 2 9 6481 9.33200000 2687418488 2687418488 9.00000000
7.60171700 3.57385612 -0.73489720 13 10 6482 8.43200000 2687418490 2687418490 -5.00000000
8.19280148 3.84825587 -0.47437310 17 12 6484 9.06400000 2687418495 2687418495 -3.00000000
8.26432228 3.88008952 2.10779142 75 13 6485 9.37000000 2687418497 2687418497 13.00000000
8.19984722 3.84981871 -0.15811880 18 14 6485 9.06000000 2687418499 2687418499 -1.00000000
7.98001194 3.74490643 2.36198258 47 15 6486 9.12600000 2687418501 2687418501 15.00000000
2.06149554 0.96392065 -0.60977769 4 0 6494 2.35600000 2687418522 2687418522 -15.00000000
8.20226192 3.83523965 0.15804899 15 1 6494 9.05600000 2687418525 2687418525 1.00000000
8.17045116 3.81862807 -2.08214688 8 2 6495 9.25600000 2687418527 2687418527 -13.00000000
8.20627213 3.83362436 0.47468713 13 3 6496 9.07000000 2687418529 2687418529 3.00000000
2.91202331 1.35975552 -0.62470865 5 4 6497 3.27400000 2687418531 2687418531 -11.00000000
8.21467876 3.83405924 0.79311728 78 5 6498 9.10000000 2687418534 2687418534 5.00000000
3.66772580 1.71184754 -0.64106846 6 6 6498 4.09800000 2687418536 2687418536 -9.00000000
8.22663593 3.83789134 1.11461699 92 7 6499 9.14600000 2687418538 2687418538 7.00000000
4.96372986 2.31462502 -0.67247504 9 8 6500 5.51800000 2687418541 2687418541 -7.00000000
8.35421658 3.89385986 1.45984638 2 9 6501 9.33200000 2687418543 2687418543 9.00000000
7.61053371 3.54561663 -0.73454863 13 10 6502 8.42800000 2687418545 2687418545 -5.00000000
8.19827557 3.81769371 -0.47395441 17 12 6503 9.05600000 2687418550 2687418550 -3.00000000
8.24887562 3.83950520 2.10059285 75 13 6504 9.33800000 2687418552 2687418552 13.00000000
8.19873142 3.81442404 -0.15783957 14 14 6505 9.04400000 2687418554 2687418554 -1.00000000
8.00004196 3.72028661 2.36405325 45 15 6506 9.13400000 2687418557 2687418557 15.00000000
2.05942273 0.95464182 -0.60822475 4 0 6513 2.35000000 2687418578 2687418578 -15.00000000
8.20834160 3.80322218 0.15790938 12 1 6514 9.04800000 2687418580 2687418580 1.00000000
8.17665768 3.78680897 -2.08034730 10 2 6515 9.24800000 2687418582 2687418582 -13.00000000
8.20625305 3.80051494 0.47395441 13 3 6515 9.05600000 2687418584 2687418584 3.00000000
2.91473484 1.34926665 -0.62432700 5 4 6516 3.27200000 2687418587 2687418587 -11.00000000
8.21107388 3.79926753 0.79154843 75 5 6517 9.08200000 2687418589 2687418589 5.00000000
3.70236564 1.71230161 -0.64607435 6 6 6518 4.13000000 2687418591 2687418591 -9.00000000
8.22556686 3.80248785 1.11266708 92 7 6519 9.13000000 2687418594 2687418594 7.00000000
4.96817493 2.29561901 -0.67198753 9 8 6520 5.51400000 2687418596 2687418596 -7.00000000
7.62948465 3.52370119 -0.73524582 13 10 6521 8.43600000 2687418601 2687418601 -5.00000000
8.19704342 3.78235888 -0.47311705 17 12 6523 9.04000000 2687418605 2687418605 -3.00000000
8.25161076 3.80579090 2.09789348 75 13 6524 9.32600000 2687418607 2687418607 13.00000000
8.18954468 3.77716517 -0.15742071 16 14 6524 9.02000000 2687418610 2687418610 -1.00000000
8.00882626 3.69211960 2.36301780 45 15 6525 9.13000000 2687418612 2687418612 15.00000000
2.05220938 0.94260925 -0.60511893 4 0 6533 2.33800000 2687418633 2687418633 -15.00000000
8.19365025 3.76346159 0.15738580 12 1 6533 9.01800000 2687418635 2687418635 1.00000000
8.18562889 3.75804710 -2.07944751 8 2 6534 9.24400000 2687418637 2687418637 -13.00000000
8.21583843 3.77018070 0.47374508 13 3 6535 9.05200000 2687418640 2687418640 3.00000000
2.92478037 1.34153962 -0.62547189 5 4 6536 3.27800000 2687418642 2687418642 -11.00000000
8.20074177 3.75978780 0.78928238 78 5 6537 9.05600000 2687418644 2687418644 5.00000000
3.69006681 1.69178224 -0.64294565 4 6 6537 4.11000000 2687418647 2687418647 -9.00000000
8.23091316 3.77188206 1.11169219 97 7 6538 9.12200000 2687418649 2687418649 7.00000000
4.99922228 2.28987813 -0.67515618 9 8 6539 5.54000000 2687418651 2687418651 -7.00000000
8.29970360 3.79990077 1.44576728 2 9 6540 9.24200000 2687418654 2687418654 9.00000000
7.62362146 3.48875713 -0.73350275 13 10 6541 8.41600000 2687418656 2687418656 -5.00000000
8.20590878 3.75349402 -0.47290769 17 12 6542 9.03600000 2687418660 2687418660 -3.00000000
8.25177956 3.77273464 2.09474421 75 13 6543 9.31200000 2687418663 2687418663 13.00000000
8.19176674 3.74356818 -0.15721127 16 14 6544 9.00800000 2687418665 2687418665 -1.00000000
8.01815128 3.66253567 2.36198258 47 15 6545 9.12600000 2687418667 2687418667 15.00000000
2.06076217 0.93784058 -0.60667187 4 0 6553 2.34400000 2687418688 2687418688 -15.00000000
8.19282722 3.72678113 0.15710656 12 1 6554 9.00200000 2687418690 2687418690 1.00000000
8.17273808 3.71592140 -2.07269907 8 2 6555 9.21400000 2687418693 2687418693 -13.00000000
8.22167683 3.73817253 0.47332639 13 3 6555 9.04400000 2687418695 2687418695 3.00000000
2.93302011 1.33294666 -0.62623513 5 4 6556 3.28200000 2687418697 2687418697 -11.00000000
8.20293140 3.72619486 0.78823656 78 5 6557 9.04400000 2687418700 2687418700 5.00000000
3.69264555 1.67661273 -0.64231992 6 6 6558 4.10600000 2687418702 2687418702 -9.00000000
8.22299099 3.73184466 1.10876727 92 7 6559 9.09800000 2687418704 2687418704 7.00000000
4.99673462 2.26661944 -0.67369372 6 8 6560 5.52800000 2687418706 2687418706 -7.00000000
7.64301157 3.46541548 -0.73420000 13 10 6561 8.42400000 2687418711 2687418711 -5.00000000
8.19777870 3.71350312 -0.47165164 17 12 6563 9.01200000 2687418716 2687418716 -3.00000000
8.25845051 3.73924971 2.09294462 74 13 6564 9.30400000 2687418718 2687418718 13.00000000
8.19450188 3.70857191 -0.15700185 14 14 6565 8.99600000 2687418720 2687418720 -1.00000000
8.03088665 3.63452482 2.36198258 45 15 6565 9.12600000 2687418723 2687418723 15.00000000
2.07106757 0.93381774 -0.60874242 4 0 6573 2.35200000 2687418743 2687418743 -15.00000000
8.19302464 3.69240880 0.15686223 12 1 6574 8.98800000 2687418746 2687418746 1.00000000
8.16966820 3.68016696 -2.06865001 8 2 6575 9.19600000 2687418748 2687418748 -13.00000000
8.20982647 3.69653344 0.47186098 13 3 6576 9.01600000 2687418750 2687418750 3.00000000
2.94481564 1.32592452 -0.62776160 5 4 6576 3.29000000 2687418753 2687418753 -11.00000000
8.20680428 3.69345021 0.78736496 82 5 6577 9.03400000 2687418755 2687418755 5.00000000
3.69847536 1.66371274 -0.64231992 6 6 6578 4.10600000 2687418757 2687418757 -9.00000000
8.21061993 3.69172168 1.10535491 97 7 6579 9.07000000 2687418759 2687418759 7.00000000
5.00099516 2.24753618 -0.67320627 9 8 6580 5.52400000 2687418762 2687418762 -7.00000000
7.66596603 3.44361353 -0.73524582 13 10 6581 8.43600000 2687418766 2687418766 -5.00000000
8.18882561 3.67505169 -0.47039557 12 12 6583 8.98800000 2687418771 2687418771 -3.00000000
8.24833870 3.70003104 2.08709598 70 13 6584 9.27800000 2687418773 2687418773 13.00000000
8.20739746 3.67994499 -0.15700185 14 14 6585 8.99600000 2687418776 2687418776 -1.00000000
7.12215281 3.19186187 2.09125781 11 15 6586 8.08000000 2687418778 2687418778 15.00000000
2.07784247 0.92815846 -0.60977769 4 0 6593 2.35600000 2687418799 2687418799 -15.00000000
8.19673443 3.65971112 0.15668771 12 1 6594 8.97800000 2687418801 2687418801 1.00000000
8.17890549 3.65003872 -2.06774998 8 2 6595 9.19200000 2687418803 2687418803 -13.00000000
8.20197678 3.66033483 0.47070959 13 3 6595 8.99400000 2687418806 2687418806 3.00000000
2.94046140 1.31163824 -0.62585348 5 4 6596 3.28000000 2687418808 2687418808 -11.00000000
8.21600723 3.66315794 0.78701633 82 5 6597 9.03000000 2687418810 2687418810 5.00000000
3.71147776 1.65400887 -0.64357138 6 6 6598 4.11400000 2687418812 2687418812 -9.00000000
8.21620369 3.65980768 1.10438001 97 7 6599 9.06200000 2687418815 2687418815 7.00000000
5.00518274 2.22845101 -0.67271876 9 8 6600 5.52000000 2687418817 2687418817 -7.00000000
7.66883850 3.41278315 -0.73437428 13 10 6601 8.42600000 2687418822 2687418822 -5.00000000
8.20160389 3.64644504 -0.47039557 12 12 6603 8.98800000 2687418826 2687418826 -3.00000000
8.24339581 3.66330242 2.08259678 70 13 6604 9.25800000 2687418829 2687418829 13.00000000
8.19643497 3.64072061 -0.15654808 16 14 6605 8.97000000 2687418831 2687418831 -1.00000000
7.13093281 3.16744208 2.09074020 40 15 6605 8.07800000 2687418833 2687418833 15.00000000
2.07046986 0.91620928 -0.60667187 4 0 6613 2.34400000 2687418854 2687418854 -15.00000000
8.20031452 3.62703228 0.15651318 12 1 6614 8.96800000 2687418856 2687418856 1.00000000
8.18803215 3.61989093 -2.06685019 8 2 6615 9.18800000 2687418858 2687418858 -13.00000000
8.20374298 3.62683702 0.47008157 13 3 6615 8.98200000 2687418861 2687418861 3.00000000
2.94143033 1.29977906 -0.62509024 5 4 6616 3.27600000 2687418863 2687418863 -11.00000000
8.21051884 3.62640667 0.78527325 93 5 6617 9.01000000 2687418865 2687418865 5.00000000
3.71722865 1.64104342 -0.64357138 6 6 6618 4.11400000 2687418868 2687418868 -9.00000000
8.21984768 3.62709856 1.10316133 99 7 6619 9.05200000 2687418870 2687418870 7.00000000
5.01656389 2.21256828 -0.67320627 9 8 6620 5.52400000 2687418872 2687418872 -7.00000000
7.67888117 3.38518953 -0.73420000 13 10 6621 8.42400000 2687418877 2687418877 -5.00000000
8.20514393 3.61376882 -0.46987221 17 12 6623 8.97800000 2687418882 2687418882 -3.00000000
8.24543095 3.62979436 2.07989740 62 13 6624 9.24600000 2687418884 2687418884 13.00000000
8.18163872 3.60000706 -0.15602452 20 14 6625 8.94000000 2687418886 2687418886 -1.00000000
7.12603140 3.13552880 2.08608150 45 15 6625 8.06000000 2687418888 2687418888 15.00000000
2.07011676 0.90742528 -0.60563654 4 0 6633 2.34000000 2687418909 2687418909 -15.00000000
8.19460964 3.59036088 0.15616414 12 1 6634 8.94800000 2687418911 2687418911 1.00000000
8.19347763 3.58816051 -2.06505060 8 2 6635 9.18000000 2687418914 2687418914 -13.00000000
8.20966244 3.59354091 0.46966287 13 3 6636 8.97400000 2687418916 2687418916 3.00000000
2.95134497 1.29186535 -0.62623513 5 4 6636 3.28200000 2687418918 2687418918 -11.00000000
8.18297005 3.58015537 0.78143841 75 5 6637 8.96600000 2687418921 2687418921 5.00000000
3.71750450 1.62568343 -0.64263278 6 6 6638 4.10800000 2687418923 2687418923 -9.00000000
8.21608829 3.59122849 1.10096765 95 7 6639 9.03400000 2687418925 2687418925 7.00000000
5.02607536 2.19583845 -0.67344999 9 8 6640 5.52600000 2687418928 2687418928 -7.00000000
7.68517351 3.35597253 -0.73367703 13 10 6641 8.41800000 2687418932 2687418932 -5.00000000
8.20672417 3.58031344 -0.46924418 17 12 6643 8.96600000 2687418937 2687418937 -3.00000000
8.25447845 3.59943247 2.07899761 66 13 6644 9.24200000 2687418939 2687418939 13.00000000
8.18865585 3.56902885 -0.15591981 20 14 6645 8.93400000 2687418941 2687418941 -1.00000000
7.13039160 3.10630322 2.08401084 45 15 6646 8.05200000 2687418944 2687418944 15.00000000
2.07858777 0.90250188 -0.60718948 4 0 6653 2.34600000 2687418964 2687418964 -15.00000000
8.18507957 3.55218124 0.15574527 18 1 6654 8.92400000 2687418967 2687418967 1.00000000
8.18449879 3.55023193 -2.05965185 8 2 6655 9.15600000 2687418969 2687418969 -13.00000000
8.21237278 3.56232285 0.46913952 13 3 6655 8.96400000 2687418971 2687418971 3.00000000
2.95943904 1.28311729 -0.62699836 6 4 6656 3.28600000 2687418974 2687418974 -11.00000000
8.20455742 3.55553079 0.78230995 86 5 6657 8.97600000 2687418976 2687418976 5.00000000
3.72134399 1.61191189 -0.64231992 6 6 6658 4.10600000 2687418978 2687418978 -9.00000000
8.21035671 3.55464005 1.09853029 95 7 6659 9.01400000 2687418981 2687418981 7.00000000
5.03553152 2.17906904 -0.67369372 9 8 6660 5.52800000 2687418983 2687418983 -7.00000000
7.69135523 3.32675290 -0.73315412 13 10 6661 8.41200000 2687418988 2687418988 -5.00000000
8.18983746 3.53896904 -0.46756944 17 12 6663 8.93400000 2687418992 2687418992 -3.00000000
8.25983715 3.56750631 2.07719803 62 13 6664 9.23400000 2687418994 2687418994 13.00000000
8.19004822 3.53566790 -0.15571037 18 14 6665 8.92200000 2687418997 2687418997 -1.00000000
7.14119101 3.08139467 2.08401084 45 15 6666 8.05200000 2687418999 2687418999 15.00000000
2.08141279 0.89596736 -0.60718948 4 0 6671 2.34600000 2687419020 2687419020 -15.00000000
8.18517685 3.52170777 0.15553585 18 1 6672 8.91200000 2687419022 2687419022 1.00000000
8.17770958 3.51680326 -2.05515289 8 2 6673 9.13600000 2687419024 2687419024 -13.00000000
8.21068001 3.53098202 0.46840680 10 3 6673 8.95000000 2687419027 2687419027 3.00000000
2.95984793 1.27226305 -0.62623513 6 4 6674 3.28200000 2687419029 2687419029 -11.00000000
8.19005871 3.51872706 0.77986956 78 5 6675 8.94800000 2687419031 2687419031 5.00000000
3.72638965 1.60021293 -0.64231992 6 6 6676 4.10600000 2687419034 2687419034 -9.00000000
8.20324230 3.52099943 1.09609282 90 7 6677 8.99400000 2687419036 2687419036 7.00000000
5.04600096 2.16480398 -0.67418122 9 8 6678 5.53200000 2687419038 2687419038 -7.00000000
7.70726204 3.30492902 -0.73367703 13 10 6679 8.41800000 2687419043 2687419043 -5.00000000
8.17888451 3.50378466 -0.46631336 17 12 6681 8.91000000 2687419047 2687419047 -3.00000000
8.25667191 3.53540325 2.07359886 64 13 6682 9.21800000 2687419050 2687419050 13.00000000
8.19192314 3.50598669 -0.15553585 18 14 6683 8.91200000 2687419052 2687419052 -1.00000000
7.15438843 3.06046438 2.08504629 45 15 6684 8.05600000 2687419054 2687419054 15.00000000
2.09163594 0.89172691 -0.60926002 4 0 6691 2.35400000 2687419075 2687419075 -15.00000000
8.19374084 3.49154687 0.15546604 15 1 6692 8.90800000 2687419077 2687419077 1.00000000
8.17738533 3.48289108 -2.05200362 8 2 6693 9.12200000 2687419080 2687419080 -13.00000000
8.19722939 3.49134302 0.46694142 10 3 6693 8.92200000 2687419082 2687419082 3.00000000
2.96427107 1.26192355 -0.62623513 6 4 6694 3.28200000 2687419084 2687419084 -11.00000000
8.19862556 3.48855686 0.77952099 78 5 6695 8.94400000 2687419087 2687419087 5.00000000
3.73922396 1.59028816 -0.64357138 6 6 6696 4.11400000 2687419089 2687419089 -9.00000000
8.20817471 3.48923683 1.09511793 90 7 6697 8.98600000 2687419091 2687419091 7.00000000
5.04621887 2.14407206 -0.67320627 6 8 6698 5.52400000 2687419094 2687419094 -7.00000000
7.72425270 3.28034210 -0.73420000 13 10 6699 8.42400000 2687419098 2687419098 -5.00000000
8.18922615 3.47443366 -0.46620870 17 12 6701 8.90800000 2687419103 2687419103 -3.00000000
8.25461006 3.50047398 2.06999969 66 13 6702 9.20200000 2687419105 2687419105 13.00000000
8.19122410 3.47190762 -0.15529151 16 14 6703 8.89800000 2687419107 2687419107 -1.00000000
7.16858578 3.03697944 2.08608150 42 15 6704 8.06000000 2687419110 2687419110 15.00000000
2.09117651 0.88291746 -0.60822475 4 0 6711 2.35000000 2687419130 2687419130 -15.00000000
8.19298267 3.45748162 0.15522170 12 1 6712 8.89400000 2687419133 2687419133 1.00000000
2.49042463 1.05046034 -0.62401420 4 2 6713 2.77400000 2687419135 2687419135 -13.00000000
8.19648457 3.45727444 0.46620870 10 3 6713 8.90800000 2687419137 2687419137 3.00000000
2.96142173 1.24851787 -0.62470865 6 4 6714 3.27400000 2687419140 2687419140 -11.00000000
8.18504810 3.44908547 0.77708060 75 5 6715 8.91600000 2687419142 2687419142 5.00000000
3.73382926 1.57262552 -0.64169419 6 6 6716 4.10200000 2687419144 2687419144 -9.00000000
8.22030449 3.46056366 1.09511793 90 7 6717 8.98600000 2687419146 2687419146 7.00000000
5.05367231 2.12644434 -0.67320627 6 8 6718 5.52400000 2687419149 2687419149 -7.00000000
7.73381996 3.25258684 -0.73402566 13 10 6719 8.42200000 2687419153 2687419153 -5.00000000
8.18657398 3.43963742 -0.46537131 17 12 6721 8.89200000 2687419158 2687419158 -3.00000000
8.25959206 3.46862054 2.06820011 64 13 6722 9.19400000 2687419160 2687419160 13.00000000
8.18669796 3.43632817 -0.15497737 18 14 6723 8.88000000 2687419163 2687419163 -1.00000000
7.17861700 3.01319098 2.08608150 42 15 6723 8.06000000 2687419165 2687419165 15.00000000
2.08533406 0.87188655 -0.60563654 4 0 6731 2.34000000 2687419186 2687419186 -15.00000000
8.19393158 3.42423534 0.15501228 15 1 6732 8.88200000 2687419188 2687419188 1.00000000
2.48688364 1.03875637 -0.62221462 4 2 6733 2.76600000 2687419190 2687419190 -13.00000000
8.19744587 3.42402363 0.46558067 13 3 6733 8.89600000 2687419193 2687419193 3.00000000
2.96213841 1.23666024 -0.62394542 6 4 6734 3.27000000 2687419195 2687419195 -11.00000000
8.19152164 3.41819143 0.77655768 78 5 6735 8.91000000 2687419197 2687419197 5.00000000
3.74294233 1.56110322 -0.64231992 6 6 6736 4.10600000 2687419199 2687419199 -9.00000000
8.22317314 3.42802930 1.09389925 90 7 6737 8.97600000 2687419202 2687419202 7.00000000
5.05006981 2.10420966 -0.67174381 6 8 6738 5.51200000 2687419204 2687419204 -7.00000000
7.72857285 3.21867704 -0.73245686 13 10 6739 8.40400000 2687419209 2687419209 -5.00000000
8.19853020 3.41104007 -0.46537131 17 12 6741 8.89200000 2687419213 2687419213 -3.00000000
8.26445198 3.43677497 2.06640029 68 13 6742 9.18600000 2687419216 2687419216 13.00000000
8.18387127 3.40159035 -0.15469813 18 14 6743 8.86400000 2687419218 2687419218 -1.00000000
7.18247700 2.98389506 2.08401084 40 15 6744 8.05200000 2687419220 2687419220 15.00000000
2.07765532 0.86016816 -0.60253072 4 0 6751 2.32800000 2687419241 2687419241 -15.00000000
8.18920422 3.38873100 0.15469813 12 1 6752 8.86400000 2687419243 2687419243 1.00000000
2.47968960 1.02560031 -0.61951518 4 2 6753 2.75400000 2687419246 2687419246 -13.00000000
8.20255661 3.39090347 0.46516198 10 3 6754 8.88800000 2687419248 2687419248 3.00000000
2.97187996 1.22856295 -0.62509024 5 4 6754 3.27600000 2687419250 2687419250 -11.00000000
8.19419670 3.38577271 0.77568609 78 5 6755 8.90000000 2687419252 2687419252 5.00000000
3.73923993 1.54425824 -0.64075559 6 6 6756 4.09600000 2687419255 2687419255 -9.00000000
8.21306992 3.39021516 1.09097433 90 7 6757 8.95200000 2687419257 2687419257 7.00000000
5.07573462 2.09413981 -0.67418122 6 8 6758 5.53200000 2687419259 2687419259 -7.00000000
7.75081253 3.19623709 -0.73350275 13 10 6759 8.41600000 2687419264 2687419264 -5.00000000
8.18638039 3.37251091 -0.46401060 17 12 6761 8.86600000 2687419269 2687419269 -3.00000000
8.27279377 3.40642190 2.06550050 68 13 6762 9.18200000 2687419271 2687419271 13.00000000
8.19014740 3.37071943 -0.15459342 16 14 6763 8.85800000 2687419273 2687419273 -1.00000000
7.19233227 2.96006060 2.08401084 42 15 6763 8.05200000 2687419276 2687419276 15.00000000
2.09852004 0.86023796 -0.60770714 4 0 6771 2.34800000 2687419296 2687419296 -15.00000000
8.18803024 3.35481763 0.15445380 12 1 6772 8.85000000 2687419299 2687419299 1.00000000
2.47604108 1.01398420 -0.61771560 4 2 6773 2.74600000 2687419301 2687419301 -13.00000000
8.19955635 3.35619783 0.46432459 10 3 6774 8.87200000 2687419303 2687419303 3.00000000
2.98523521 1.22190022 -0.62699836 6 4 6774 3.28600000 2687419305 2687419305 -11.00000000
8.19674492 3.35337687 0.77481455 75 5 6775 8.89000000 2687419308 2687419308 5.00000000
3.75009274 1.53343952 -0.64169419 6 6 6776 4.10200000 2687419310 2687419310 -9.00000000
8.20464134 3.35326457 1.08829319 95 7 6777 8.93000000 2687419312 2687419312 7.00000000
5.07933807 2.07490826 -0.67369372 6 8 6778 5.52800000 2687419315 2687419315 -7.00000000
7.76930046 3.17217493 -0.73420000 13 10 6779 8.42400000 2687419319 2687419319 -5.00000000
8.17960930 3.33637142 -0.46296388 17 12 6781 8.84600000 2687419324 2687419324 -3.00000000
8.27019787 3.37163806 2.06190133 64 13 6782 9.16600000 2687419326 2687419326 13.00000000
8.20001125 3.34135532 -0.15455851 18 14 6783 8.85600000 2687419329 2687419329 -1.00000000
7.20671129 2.93513703 2.08504629 45 15 6784 8.05600000 2687419331 2687419331 15.00000000
2.10881972 0.85544550 -0.60977769 4 0 6792 2.35600000 2687419352 2687419352 -15.00000000
8.18729973 3.31952477 0.15420946 12 1 6793 8.83600000 2687419354 2687419354 1.00000000
2.48877120 1.00856185 -0.61996508 4 2 6794 2.75600000 2687419356 2687419356 -13.00000000
8.19514179 3.31937408 0.46338254 13 3 6795 8.85400000 2687419358 2687419358 3.00000000
2.98241496 1.20800245 -0.62547189 6 4 6795 3.27800000 2687419361 2687419361 -11.00000000
8.19974613 3.31957340 0.77394301 75 5 6796 8.88000000 2687419363 2687419363 5.00000000
3.76301265 1.52264822 -0.64294565 6 6 6797 4.11000000 2687419365 2687419365 -9.00000000
8.20951557 3.32019329 1.08731830 92 7 6798 8.92200000 2687419368 2687419368 7.00000000
5.06850481 2.04883790 -0.67125636 6 8 6799 5.50800000 2687419370 2687419370 -7.00000000
7.78087521 3.14367771 -0.73420000 13 10 6800 8.42400000 2687419375 2687419375 -5.00000000
8.18066978 3.30188394 -0.46233582 17 12 6802 8.83400000 2687419379 2687419379 -3.00000000
8.25719929 3.33109689 2.05560279 66 13 6803 9.13800000 2687419382 2687419382 13.00000000
8.18067455 3.29856563 -0.15396513 18 14 6804 8.82200000 2687419384 2687419384 -1.00000000
7.22407961 2.91285276 2.08711672 45 15 6804 8.06400000 2687419386 2687419386 15.00000000
2.10820746 0.84663928 -0.60874242 4 0 6812 2.35200000 2687419407 2687419407 -15.00000000
8.18770218 3.28645635 0.15400003 12 1 6813 8.82400000 2687419409 2687419409 1.00000000
2.50131965 1.00349617 -0.62221462 4 2 6814 2.76600000 2687419411 2687419411 -13.00000000
8.20111752 3.28851748 0.46306854 13 3 6815 8.84800000 2687419414 2687419414 3.00000000
2.98114681 1.19539249 -0.62432700 5 4 6815 3.27200000 2687419416 2687419416 -11.00000000
8.19463921 3.28426003 0.77237421 75 5 6816 8.86200000 2687419418 2687419418 5.00000000
3.77197218 1.51097262 -0.64357138 6 6 6817 4.11400000 2687419421 2687419421 -9.00000000
8.21368313 3.28856516 1.08634329 95 7 6818 8.91400000 2687419423 2687419423 7.00000000
5.07562590 2.03113317 -0.67125636 6 8 6819 5.50800000 2687419425 2687419425 -7.00000000
7.78440142 3.11353850 -0.73350275 13 10 6820 8.41600000 2687419430 2687419430 -5.00000000
8.18843651 3.27182579 -0.46212649 17 12 6822 8.83000000 2687419434 2687419434 -3.00000000
8.26877594 3.30225348 2.05560279 64 13 6823 9.13800000 2687419437 2687419437 13.00000000
8.18099594 3.26554179 -0.15375569 16 14 6824 8.81000000 2687419439 2687419439 -1.00000000
7.22394133 2.88206029 2.08401084 45 15 6825 8.05200000 2687419441 2687419441 15.00000000
2.10037875 0.83499306 -0.60563654 4 0 6832 2.34000000 2687419462 2687419462 -15.00000000
8.19354916 3.25564075 0.15389532 12 1 6833 8.81800000 2687419464 2687419464 1.00000000
2.50480723 0.99475884 -0.62221462 4 2 6834 2.76600000 2687419467 2687419467 -13.00000000
8.19955158 3.25471234 0.46233582 10 3 6835 8.83400000 2687419469 2687419469 3.00000000
2.98530149 1.18497908 -0.62432700 6 4 6835 3.27200000 2687419471 2687419471 -11.00000000
8.18753433 3.24828792 0.77063107 78 5 6836 8.84200000 2687419474 2687419474 5.00000000
3.75702429 1.48978722 -0.64012980 6 6 6837 4.09200000 2687419476 2687419476 -9.00000000
8.22511292 3.25987411 1.08634329 95 7 6838 8.91400000 2687419478 2687419478 7.00000000
5.09006691 2.01632786 -0.67223132 6 8 6839 5.51600000 2687419481 2687419481 -7.00000000
7.80077982 3.08854723 -0.73402566 13 10 6840 8.42200000 2687419485 2687419485 -5.00000000
8.19423580 3.24101925 -0.46181247 12 12 6842 8.82400000 2687419490 2687419490 -3.00000000
8.28025341 3.27337003 2.05560279 66 13 6843 9.13800000 2687419492 2687419492 13.00000000
8.18118668 3.23255587 -0.15354627 16 14 6844 8.79800000 2687419494 2687419494 -1.00000000
7.22627211 2.85524940 2.08194041 42 15 6844 8.04400000 2687419497 2687419497 15.00000000
2.11047125 0.83048588 -0.60770714 4 0 6852 2.34800000 2687419517 2687419517 -15.00000000
8.17694950 3.21604133 0.15337175 12 1 6853 8.78800000 2687419520 2687419520 1.00000000
2.49738264 0.98173171 -0.61951518 4 2 6854 2.75400000 2687419522 2687419522 -13.00000000
8.20156860 3.22241879 0.46181247 10 3 6855 8.82400000 2687419524 2687419524 3.00000000
2.99672866 1.17742288 -0.62585348 5 4 6855 3.28000000 2687419527 2687419527 -11.00000000
8.18955040 3.21604705 0.76975954 86 5 6856 8.83200000 2687419529 2687419529 5.00000000
3.76220179 1.47666359 -0.64012980 6 6 6857 4.09200000 2687419531 2687419531 -9.00000000
8.20133018 3.21736884 1.08171225 99 7 6858 8.87600000 2687419534 2687419534 7.00000000
5.10816288 2.00289583 -0.67369372 6 8 6859 5.52800000 2687419536 2687419536 -7.00000000
7.81893349 3.06420660 -0.73472291 13 10 6860 8.43000000 2687419540 2687419540 -5.00000000
8.19433975 3.20802760 -0.46118444 17 12 6862 8.81200000 2687419545 2687419545 -3.00000000
8.29525852 3.24586678 2.05650258 62 13 6863 9.14200000 2687419547 2687419547 13.00000000
8.19428253 3.20470667 -0.15358117 16 14 6864 8.80000000 2687419550 2687419550 -1.00000000
