# .PCD v0.7 - Point Cloud Data file format
VERSION 0.7
FIELDS x y z intensity laser_id azimuth distance_m adjustedtime timestamp vertical_angle
SIZE 4 4 4 1 1 2 8 8 4 8
TYPE F F F U U U F U U F
COUNT 1 1 1 1 1 1 1 1 1 1
WIDTH 535
HEIGHT 1
VIEWPOINT 0 0 0 1 0 0 0
POINTS 535
DATA ascii
3.37932253 9.90968323 2.03516865 43 11 1883 10.66600000 2211007005 2211007005 11.00000000
3.61568999 10.59676361 -0.58679074 12 12 1884 11.21200000 2211007007 2211007007 -3.00000000
3.10718322 9.10124874 2.22026682 44 13 1885 9.87000000 2211007010 2211007010 13.00000000
3.62315726 10.60653400 -0.19564147 10 14 1886 11.21000000 2211007012 2211007012 -1.00000000
2.84847832 8.33396149 2.35991216 40 15 1887 9.11800000 2211007014 2211007014 15.00000000
0.73839700 2.15055537 -0.60926002 4 0 1895 2.35400000 2211007035 2211007035 -15.00000000
3.64166379 10.60019398 0.19564147 13 1 1896 11.21000000 2211007037 2211007037 1.00000000
0.87610680 2.54873347 -0.62221462 3 2 1897 2.76600000 2211007040 2211007040 -13.00000000
3.65456367 10.62567139 0.58888417 13 3 1898 11.25200000 2211007042 2211007042 3.00000000
1.04973531 3.05211306 -0.62737995 2 4 1898 3.28800000 2211007044 2211007044 -11.00000000
3.65009642 10.60666275 0.98137367 12 5 1899 11.26000000 2211007047 2211007047 5.00000000
1.32354045 3.84384060 -0.64388424 4 6 1900 4.11600000 2211007049 2211007049 -9.00000000
3.66434121 10.63598919 1.38126719 10 7 1901 11.33400000 2211007051 2211007051 7.00000000
3.66166902 10.62221241 -1.37956095 2 8 1902 11.32000000 2211007054 2211007054 -7.00000000
3.66756725 10.63932228 1.78241432 12 9 1902 11.39400000 2211007056 2211007056 9.00000000
2.67458773 7.75437498 -0.71764040 4 10 1903 8.23400000 2211007058 2211007058 -5.00000000
3.41305876 9.88980770 2.03364229 43 11 1904 10.65800000 2211007060 2211007060 11.00000000
3.66102362 10.60231972 -0.58783746 12 12 1905 11.23200000 2211007063 2211007063 -3.00000000
3.10933757 8.99954605 2.19822168 57 13 1906 9.77200000 2211007065 2211007065 13.00000000
3.66462135 10.60074234 -0.19578110 10 14 1907 11.21800000 2211007067 2211007067 -1.00000000
0.74463189 2.14431477 -0.60822475 4 0 1915 2.35000000 2211007090 2211007090 -15.00000000
3.68126845 10.59497356 0.19578110 13 1 1916 11.21800000 2211007093 2211007093 1.00000000
0.88435829 2.54381895 -0.62176472 3 2 1917 2.76400000 2211007095 2211007095 -13.00000000
3.69163179 10.61284924 0.58888417 13 3 1918 11.25200000 2211007097 2211007097 3.00000000
1.06941271 3.07439017 -0.63272262 2 4 1918 3.31600000 2211007100 2211007100 -11.00000000
3.69888663 10.62772751 0.98451126 12 5 1919 11.29600000 2211007102 2211007102 5.00000000
1.34474552 3.86158299 -0.64763868 2 6 1920 4.14000000 2211007104 2211007104 -9.00000000
3.70144534 10.62313366 1.38126719 12 7 1921 11.33400000 2211007107 2211007107 7.00000000
3.69611120 10.60186768 -1.37858605 2 8 1922 11.31200000 2211007109 2211007109 -7.00000000
3.71044135 10.63700008 1.78429151 12 9 1923 11.40600000 2211007111 2211007111 9.00000000
2.70163918 7.74499130 -0.71764040 4 10 1923 8.23400000 2211007113 2211007113 -5.00000000
3.45014763 9.88524818 2.03516865 43 11 1924 10.66600000 2211007116 2211007116 11.00000000
3.69537640 10.58193302 -0.58741879 12 12 1925 11.22400000 2211007118 2211007118 -3.00000000
3.10602164 8.88929462 2.17392707 53 13 1926 9.66400000 2211007120 2211007120 13.00000000
3.71084166 10.61431313 -0.19626977 10 14 1927 11.24600000 2211007123 2211007123 -1.00000000
2.41560721 6.90561819 1.96029544 9 15 1928 7.57400000 2211007125 2211007125 15.00000000
0.75723314 2.15628433 -0.61236584 4 0 1935 2.36600000 2211007146 2211007146 -15.00000000
3.72618413 10.60469818 0.19619995 13 1 1936 11.24200000 2211007148 2211007148 1.00000000
0.89193982 2.53703952 -0.62086493 3 2 1937 2.76000000 2211007150 2211007150 -13.00000000
3.73395729 10.61497116 0.58972156 13 3 1938 11.26800000 2211007153 2211007153 3.00000000
1.07753193 3.06323028 -0.63119614 2 4 1938 3.30800000 2211007155 2211007155 -11.00000000
3.73794603 10.62038898 0.98503423 12 5 1939 11.30200000 2211007157 2211007157 5.00000000
1.36018515 3.86245513 -0.64857727 2 6 1940 4.14600000 2211007160 2211007160 -9.00000000
3.74510145 10.62887096 1.38370454 12 7 1941 11.35400000 2211007162 2211007162 7.00000000
3.73045588 10.58141327 -1.37761104 2 8 1942 11.30400000 2211007164 2211007164 -7.00000000
3.74897838 10.63395214 1.78585589 12 9 1942 11.41600000 2211007166 2211007166 9.00000000
2.73263454 7.74678755 -0.71868628 4 10 1943 8.24600000 2211007169 2211007169 -5.00000000
3.48528576 9.87499619 2.03555036 50 11 1944 10.66800000 2211007171 2211007171 11.00000000
3.73761225 10.58403587 -0.58825612 12 12 1945 11.24000000 2211007173 2211007173 -3.00000000
3.10132504 8.77734089 2.14918232 42 13 1946 9.55400000 2211007176 2211007176 13.00000000
3.74587035 10.59563923 -0.19616506 8 14 1947 11.24000000 2211007178 2211007178 -1.00000000
2.44428897 6.91396189 1.96495414 9 15 1947 7.59200000 2211007180 2211007180 15.00000000
0.76087666 2.14270496 -0.60926002 4 0 1955 2.35400000 2211007201 2211007201 -15.00000000
3.76719570 10.60293198 0.19640939 13 1 1956 11.25400000 2211007203 2211007203 1.00000000
0.90405405 2.54309154 -0.62311441 3 2 1957 2.77000000 2211007206 2211007206 -13.00000000
3.77366495 10.60939980 0.59014022 13 3 1958 11.27600000 2211007208 2211007208 3.00000000
1.08295465 3.04465270 -0.62814319 2 4 1958 3.29200000 2211007210 2211007210 -11.00000000
3.77766752 10.61478519 0.98573142 12 5 1959 11.31000000 2211007213 2211007213 5.00000000
1.36902082 3.84465718 -0.64638722 4 6 1960 4.13200000 2211007215 2211007215 -9.00000000
3.78884268 10.63443279 1.38614190 10 7 1961 11.37400000 2211007217 2211007217 7.00000000
3.78203344 10.60946369 -1.38297331 2 8 1962 11.34800000 2211007219 2211007219 -7.00000000
3.78726506 10.61827946 1.78554296 12 9 1963 11.41400000 2211007222 2211007222 9.00000000
2.75296593 7.71843576 -0.71694314 4 10 1963 8.22600000 2211007224 2211007224 -5.00000000
3.52171445 9.86831665 2.03669524 43 11 1964 10.67400000 2211007226 2211007226 11.00000000
3.77856445 10.58221054 -0.58888417 12 12 1965 11.25200000 2211007229 2211007229 -3.00000000
3.78283310 10.58249950 -0.19616506 8 14 1967 11.24000000 2211007233 2211007233 -1.00000000
2.46831226 6.90131855 1.96391892 6 15 1968 7.58800000 2211007236 2211007236 15.00000000
0.76890874 2.14394093 -0.61029530 4 0 1973 2.35800000 2211007256 2211007256 -15.00000000
3.80521488 10.60422039 0.19665371 13 1 1974 11.26800000 2211007259 2211007259 1.00000000
0.91467297 2.54757524 -0.62491405 3 2 1975 2.77800000 2211007261 2211007261 -13.00000000
3.81237841 10.61252975 0.59097761 10 3 1976 11.29200000 2211007263 2211007263 3.00000000
1.08985937 3.03384471 -0.62661672 2 4 1976 3.28400000 2211007266 2211007266 -11.00000000
3.81503963 10.61411476 0.98677731 12 5 1977 11.32200000 2211007268 2211007268 5.00000000
1.38911426 3.86264324 -0.65014166 4 6 1978 4.15600000 2211007270 2211007270 -9.00000000
3.82828188 10.63928795 1.38833559 10 7 1979 11.39200000 2211007272 2211007272 7.00000000
1.85858560 5.16241980 -0.67369372 2 8 1980 5.52800000 2211007275 2211007275 -7.00000000
3.82879043 10.63487434 1.79023600 12 9 1980 11.44400000 2211007277 2211007277 9.00000000
2.78260231 7.72474480 -0.71833766 8 10 1981 8.24200000 2211007279 2211007279 -5.00000000
3.55136776 9.85351086 2.03593206 43 11 1982 10.67000000 2211007282 2211007282 11.00000000
3.81450081 10.57780266 -0.58930284 12 12 1983 11.26000000 2211007284 2211007284 -3.00000000
3.01594782 8.35880280 2.05155373 9 13 1984 9.12000000 2211007286 2211007286 13.00000000
3.82352948 10.59125233 -0.19654900 10 14 1985 11.26200000 2211007289 2211007289 -1.00000000
2.49271393 6.90486717 1.96702468 11 15 1985 7.60000000 2211007291 2211007291 15.00000000
0.77243674 2.13034701 -0.60718948 4 0 1993 2.34600000 2211007312 2211007312 -15.00000000
3.84288931 10.59275341 0.19668862 13 1 1994 11.27000000 2211007314 2211007314 1.00000000
0.91558117 2.52238536 -0.61951518 3 2 1995 2.75400000 2211007316 2211007316 -13.00000000
3.85758138 10.62168407 0.59223366 10 3 1996 11.31600000 2211007319 2211007319 3.00000000
1.10044277 3.03002191 -0.62661672 2 4 1996 3.28400000 2211007321 2211007321 -11.00000000
3.85478830 10.60822296 0.98747456 12 5 1997 11.33000000 2211007323 2211007323 5.00000000
1.39583921 3.83920598 -0.64701295 4 6 1998 4.13600000 2211007325 2211007325 -9.00000000
3.86471796 10.62399483 1.38809180 12 7 1999 11.39000000 2211007328 2211007328 7.00000000
1.88474178 5.17828560 -0.67661858 2 8 2000 5.55200000 2211007330 2211007330 -7.00000000
3.86994338 10.63258266 1.79211318 12 9 2000 11.45600000 2211007332 2211007332 9.00000000
2.81023145 7.71685648 -0.71851194 8 10 2001 8.24400000 2211007335 2211007335 -5.00000000
3.58439708 9.83736420 2.03516865 40 11 2002 10.66600000 2211007337 2211007337 11.00000000
3.85824180 10.58318710 -0.59034961 12 12 2003 11.28000000 2211007339 2211007339 -3.00000000
3.05579162 8.37751675 2.05875206 9 13 2004 9.15200000 2211007342 2211007342 13.00000000
3.86733222 10.59662628 -0.19689804 10 14 2005 11.28200000 2211007344 2211007344 -1.00000000
2.52011275 6.90519762 1.96961296 15 15 2005 7.61000000 2211007346 2211007346 15.00000000
0.78385741 2.13852072 -0.61029530 4 0 2013 2.35800000 2211007367 2211007367 -15.00000000
3.88466120 10.59241581 0.19693296 13 1 2014 11.28400000 2211007369 2211007369 1.00000000
0.92975080 2.53380966 -0.62311441 3 2 2015 2.77000000 2211007372 2211007372 -13.00000000
3.89532280 10.61002922 0.59233832 10 3 2016 11.31800000 2211007374 2211007374 3.00000000
1.11777914 3.04459190 -0.63043290 2 4 2016 3.30400000 2211007376 2211007376 -11.00000000
3.89729047 10.60966492 0.98886907 12 5 2017 11.34600000 2211007378 2211007378 5.00000000
1.41059494 3.83801842 -0.64763868 4 6 2018 4.14000000 2211007381 2211007381 -9.00000000
3.90588975 10.62161827 1.38955426 12 7 2019 11.40200000 2211007383 2211007383 7.00000000
1.90006411 5.16422272 -0.67564362 2 8 2020 5.54400000 2211007385 2211007385 -7.00000000
3.91434717 10.63315678 1.79461622 12 9 2021 11.47200000 2211007388 2211007388 9.00000000
2.83715129 7.70700026 -0.71851194 4 10 2021 8.24400000 2211007390 2211007390 -5.00000000
3.62007117 9.82847691 2.03593206 46 11 2022 10.67000000 2211007392 2211007392 11.00000000
3.89377928 10.56590748 -0.59014022 12 12 2023 11.27600000 2211007395 2211007395 -3.00000000
3.91191125 10.60369968 -0.19728200 10 14 2025 11.30400000 2211007399 2211007399 -1.00000000
2.54821301 6.90723372 1.97271872 18 15 2025 7.62200000 2211007401 2211007401 15.00000000
0.79400218 2.14301753 -0.61236584 4 0 2033 2.36600000 2211007422 2211007422 -15.00000000
3.92995286 10.60129166 0.19735181 13 1 2034 11.30800000 2211007425 2211007425 1.00000000
0.93316829 2.51593208 -0.61951518 3 2 2035 2.75400000 2211007427 2211007427 -13.00000000
3.93511462 10.60385704 0.59275705 10 3 2036 11.32600000 2211007429 2211007429 3.00000000
1.12839985 3.04067159 -0.63043290 2 4 2036 3.30400000 2211007431 2211007431 -11.00000000
3.94193006 10.61654186 0.99078649 12 5 2037 11.36800000 2211007434 2211007434 5.00000000
1.42398357 3.83307123 -0.64763868 4 6 2038 4.14000000 2211007436 2211007436 -9.00000000
3.94709206 10.61908340 1.39101672 12 7 2039 11.41400000 2211007438 2211007438 7.00000000
1.91185141 5.14081383 -0.67344999 2 8 2040 5.52600000 2211007441 2211007441 -7.00000000
3.95350647 10.62498283 1.79555476 12 9 2041 11.47800000 2211007443 2211007443 9.00000000
2.86334157 7.69518232 -0.71833766 4 10 2041 8.24200000 2211007445 2211007445 -5.00000000
3.65504193 9.81762123 2.03631353 50 11 2042 10.67200000 2211007448 2211007448 11.00000000
3.93621492 10.56722355 -0.59097761 12 12 2043 11.29200000 2211007450 2211007450 -3.00000000
3.12781382 8.39249992 2.06774998 55 13 2044 9.19200000 2211007452 2211007452 13.00000000
3.94680524 10.58435917 -0.19717729 12 14 2045 11.29800000 2211007454 2211007454 -1.00000000
2.57486272 6.90146732 1.97375405 18 15 2046 7.62600000 2211007457 2211007457 15.00000000
0.79741287 2.12937808 -0.60926002 4 0 2053 2.35400000 2211007478 2211007478 -15.00000000
3.97605538 10.61185265 0.19780557 13 1 2054 11.33400000 2211007480 2211007480 1.00000000
0.94673324 2.52543235 -0.62266451 3 2 2055 2.76800000 2211007482 2211007482 -13.00000000
3.97841763 10.60688686 0.59369910 13 3 2056 11.34400000 2211007484 2211007484 3.00000000
1.13211226 3.01833224 -0.62661672 2 4 2056 3.28400000 2211007487 2211007487 -11.00000000
3.98036480 10.60644722 0.99113512 12 5 2057 11.37200000 2211007489 2211007489 5.00000000
1.44013226 3.83547449 -0.64889014 4 6 2058 4.14800000 2211007491 2211007491 -9.00000000
3.99111676 10.62382412 1.39345407 14 7 2059 11.43400000 2211007494 2211007494 7.00000000
1.93467367 5.14711571 -0.67515618 2 8 2060 5.54000000 2211007496 2211007496 -7.00000000
3.99335194 10.61851311 1.79680622 12 9 2061 11.48600000 2211007498 2211007498 9.00000000
2.88878274 7.68141079 -0.71798903 4 10 2061 8.23800000 2211007501 2211007501 -5.00000000
3.68998098 9.80663967 2.03669524 46 11 2062 10.67400000 2211007503 2211007503 11.00000000
3.98644757 10.58893394 -0.59296638 12 12 2063 11.33000000 2211007505 2211007505 -3.00000000
3.15777707 8.38335419 2.06820011 56 13 2064 9.19400000 2211007507 2211007507 13.00000000
3.98372746 10.57051754 -0.19717729 10 14 2065 11.29800000 2211007510 2211007510 -1.00000000
2.59705329 6.89108324 1.97323644 18 15 2065 7.62400000 2211007512 2211007512 15.00000000
0.80210572 2.11935449 -0.60718948 4 0 2073 2.34600000 2211007533 2211007533 -15.00000000
0.95209080 2.51300073 -0.62041503 3 2 2075 2.75800000 2211007537 2211007537 -13.00000000
4.02674532 10.62281609 0.59537381 7 3 2076 11.37600000 2211007540 2211007540 3.00000000
1.14124954 3.01069045 -0.62585348 2 4 2076 3.28000000 2211007542 2211007542 -11.00000000
4.02018976 10.59994030 0.99183238 12 5 2077 11.38000000 2211007544 2211007544 5.00000000
1.44860601 3.81749606 -0.64670008 4 6 2078 4.13400000 2211007547 2211007547 -9.00000000
4.03733635 10.63395309 1.39662266 8 7 2079 11.46000000 2211007549 2211007549 7.00000000
1.94839919 5.12919712 -0.67369372 2 8 2080 5.52800000 2211007551 2211007551 -7.00000000
4.03881454 10.62666702 1.80056071 12 9 2081 11.51000000 2211007554 2211007554 9.00000000
2.91557813 7.67128038 -0.71798903 4 10 2081 8.23800000 2211007556 2211007556 -5.00000000
3.72139883 9.78635979 2.03516865 43 11 2082 10.66600000 2211007558 2211007558 11.00000000
3.18702126 8.37228012 2.06820011 57 13 2084 9.19400000 2211007563 2211007563 13.00000000
2.62315464 6.88739204 1.97478926 20 15 2085 7.63000000 2211007567 2211007567 15.00000000
0.80912936 2.11668301 -0.60718948 4 0 2092 2.34600000 2211007588 2211007588 -15.00000000
0.96459770 2.52074981 -0.62311441 3 2 2094 2.77000000 2211007593 2211007593 -13.00000000
1.16245854 3.03622484 -0.63195938 2 4 2095 3.31200000 2211007597 2211007597 -11.00000000
1.46055043 3.81082678 -0.64638722 2 6 2097 4.13200000 2211007602 2211007602 -9.00000000
1.97677457 5.15236139 -0.67759353 2 8 2099 5.56000000 2211007606 2211007606 -7.00000000
2.94742703 7.67830992 -0.71955782 4 10 2100 8.25600000 2211007611 2211007611 -5.00000000
3.75383115 9.77396488 2.03516865 46 11 2101 10.66600000 2211007613 2211007613 11.00000000
3.21756434 8.36894131 2.06999969 57 13 2103 9.20200000 2211007618 2211007618 13.00000000
2.64875388 6.88586760 1.97685981 18 15 2104 7.63800000 2211007623 2211007623 15.00000000
0.82208174 2.12826228 -0.61133057 4 0 2112 2.36200000 2211007643 2211007643 -15.00000000
0.96776843 2.50282669 -0.61951518 3 2 2114 2.75400000 2211007648 2211007648 -13.00000000
1.16879964 3.02116251 -0.62966967 4 4 2115 3.30000000 2211007653 2211007653 -11.00000000
1.47883749 3.81859970 -0.64857727 4 6 2117 4.14600000 2211007657 2211007657 -9.00000000
1.98757231 5.12692118 -0.67515618 2 8 2119 5.54000000 2211007662 2211007662 -7.00000000
2.96844745 7.65311432 -0.71816331 8 10 2120 8.24000000 2211007666 2211007666 -5.00000000
3.78508472 9.75348091 2.03364229 43 11 2121 10.65800000 2211007669 2211007669 11.00000000
3.24111247 8.34312725 2.06640029 60 13 2123 9.18600000 2211007673 2211007673 13.00000000
2.67817521 6.88691616 1.97996569 18 15 2125 7.65000000 2211007678 2211007678 15.00000000
0.83194304 2.13272357 -0.61340111 4 0 2131 2.37000000 2211007699 2211007699 -15.00000000
0.97818929 2.50504947 -0.62086493 3 2 2133 2.76000000 2211007703 2211007703 -13.00000000
1.17738295 3.01361275 -0.62890643 2 4 2134 3.29600000 2211007708 2211007708 -11.00000000
1.49868715 3.83207154 -0.65170598 4 6 2136 4.16600000 2211007712 2211007712 -9.00000000
2.00166821 5.11290789 -0.67418122 2 8 2138 5.53200000 2211007717 2211007717 -7.00000000
3.00034976 7.65992498 -0.71973211 4 10 2139 8.25800000 2211007722 2211007722 -5.00000000
3.81884027 9.74453163 2.03440547 43 11 2140 10.66200000 2211007724 2211007724 11.00000000
3.26733828 8.32870579 2.06550050 59 13 2142 9.18200000 2211007729 2211007729 13.00000000
2.70544457 6.89285469 1.98410678 15 15 2143 7.66600000 2211007733 2211007733 15.00000000
0.83229917 2.11183357 -0.60822475 4 0 2151 2.35000000 2211007754 2211007754 -15.00000000
0.98478210 2.49618125 -0.61951518 3 2 2153 2.75400000 2211007758 2211007758 -13.00000000
1.18789518 3.00948453 -0.62890643 2 4 2154 3.29600000 2211007763 2211007763 -11.00000000
1.50479531 3.80844522 -0.64857727 2 6 2156 4.14600000 2211007768 2211007768 -9.00000000
2.01804304 5.10219765 -0.67369372 2 8 2158 5.52800000 2211007772 2211007772 -7.00000000
3.02780271 7.65125799 -0.71990645 4 10 2159 8.26000000 2211007777 2211007777 -5.00000000
3.85427713 9.73479271 2.03516865 46 11 2160 10.66600000 2211007779 2211007779 11.00000000
3.29782701 8.32087231 2.06640029 59 13 2162 9.18600000 2211007784 2211007784 13.00000000
2.73518538 6.89773560 1.98824787 13 15 2163 7.68200000 2211007788 2211007788 15.00000000
0.84252417 2.11609459 -0.61029530 4 0 2171 2.35800000 2211007809 2211007809 -15.00000000
1.00214720 2.51445174 -0.62491405 3 2 2173 2.77800000 2211007814 2211007814 -13.00000000
1.19402993 2.99437809 -0.62661672 2 4 2174 3.28400000 2211007818 2211007818 -11.00000000
1.51295400 3.79032683 -0.64638722 2 6 2176 4.13200000 2211007823 2211007823 -9.00000000
2.04909873 5.12830353 -0.67808104 2 8 2178 5.56400000 2211007828 2211007828 -7.00000000
3.04339838 7.61289167 -0.71729177 4 10 2179 8.23000000 2211007832 2211007832 -5.00000000
3.88240170 9.70669651 2.03211570 43 11 2180 10.65000000 2211007835 2211007835 11.00000000
3.32974935 8.31654739 2.06820011 57 13 2182 9.19400000 2211007839 2211007839 13.00000000
2.75901103 6.88407803 1.98721266 9 15 2184 7.67800000 2211007844 2211007844 15.00000000
0.84990561 2.11314082 -0.61029530 4 0 2191 2.35800000 2211007864 2211007864 -15.00000000
1.00655138 2.50009179 -0.62221462 3 2 2193 2.76600000 2211007869 2211007869 -13.00000000
1.21474457 3.01568675 -0.63195938 2 4 2194 3.31200000 2211007874 2211007874 -11.00000000
1.53282392 3.80151105 -0.64920300 2 6 2196 4.15000000 2211007878 2211007878 -9.00000000
2.05658555 5.09534836 -0.67466867 2 8 2198 5.53600000 2211007883 2211007883 -7.00000000
3.07442999 7.61330652 -0.71833766 4 10 2199 8.24200000 2211007888 2211007888 -5.00000000
3.91331887 9.68580437 2.03058934 43 11 2200 10.64200000 2211007890 2211007890 11.00000000
3.36022043 8.30848694 2.06909990 57 13 2202 9.19800000 2211007894 2211007894 13.00000000
2.78664899 6.88335848 1.98980081 6 15 2204 7.68800000 2211007899 2211007899 15.00000000
0.85764492 2.11001158 -0.61029530 4 0 2212 2.35800000 2211007920 2211007920 -15.00000000
1.01570797 2.49638581 -0.62221462 3 2 2214 2.76600000 2211007924 2211007924 -13.00000000
1.22578943 3.01121426 -0.63195938 4 4 2215 3.31200000 2211007929 2211007929 -11.00000000
1.54451048 3.79037952 -0.64826441 2 6 2217 4.14400000 2211007934 2211007934 -9.00000000
2.08049536 5.10064268 -0.67637485 2 8 2219 5.55000000 2211007938 2211007938 -7.00000000
3.11134720 7.62412357 -0.72042936 4 10 2220 8.26600000 2211007943 2211007943 -5.00000000
3.95027709 9.67503166 2.03135252 46 11 2221 10.64600000 2211007945 2211007945 11.00000000
3.38770103 8.28889942 2.06730008 60 13 2223 9.19000000 2211007950 2211007950 13.00000000
3.05910349 7.47744513 2.16476250 29 15 2225 8.36400000 2211007954 2211007954 15.00000000
0.86500502 2.10700488 -0.61029530 4 0 2232 2.35800000 2211007975 2211007975 -15.00000000
1.02293432 2.48922014 -0.62131482 3 2 2234 2.76200000 2211007980 2211007980 -13.00000000
1.23032069 2.99239087 -0.62890643 2 4 2235 3.29600000 2211007984 2211007984 -11.00000000
1.56073928 3.79227185 -0.64951593 2 6 2237 4.15200000 2211007989 2211007989 -9.00000000
2.09450650 5.08417225 -0.67515618 2 8 2239 5.54000000 2211007994 2211007994 -7.00000000
3.14249682 7.62426853 -0.72147524 4 10 2240 8.27800000 2211007998 2211007998 -5.00000000
3.98701906 9.66844368 2.03287911 43 11 2241 10.65400000 2211008000 2211008000 11.00000000
3.41215277 8.26621532 2.06460071 59 13 2243 9.17800000 2211008005 2211008005 13.00000000
3.06969380 7.42922688 2.15389204 22 15 2245 8.32200000 2211008010 2211008010 15.00000000
0.87162012 2.10427713 -0.61029530 4 0 2250 2.35800000 2211008030 2211008030 -15.00000000
1.03224218 2.48959470 -0.62221462 3 2 2252 2.76600000 2211008035 2211008035 -13.00000000
1.23369741 2.97400379 -0.62585348 4 4 2253 3.28000000 2211008040 2211008040 -11.00000000
1.57794809 3.80012035 -0.65170598 2 6 2255 4.16600000 2211008044 2211008044 -9.00000000
2.11427808 5.08673239 -0.67637485 2 8 2257 5.55000000 2211008049 2211008049 -7.00000000
3.16719866 7.61619806 -0.72164953 4 10 2258 8.28000000 2211008053 2211008053 -5.00000000
4.01661968 9.65405750 2.03249741 37 11 2259 10.65200000 2211008056 2211008056 11.00000000
3.43810511 8.25545502 2.06460071 59 13 2261 9.17800000 2211008060 2211008060 13.00000000
2.96763802 7.12228441 2.06744647 6 15 2262 7.98800000 2211008065 2211008065 15.00000000
0.87746906 2.09765744 -0.60926002 4 0 2270 2.35400000 2211008086 2211008086 -15.00000000
1.04694736 2.50035644 -0.62581384 3 2 2272 2.78200000 2211008090 2211008090 -13.00000000
1.25317407 2.99140859 -0.63043290 4 4 2273 3.30400000 2211008095 2211008095 -11.00000000
1.59578669 3.80551934 -0.65358317 2 6 2275 4.17800000 2211008099 2211008099 -9.00000000
2.13739920 5.09213400 -0.67808104 2 8 2277 5.56400000 2211008104 2211008104 -7.00000000
3.19299340 7.60325909 -0.72147524 4 10 2278 8.27800000 2211008109 2211008109 -5.00000000
3.46690106 8.24340343 2.06460071 59 13 2281 9.17800000 2211008116 2211008116 13.00000000
3.02970123 7.19682407 2.09229326 20 15 2283 8.08400000 2211008120 2211008120 15.00000000
0.88177902 2.08746314 -0.60718948 4 0 2290 2.34600000 2211008141 2211008141 -15.00000000
1.05111527 2.48591733 -0.62311441 3 2 2292 2.77000000 2211008146 2211008146 -13.00000000
1.26207864 2.98339963 -0.62966967 4 4 2293 3.30000000 2211008150 2211008150 -11.00000000
1.59365571 3.76354551 -0.64732581 2 6 2295 4.13800000 2211008155 2211008155 -9.00000000
2.15825987 5.09195280 -0.67905599 2 8 2297 5.57200000 2211008159 2211008159 -7.00000000
3.22106981 7.59573603 -0.72182387 4 10 2298 8.28200000 2211008164 2211008164 -5.00000000
3.49870157 8.23842621 2.06640029 60 13 2301 9.18600000 2211008171 2211008171 13.00000000
3.02937555 7.12984085 2.07572865 9 15 2302 8.02000000 2211008176 2211008176 15.00000000
0.89512372 2.09858823 -0.61133057 4 0 2310 2.36200000 2211008196 2211008196 -15.00000000
1.05672562 2.47506428 -0.62131482 3 2 2312 2.76200000 2211008201 2211008201 -13.00000000
1.27711213 2.98980856 -0.63195938 2 4 2313 3.31200000 2211008205 2211008205 -11.00000000
1.60833633 3.76159239 -0.64795154 2 6 2315 4.14200000 2211008210 2211008210 -9.00000000
2.16508603 5.05883837 -0.67564362 2 8 2317 5.54400000 2211008215 2211008215 -7.00000000
3.24364305 7.57528830 -0.72095233 4 10 2318 8.27200000 2211008219 2211008219 -5.00000000
4.47466373 10.44520664 2.20880485 59 11 2319 11.57600000 2211008222 2211008222 11.00000000
3.52436590 8.21899986 2.06460071 59 13 2321 9.17800000 2211008226 2211008226 13.00000000
3.06386900 7.13821745 2.08142281 27 15 2323 8.04200000 2211008231 2211008231 15.00000000
0.90207797 2.09560823 -0.61133057 4 0 2329 2.36200000 2211008252 2211008252 -15.00000000
1.06801200 2.47870517 -0.62311441 3 2 2331 2.77000000 2211008256 2211008256 -13.00000000
1.28391099 2.97834563 -0.63043290 4 4 2332 3.30400000 2211008261 2211008261 -11.00000000
1.62706232 3.77074814 -0.65045452 2 6 2334 4.15800000 2211008265 2211008265 -9.00000000
2.17240477 5.02976227 -0.67271876 2 8 2336 5.52000000 2211008270 2211008270 -7.00000000
3.26163292 7.54802990 -0.71938348 4 10 2337 8.25400000 2211008275 2211008275 -5.00000000
4.51706743 10.44833088 2.21262121 56 11 2338 11.59600000 2211008277 2211008277 11.00000000
3.55005383 8.20369053 2.06370091 62 13 2340 9.17400000 2211008282 2211008282 13.00000000
3.08781433 7.13210249 2.08245802 42 15 2341 8.04600000 2211008286 2211008286 15.00000000
0.90938753 2.09244680 -0.61133057 4 0 2349 2.36200000 2211008307 2211008307 -15.00000000
1.07821250 2.47853589 -0.62401420 3 2 2351 2.77400000 2211008311 2211008311 -13.00000000
1.28959870 2.96304488 -0.62814319 4 4 2352 3.29200000 2211008316 2211008316 -11.00000000
1.63232541 3.74693561 -0.64732581 2 6 2354 4.13800000 2211008321 2211008321 -9.00000000
2.20264387 5.05126238 -0.67661858 2 8 2356 5.55200000 2211008325 2211008325 -7.00000000
3.29752111 7.55851269 -0.72147524 4 10 2357 8.27800000 2211008330 2211008330 -5.00000000
4.56136465 10.45049381 2.21643734 56 11 2358 11.61600000 2211008332 2211008332 11.00000000
3.57710791 8.18767643 2.06280112 59 13 2360 9.17000000 2211008337 2211008337 13.00000000
3.11393404 7.12073708 2.08245802 40 15 2362 8.04600000 2211008341 2211008341 15.00000000
0.91047645 2.07510710 -0.60718948 4 0 2369 2.34600000 2211008362 2211008362 -15.00000000
1.08999205 2.48189402 -0.62581384 3 2 2371 2.78200000 2211008367 2211008367 -13.00000000
1.30467224 2.96930981 -0.63043290 2 4 2372 3.30400000 2211008371 2211008371 -11.00000000
1.65016627 3.75206423 -0.64920300 2 6 2374 4.15000000 2211008376 2211008376 -9.00000000
2.21226478 5.02537441 -0.67418122 2 8 2376 5.53200000 2211008381 2211008381 -7.00000000
3.32388496 7.54695606 -0.72147524 4 10 2377 8.27800000 2211008385 2211008385 -5.00000000
4.60573244 10.45247364 2.22025347 53 11 2378 11.63600000 2211008387 2211008387 11.00000000
3.60566664 8.17514038 2.06280112 60 13 2380 9.17000000 2211008392 2211008392 13.00000000
3.13285089 7.09976721 2.07935214 40 15 2381 8.03400000 2211008397 2211008397 15.00000000
0.92240852 2.08251429 -0.61029530 4 0 2389 2.35800000 2211008417 2211008417 -15.00000000
1.09548950 2.47094822 -0.62401420 3 2 2391 2.77400000 2211008422 2211008422 -13.00000000
1.31662118 2.96832681 -0.63119614 4 4 2392 3.30800000 2211008427 2211008427 -11.00000000
1.65844393 3.73544860 -0.64732581 2 6 2394 4.13800000 2211008431 2211008431 -9.00000000
2.24027300 5.04120398 -0.67734981 2 8 2396 5.55800000 2211008436 2211008436 -7.00000000
3.35182738 7.53894854 -0.72182387 8 10 2397 8.28200000 2211008440 2211008440 -5.00000000
4.64219046 10.43633270 2.22025347 53 11 2398 11.63600000 2211008443 2211008443 11.00000000
3.63576627 8.16606522 2.06370091 59 13 2400 9.17400000 2211008447 2211008447 13.00000000
3.16121078 7.09353065 2.08090520 42 15 2402 8.04000000 2211008452 2211008452 15.00000000
0.93319046 2.08617353 -0.61236584 4 0 2410 2.36600000 2211008473 2211008473 -15.00000000
1.09657514 2.44913054 -0.61951518 3 2 2412 2.75400000 2211008477 2211008477 -13.00000000
1.32749176 2.96348119 -0.63119614 4 4 2413 3.30800000 2211008482 2211008482 -11.00000000
1.67697299 3.74015999 -0.64920300 2 6 2415 4.15000000 2211008487 2211008487 -9.00000000
2.25467086 5.02390385 -0.67613113 2 8 2417 5.54800000 2211008491 2211008491 -7.00000000
3.38025260 7.52843046 -0.72199816 4 10 2418 8.28400000 2211008496 2211008496 -5.00000000
4.69006395 10.44073868 2.22483277 59 11 2419 11.66000000 2211008498 2211008498 11.00000000
3.66247559 8.14557457 2.06190133 59 13 2421 9.16600000 2211008503 2211008503 13.00000000
3.18516016 7.08069134 2.08038759 40 15 2422 8.03800000 2211008507 2211008507 15.00000000
0.93887693 2.07938194 -0.61133057 4 0 2430 2.36200000 2211008528 2211008528 -15.00000000
1.10993278 2.45594263 -0.62221462 3 2 2432 2.76600000 2211008533 2211008533 -13.00000000
1.33863699 2.96061826 -0.63157779 4 4 2433 3.31000000 2211008537 2211008537 -11.00000000
2.27219391 5.01600313 -0.67613113 2 8 2437 5.54800000 2211008546 2211008546 -7.00000000
3.41062331 7.52565908 -0.72286975 4 10 2438 8.29400000 2211008551 2211008551 -5.00000000
4.73296595 10.43860817 2.22788572 56 11 2439 11.67600000 2211008553 2211008553 11.00000000
3.68605447 8.12209320 2.05920196 60 13 2441 9.15400000 2211008558 2211008558 13.00000000
3.21508551 7.07776403 2.08297563 40 15 2443 8.04800000 2211008563 2211008563 15.00000000
0.94416559 2.07274103 -0.61029530 4 0 2449 2.35800000 2211008583 2211008583 -15.00000000
1.12130463 2.45934105 -0.62401420 3 2 2451 2.77400000 2211008588 2211008588 -13.00000000
1.34355879 2.94544578 -0.62928808 4 4 2452 3.29800000 2211008593 2211008593 -11.00000000
1.70075154 3.72506475 -0.64857727 2 6 2454 4.14600000 2211008597 2211008597 -9.00000000
2.29376554 5.01927328 -0.67759353 2 8 2456 5.56000000 2211008602 2211008602 -7.00000000
3.44053125 7.52517939 -0.72391558 4 10 2457 8.30600000 2211008606 2211008606 -5.00000000
4.77817202 10.44606495 2.23284698 59 11 2458 11.70200000 2211008609 2211008609 11.00000000
3.71783543 8.12045670 2.06190133 59 13 2460 9.16600000 2211008613 2211008613 13.00000000
3.23569608 7.06411552 2.08194041 42 15 2461 8.04400000 2211008618 2211008618 15.00000000
0.94816726 2.06241155 -0.60822475 4 0 2469 2.35000000 2211008639 2211008639 -15.00000000
1.13314104 2.46249318 -0.62581384 3 2 2471 2.78200000 2211008643 2211008643 -13.00000000
1.35465312 2.94252110 -0.62966967 4 4 2472 3.30000000 2211008648 2211008648 -11.00000000
1.72201109 3.73704600 -0.65170598 2 6 2474 4.16600000 2211008652 2211008652 -9.00000000
2.31293488 5.01484156 -0.67808104 2 8 2476 5.56400000 2211008657 2211008657 -7.00000000
3.47011709 7.52036047 -0.72461283 4 10 2477 8.31400000 2211008662 2211008662 -5.00000000
4.42209768 9.57907677 2.05081511 15 11 2478 10.74800000 2211008664 2211008664 11.00000000
3.74615836 8.10742950 2.06190133 60 13 2480 9.16600000 2211008669 2211008669 13.00000000
3.25709224 7.04576397 2.07986975 40 15 2481 8.03600000 2211008673 2211008673 15.00000000
0.95825231 2.06626630 -0.61029530 4 0 2488 2.35800000 2211008694 2211008694 -15.00000000
1.13473678 2.44458127 -0.62221462 3 2 2490 2.76600000 2211008699 2211008699 -13.00000000
1.37101877 2.95225763 -0.63272262 2 4 2491 3.31600000 2211008703 2211008703 -11.00000000
1.72273707 3.70623660 -0.64732581 2 6 2493 4.13800000 2211008708 2211008708 -9.00000000
2.32871461 5.00534391 -0.67783731 2 8 2495 5.56200000 2211008712 2211008712 -7.00000000
3.48662877 7.49074841 -0.72286975 4 10 2496 8.29400000 2211008717 2211008717 -5.00000000
4.85330868 10.42219830 2.23475504 37 11 2497 11.71200000 2211008719 2211008719 11.00000000
3.77302313 8.09496212 2.06190133 60 13 2499 9.16600000 2211008724 2211008724 13.00000000
3.28043890 7.03492403 2.07986975 42 15 2500 8.03600000 2211008728 2211008728 15.00000000
0.96873462 2.06990767 -0.61236584 4 0 2508 2.36600000 2211008749 2211008749 -15.00000000
1.13830316 2.43001699 -0.61951518 3 2 2510 2.75400000 2211008754 2211008754 -13.00000000
1.37964940 2.94389844 -0.63195938 2 4 2511 3.31200000 2211008758 2211008758 -11.00000000
1.73398602 3.69662380 -0.64670008 2 6 2513 4.13400000 2211008763 2211008763 -9.00000000
2.35039067 5.00616932 -0.67905599 2 8 2515 5.57200000 2211008768 2211008768 -7.00000000
3.51021409 7.47312212 -0.72234678 4 10 2516 8.28800000 2211008772 2211008772 -5.00000000
4.90218401 10.43184566 2.24047923 56 11 2517 11.74200000 2211008775 2211008775 11.00000000
3.79959798 8.07821560 2.06100154 62 13 2519 9.16200000 2211008779 2211008779 13.00000000
3.31113839 7.03334045 2.08297563 40 15 2521 8.04800000 2211008784 2211008784 15.00000000
0.97430408 2.06301975 -0.61133057 4 0 2528 2.36200000 2211008805 2211008805 -15.00000000
1.15010977 2.43307614 -0.62131482 3 2 2530 2.76200000 2211008809 2211008809 -13.00000000
1.38991714 2.93906474 -0.63195938 4 4 2531 3.31200000 2211008814 2211008814 -11.00000000
1.76040113 3.71911597 -0.65170598 2 6 2533 4.16600000 2211008818 2211008818 -9.00000000
2.35510230 4.97102499 -0.67539990 2 8 2535 5.54200000 2211008823 2211008823 -7.00000000
3.54907894 7.48782969 -0.72496146 8 10 2536 8.31800000 2211008828 2211008828 -5.00000000
4.95370960 10.44660091 2.24734831 59 11 2537 11.77800000 2211008830 2211008830 11.00000000
3.82108831 8.05081940 2.05740237 59 13 2539 9.14600000 2211008834 2211008834 13.00000000
3.33278632 7.01883173 2.08194041 42 15 2540 8.04400000 2211008839 2211008839 15.00000000
0.98233050 2.06135011 -0.61184824 4 0 2548 2.36400000 2211008860 2211008860 -15.00000000
1.16362953 2.43959999 -0.62401420 3 2 2550 2.77400000 2211008864 2211008864 -13.00000000
1.39847696 2.93065143 -0.63119614 4 4 2551 3.30800000 2211008869 2211008869 -11.00000000
1.77166975 3.70938325 -0.65108025 2 6 2553 4.16200000 2211008874 2211008874 -9.00000000
2.38528275 4.98963881 -0.67905599 2 8 2555 5.57200000 2211008878 2211008878 -7.00000000
3.57261586 7.47000313 -0.72443855 8 10 2556 8.31200000 2211008883 2211008883 -5.00000000
4.99777079 10.44518471 2.25078297 56 11 2557 11.79600000 2211008885 2211008885 11.00000000
3.84916759 8.03743267 2.05740237 59 13 2559 9.14600000 2211008890 2211008890 13.00000000
3.35559678 7.00367069 2.08090520 42 15 2560 8.04000000 2211008894 2211008894 15.00000000
0.98294574 2.04606462 -0.60822475 4 0 2566 2.35000000 2211008916 2211008916 -15.00000000
1.17297697 2.43944502 -0.62491405 3 2 2568 2.77800000 2211008921 2211008921 -13.00000000
1.41108119 2.93332028 -0.63272262 2 4 2569 3.31600000 2211008925 2211008925 -11.00000000
1.77988660 3.69667983 -0.64982879 2 6 2571 4.15400000 2211008930 2211008930 -9.00000000
2.40094638 4.98212051 -0.67905599 2 8 2573 5.57200000 2211008934 2211008934 -7.00000000
3.59000897 7.44617987 -0.72321838 8 10 2574 8.29800000 2211008939 2211008939 -5.00000000
5.03738403 10.44357872 2.25383592 56 11 2575 11.81200000 2211008941 2211008941 11.00000000
3.87609339 8.02881050 2.05830216 59 13 2577 9.15000000 2211008946 2211008946 13.00000000
3.37422204 6.98613596 2.07883453 42 15 2578 8.03200000 2211008951 2211008951 15.00000000
0.99176705 2.04609776 -0.60926002 4 0 2586 2.35400000 2211008971 2211008971 -15.00000000
1.18318629 2.43884230 -0.62581384 3 2 2588 2.78200000 2211008976 2211008976 -13.00000000
1.41959739 2.92484450 -0.63195938 2 4 2589 3.31200000 2211008981 2211008981 -11.00000000
1.79105330 3.68689084 -0.64920300 2 6 2591 4.15000000 2211008985 2211008985 -9.00000000
2.42179465 4.98085022 -0.68003094 2 8 2593 5.58000000 2211008990 2211008990 -7.00000000
3.62207985 7.44614458 -0.72443855 8 10 2594 8.31200000 2211008994 2211008994 -5.00000000
5.07552671 10.42946148 2.25459909 59 11 2595 11.81600000 2211008997 2211008997 11.00000000
3.90409565 8.01523113 2.05830216 60 13 2597 9.15000000 2211009001 2211009001 13.00000000
3.40319109 6.98066807 2.08090520 42 15 2599 8.04000000 2211009006 2211009006 15.00000000
1.00229800 2.04956532 -0.61133057 4 0 2606 2.36200000 2211009027 2211009027 -15.00000000
1.18826532 2.42769599 -0.62401420 4 2 2608 2.77400000 2211009031 2211009031 -13.00000000
1.44015920 2.94102979 -0.63653880 2 4 2609 3.33600000 2211009036 2211009036 -11.00000000
1.80912817 3.69125915 -0.65108025 2 6 2611 4.16200000 2211009040 2211009040 -9.00000000
2.43392086 4.96167278 -0.67856848 2 8 2613 5.56800000 2211009045 2211009045 -7.00000000
3.65419412 7.44597626 -0.72565871 8 10 2614 8.32600000 2211009050 2211009050 -5.00000000
5.11968851 10.42754173 2.25803375 59 11 2615 11.83400000 2211009052 2211009052 11.00000000
3.92517447 7.98756266 2.05470300 64 13 2617 9.13400000 2211009057 2211009057 13.00000000
3.42887807 6.97454500 2.08245802 45 15 2618 8.04600000 2211009061 2211009061 15.00000000
1.00773668 2.04258919 -0.61029530 4 0 2626 2.35800000 2211009082 2211009082 -15.00000000
1.19673240 2.42353344 -0.62401420 3 2 2628 2.77400000 2211009086 2211009086 -13.00000000
1.43998182 2.91486263 -0.63195938 4 4 2629 3.31200000 2211009091 2211009091 -11.00000000
1.81674874 3.67429709 -0.64920300 2 6 2631 4.15000000 2211009096 2211009096 -9.00000000
2.44946456 4.94958830 -0.67808104 2 8 2633 5.56400000 2211009100 2211009100 -7.00000000
3.68635130 7.44567394 -0.72687888 4 10 2634 8.34000000 2211009105 2211009105 -5.00000000
5.16738462 10.43247795 2.26299477 59 11 2635 11.86000000 2211009107 2211009107 11.00000000
3.94957018 7.96682882 2.05290341 56 13 2637 9.12600000 2211009112 2211009112 13.00000000
3.45406127 6.96426439 2.08297563 45 15 2638 8.04800000 2211009116 2211009116 15.00000000
1.01313901 2.03559995 -0.60926002 4 0 2646 2.35400000 2211009137 2211009137 -15.00000000
1.20518482 2.41934133 -0.62401420 3 2 2648 2.77400000 2211009142 2211009142 -13.00000000
1.44314229 2.89576125 -0.62890643 4 4 2649 3.29600000 2211009146 2211009146 -11.00000000
1.84014392 3.68914533 -0.65295744 2 6 2651 4.17400000 2211009151 2211009151 -9.00000000
2.46672678 4.94100809 -0.67808104 2 8 2653 5.56400000 2211009156 2211009156 -7.00000000
3.70786786 7.42384863 -0.72600734 8 10 2654 8.33000000 2211009160 2211009160 -5.00000000
5.21693230 10.44071960 2.26871896 59 11 2655 11.89000000 2211009163 2211009163 11.00000000
3.97038221 7.93905020 2.04930401 14 13 2657 9.11000000 2211009167 2211009167 13.00000000
3.47610450 6.94464779 2.08090520 45 15 2659 8.04000000 2211009172 2211009172 15.00000000
1.02197206 2.03550410 -0.61029530 4 0 2666 2.35800000 2211009192 2211009192 -15.00000000
1.21362245 2.41511965 -0.62401420 3 2 2668 2.77400000 2211009197 2211009197 -13.00000000
1.47087801 2.92578745 -0.63653880 2 4 2669 3.33600000 2211009202 2211009202 -11.00000000
1.85301030 3.68269944 -0.65295744 2 6 2671 4.17400000 2211009206 2211009206 -9.00000000
2.48842359 4.94123220 -0.67929971 2 8 2673 5.57400000 2211009211 2211009211 -7.00000000
3.73107004 7.40552282 -0.72548443 8 10 2674 8.32400000 2211009216 2211009216 -5.00000000
5.26129818 10.43822384 2.27215362 62 11 2675 11.90800000 2211009218 2211009218 11.00000000
4.57035208 9.05954266 2.34264016 59 13 2677 10.41400000 2211009222 2211009222 13.00000000
3.49858332 6.92902231 2.07986975 45 15 2679 8.03600000 2211009227 2211009227 15.00000000
1.02767932 2.02829814 -0.60926002 4 0 2687 2.35400000 2211009248 2211009248 -15.00000000
1.22070348 2.40717912 -0.62311441 3 2 2689 2.77000000 2211009252 2211009252 -13.00000000
1.47270930 2.90286851 -0.63272262 4 4 2690 3.31600000 2211009257 2211009257 -11.00000000
1.85397482 3.65122461 -0.64857727 2 6 2692 4.14600000 2211009262 2211009262 -9.00000000
2.51281285 4.94446611 -0.68100590 4 8 2694 5.58800000 2211009266 2211009266 -7.00000000
3.76179934 7.39890194 -0.72618163 8 10 2695 8.33200000 2211009271 2211009271 -5.00000000
5.29952097 10.41887093 2.27215362 62 11 2696 11.90800000 2211009273 2211009273 11.00000000
4.60264206 9.04099369 2.34219027 55 13 2698 10.41200000 2211009278 2211009278 13.00000000
3.52044773 6.90926790 2.07779932 45 15 2700 8.02800000 2211009282 2211009282 15.00000000
1.03475320 2.02469850 -0.60926002 4 0 2707 2.35400000 2211009303 2211009303 -15.00000000
1.22909868 2.40290332 -0.62311441 3 2 2709 2.77000000 2211009308 2211009308 -13.00000000
1.48819923 2.90819645 -0.63501233 2 4 2710 3.32800000 2211009312 2211009312 -11.00000000
1.87661397 3.66407084 -0.65201885 2 6 2712 4.16800000 2211009317 2211009317 -9.00000000
2.52643466 4.92859888 -0.68003094 4 8 2714 5.58000000 2211009322 2211009322 -7.00000000
3.78033018 7.37154293 -0.72478718 17 10 2715 8.31600000 2211009326 2211009326 -5.00000000
5.35019588 10.42825699 2.27825952 62 11 2716 11.94000000 2211009328 2211009328 11.00000000
4.63506317 9.02660656 2.34264016 51 13 2718 10.41400000 2211009333 2211009333 13.00000000
3.54807639 6.90381002 2.07986975 42 15 2720 8.03600000 2211009338 2211009338 15.00000000
1.05349243 2.04548192 -0.61650699 4 0 2725 2.38200000 2211009358 2211009358 -15.00000000
1.24021304 2.40595889 -0.62491405 3 2 2727 2.77800000 2211009363 2211009363 -13.00000000
1.49192929 2.89303732 -0.63272262 4 4 2728 3.31600000 2211009368 2211009368 -11.00000000
1.89536381 3.67219996 -0.65452182 2 6 2730 4.18400000 2211009372 2211009372 -9.00000000
2.54190588 4.92063761 -0.68003094 4 8 2732 5.58000000 2211009377 2211009377 -7.00000000
3.81719089 7.38617992 -0.72740185 8 10 2733 8.34600000 2211009381 2211009381 -5.00000000
5.39375067 10.43232441 2.28283882 65 11 2734 11.96400000 2211009384 2211009384 11.00000000
4.66339827 9.01200008 2.34264016 57 13 2736 10.41400000 2211009388 2211009388 13.00000000
3.57387352 6.90354586 2.08297563 45 15 2737 8.04800000 2211009393 2211009393 15.00000000
1.05528295 2.03150606 -0.61340111 4 0 2745 2.37000000 2211009414 2211009414 -15.00000000
1.24500811 2.39469886 -0.62311441 3 2 2747 2.77000000 2211009418 2211009418 -13.00000000
1.49658322 2.87736154 -0.63043290 4 4 2748 3.30400000 2211009423 2211009423 -11.00000000
1.90817058 3.66556168 -0.65452182 4 6 2750 4.18400000 2211009427 2211009427 -9.00000000
2.55906677 4.91173458 -0.68003094 4 8 2752 5.58000000 2211009432 2211009432 -7.00000000
3.84202933 7.37104368 -0.72722751 8 10 2753 8.34400000 2211009437 2211009437 -5.00000000
5.44465733 10.44128609 2.28894472 65 11 2754 11.99600000 2211009439 2211009439 11.00000000
4.69663095 8.99912262 2.34354019 55 13 2756 10.41800000 2211009444 2211009444 13.00000000
3.59468031 6.88183880 2.08038759 45 15 2758 8.03800000 2211009448 2211009448 15.00000000
1.05519569 2.01412034 -0.60926002 4 0 2765 2.35400000 2211009469 2211009469 -15.00000000
1.26150417 2.40587139 -0.62716353 3 2 2767 2.78800000 2211009474 2211009474 -13.00000000
1.51300192 2.88428998 -0.63310426 4 4 2768 3.31800000 2211009478 2211009478 -11.00000000
1.91728127 3.65188265 -0.65327030 2 6 2770 4.17600000 2211009483 2211009483 -9.00000000
2.58081317 4.91155815 -0.68124962 4 8 2772 5.59000000 2211009487 2211009487 -7.00000000
3.86958981 7.36111498 -0.72757614 8 10 2773 8.34800000 2211009492 2211009492 -5.00000000
4.72983027 8.98612213 2.34443998 56 13 2776 10.42200000 2211009499 2211009499 13.00000000
3.61388111 6.86304331 2.07831693 45 15 2777 8.03000000 2211009504 2211009504 15.00000000
1.06402481 2.01384091 -0.61029530 4 0 2785 2.35800000 2211009524 2211009524 -15.00000000
1.26716173 2.39628506 -0.62581384 3 2 2787 2.78200000 2211009529 2211009529 -13.00000000
1.52397883 2.88072634 -0.63348585 4 4 2788 3.32000000 2211009533 2211009533 -11.00000000
1.92447102 3.63469315 -0.65139312 2 6 2790 4.16400000 2211009538 2211009538 -9.00000000
2.59236503 4.89199543 -0.67978722 4 8 2792 5.57800000 2211009543 2211009543 -7.00000000
3.89712763 7.35108328 -0.72792476 8 10 2793 8.35200000 2211009547 2211009547 -5.00000000
4.76299620 8.97299957 2.34533978 57 13 2796 10.42600000 2211009554 2211009554 13.00000000
3.64263654 6.85657597 2.08038759 45 15 2798 8.03800000 2211009559 2211009559 15.00000000
1.07251334 2.01371145 -0.61133057 4 0 2804 2.36200000 2211009580 2211009580 -15.00000000
1.27143431 2.38519120 -0.62401420 3 2 2806 2.77400000 2211009584 2211009584 -13.00000000
1.53537095 2.87912154 -0.63424909 4 4 2807 3.32400000 2211009589 2211009589 -11.00000000
1.93465328 3.62480593 -0.65076739 2 6 2809 4.16000000 2211009593 2211009593 -9.00000000
2.60389662 4.87461710 -0.67856848 4 8 2811 5.56800000 2211009598 2211009598 -7.00000000
3.92430043 7.34339094 -0.72844768 8 10 2812 8.35800000 2211009603 2211009603 -5.00000000
4.78904819 8.95028305 2.34354019 57 13 2815 10.41800000 2211009610 2211009610 13.00000000
3.66507077 6.84680128 2.08090520 42 15 2816 8.04000000 2211009614 2211009614 15.00000000
1.08502054 2.02016687 -0.61443639 4 0 2824 2.37400000 2211009635 2211009635 -15.00000000
1.27975249 2.38073850 -0.62401420 3 2 2826 2.77400000 2211009639 2211009639 -13.00000000
1.54541159 2.87374449 -0.63424909 4 4 2827 3.32400000 2211009644 2211009644 -11.00000000
1.94823062 3.61977029 -0.65108025 2 6 2829 4.16200000 2211009649 2211009649 -9.00000000
2.62372041 4.87074089 -0.67929971 4 8 2831 5.57400000 2211009653 2211009653 -7.00000000
3.95841646 7.34543324 -0.73001653 4 10 2832 8.37600000 2211009658 2211009658 -5.00000000
4.81470919 8.92322159 2.34084058 60 13 2835 10.40600000 2211009665 2211009665 13.00000000
3.69014096 6.83332253 2.08090520 42 15 2837 8.04000000 2211009669 2211009669 15.00000000
1.08286536 1.99938011 -0.60926002 4 0 2844 2.35400000 2211009690 2211009690 -15.00000000
1.29362702 2.38653636 -0.62671363 3 2 2846 2.78600000 2211009695 2211009695 -13.00000000
1.54981816 2.85797739 -0.63195938 4 4 2847 3.31200000 2211009699 2211009699 -11.00000000
1.97593033 3.64072609 -0.65608615 2 6 2849 4.19400000 2211009704 2211009704 -9.00000000
2.64070654 4.86155272 -0.67929971 4 8 2851 5.57400000 2211009709 2211009709 -7.00000000
3.98308134 7.32982063 -0.72984219 4 10 2852 8.37400000 2211009713 2211009713 -5.00000000
4.84769011 8.90978432 2.34174037 56 13 2855 10.41000000 2211009720 2211009720 13.00000000
3.70723939 6.81086731 2.07779932 45 15 2856 8.02800000 2211009725 2211009725 15.00000000
1.09168983 1.99897897 -0.61029530 4 0 2864 2.35800000 2211009745 2211009745 -15.00000000
1.30008042 2.37858605 -0.62581384 3 2 2866 2.78200000 2211009750 2211009750 -13.00000000
1.56166863 2.85599518 -0.63272262 2 4 2867 3.31600000 2211009755 2211009755 -11.00000000
1.97155702 3.60261512 -0.65045452 2 6 2869 4.15800000 2211009759 2211009759 -9.00000000
2.67101073 4.87668037 -0.68271208 4 8 2871 5.60200000 2211009764 2211009764 -7.00000000
4.00002623 7.30014658 -0.72827339 4 10 2872 8.35600000 2211009768 2211009768 -5.00000000
4.88063622 8.89622498 2.34264016 57 13 2875 10.41400000 2211009775 2211009775 13.00000000
3.73403716 6.80062056 2.07883453 40 15 2877 8.03200000 2211009780 2211009780 15.00000000
1.09866095 1.99515605 -0.61029530 4 0 2884 2.35800000 2211009801 2211009801 -15.00000000
1.31025648 2.37744689 -0.62671363 3 2 2886 2.78600000 2211009805 2211009805 -13.00000000
1.58489919 2.87459612 -0.63806528 2 4 2887 3.34400000 2211009810 2211009810 -11.00000000
1.99461842 3.61473608 -0.65389609 2 6 2889 4.18000000 2211009815 2211009815 -9.00000000
2.68897700 4.86906481 -0.68295580 6 8 2891 5.60400000 2211009819 2211009819 -7.00000000
4.03126526 7.29660320 -0.72931927 4 10 2892 8.36800000 2211009824 2211009824 -5.00000000
4.91166019 8.87913418 2.34264016 57 13 2895 10.41400000 2211009831 2211009831 13.00000000
3.75843906 6.79158115 2.07986975 42 15 2896 8.03600000 2211009835 2211009835 15.00000000
1.11124516 2.00144291 -0.61340111 4 0 2904 2.37000000 2211009856 2211009856 -15.00000000
1.31665421 2.36945200 -0.62581384 3 2 2906 2.78200000 2211009861 2211009861 -13.00000000
1.58347690 2.84845519 -0.63348585 2 4 2907 3.32000000 2211009865 2211009865 -11.00000000
2.00146174 3.59739447 -0.65201885 2 6 2909 4.16800000 2211009870 2211009870 -9.00000000
2.70016241 4.84924269 -0.68149334 6 8 2911 5.59200000 2211009874 2211009874 -7.00000000
4.07028437 7.30685472 -0.73175961 4 10 2912 8.39600000 2211009879 2211009879 -5.00000000
4.94072580 8.85853195 2.34174037 57 13 2915 10.41000000 2211009886 2211009886 13.00000000
3.78142309 6.77438641 2.07883453 42 15 2917 8.03200000 2211009891 2211009891 15.00000000
1.11822474 1.99755168 -0.61340111 4 0 2924 2.37000000 2211009911 2211009911 -15.00000000
1.32110715 2.35804105 -0.62401420 3 2 2926 2.77400000 2211009916 2211009916 -13.00000000
1.59533000 2.84633565 -0.63424909 2 4 2927 3.32400000 2211009921 2211009921 -11.00000000
2.01883888 3.59900022 -0.65358317 2 6 2929 4.17800000 2211009925 2211009925 -9.00000000
2.71124244 4.82940197 -0.68003094 6 8 2931 5.58000000 2211009930 2211009930 -7.00000000
4.09283876 7.28739071 -0.73123670 4 10 2932 8.39000000 2211009934 2211009934 -5.00000000
4.97161770 8.84123135 2.34174037 56 13 2935 10.41000000 2211009941 2211009941 13.00000000
3.80576110 6.76517677 2.07986975 42 15 2936 8.03600000 2211009946 2211009946 15.00000000
1.12329161 1.99027133 -0.61236584 4 0 2944 2.36600000 2211009967 2211009967 -15.00000000
