# .PCD v0.7 - Point Cloud Data file format
VERSION 0.7
FIELDS x y z intensity laser_id azimuth distance_m adjustedtime timestamp vertical_angle
SIZE 4 4 4 1 1 2 8 8 4 8
TYPE F F F U U U F U U F
COUNT 1 1 1 1 1 1 1 1 1 1
WIDTH 524
HEIGHT 1
VIEWPOINT 0 0 0 1 0 0 0
POINTS 524
DATA ascii
-2.79345536 3.71377921 -0.57059228 4 8 32305 4.68200000 2211191466 2211191466 -7.00000000
-3.94537663 5.24711514 -0.57435632 4 10 32306 6.59000000 2211191471 2211191471 -5.00000000
-6.52425241 8.68317413 -0.56920588 4 12 32308 10.87600000 2211191475 2211191475 -3.00000000
-6.63228798 8.83016872 2.54959536 56 13 32309 11.33400000 2211191478 2211191478 13.00000000
-5.72636747 7.62957811 2.55609679 42 15 32311 9.87600000 2211191482 2211191482 15.00000000
-1.27555919 1.70445478 -0.57043719 4 0 32319 2.20400000 2211191503 2211191503 -15.00000000
-1.48451173 1.98511004 -0.57227546 4 2 32321 2.54400000 2211191508 2211191508 -13.00000000
-1.76558125 2.36181951 -0.57319021 4 4 32322 3.00400000 2211191512 2211191512 -11.00000000
-2.15395498 2.88344574 -0.57004720 1 6 32324 3.64400000 2211191517 2211191517 -9.00000000
-2.78813720 3.73512816 -0.57229841 2 8 32326 4.69600000 2211191522 2211191522 -7.00000000
-3.94041705 5.28070211 -0.57644808 4 10 32327 6.61400000 2211191526 2211191526 -5.00000000
-6.51387310 8.73584938 -0.57108998 4 12 32329 10.91200000 2211191531 2211191531 -3.00000000
-6.59289169 8.84504318 2.54689574 57 13 32330 11.32200000 2211191533 2211191533 13.00000000
-5.69970036 7.64952040 2.55609679 40 15 32331 9.87600000 2211191538 2211191538 15.00000000
-1.27651429 1.71820128 -0.57354301 4 0 32339 2.21600000 2211191558 2211191558 -15.00000000
-1.47989655 1.99340916 -0.57317531 4 2 32341 2.54800000 2211191563 2211191563 -13.00000000
-1.75498629 2.36481524 -0.57242697 4 4 32342 3.00000000 2211191568 2211191568 -11.00000000
-2.15799689 2.90998721 -0.57380164 1 6 32344 3.66800000 2211191572 2211191572 -9.00000000
-2.77508211 3.74483776 -0.57229841 2 8 32346 4.69600000 2211191577 2211191577 -7.00000000
-3.91840196 5.28962183 -0.57592517 4 10 32347 6.60800000 2211191581 2211191581 -5.00000000
-6.50710583 8.79063988 -0.57318342 4 12 32349 10.95200000 2211191586 2211191586 -3.00000000
-6.55734015 8.86173630 2.54509616 55 13 32350 11.31400000 2211191588 2211191588 13.00000000
-5.67392206 7.67346621 2.55713224 42 15 32352 9.88000000 2211191593 2211191593 15.00000000
-1.26163399 1.70998871 -0.56940192 4 0 32358 2.20000000 2211191614 2211191614 -15.00000000
-1.47327805 1.99830580 -0.57317531 4 2 32360 2.54800000 2211191618 2211191618 -13.00000000
-1.74014604 2.36113930 -0.57013726 3 4 32361 2.98800000 2211191623 2211191623 -11.00000000
-2.14599228 2.91394615 -0.57317591 1 6 32363 3.66400000 2211191628 2211191628 -9.00000000
-2.77441454 3.77000785 -0.57473582 2 8 32365 4.71600000 2211191632 2211191632 -7.00000000
-3.90556216 5.30900621 -0.57662237 4 10 32366 6.61600000 2211191637 2211191637 -5.00000000
-6.48028517 8.81538773 -0.57339275 4 12 32368 10.95600000 2211191641 2211191641 -3.00000000
-6.53253317 8.88971424 2.54689574 56 13 32369 11.32200000 2211191644 2211191644 13.00000000
-5.64406872 7.68346882 2.55454397 40 15 32370 9.87000000 2211191648 2211191648 15.00000000
-1.25565732 1.71438217 -0.56940192 4 0 32378 2.20000000 2211191669 2211191669 -15.00000000
-1.46974647 2.00815392 -0.57452500 4 2 32380 2.55400000 2211191674 2211191674 -13.00000000
-1.73884892 2.37670612 -0.57242697 2 4 32381 3.00000000 2211191678 2211191678 -11.00000000
-2.13580751 2.92141938 -0.57317591 1 6 32383 3.66400000 2211191683 2211191683 -9.00000000
-2.76006675 3.77806640 -0.57449210 2 8 32385 4.71400000 2211191687 2211191687 -7.00000000
-3.88935637 5.32582474 -0.57697099 4 10 32386 6.62000000 2211191692 2211191692 -5.00000000
-6.48008490 8.87990189 -0.57611418 4 12 32388 11.00800000 2211191697 2211191697 -3.00000000
-6.50605631 8.91876030 2.54869556 56 13 32389 11.33000000 2211191699 2211191699 13.00000000
-5.61359358 7.70098162 2.55350876 40 15 32391 9.86600000 2211191704 2211191704 15.00000000
-1.24966538 1.71875477 -0.56940192 4 0 32398 2.20000000 2211191724 2211191724 -15.00000000
-1.46158230 2.01169562 -0.57407510 4 2 32400 2.55200000 2211191729 2211191729 -13.00000000
-1.73054206 2.38276124 -0.57242697 4 4 32401 3.00000000 2211191734 2211191734 -11.00000000
-2.12791753 2.93205428 -0.57380164 1 6 32403 3.66800000 2211191738 2211191738 -9.00000000
-2.75035834 3.79249883 -0.57522333 2 8 32405 4.72000000 2211191743 2211191743 -7.00000000
-3.87074208 5.33936882 -0.57697099 4 10 32406 6.62000000 2211191747 2211191747 -5.00000000
-6.44436216 8.89599800 -0.57569551 4 12 32408 11.00000000 2211191752 2211191752 -3.00000000
-6.47945642 8.94773006 2.55049515 55 13 32409 11.33800000 2211191754 2211191754 13.00000000
-5.58802557 7.71955442 2.55350876 40 15 32410 9.86600000 2211191759 2211191759 15.00000000
-1.25496411 1.73877108 -0.57457829 4 0 32418 2.22000000 2211191780 2211191780 -15.00000000
-1.44885170 2.00888228 -0.57182556 4 2 32420 2.54200000 2211191784 2211191784 -13.00000000
-1.72910297 2.39834261 -0.57471669 2 4 32421 3.01200000 2211191789 2211191789 -11.00000000
-2.11536050 2.93625879 -0.57317591 1 6 32423 3.66400000 2211191793 2211191793 -9.00000000
-2.74290228 3.81013155 -0.57644200 2 8 32425 4.73000000 2211191798 2211191798 -7.00000000
-3.85324454 5.35446501 -0.57714534 4 10 32426 6.62200000 2211191803 2211191803 -5.00000000
-6.42959452 8.94114017 -0.57716095 4 12 32428 11.02800000 2211191807 2211191807 -3.00000000
-6.43453407 8.95130444 2.54509616 60 13 32429 11.31400000 2211191810 2211191810 13.00000000
-5.56329966 7.74215078 2.55454397 40 15 32430 9.87000000 2211191814 2211191814 15.00000000
-1.24663675 1.74000037 -0.57354301 4 0 32438 2.21600000 2211191835 2211191835 -15.00000000
-1.44750261 2.02185011 -0.57407510 4 2 32440 2.55200000 2211191840 2211191840 -13.00000000
-1.71615040 2.39797759 -0.57319021 4 4 32441 3.00400000 2211191844 2211191844 -11.00000000
-2.12003589 2.96451306 -0.57724315 1 6 32443 3.69000000 2211191849 2211191849 -9.00000000
-2.71458149 3.79868674 -0.57327342 2 8 32445 4.70400000 2211191853 2211191853 -7.00000000
-3.86927390 5.41651964 -0.58237469 4 10 32446 6.68200000 2211191858 2211191858 -5.00000000
-6.40182638 8.96840572 -0.57747495 4 12 32448 11.03400000 2211191863 2211191863 -3.00000000
-6.40324879 8.97371101 2.54509616 60 13 32449 11.31400000 2211191865 2211191865 13.00000000
-5.53399706 7.75837755 2.55350876 40 15 32450 9.86600000 2211191869 2211191869 15.00000000
-1.23271799 1.73332107 -0.56991953 4 0 32458 2.20200000 2211191890 2211191890 -15.00000000
-1.44269395 2.03006744 -0.57497489 4 2 32460 2.55600000 2211191895 2211191895 -13.00000000
-1.70322144 2.39755154 -0.57166374 3 4 32461 2.99600000 2211191899 2211191899 -11.00000000
-2.10167074 2.96061993 -0.57505310 1 6 32463 3.67600000 2211191904 2211191904 -9.00000000
-2.71623588 3.82918763 -0.57644200 2 8 32465 4.73000000 2211191909 2211191909 -7.00000000
-3.84573340 5.42349148 -0.58167744 4 10 32466 6.67400000 2211191913 2211191913 -5.00000000
-6.39011145 9.01840115 -0.57925439 4 12 32468 11.06800000 2211191918 2211191918 -3.00000000
-6.36963320 8.99282742 2.54419637 57 13 32469 11.31000000 2211191920 2211191920 13.00000000
-4.84704876 6.84826612 2.24810219 38 15 32471 8.68600000 2211191925 2211191925 15.00000000
-1.22331774 1.73287892 -0.56836665 4 0 32478 2.19600000 2211191946 2211191946 -15.00000000
-1.43784547 2.03827596 -0.57587469 4 2 32480 2.56000000 2211191950 2211191950 -13.00000000
-1.70163047 2.41310906 -0.57395345 2 4 32481 3.00800000 2211191955 2211191955 -11.00000000
-2.10952878 2.99377418 -0.58005899 1 6 32483 3.70800000 2211191959 2211191959 -9.00000000
-2.69942427 3.83377647 -0.57571077 2 8 32485 4.72400000 2211191964 2211191964 -7.00000000
-3.82448483 5.43362427 -0.58132881 4 10 32486 6.67000000 2211191969 2211191969 -5.00000000
-6.37238073 9.06025600 -0.58051044 4 12 32488 11.09200000 2211191973 2211191973 -3.00000000
-6.34044504 9.01819515 2.54509616 55 13 32489 11.31400000 2211191975 2211191975 13.00000000
-4.81320429 6.84849644 2.24292588 42 15 32490 8.66600000 2211191980 2211191980 15.00000000
-1.21726131 1.73713851 -0.56836665 4 0 32498 2.19600000 2211192001 2211192001 -15.00000000
-1.42401528 2.03370452 -0.57317531 4 2 32500 2.54800000 2211192005 2211192005 -13.00000000
-1.70445478 2.43511820 -0.57776964 2 4 32501 3.02800000 2211192010 2211192010 -11.00000000
-2.08774376 2.98493242 -0.57693028 1 6 32503 3.68800000 2211192015 2211192015 -9.00000000
-2.69512296 3.85619235 -0.57766068 2 8 32505 4.74000000 2211192019 2211192019 -7.00000000
-3.79864836 5.43714142 -0.58028293 4 10 32506 6.65800000 2211192024 2211192024 -5.00000000
-6.34071541 9.08244419 -0.58051044 8 12 32508 11.09200000 2211192028 2211192028 -3.00000000
-6.30558157 9.03547764 2.54374647 54 13 32509 11.30800000 2211192031 2211192031 13.00000000
-4.79147959 6.86842489 2.24396110 40 15 32510 8.67000000 2211192035 2211192035 15.00000000
-1.21780872 1.75089264 -0.57147247 4 0 32518 2.20800000 2211192056 2211192056 -15.00000000
-1.41913199 2.04186344 -0.57407510 4 2 32520 2.55200000 2211192061 2211192061 -13.00000000
-1.68698287 2.42815447 -0.57471669 2 4 32521 3.01200000 2211192065 2211192065 -11.00000000
-2.07505870 2.98895645 -0.57630455 1 6 32523 3.68400000 2211192070 2211192070 -9.00000000
-2.68843484 3.87536287 -0.57912314 2 8 32525 4.75200000 2211192074 2211192074 -7.00000000
-3.79440570 5.47165203 -0.58254898 4 10 32526 6.68400000 2211192079 2211192079 -5.00000000
-6.30442286 9.09795570 -0.58009171 8 12 32528 11.08400000 2211192084 2211192084 -3.00000000
-6.27067423 9.05262756 2.54239678 57 13 32529 11.30200000 2211192086 2211192086 13.00000000
-4.76747513 6.88510847 2.24396110 40 15 32530 8.67000000 2211192091 2211192091 15.00000000
-1.21388459 1.75831258 -0.57250774 4 0 32538 2.21200000 2211192111 2211192111 -15.00000000
-1.41420913 2.05001283 -0.57497489 4 2 32540 2.55600000 2211192116 2211192116 -13.00000000
-1.67849672 2.43402815 -0.57471669 2 4 32541 3.01200000 2211192121 2211192121 -11.00000000
-2.06685424 2.99943471 -0.57693028 1 6 32543 3.68800000 2211192125 2211192125 -9.00000000
-2.66813636 3.87491393 -0.57766068 8 8 32545 4.74000000 2211192130 2211192130 -7.00000000
-3.77528310 5.48486376 -0.58254898 4 10 32546 6.68400000 2211192134 2211192134 -5.00000000
-6.28620863 9.13965416 -0.58134782 8 12 32548 11.10800000 2211192139 2211192139 -3.00000000
-6.23241234 9.06482601 2.53969741 56 13 32549 11.29000000 2211192141 2211192141 13.00000000
-4.74220800 6.90253592 2.24396110 38 15 32551 8.67000000 2211192146 2211192146 15.00000000
-1.20992362 1.76572633 -0.57354301 4 0 32558 2.21600000 2211192167 2211192167 -15.00000000
-1.41254950 2.06297660 -0.57722443 4 2 32560 2.56600000 2211192171 2211192171 -13.00000000
-1.66999018 2.43987250 -0.57471669 2 4 32561 3.01200000 2211192176 2211192176 -11.00000000
-2.05414152 3.00337005 -0.57630455 1 6 32563 3.68400000 2211192180 2211192180 -9.00000000
-2.65907431 3.89075947 -0.57863563 10 8 32565 4.74800000 2211192185 2211192185 -7.00000000
-3.75723815 5.49965382 -0.58272332 8 10 32566 6.68600000 2211192190 2211192190 -5.00000000
-6.27003241 9.18463516 -0.58281320 4 12 32568 11.13600000 2211192194 2211192194 -3.00000000
-6.20732260 9.09618378 2.54239678 56 13 32569 11.30200000 2211192197 2211192197 13.00000000
-4.71711493 6.91503191 2.24292588 40 15 32570 8.66600000 2211192201 2211192201 15.00000000
-1.19506133 1.75715959 -0.56940192 4 0 32578 2.20000000 2211192222 2211192222 -15.00000000
-1.40862584 2.07272983 -0.57857412 4 2 32580 2.57200000 2211192226 2211192226 -13.00000000
-1.66587615 2.45218277 -0.57624316 2 4 32581 3.02000000 2211192231 2211192231 -11.00000000
-2.05030203 3.02032828 -0.57818180 1 6 32583 3.69600000 2211192236 2211192236 -9.00000000
-2.65104866 3.90823150 -0.57985431 4 8 32585 4.75800000 2211192240 2211192240 -7.00000000
-3.72124553 5.48799992 -0.58010864 8 10 32586 6.65600000 2211192245 2211192245 -5.00000000
-6.24913692 9.22300053 -0.58385992 4 12 32588 11.15600000 2211192250 2211192250 -3.00000000
-6.17771912 9.12102318 2.54329658 59 13 32589 11.30600000 2211192252 2211192252 13.00000000
-4.68861580 6.92505693 2.24085522 40 15 32590 8.65800000 2211192256 2211192256 15.00000000
-1.19169796 1.76410699 -0.57043719 4 0 32596 2.20400000 2211192277 2211192277 -15.00000000
-1.39774609 2.07068419 -0.57677448 4 2 32598 2.56400000 2211192282 2211192282 -13.00000000
-1.65377164 2.45089459 -0.57471669 4 4 32599 3.01200000 2211192286 2211192286 -11.00000000
-2.02313399 3.00054908 -0.57317591 1 6 32601 3.66400000 2211192291 2211192291 -9.00000000
-2.63542986 3.91160202 -0.57912314 2 8 32603 4.75200000 2211192296 2211192296 -7.00000000
-3.71734190 5.51949406 -0.58220035 8 10 32604 6.68000000 2211192300 2211192300 -5.00000000
-6.23462772 9.26412773 -0.58522063 4 12 32606 11.18200000 2211192305 2211192305 -3.00000000
-6.15120935 9.14361954 2.54419637 56 13 32607 11.31000000 2211192307 2211192307 13.00000000
-4.66562605 6.94056654 2.24085522 40 15 32609 8.65800000 2211192312 2211192312 15.00000000
-1.18983603 1.77467442 -0.57250774 4 0 32616 2.21200000 2211192332 2211192332 -15.00000000
-1.38617098 2.06907463 -0.57497489 4 2 32618 2.55600000 2211192337 2211192337 -13.00000000
-1.65613067 2.47296476 -0.57853287 2 4 32619 3.03200000 2211192342 2211192342 -11.00000000
-2.03242278 3.03714347 -0.57880753 1 6 32621 3.70000000 2211192346 2211192346 -9.00000000
-2.62396669 3.92407775 -0.57961059 2 8 32623 4.75600000 2211192351 2211192351 -7.00000000
-3.72573256 5.57384682 -0.58655816 8 10 32624 6.73000000 2211192356 2211192356 -5.00000000
-6.20779848 9.29413795 -0.58574402 8 12 32626 11.19200000 2211192360 2211192360 -3.00000000
-6.11709070 9.16179466 2.54329658 56 13 32627 11.30600000 2211192362 2211192362 13.00000000
-4.64565897 6.96323872 2.24292588 40 15 32629 8.66600000 2211192367 2211192367 15.00000000
-1.18760312 1.78545749 -0.57457829 4 0 32637 2.22000000 2211192388 2211192388 -15.00000000
-1.37642074 2.07089543 -0.57407510 4 2 32639 2.55200000 2211192392 2211192392 -13.00000000
-1.63836420 2.46593618 -0.57547992 2 4 32640 3.01600000 2211192397 2211192397 -11.00000000
-2.02564764 3.05115509 -0.58005899 1 6 32642 3.70800000 2211192402 2211192402 -9.00000000
-2.61395621 3.94028544 -0.58058554 2 8 32644 4.76400000 2211192406 2211192406 -7.00000000
-3.69096375 5.56587887 -0.58429211 4 10 32645 6.70400000 2211192411 2211192411 -5.00000000
-6.17810488 9.32348824 -0.58616269 8 12 32647 11.20000000 2211192415 2211192415 -3.00000000
-6.08131742 9.18090439 2.54239678 57 13 32648 11.30200000 2211192418 2211192418 13.00000000
-4.62010622 6.98021889 2.24292588 40 15 32650 8.66600000 2211192422 2211192422 15.00000000
-1.18349206 1.79281664 -0.57561356 4 0 32657 2.22400000 2211192443 2211192443 -15.00000000
-1.37347567 2.08219433 -0.57587469 4 2 32659 2.56000000 2211192448 2211192448 -13.00000000
-1.63190794 2.47491837 -0.57624316 4 4 32660 3.02000000 2211192452 2211192452 -11.00000000
-2.02150583 3.06810427 -0.58193618 2 6 32662 3.72000000 2211192457 2211192457 -9.00000000
-2.59145331 3.93612170 -0.57863563 2 8 32664 4.74800000 2211192462 2211192462 -7.00000000
-3.69889569 5.62033606 -0.58864987 4 10 32665 6.75400000 2211192466 2211192466 -5.00000000
-6.16088629 9.36835957 -0.58762813 8 12 32667 11.22800000 2211192471 2211192471 -3.00000000
-6.04923344 9.20207596 2.54239678 57 13 32668 11.30200000 2211192473 2211192473 13.00000000
-4.59040928 6.98823023 2.24033761 42 15 32670 8.65600000 2211192478 2211192478 15.00000000
-1.17087483 1.78724122 -0.57250774 4 0 32677 2.21200000 2211192498 2211192498 -15.00000000
-1.37580514 2.10165000 -0.57992381 4 2 32679 2.57800000 2211192503 2211192503 -13.00000000
-1.62325895 2.48059964 -0.57624316 2 4 32680 3.02000000 2211192508 2211192508 -11.00000000
-2.00645947 3.06852889 -0.58068472 1 6 32682 3.71200000 2211192512 2211192512 -9.00000000
-2.58312678 3.95345283 -0.57985431 2 8 32684 4.75800000 2211192517 2211192517 -7.00000000
-3.65964341 5.60318756 -0.58551228 4 10 32685 6.71800000 2211192521 2211192521 -5.00000000
-6.13906288 9.40653324 -0.58867484 8 12 32687 11.24800000 2211192526 2211192526 -3.00000000
-6.02133417 9.22966385 2.54419637 57 13 32688 11.31000000 2211192528 2211192528 13.00000000
-4.56298923 6.99694157 2.23826718 45 15 32689 8.64800000 2211192533 2211192533 15.00000000
-1.16673505 1.79455662 -0.57354301 4 0 32697 2.21600000 2211192554 2211192554 -15.00000000
-1.36315238 2.09826875 -0.57767433 4 2 32699 2.56800000 2211192558 2211192558 -13.00000000
-1.62314427 2.49942303 -0.57929611 4 4 32700 3.03600000 2211192563 2211192563 -11.00000000
-1.98068213 3.05231500 -0.57630455 1 6 32702 3.68400000 2211192567 2211192567 -9.00000000
-2.57255101 3.96744227 -0.58058554 2 8 32704 4.76400000 2211192572 2211192572 -7.00000000
-3.64439702 5.62261534 -0.58620954 4 10 32705 6.72600000 2211192577 2211192577 -5.00000000
-6.11161900 9.43628788 -0.58919817 4 12 32707 11.25800000 2211192581 2211192581 -3.00000000
-5.99543428 9.26044083 2.54689574 59 13 32708 11.32200000 2211192584 2211192584 13.00000000
-4.53941202 7.01686287 2.23930240 42 15 32710 8.65200000 2211192588 2211192588 15.00000000
-1.16318738 1.80145907 -0.57457829 4 0 32715 2.22000000 2211192609 2211192609 -15.00000000
-1.35338426 2.09762836 -0.57632458 4 2 32717 2.56200000 2211192614 2211192614 -13.00000000
-1.61315584 2.50120997 -0.57853287 4 4 32718 3.03200000 2211192618 2211192618 -11.00000000
-1.97108328 3.05852246 -0.57630455 1 6 32720 3.68400000 2211192623 2211192623 -9.00000000
-2.55362558 3.96549058 -0.57912314 2 8 32722 4.75200000 2211192627 2211192627 -7.00000000
-3.65583253 5.67926979 -0.59091592 4 10 32723 6.78000000 2211192632 2211192632 -5.00000000
-6.09490967 9.47559834 -0.59045428 8 12 32725 11.28200000 2211192637 2211192637 -3.00000000
-5.96209669 9.27267361 2.54509616 57 13 32726 11.31400000 2211192639 2211192639 13.00000000
-4.51961756 7.03192568 2.23982000 45 15 32727 8.65400000 2211192644 2211192644 15.00000000
-1.15480757 1.80225527 -0.57354301 4 0 32735 2.21600000 2211192664 2211192664 -15.00000000
-1.35025704 2.10890460 -0.57812423 3 2 32737 2.57000000 2211192669 2211192669 -13.00000000
-1.59594858 2.49359727 -0.57547992 4 4 32738 3.01600000 2211192673 2211192673 -11.00000000
-1.97529483 3.08868241 -0.58068472 1 6 32740 3.71200000 2211192678 2211192678 -9.00000000
-2.55900860 4.00448942 -0.58351040 2 8 32742 4.78800000 2211192683 2211192683 -7.00000000
-3.62633276 5.67688513 -0.58934712 4 10 32743 6.76200000 2211192687 2211192687 -5.00000000
-6.06716967 9.50523376 -0.59097761 8 12 32745 11.29200000 2211192692 2211192692 -3.00000000
-5.92549992 9.28685760 2.54329658 57 13 32746 11.30600000 2211192694 2211192694 13.00000000
-4.49381351 7.04844379 2.23982000 45 15 32748 8.65400000 2211192699 2211192699 15.00000000
-1.14819419 1.80647576 -0.57354301 4 0 32756 2.21600000 2211192720 2211192720 -15.00000000
-1.34042895 2.11054921 -0.57722443 3 2 32758 2.56600000 2211192724 2211192724 -13.00000000
-1.59311199 2.50937462 -0.57776964 4 4 32759 3.02800000 2211192729 2211192729 -11.00000000
-1.96396101 3.09590149 -0.58068472 1 6 32761 3.71200000 2211192733 2211192733 -9.00000000
-2.52943516 3.99036884 -0.58009809 2 8 32763 4.76000000 2211192738 2211192738 -7.00000000
-3.59483767 5.67330837 -0.58760405 4 10 32764 6.74200000 2211192743 2211192743 -5.00000000
-6.04511118 9.54765606 -0.59223366 8 12 32766 11.31600000 2211192747 2211192747 -3.00000000
-5.89767504 9.31839371 2.54599595 57 13 32767 11.31800000 2211192750 2211192750 13.00000000
-4.46505117 7.05755711 2.23774958 45 15 32768 8.64600000 2211192754 2211192754 15.00000000
-1.14188147 1.81047261 -0.57354301 4 0 32776 2.21600000 2211192775 2211192775 -15.00000000
-1.33720970 2.12180996 -0.57902402 3 2 32778 2.57400000 2211192779 2211192779 -13.00000000
-1.57597113 2.50163126 -0.57471669 4 4 32779 3.01200000 2211192784 2211192784 -11.00000000
-1.94893301 3.09605122 -0.57943326 1 6 32781 3.70400000 2211192789 2211192789 -9.00000000
-2.52606010 4.01597738 -0.58253545 2 8 32783 4.78000000 2211192793 2211192793 -7.00000000
-3.59622264 5.71955585 -0.59109026 4 10 32784 6.78200000 2211192798 2211192798 -5.00000000
-6.02980995 9.59744930 -0.59401309 8 12 32786 11.35000000 2211192802 2211192802 -3.00000000
-5.86925745 9.34552479 2.54779553 62 13 32787 11.32600000 2211192805 2211192805 13.00000000
-4.43607330 7.06896591 2.23619652 45 15 32789 8.64000000 2211192809 2211192809 15.00000000
-1.13350499 1.81117237 -0.57250774 4 0 32796 2.21200000 2211192830 2211192830 -15.00000000
-1.32772851 2.12316036 -0.57812423 3 2 32798 2.57000000 2211192835 2211192835 -13.00000000
-1.57555449 2.52043533 -0.57776964 4 4 32799 3.02800000 2211192839 2211192839 -11.00000000
-1.94334638 3.11121249 -0.58099759 1 6 32801 3.71400000 2211192844 2211192844 -9.00000000
-2.52043486 4.03824234 -0.58448535 2 8 32803 4.79600000 2211192849 2211192849 -7.00000000
-3.56568933 5.71517038 -0.58934712 4 10 32804 6.76200000 2211192853 2211192853 -5.00000000
-6.00683784 9.63538837 -0.59505981 4 12 32806 11.37000000 2211192858 2211192858 -3.00000000
-5.83866119 9.36926270 2.54869556 59 13 32807 11.33000000 2211192860 2211192860 13.00000000
-4.41158581 7.08199787 2.23567891 45 15 32808 8.63800000 2211192865 2211192865 15.00000000
-1.12717593 1.81511796 -0.57250774 4 0 32816 2.21200000 2211192885 2211192885 -15.00000000
-1.32236409 2.13109374 -0.57902402 3 2 32818 2.57400000 2211192890 2211192890 -13.00000000
-1.57088625 2.53259325 -0.57929611 4 4 32819 3.03600000 2211192895 2211192895 -11.00000000
-1.93247437 3.11797690 -0.58099759 1 6 32821 3.71400000 2211192899 2211192899 -9.00000000
-2.51468468 4.06051683 -0.58643526 2 8 32823 4.81200000 2211192904 2211192904 -7.00000000
-3.55201030 5.73774672 -0.59039301 4 10 32824 6.77400000 2211192908 2211192908 -5.00000000
-5.99313068 9.68857002 -0.59704858 4 12 32826 11.40800000 2211192913 2211192913 -3.00000000
-5.80592060 9.38958645 2.54869556 62 13 32827 11.33000000 2211192915 2211192915 13.00000000
-4.38763046 7.10140657 2.23671412 45 15 32829 8.64200000 2211192920 2211192920 15.00000000
-1.12894046 1.83219910 -0.57664883 4 0 32836 2.22800000 2211192941 2211192941 -15.00000000
-1.31491721 2.13569665 -0.57902402 3 2 32838 2.57400000 2211192945 2211192945 -13.00000000
-1.56409431 2.54140520 -0.58005935 2 4 32839 3.04000000 2211192950 2211192950 -11.00000000
-1.92157876 3.12470365 -0.58099759 1 6 32841 3.71400000 2211192955 2211192955 -9.00000000
-2.49425983 4.05912256 -0.58497286 2 8 32843 4.80000000 2211192959 2211192959 -7.00000000
-3.55281615 5.78406429 -0.59387922 4 10 32844 6.81400000 2211192964 2211192964 -5.00000000
-5.97181177 9.72985744 -0.59830463 4 12 32846 11.43200000 2211192968 2211192968 -3.00000000
-5.76495695 9.39650726 2.54509616 60 13 32847 11.31400000 2211192971 2211192971 13.00000000
-4.36809683 7.12250471 2.23878479 45 15 32848 8.65000000 2211192975 2211192975 15.00000000
-1.12052262 1.83283222 -0.57561356 4 0 32856 2.22400000 2211192996 2211192996 -15.00000000
-1.30745423 2.14027357 -0.57902402 3 2 32858 2.57400000 2211193001 2211193001 -13.00000000
-1.55726004 2.55020046 -0.58082259 2 4 32859 3.04400000 2211193005 2211193005 -11.00000000
-1.92712224 3.15837240 -0.58600348 2 6 32861 3.74600000 2211193010 2211193010 -9.00000000
-2.48420930 4.07458401 -0.58594781 2 8 32863 4.80800000 2211193014 2211193014 -7.00000000
-3.52223563 5.77941751 -0.59213614 4 10 32864 6.79400000 2211193019 2211193019 -5.00000000
-5.94716120 9.76599598 -0.59924668 4 12 32866 11.45000000 2211193024 2211193024 -3.00000000
-5.73212194 9.41657352 2.54509616 62 13 32867 11.31400000 2211193026 2211193026 13.00000000
-4.33393097 7.12526274 2.23464370 45 15 32869 8.63400000 2211193031 2211193031 15.00000000
-1.10441661 1.82002234 -0.57043719 4 0 32875 2.20400000 2211193051 2211193051 -15.00000000
-1.30439115 2.15126276 -0.58082360 3 2 32877 2.58200000 2211193056 2211193056 -13.00000000
-1.54268909 2.54527688 -0.57853287 2 4 32878 3.03200000 2211193061 2211193061 -11.00000000
-1.91356814 3.15967655 -0.58506489 2 6 32880 3.74000000 2211193065 2211193065 -9.00000000
-2.47685027 4.09298944 -0.58741021 2 8 32882 4.82000000 2211193070 2211193070 -7.00000000
-3.49480128 5.77742767 -0.59074163 4 10 32883 6.77800000 2211193074 2211193074 -5.00000000
-5.93747234 9.82326794 -0.60154951 4 12 32885 11.49400000 2211193079 2211193079 -3.00000000
-5.70489502 9.44220161 2.54689574 57 13 32886 11.32200000 2211193081 2211193081 13.00000000
-4.30353498 7.12561369 2.23050261 45 15 32887 8.61800000 2211193086 2211193086 15.00000000
-1.10802114 1.84041691 -0.57561356 4 0 32895 2.22400000 2211193107 2211193107 -15.00000000
-1.29687381 2.15580297 -0.58082360 3 2 32897 2.58200000 2211193111 2211193111 -13.00000000
-1.53986537 2.56074119 -0.58082259 4 4 32898 3.04400000 2211193116 2211193116 -11.00000000
-1.88726628 3.14093852 -0.58037186 1 6 32900 3.71000000 2211193120 2211193120 -9.00000000
-2.45641708 4.09139872 -0.58594781 2 8 32902 4.80800000 2211193125 2211193125 -7.00000000
-3.49921942 5.83059216 -0.59492511 4 10 32903 6.82600000 2211193130 2211193130 -5.00000000
-5.89801073 9.83536911 -0.60102612 8 12 32905 11.48400000 2211193134 2211193134 -3.00000000
-5.66789293 9.45537281 2.54509616 59 13 32906 11.31400000 2211193137 2211193137 13.00000000
-4.28062201 7.14390659 2.23153782 45 15 32907 8.62200000 2211193141 2211193141 15.00000000
-1.10587561 1.85071445 -0.57768410 4 0 32914 2.23200000 2211193162 2211193162 -15.00000000
-1.28572178 2.15339875 -0.57902402 4 2 32916 2.57400000 2211193167 2211193167 -13.00000000
-1.52734065 2.55909014 -0.57929611 2 4 32917 3.03600000 2211193171 2211193171 -11.00000000
-1.89201677 3.17262840 -0.58506489 2 6 32919 3.74000000 2211193176 2211193176 -9.00000000
-2.43877125 4.09270096 -0.58497286 2 8 32921 4.80000000 2211193180 2211193180 -7.00000000
-3.48190427 5.84558725 -0.59527373 4 10 32922 6.83000000 2211193185 2211193185 -5.00000000
-5.86740589 9.85830688 -0.60123545 8 12 32924 11.48800000 2211193190 2211193190 -3.00000000
-5.63252115 9.46741676 2.54329658 57 13 32925 11.30600000 2211193192 2211193192 13.00000000
-4.25888300 7.16138315 2.23257303 45 15 32926 8.62600000 2211193196 2211193196 15.00000000
-1.09940875 1.85456347 -0.57768410 4 0 32934 2.23200000 2211193217 2211193217 -15.00000000
-1.28018355 2.16122699 -0.57992381 3 2 32936 2.57800000 2211193222 2211193222 -13.00000000
-1.52239943 2.57116342 -0.58082259 2 4 32937 3.04400000 2211193226 2211193226 -11.00000000
-1.87992489 3.17751336 -0.58475202 2 6 32939 3.73800000 2211193231 2211193231 -9.00000000
-2.43255186 4.11485958 -0.58692276 2 8 32941 4.81600000 2211193236 2211193236 -7.00000000
-3.45539665 5.84741402 -0.59422785 4 10 32942 6.81800000 2211193240 2211193240 -5.00000000
-5.84209776 9.89420605 -0.60217750 4 12 32944 11.50600000 2211193245 2211193245 -3.00000000
-5.59745836 9.48366356 2.54239678 57 13 32945 11.30200000 2211193247 2211193247 13.00000000
-4.23456955 7.18027258 2.23360825 45 15 32947 8.63000000 2211193252 2211193252 15.00000000
-1.08901107 1.85172892 -0.57561356 4 0 32954 2.22400000 2211193273 2211193273 -15.00000000
-1.27460623 2.16904283 -0.58082360 4 2 32956 2.58200000 2211193277 2211193277 -13.00000000
-1.51142645 2.57307625 -0.58005935 2 4 32957 3.04000000 2211193282 2211193282 -11.00000000
-1.87282145 3.19087076 -0.58600348 2 6 32959 3.74600000 2211193286 2211193286 -9.00000000
-2.42620730 4.13702440 -0.58887267 2 8 32961 4.83200000 2211193291 2211193291 -7.00000000
-3.44907093 5.88350344 -0.59666824 4 10 32962 6.84600000 2211193296 2211193296 -5.00000000
-5.83579016 9.96279240 -0.60510832 4 12 32964 11.56200000 2211193300 2211193300 -3.00000000
-5.56235075 9.49978161 2.54149699 60 13 32965 11.29800000 2211193302 2211193302 13.00000000
-4.20292902 7.18093729 2.22946715 45 15 32966 8.61400000 2211193307 2211193307 15.00000000
-1.07962024 1.85051310 -0.57406062 4 0 32974 2.21800000 2211193328 2211193328 -15.00000000
-1.26702714 2.17347884 -0.58082360 3 2 32976 2.58200000 2211193332 2211193332 -13.00000000
-1.50243545 2.57833648 -0.58005935 2 4 32977 3.04000000 2211193337 2211193337 -11.00000000
-1.85272622 3.18202472 -0.58318770 2 6 32979 3.72800000 2211193342 2211193342 -9.00000000
-2.42772341 4.17292166 -0.59277248 2 8 32981 4.86400000 2211193346 2211193346 -7.00000000
-3.41649318 5.87483931 -0.59457648 4 10 32982 6.82200000 2211193351 2211193351 -5.00000000
-5.82205057 10.01936722 -0.60730642 4 12 32984 11.60400000 2211193355 2211193355 -3.00000000
-5.53307152 9.52588081 2.54329658 60 13 32985 11.30600000 2211193358 2211193358 13.00000000
-4.17007685 7.18219900 2.22532606 45 15 32986 8.59800000 2211193362 2211193362 15.00000000
-1.07605720 1.85928643 -0.57561356 4 0 32994 2.22400000 2211193383 2211193383 -15.00000000
-1.25943255 2.17788839 -0.58082360 3 2 32996 2.58200000 2211193388 2211193388 -13.00000000
-1.49539137 2.58696461 -0.58082259 2 4 32997 3.04400000 2211193392 2211193392 -11.00000000
-1.84061956 3.18676209 -0.58287483 2 6 32999 3.72600000 2211193397 2211193397 -9.00000000
-2.40123558 4.16073895 -0.58984762 2 8 33001 4.84000000 2211193401 2211193401 -7.00000000
-3.42583323 5.93850327 -0.59980583 4 10 33002 6.88200000 2211193406 2211193406 -5.00000000
-5.78903580 10.04308987 -0.60751575 4 12 33004 11.60800000 2211193411 2211193411 -3.00000000
-4.80902958 8.34629536 2.22386622 39 13 33005 9.88600000 2211193413 2211193413 13.00000000
-4.14208841 7.19168949 2.22377324 45 15 33006 8.59200000 2211193418 2211193418 15.00000000
-1.06956053 1.86303127 -0.57561356 4 0 33014 2.22400000 2211193438 2211193438 -15.00000000
-1.24018669 2.16198683 -0.57542479 3 2 33016 2.55800000 2211193443 2211193443 -13.00000000
-1.49025834 2.59898138 -0.58234906 2 4 33017 3.05200000 2211193448 2211193448 -11.00000000
-1.82948446 3.19316769 -0.58287483 2 6 33019 3.72600000 2211193452 2211193452 -9.00000000
-2.39064217 4.17598629 -0.59082258 2 8 33021 4.84800000 2211193457 2211193457 -7.00000000
-3.40310407 5.94696712 -0.59945720 4 10 33022 6.87800000 2211193461 2211193461 -5.00000000
-5.75592661 10.06670380 -0.60772514 4 12 33024 11.61200000 2211193466 2211193466 -3.00000000
-4.77889919 8.36133957 2.22341633 60 13 33025 9.88400000 2211193468 2211193468 13.00000000
-4.11665964 7.20850039 2.22429085 47 15 33027 8.59400000 2211193473 2211193473 15.00000000
-1.06878662 1.87682581 -0.57871938 4 0 33034 2.23600000 2211193494 2211193494 -15.00000000
-1.24516118 2.18832135 -0.58127350 4 2 33036 2.58400000 2211193498 2211193498 -13.00000000
-1.47729456 2.59734130 -0.58082259 4 4 33037 3.04400000 2211193503 2211193503 -11.00000000
-1.83199143 3.22357798 -0.58725500 2 6 33039 3.75400000 2211193507 2211193507 -9.00000000
-2.37409019 4.18085337 -0.59033507 2 8 33041 4.84400000 2211193512 2211193512 -7.00000000
-3.38625860 5.96574068 -0.60015446 4 10 33042 6.88600000 2211193517 2211193517 -5.00000000
-5.72272253 10.09020901 -0.60793447 4 12 33044 11.61600000 2211193521 2211193521 -3.00000000
-4.74295616 8.36610317 2.22026682 59 13 33045 9.87000000 2211193524 2211193524 13.00000000
-4.09463787 7.22547340 2.22532606 45 15 33046 8.59800000 2211193528 2211193528 15.00000000
-1.05842829 1.87381685 -0.57664883 4 0 33054 2.22800000 2211193549 2211193549 -15.00000000
-1.24038839 2.19774580 -0.58262324 3 2 33056 2.59000000 2211193553 2211193553 -13.00000000
-1.46821916 2.60248208 -0.58082259 2 4 33057 3.04400000 2211193558 2211193558 -11.00000000
-1.81781781 3.22479081 -0.58631635 2 6 33059 3.74800000 2211193563 2211193563 -9.00000000
-2.38091397 4.22716665 -0.59569734 2 8 33061 4.88800000 2211193567 2211193567 -7.00000000
-3.36736846 5.98099709 -0.60050309 4 10 33062 6.89000000 2211193572 2211193572 -5.00000000
-5.70705128 10.14493847 -0.61002791 4 12 33064 11.65600000 2211193577 2211193577 -3.00000000
-4.71563435 8.38600540 2.22116661 56 13 33065 9.87400000 2211193579 2211193579 13.00000000
-4.06276512 7.22793436 2.22170258 40 15 33066 8.58400000 2211193583 2211193583 15.00000000
-1.04810405 1.87075853 -0.57457829 4 0 33074 2.22000000 2211193604 2211193604 -15.00000000
-1.23080552 2.19866133 -0.58172345 3 2 33076 2.58600000 2211193609 2211193609 -13.00000000
-1.45529115 2.60073829 -0.57929611 2 4 33077 3.03600000 2211193613 2211193613 -11.00000000
-1.80558610 3.22939229 -0.58600348 2 6 33079 3.74600000 2211193618 2211193618 -9.00000000
-2.35452628 4.21465588 -0.59277248 2 8 33081 4.86400000 2211193623 2211193623 -7.00000000
-3.35035610 5.99967289 -0.60120034 4 10 33082 6.89800000 2211193627 2211193627 -5.00000000
-5.67549658 10.17177391 -0.61044657 4 12 33084 11.66400000 2211193632 2211193632 -3.00000000
-4.68633270 8.40241528 2.22116661 57 13 33085 9.87400000 2211193634 2211193634 13.00000000
-3.99392772 7.16683865 2.19840908 22 15 33087 8.49400000 2211193639 2211193639 15.00000000
-1.04532099 1.88116038 -0.57664883 4 0 33094 2.22800000 2211193659 2211193659 -15.00000000
-1.22217727 2.20124054 -0.58127350 4 2 33096 2.58400000 2211193664 2211193664 -13.00000000
-1.45001483 2.61266875 -0.58082259 2 4 33097 3.04400000 2211193669 2211193669 -11.00000000
-1.79621840 3.23913026 -0.58662927 2 6 33099 3.75000000 2211193673 2211193673 -9.00000000
-2.35134506 4.24368525 -0.59569734 2 8 33101 4.88800000 2211193678 2211193678 -7.00000000
-3.32553148 6.00435972 -0.60050309 4 10 33102 6.89000000 2211193683 2211193683 -5.00000000
-5.64575863 10.20200825 -0.61107463 4 12 33104 11.67600000 2211193687 2211193687 -3.00000000
-4.65886116 8.42213249 2.22206640 59 13 33105 9.87800000 2211193689 2211193689 13.00000000
-3.92309523 7.09788799 2.17304468 15 15 33107 8.39600000 2211193694 2211193694 15.00000000
-1.03814435 1.88292468 -0.57613117 4 0 33113 2.22600000 2211193715 2211193715 -15.00000000
-1.21393061 2.20357442 -0.58082360 3 2 33115 2.58200000 2211193719 2211193719 -13.00000000
-1.45081294 2.63466048 -0.58463877 2 4 33116 3.06400000 2211193724 2211193724 -11.00000000
-1.78546715 3.24506903 -0.58662927 2 6 33118 3.75000000 2211193729 2211193729 -9.00000000
-2.31430769 4.20971012 -0.58984762 2 8 33120 4.84000000 2211193733 2211193733 -7.00000000
-3.34014535 6.07821465 -0.60677826 4 10 33121 6.96200000 2211193738 2211193738 -5.00000000
-5.61766386 10.23117828 -0.61170268 4 12 33123 11.68800000 2211193742 2211193742 -3.00000000
-4.62715626 8.43070221 2.22026682 56 13 33124 9.87000000 2211193745 2211193745 13.00000000
-3.87631369 7.06851196 2.16010380 15 15 33126 8.34600000 2211193749 2211193749 15.00000000
-1.03527272 1.89331698 -0.57820177 4 0 33133 2.23400000 2211193770 2211193770 -15.00000000
-1.20623136 2.20779848 -0.58082360 3 2 33135 2.58200000 2211193775 2211193775 -13.00000000
-1.43219745 2.62247825 -0.58082259 2 4 33136 3.04400000 2211193779 2211193779 -11.00000000
-1.78359091 3.26862192 -0.58975792 2 6 33138 3.77000000 2211193784 2211193784 -9.00000000
-2.30149961 4.22124863 -0.59033507 2 8 33140 4.84400000 2211193789 2211193789 -7.00000000
-3.31890821 6.08983707 -0.60677826 4 10 33141 6.96200000 2211193793 2211193793 -5.00000000
-5.61057091 10.30334759 -0.61484283 4 12 33143 11.74800000 2211193798 2211193798 -3.00000000
-4.59583616 8.44337940 2.21936703 56 13 33144 9.86600000 2211193800 2211193800 13.00000000
-3.84700131 7.07351398 2.15751553 18 15 33146 8.33600000 2211193805 2211193805 15.00000000
-1.02589476 1.89182460 -0.57664883 4 0 33153 2.22800000 2211193825 2211193825 -15.00000000
-1.20037413 2.21542239 -0.58172345 3 2 33155 2.58600000 2211193830 2211193830 -13.00000000
-1.42677450 2.63436675 -0.58234906 2 4 33156 3.05200000 2211193835 2211193835 -11.00000000
-1.76746976 3.26614141 -0.58819360 2 6 33158 3.76000000 2211193839 2211193839 -9.00000000
-2.29430389 4.24322605 -0.59228504 2 8 33160 4.86000000 2211193844 2211193844 -7.00000000
-3.29005194 6.08736277 -0.60538381 4 10 33161 6.94600000 2211193848 2211193848 -5.00000000
-5.57646942 10.32638359 -0.61505216 4 12 33163 11.75200000 2211193853 2211193853 -3.00000000
-4.56818628 8.46280003 2.22026682 56 13 33164 9.87000000 2211193855 2211193855 13.00000000
-3.81343269 7.06753063 2.15182161 20 15 33165 8.31400000 2211193860 2211193860 15.00000000
-1.01470983 1.88688695 -0.57406062 4 0 33173 2.21800000 2211193881 2211193881 -15.00000000
-1.19447827 2.22303224 -0.58262324 4 2 33175 2.59000000 2211193885 2211193885 -13.00000000
-1.41013861 2.62549448 -0.57929611 2 4 33176 3.03600000 2211193890 2211193890 -11.00000000
-1.74951947 3.26010704 -0.58600348 2 6 33178 3.74600000 2211193894 2211193894 -9.00000000
-2.29261112 4.27570152 -0.59569734 2 8 33180 4.88800000 2211193899 2211193899 -7.00000000
-3.26313567 6.08827353 -0.60433793 4 10 33181 6.93400000 2211193904 2211193904 -5.00000000
-5.54981852 10.36339378 -0.61609888 4 12 33183 11.77200000 2211193908 2211193908 -3.00000000
-4.54045725 8.48213100 2.22116661 56 13 33184 9.87400000 2211193911 2211193911 13.00000000
-3.77839208 7.06442499 2.14664507 22 15 33186 8.29400000 2211193915 2211193915 15.00000000
-1.01175332 1.89723587 -0.57613117 4 0 33193 2.22600000 2211193936 2211193936 -15.00000000
-1.18487835 2.22374845 -0.58172345 3 2 33195 2.58600000 2211193941 2211193941 -13.00000000
-1.40834856 2.64426327 -0.58234906 2 4 33196 3.05200000 2211193945 2211193945 -11.00000000
-1.74648082 3.28188848 -0.58881932 2 6 33198 3.76400000 2211193950 2211193950 -9.00000000
-2.28326368 4.29419470 -0.59715980 2 8 33200 4.90000000 2211193954 2211193954 -7.00000000
-3.25121450 6.11722040 -0.60608101 4 10 33201 6.95400000 2211193959 2211193959 -5.00000000
-5.51735640 10.38975811 -0.61651754 4 12 33203 11.78000000 2211193964 2211193964 -3.00000000
-4.51264906 8.50137043 2.22206640 60 13 33204 9.87800000 2211193966 2211193966 13.00000000
-3.75041747 7.06838322 2.14405704 18 15 33205 8.28400000 2211193971 2211193971 15.00000000
-1.00873697 1.90758705 -0.57820177 4 0 33213 2.23400000 2211193991 2211193991 -15.00000000
-1.17346740 2.22097874 -0.57992381 3 2 33215 2.57800000 2211193996 2211193996 -13.00000000
-1.40277708 2.65610719 -0.58387554 2 4 33216 3.06000000 2211194000 2211194000 -11.00000000
-1.72210765 3.26350617 -0.58443916 2 6 33218 3.73600000 2211194005 2211194005 -9.00000000
-2.26270533 4.29160261 -0.59569734 2 8 33220 4.88800000 2211194010 2211194010 -7.00000000
-3.22055244 6.11090612 -0.60433793 4 10 33221 6.93400000 2211194014 2211194014 -5.00000000
-5.48477793 10.41602325 -0.61693627 4 12 33223 11.78800000 2211194019 2211194019 -3.00000000
-4.47749996 8.50672436 2.21936703 56 13 33224 9.86600000 2211194021 2211194021 13.00000000
-3.71909022 7.07182312 2.14095116 20 15 33226 8.27200000 2211194026 2211194026 15.00000000
-1.00745475 1.92136216 -0.58130759 4 0 33233 2.24600000 2211194047 2211194047 -15.00000000
-1.16570759 2.22506142 -0.57992381 3 2 33235 2.57800000 2211194051 2211194051 -13.00000000
-1.38803232 2.65055251 -0.58158582 2 4 33236 3.04800000 2211194056 2211194056 -11.00000000
-1.71894753 3.28524995 -0.58725500 2 6 33238 3.75400000 2211194060 2211194060 -9.00000000
-2.23667479 4.27836466 -0.59277248 2 8 33240 4.86400000 2211194065 2211194065 -7.00000000
-3.21212029 6.14683247 -0.60677826 4 10 33241 6.96200000 2211194070 2211194070 -5.00000000
-5.46687412 10.47051430 -0.61902970 4 12 33243 11.82800000 2211194074 2211194074 -3.00000000
-4.44146729 8.51020908 2.21621776 54 13 33244 9.85200000 2211194077 2211194077 13.00000000
-3.69204473 7.07726574 2.13888049 18 15 33245 8.26400000 2211194081 2211194081 15.00000000
-0.99272156 1.90944076 -0.57664883 4 0 33253 2.22800000 2211194102 2211194102 -15.00000000
-1.16332340 2.23949289 -0.58262324 3 2 33255 2.59000000 2211194106 2211194106 -13.00000000
-1.37877178 2.65538144 -0.58158582 2 4 33256 3.04800000 2211194111 2211194111 -11.00000000
-1.71747589 3.31051803 -0.59069651 2 6 33258 3.77600000 2211194116 2211194116 -9.00000000
-2.23268938 4.30729437 -0.59569734 2 8 33260 4.88800000 2211194120 2211194120 -7.00000000
-3.19614387 6.16862154 -0.60782415 4 10 33261 6.97400000 2211194125 2211194125 -5.00000000
-5.43580103 10.50017548 -0.61965770 4 12 33263 11.84000000 2211194129 2211194129 -3.00000000
-4.41262960 8.52739143 2.21666765 56 13 33264 9.85400000 2211194132 2211194132 13.00000000
-3.65809536 7.07530594 2.13422179 20 15 33266 8.24600000 2211194136 2211194136 15.00000000
-0.97896916 1.89915729 -0.57250774 4 0 33273 2.21200000 2211194157 2211194157 -15.00000000
-1.16263723 2.25739980 -0.58622247 3 2 33275 2.60600000 2211194162 2211194162 -13.00000000
-1.36949432 2.66017795 -0.58158582 2 4 33276 3.04800000 2211194166 2211194166 -11.00000000
-1.70139182 3.30770993 -0.58913219 2 6 33278 3.76600000 2211194171 2211194171 -9.00000000
-2.24849153 4.37509155 -0.60398448 2 8 33280 4.95600000 2211194176 2211194176 -7.00000000
-3.18551683 6.20100737 -0.60991591 4 10 33281 6.99800000 2211194180 2211194180 -5.00000000
-5.41005945 10.54040909 -0.62091380 4 12 33283 11.86400000 2211194185 2211194185 -3.00000000
-4.38461590 8.54621029 2.21756744 60 13 33284 9.85800000 2211194187 2211194187 13.00000000
-3.62491560 7.06848860 2.12852788 20 15 33285 8.22400000 2211194192 2211194192 15.00000000
-0.97409219 1.90600336 -0.57354301 4 0 33293 2.21600000 2211194212 2211194212 -15.00000000
-1.14588821 2.24408865 -0.58172345 3 2 33295 2.58600000 2211194217 2211194217 -13.00000000
-1.37091053 2.68592596 -0.58616525 2 4 33296 3.07200000 2211194222 2211194222 -11.00000000
-1.69701469 3.32770681 -0.59163517 2 6 33298 3.78200000 2211194226 2211194226 -9.00000000
-2.22058892 4.35815096 -0.60057211 2 8 33300 4.92800000 2211194231 2211194231 -7.00000000
-3.13853383 6.16237783 -0.60503519 4 10 33301 6.94200000 2211194235 2211194235 -5.00000000
-4.98963499 9.80116653 2.13782406 12 11 33302 11.20400000 2211194238 2211194238 11.00000000
-5.37866831 10.56990910 -0.62154180 4 12 33303 11.87600000 2211194240 2211194240 -3.00000000
-4.35652399 8.56493664 2.21846724 60 13 33304 9.86200000 2211194242 2211194242 13.00000000
-3.59548306 7.07483816 2.12645721 15 15 33306 8.21600000 2211194247 2211194247 15.00000000
-0.97092563 1.91628504 -0.57561356 4 0 33313 2.22400000 2211194268 2211194268 -15.00000000
-1.14156854 2.25502944 -0.58352304 3 2 33315 2.59400000 2211194272 2211194272 -13.00000000
-1.35443521 2.67668104 -0.58311230 2 4 33316 3.05600000 2211194277 2211194277 -11.00000000
-1.67647588 3.31598139 -0.58850646 2 6 33318 3.76200000 2211194282 2211194282 -9.00000000
-2.20178246 4.35878849 -0.59959716 2 8 33320 4.92000000 2211194286 2211194286 -7.00000000
-3.13137221 6.20175266 -0.60782415 4 10 33321 6.97400000 2211194291 2211194291 -5.00000000
-4.94654655 9.80099678 2.13400769 12 11 33322 11.18400000 2211194293 2211194293 11.00000000
-5.34713745 10.59931946 -0.62216985 4 12 33323 11.88800000 2211194295 2211194295 -3.00000000
-4.32309055 8.57313156 2.21666765 62 13 33324 9.85400000 2211194298 2211194298 13.00000000
-3.56678510 7.07637167 2.12335134 11 15 33325 8.20400000 2211194302 2211194302 15.00000000
-0.96336353 1.91793621 -0.57509589 4 0 33333 2.22200000 2211194323 2211194323 -15.00000000
-1.13194180 2.25551724 -0.58262324 3 2 33335 2.59000000 2211194328 2211194328 -13.00000000
-1.34860480 2.68841195 -0.58463877 2 4 33336 3.06400000 2211194332 2211194332 -11.00000000
-1.65957999 3.31121731 -0.58662927 2 6 33338 3.75000000 2211194337 2211194337 -9.00000000
-2.18655396 4.36644745 -0.59959716 2 8 33340 4.92000000 2211194341 2211194341 -7.00000000
-3.10078692 6.19482851 -0.60608101 4 10 33341 6.95400000 2211194346 2211194346 -5.00000000
-4.90879059 9.81118107 2.13248134 15 11 33342 11.17600000 2211194348 2211194348 11.00000000
-5.33154678 10.66079140 -0.62468195 4 12 33343 11.93600000 2211194351 2211194351 -3.00000000
-4.28791046 8.57771111 2.21396828 57 13 33344 9.84200000 2211194353 2211194353 13.00000000
-3.53823543 7.08421230 2.12179852 9 15 33346 8.19800000 2211194358 2211194358 15.00000000
-0.96216643 1.93149543 -0.57820177 4 0 33352 2.23400000 2211194378 2211194378 -15.00000000
-1.12619269 2.26274776 -0.58352304 3 2 33354 2.59400000 2211194383 2211194383 -13.00000000
-1.33618438 2.68583822 -0.58311230 2 4 33355 3.05600000 2211194388 2211194388 -11.00000000
-1.65386605 3.32731605 -0.58850646 2 6 33357 3.76200000 2211194392 2211194392 -9.00000000
-2.18089199 4.39145374 -0.60203457 2 8 33359 4.94000000 2211194397 2211194397 -7.00000000
-3.12806487 6.30144596 -0.61549383 4 10 33360 7.06200000 2211194401 2211194401 -5.00000000
-4.86575699 9.80630112 2.12790203 18 11 33361 11.15200000 2211194404 2211194404 11.00000000
-5.30503941 10.69630623 -0.62572867 4 12 33362 11.95600000 2211194406 2211194406 -3.00000000
-4.26117325 8.59537506 2.21486807 57 13 33363 9.84600000 2211194408 2211194408 13.00000000
-3.51081562 7.08490705 2.11869264 4 15 33364 8.18600000 2211194413 2211194413 15.00000000
-0.94600958 1.91578829 -0.57250774 4 0 33372 2.21200000 2211194434 2211194434 -15.00000000
-1.11828732 2.26666498 -0.58352304 3 2 33374 2.59400000 2211194438 2211194438 -13.00000000
-1.33548415 2.70809388 -0.58692849 4 4 33375 3.07600000 2211194443 2211194443 -11.00000000
-1.64049530 3.32952476 -0.58788073 2 6 33377 3.75800000 2211194447 2211194447 -9.00000000
-2.14275432 4.35273409 -0.59569734 2 8 33379 4.88800000 2211194452 2211194452 -7.00000000
-3.09197521 6.28372335 -0.61270487 4 10 33380 7.03000000 2211194457 2211194457 -5.00000000
-4.81936646 9.79856205 2.12255931 18 11 33381 11.12400000 2211194459 2211194459 11.00000000
-5.26767015 10.71475887 -0.62572867 4 12 33382 11.95600000 2211194461 2211194461 -3.00000000
-4.22942495 8.60669899 2.21396828 57 13 33383 9.84200000 2211194464 2211194464 13.00000000
-3.48861837 7.10232115 2.12024570 2 15 33384 8.19200000 2211194468 2211194468 15.00000000
-0.94696009 1.93469512 -0.57716650 4 0 33392 2.23000000 2211194489 2211194489 -15.00000000
-1.11208057 2.27405596 -0.58442283 3 2 33394 2.59800000 2211194494 2211194494 -13.00000000
-1.32429862 2.70921159 -0.58616525 2 4 33395 3.07200000 2211194498 2211194498 -11.00000000
-1.63753188 3.35298085 -0.59100944 2 6 33397 3.77800000 2211194503 2211194503 -9.00000000
-2.14843988 4.40300369 -0.60154706 2 8 33399 4.93600000 2211194507 2211194507 -7.00000000
-3.07176900 6.29805994 -0.61305350 4 10 33400 7.03400000 2211194512 2211194512 -5.00000000
-4.77136850 9.78709030 2.11645341 21 11 33401 11.09200000 2211194514 2211194514 11.00000000
-5.23023653 10.73308086 -0.62572867 4 12 33402 11.95600000 2211194517 2211194517 -3.00000000
-4.19764948 8.61790657 2.21306849 57 13 33403 9.83800000 2211194519 2211194519 13.00000000
-3.92384219 8.05934429 2.40184069 45 15 33404 9.28000000 2211194523 2211194523 15.00000000
-0.94357389 1.94494128 -0.57923704 4 0 33412 2.23800000 2211194544 2211194544 -15.00000000
-1.10073590 2.27090955 -0.58262324 3 2 33414 2.59000000 2211194549 2211194549 -13.00000000
-1.31483364 2.71381783 -0.58616525 2 4 33415 3.07200000 2211194553 2211194553 -11.00000000
-1.62065375 3.34800839 -0.58913219 2 6 33417 3.76600000 2211194558 2211194558 -9.00000000
-2.14688587 4.43906975 -0.60544688 2 8 33419 4.96800000 2211194563 2211194563 -7.00000000
-3.07057762 6.35179472 -0.61723697 4 10 33420 7.08200000 2211194567 2211194567 -5.00000000
-4.72863436 9.78600883 2.11263728 21 11 33421 11.07200000 2211194570 2211194570 11.00000000
-4.16754198 8.63250637 2.21306849 56 13 33423 9.83800000 2211194574 2211194574 13.00000000
-3.91945529 8.12587166 2.41736984 40 15 33425 9.34000000 2211194579 2211194579 15.00000000
-0.93677908 1.94822311 -0.57923704 4 0 33432 2.23800000 2211194600 2211194600 -15.00000000
-1.09449005 2.27825117 -0.58352304 3 2 33434 2.59400000 2211194604 2211194604 -13.00000000
-1.30365300 2.71485114 -0.58540201 2 4 33435 3.06800000 2211194609 2211194609 -11.00000000
-1.61579287 3.36789322 -0.59163517 2 6 33437 3.78200000 2211194613 2211194613 -9.00000000
-2.11936498 4.42147541 -0.60203457 2 8 33439 4.94000000 2211194618 2211194618 -7.00000000
-3.06216097 6.39122295 -0.62002593 4 10 33440 7.11400000 2211194623 2211194623 -5.00000000
-4.69274998 9.79891396 2.11187387 21 11 33441 11.06800000 2211194625 2211194625 11.00000000
-5.16897631 10.79815674 -0.62740344 4 12 33442 11.98800000 2211194627 2211194627 -3.00000000
-4.13065434 8.63293839 2.20946932 60 13 33443 9.82200000 2211194629 2211194629 13.00000000
