# .PCD v0.7 - Point Cloud Data file format
VERSION 0.7
FIELDS x y z intensity laser_id azimuth distance_m adjustedtime timestamp vertical_angle
SIZE 4 4 4 1 1 2 8 8 4 8
TYPE F F F U U U F U U F
COUNT 1 1 1 1 1 1 1 1 1 1
WIDTH 533
HEIGHT 1
VIEWPOINT 0 0 0 1 0 0 0
POINTS 533
DATA ascii
8.15859127 -0.55619693 2.19116211 47 15 9390 8.46600000 2211627824 2211627824 15.00000000
2.22012591 -0.15446760 -0.59631908 4 0 9398 2.30400000 2211627845 2211627845 -15.00000000
8.09908485 -0.56492275 0.14171354 18 1 9399 8.12000000 2211627847 2211627847 1.00000000
2.60300684 -0.18201996 -0.60241890 7 2 9400 2.67800000 2211627849 2211627849 -13.00000000
8.09509659 -0.56606430 0.42528197 23 3 9400 8.12600000 2211627852 2211627852 3.00000000
3.12568307 -0.21911727 -0.60906231 4 4 9401 3.19200000 2211627854 2211627854 -11.00000000
8.11093616 -0.57001704 0.71136516 76 5 9402 8.16200000 2211627856 2211627856 5.00000000
3.91930938 -0.27612707 -0.62229627 4 6 9403 3.97800000 2211627858 2211627858 -9.00000000
8.11271381 -0.57298791 0.99859738 87 7 9404 8.19400000 2211627861 2211627861 7.00000000
5.20775557 -0.36872885 -0.64103276 2 8 9405 5.26000000 2211627863 2211627863 -7.00000000
8.20492744 -0.58094007 1.30278623 7 9 9405 8.32800000 2211627865 2211627865 9.00000000
6.58024645 -0.46706066 -0.57714534 28 10 9406 6.62200000 2211627868 2211627868 -5.00000000
8.10625076 -0.57821923 -0.42591003 17 12 9408 8.13800000 2211627872 2211627872 -3.00000000
8.08801270 -0.57975596 -0.14153902 22 14 9410 8.11000000 2211627877 2211627877 -1.00000000
8.16613197 -0.58678824 2.19375014 47 15 9411 8.47600000 2211627879 2211627879 15.00000000
2.21571994 -0.16193470 -0.59528381 4 0 9418 2.30000000 2211627900 2211627900 -15.00000000
8.10504150 -0.59377480 0.14185315 15 1 9419 8.12800000 2211627902 2211627902 1.00000000
2.59846854 -0.19081961 -0.60151911 7 2 9420 2.67400000 2211627905 2211627905 -13.00000000
8.11089420 -0.59705007 0.42622402 23 3 9421 8.14400000 2211627907 2211627907 3.00000000
3.10727763 -0.22872946 -0.60562778 4 4 9421 3.17400000 2211627909 2211627909 -11.00000000
8.10094929 -0.59773958 0.71066791 76 5 9422 8.15400000 2211627911 2211627911 5.00000000
3.90650153 -0.28893209 -0.62041909 4 6 9423 3.96600000 2211627914 2211627914 -9.00000000
8.11066437 -0.60130310 0.99859738 87 7 9424 8.19400000 2211627916 2211627916 7.00000000
5.20445681 -0.38675797 -0.64078903 4 8 9425 5.25800000 2211627918 2211627918 -7.00000000
8.18709087 -0.60840589 1.30028331 7 9 9425 8.31200000 2211627921 2211627921 9.00000000
6.58851051 -0.49076718 -0.57801688 16 10 9426 6.63200000 2211627923 2211627923 -5.00000000
8.09621620 -0.60591555 -0.42549133 17 12 9428 8.13000000 2211627928 2211627928 -3.00000000
8.08195114 -0.60768497 -0.14146921 16 14 9430 8.10600000 2211627932 2211627932 -1.00000000
8.15643597 -0.61328548 2.19167972 47 15 9430 8.46800000 2211627935 2211627935 15.00000000
2.20358372 -0.16878280 -0.59217799 4 0 9438 2.28800000 2211627955 2211627955 -15.00000000
8.09494400 -0.62145078 0.14171354 12 1 9439 8.12000000 2211627958 2211627958 1.00000000
2.60361552 -0.20033731 -0.60286885 6 2 9440 2.68000000 2211627960 2211627960 -13.00000000
8.10676861 -0.62520516 0.42611936 23 3 9441 8.14200000 2211627962 2211627962 3.00000000
3.11037517 -0.23987640 -0.60639101 4 4 9441 3.17800000 2211627964 2211627964 -11.00000000
8.08689404 -0.62509227 0.70962209 76 5 9442 8.14200000 2211627967 2211627967 5.00000000
3.90546918 -0.30256656 -0.62041909 6 6 9443 3.96600000 2211627969 2211627969 -9.00000000
8.12434864 -0.63084036 1.00054729 90 7 9444 8.21000000 2211627971 2211627971 7.00000000
5.17140961 -0.40245819 -0.63688916 4 8 9445 5.22600000 2211627974 2211627974 -7.00000000
8.19662189 -0.63933069 1.30216050 7 9 9446 8.32400000 2211627976 2211627976 9.00000000
6.60463428 -0.51515681 -0.57958567 48 10 9446 6.65000000 2211627978 2211627978 -5.00000000
8.09803486 -0.63448495 -0.42570066 17 12 9448 8.13400000 2211627983 2211627983 -3.00000000
8.08974838 -0.63667703 -0.14164373 16 14 9450 8.11600000 2211627988 2211627988 -1.00000000
8.15220737 -0.64302427 2.19116211 47 15 9451 8.46600000 2211627990 2211627990 15.00000000
2.19912982 -0.17616519 -0.59114271 4 0 9458 2.28400000 2211628011 2211628011 -15.00000000
8.08475208 -0.64906353 0.14157392 15 1 9459 8.11200000 2211628013 2211628013 1.00000000
2.59513068 -0.20879924 -0.60106921 6 2 9460 2.67200000 2211628015 2211628015 -13.00000000
8.11449146 -0.65430188 0.42664272 23 3 9461 8.15200000 2211628017 2211628017 3.00000000
3.10756183 -0.25057438 -0.60600936 4 4 9461 3.17600000 2211628020 2211628020 -11.00000000
8.10253620 -0.65476131 0.71119088 76 5 9462 8.16000000 2211628022 2211628022 5.00000000
3.88470006 -0.31460282 -0.61729038 6 6 9463 3.94600000 2211628024 2211628024 -9.00000000
8.11022568 -0.65823227 0.99908489 85 7 9464 8.19800000 2211628027 2211628027 7.00000000
5.18975878 -0.42211664 -0.63932657 4 8 9465 5.24600000 2211628029 2211628029 -7.00000000
8.19445705 -0.66650814 1.30216050 7 9 9465 8.32400000 2211628031 2211628031 9.00000000
6.58690929 -0.53691316 -0.57819122 52 10 9466 6.63400000 2211628034 2211628034 -5.00000000
8.09577084 -0.66274852 -0.42570066 17 12 9468 8.13400000 2211628038 2211628038 -3.00000000
8.09943485 -0.66589475 -0.14185315 16 14 9470 8.12800000 2211628043 2211628043 -1.00000000
8.15580654 -0.67052931 2.19271493 47 15 9470 8.47200000 2211628045 2211628045 15.00000000
2.21390247 -0.18512838 -0.59528381 4 0 9478 2.30000000 2211628066 2211628066 -15.00000000
8.09040833 -0.67794859 0.14171354 15 1 9479 8.12000000 2211628068 2211628068 1.00000000
2.58661819 -0.21720441 -0.59926963 6 2 9480 2.66400000 2211628070 2211628070 -13.00000000
8.10817719 -0.68228781 0.42643338 21 3 9481 8.14800000 2211628073 2211628073 3.00000000
3.12427545 -0.26290187 -0.60944390 4 4 9481 3.19400000 2211628075 2211628075 -11.00000000
8.10417175 -0.68337524 0.71153951 76 5 9482 8.16400000 2211628077 2211628077 5.00000000
3.88160968 -0.32799470 -0.61697751 6 6 9483 3.94400000 2211628080 2211628080 -9.00000000
8.10392284 -0.68620324 0.99859738 90 7 9484 8.19400000 2211628082 2211628082 7.00000000
5.18825340 -0.44022968 -0.63932657 4 8 9485 5.24600000 2211628084 2211628084 -7.00000000
8.20770454 -0.69787669 1.30466342 7 9 9486 8.34000000 2211628087 2211628087 9.00000000
6.60286188 -0.56142169 -0.57976002 100 10 9486 6.65200000 2211628089 2211628089 -5.00000000
8.09539795 -0.69117391 -0.42580533 17 12 9488 8.13600000 2211628093 2211628093 -3.00000000
8.09706116 -0.69416302 -0.14185315 18 14 9490 8.12800000 2211628098 2211628098 -1.00000000
8.16099262 -0.70107877 2.19478559 47 15 9491 8.48000000 2211628100 2211628100 15.00000000
2.20939374 -0.19251980 -0.59424853 4 0 9498 2.29600000 2211628121 2211628121 -15.00000000
8.09197617 -0.70653313 0.14178336 15 1 9499 8.12400000 2211628123 2211628123 1.00000000
2.59555101 -0.22708128 -0.60151911 7 2 9500 2.67400000 2211628126 2211628126 -13.00000000
8.09579849 -0.70971441 0.42591003 18 3 9501 8.13800000 2211628128 2211628128 3.00000000
3.11942720 -0.27346313 -0.60868067 4 4 9501 3.19000000 2211628130 2211628130 -11.00000000
8.10570717 -0.71200866 0.71188813 76 5 9502 8.16800000 2211628133 2211628133 5.00000000
3.89224792 -0.34258124 -0.61885476 6 6 9503 3.95600000 2211628135 2211628135 -9.00000000
8.10938740 -0.71518463 0.99957234 90 7 9504 8.20200000 2211628137 2211628137 7.00000000
5.16295671 -0.45624053 -0.63640171 4 8 9505 5.22200000 2211628140 2211628140 -7.00000000
8.20141029 -0.72474283 1.30403769 7 9 9505 8.33600000 2211628142 2211628142 9.00000000
6.59093904 -0.58358794 -0.57888842 87 10 9506 6.64200000 2211628144 2211628144 -5.00000000
8.09094620 -0.71925104 -0.42570066 12 12 9508 8.13400000 2211628149 2211628149 -3.00000000
8.08861351 -0.72188950 -0.14174844 16 14 9510 8.12200000 2211628153 2211628153 -1.00000000
8.15862274 -0.72813773 2.19478559 49 15 9510 8.48000000 2211628156 2211628156 15.00000000
2.20870829 -0.20023085 -0.59424853 4 0 9518 2.29600000 2211628176 2211628176 -15.00000000
8.09941864 -0.73567951 0.14195788 15 1 9519 8.13400000 2211628179 2211628179 1.00000000
2.58697963 -0.23543359 -0.59971952 7 2 9520 2.66600000 2211628181 2211628181 -13.00000000
8.10520554 -0.73905784 0.42653805 18 3 9521 8.15000000 2211628183 2211628183 3.00000000
3.11063290 -0.28363720 -0.60715425 4 4 9521 3.18200000 2211628186 2211628186 -11.00000000
8.11110878 -0.74102354 0.71258533 79 5 9522 8.17600000 2211628188 2211628188 5.00000000
3.88906121 -0.35598555 -0.61854190 6 6 9523 3.95400000 2211628190 2211628190 -9.00000000
8.11079597 -0.74384987 1.00005984 87 7 9524 8.20600000 2211628193 2211628193 7.00000000
5.17121649 -0.47516805 -0.63762039 6 8 9525 5.23200000 2211628195 2211628195 -7.00000000
8.18296242 -0.75334889 1.30153477 7 9 9526 8.32000000 2211628197 2211628197 9.00000000
6.58092594 -0.60586041 -0.57819122 111 10 9526 6.63400000 2211628199 2211628199 -5.00000000
8.09435272 -0.74804074 -0.42601469 17 12 9528 8.14000000 2211628204 2211628204 -3.00000000
8.08803558 -0.75030434 -0.14178336 18 14 9530 8.12400000 2211628209 2211628209 -1.00000000
8.15205288 -0.75767809 2.19375014 47 15 9531 8.47600000 2211628211 2211628211 15.00000000
2.20422149 -0.20680779 -0.59321326 4 0 9536 2.29200000 2211628232 2211628232 -15.00000000
8.09706688 -0.76112092 0.14195788 12 1 9537 8.13400000 2211628234 2211628234 1.00000000
2.59592795 -0.24447323 -0.60196900 6 2 9538 2.67600000 2211628236 2211628236 -13.00000000
8.10483265 -0.76470506 0.42664272 15 3 9539 8.15200000 2211628239 2211628239 3.00000000
3.10190821 -0.29267046 -0.60562778 4 4 9539 3.17400000 2211628241 2211628241 -11.00000000
8.10477352 -0.76612663 0.71223670 90 5 9540 8.17200000 2211628243 2211628243 5.00000000
3.87809062 -0.36727041 -0.61697751 6 6 9541 3.94400000 2211628246 2211628246 -9.00000000
8.11829948 -0.77026451 1.00127852 95 7 9542 8.21600000 2211628248 2211628248 7.00000000
5.17167425 -0.49159938 -0.63786417 8 8 9543 5.23400000 2211628250 2211628250 -7.00000000
8.18855667 -0.77837259 1.30278623 7 9 9543 8.32800000 2211628252 2211628252 9.00000000
8.11184502 -0.77536654 -0.42706141 17 12 9546 8.16000000 2211628259 2211628259 -3.00000000
8.08165741 -0.77532798 -0.14171354 16 14 9548 8.12000000 2211628264 2211628264 -1.00000000
8.14207649 -0.78112441 2.19167972 47 15 9548 8.46800000 2211628266 2211628266 15.00000000
2.19579506 -0.21375202 -0.59114271 4 0 9556 2.28400000 2211628287 2211628287 -15.00000000
8.08839035 -0.78879803 0.14185315 12 1 9557 8.12800000 2211628289 2211628289 1.00000000
2.58730078 -0.25277528 -0.60016942 6 2 9558 2.66800000 2211628292 2211628292 -13.00000000
8.11404037 -0.79415882 0.42727074 15 3 9559 8.16400000 2211628294 2211628294 3.00000000
3.11259127 -0.30464378 -0.60791749 4 4 9559 3.18600000 2211628296 2211628296 -11.00000000
8.10204983 -0.79441291 0.71223670 76 5 9560 8.17200000 2211628299 2211628299 5.00000000
3.86498952 -0.37964660 -0.61510032 6 6 9561 3.93200000 2211628301 2211628301 -9.00000000
8.10765934 -0.79782033 1.00030363 90 7 9562 8.20800000 2211628303 2211628303 7.00000000
5.16597557 -0.50925940 -0.63737667 8 8 9563 5.23000000 2211628305 2211628305 -7.00000000
8.20530701 -0.81032127 1.30591488 7 9 9564 8.34800000 2211628308 2211628308 9.00000000
6.56883192 -0.64870989 -0.57749397 40 10 9564 6.62600000 2211628310 2211628310 -5.00000000
8.09716320 -0.80249560 -0.42643338 17 12 9566 8.14800000 2211628315 2211628315 -3.00000000
8.08487129 -0.80412728 -0.14181826 16 14 9568 8.12600000 2211628319 2211628319 -1.00000000
8.15069294 -0.81211060 2.19478559 49 15 9569 8.48000000 2211628322 2211628322 15.00000000
2.20272398 -0.22219101 -0.59321326 4 0 9576 2.29200000 2211628342 2211628342 -15.00000000
8.08956718 -0.81742907 0.14192297 12 1 9577 8.13200000 2211628345 2211628345 1.00000000
2.57670856 -0.26082382 -0.59791988 5 2 9578 2.65800000 2211628347 2211628347 -13.00000000
8.10128307 -0.82146984 0.42674738 13 3 9579 8.15400000 2211628349 2211628349 3.00000000
3.11932182 -0.31629914 -0.60944390 4 4 9579 3.19400000 2211628352 2211628352 -11.00000000
8.10319138 -0.82309222 0.71258533 79 5 9580 8.17600000 2211628354 2211628354 5.00000000
3.86560607 -0.39333558 -0.61541319 6 6 9581 3.93400000 2211628356 2211628356 -9.00000000
8.10284996 -0.82591522 1.00005984 83 7 9582 8.20600000 2211628358 2211628358 7.00000000
5.16021681 -0.52688563 -0.63688916 6 8 9583 5.22600000 2211628361 2211628361 -7.00000000
8.20650578 -0.83792794 1.30654061 7 9 9583 8.35200000 2211628363 2211628363 9.00000000
6.58040190 -0.67305458 -0.57871413 44 10 9584 6.64000000 2211628365 2211628365 -5.00000000
8.09232616 -0.83055115 -0.42632869 17 12 9586 8.14600000 2211628370 2211628370 -3.00000000
8.08997154 -0.83316326 -0.14195788 16 14 9588 8.13400000 2211628375 2211628375 -1.00000000
8.15756321 -0.84012431 2.19737363 51 15 9588 8.49000000 2211628377 2211628377 15.00000000
2.20769930 -0.23048036 -0.59476614 4 0 9596 2.29800000 2211628398 2211628398 -15.00000000
8.09461975 -0.84649390 0.14206259 12 1 9597 8.14000000 2211628400 2211628400 1.00000000
2.58353496 -0.27062872 -0.59971952 4 2 9598 2.66600000 2211628402 2211628402 -13.00000000
8.10233879 -0.85016042 0.42695674 18 3 9599 8.15800000 2211628405 2211628405 3.00000000
3.10648346 -0.32595640 -0.60715425 4 4 9599 3.18200000 2211628407 2211628407 -11.00000000
8.11017704 -0.85241389 0.71345693 76 5 9600 8.18600000 2211628409 2211628409 5.00000000
3.87599659 -0.40806764 -0.61729038 4 6 9601 3.94600000 2211628411 2211628411 -9.00000000
8.10386562 -0.85461080 1.00054729 90 7 9602 8.21000000 2211628414 2211628414 7.00000000
5.15242386 -0.54426932 -0.63615799 6 8 9603 5.22000000 2211628416 2211628416 -7.00000000
8.21728134 -0.86802143 1.30873072 5 9 9603 8.36600000 2211628418 2211628418 9.00000000
6.58593750 -0.69685894 -0.57941139 28 10 9604 6.64800000 2211628421 2211628421 -5.00000000
8.09136391 -0.85900444 -0.42643338 17 12 9606 8.14800000 2211628425 2211628425 -3.00000000
8.08900261 -0.86160928 -0.14199278 16 14 9608 8.13600000 2211628430 2211628430 -1.00000000
8.15650177 -0.86879903 2.19789124 47 15 9608 8.49200000 2211628432 2211628432 15.00000000
2.19347763 -0.23635136 -0.59114271 4 0 9615 2.28400000 2211628453 2211628453 -15.00000000
8.08977985 -0.87311739 0.14202769 12 1 9616 8.13800000 2211628455 2211628455 1.00000000
2.59037304 -0.28003234 -0.60151911 4 2 9617 2.67400000 2211628458 2211628458 -13.00000000
8.09748936 -0.87680906 0.42685205 13 3 9618 8.15600000 2211628460 2211628460 3.00000000
3.08977079 -0.33456531 -0.60410130 4 4 9618 3.16600000 2211628462 2211628462 -11.00000000
8.10730553 -0.87930357 0.71345693 76 5 9619 8.18600000 2211628464 2211628464 5.00000000
3.89033270 -0.42262536 -0.61979336 4 6 9620 3.96200000 2211628467 2211628467 -9.00000000
8.10888100 -0.88233840 1.00152230 87 7 9621 8.21800000 2211628469 2211628469 7.00000000
5.15059090 -0.56135243 -0.63615799 6 8 9622 5.22000000 2211628471 2211628471 -7.00000000
8.18474579 -0.89348429 1.30403769 7 9 9623 8.33600000 2211628474 2211628474 9.00000000
6.58359051 -0.71869487 -0.57941139 16 10 9623 6.64800000 2211628476 2211628476 -5.00000000
8.10236835 -0.88735366 -0.42716607 17 12 9625 8.16200000 2211628481 2211628481 -3.00000000
8.07814980 -0.88755506 -0.14185315 16 14 9627 8.12800000 2211628485 2211628485 -1.00000000
8.14781570 -0.89520925 2.19633842 47 15 9627 8.48600000 2211628487 2211628487 15.00000000
2.18495941 -0.24315192 -0.58907217 4 0 9635 2.27600000 2211628508 2211628508 -15.00000000
8.07873344 -0.90046459 0.14188807 12 1 9636 8.13000000 2211628511 2211628511 1.00000000
2.58937979 -0.28907269 -0.60151911 4 2 9637 2.67400000 2211628513 2211628513 -13.00000000
8.11422825 -0.90728867 0.42789876 13 3 9638 8.17600000 2211628515 2211628515 3.00000000
3.10224175 -0.34687570 -0.60677260 5 4 9638 3.18000000 2211628517 2211628517 -11.00000000
8.09626675 -0.90671098 0.71275967 83 5 9639 8.17800000 2211628520 2211628520 5.00000000
3.86920309 -0.43400067 -0.61666465 4 6 9640 3.94200000 2211628522 2211628522 -9.00000000
8.10969734 -0.91108155 1.00200975 90 7 9641 8.22200000 2211628524 2211628524 7.00000000
5.14070940 -0.57844007 -0.63518304 6 8 9642 5.21200000 2211628527 2211628527 -7.00000000
8.19728088 -0.92381871 1.30654061 7 9 9643 8.35200000 2211628529 2211628529 9.00000000
6.58104181 -0.74167150 -0.57941139 36 10 9643 6.64800000 2211628531 2211628531 -5.00000000
8.10517597 -0.91630393 -0.42748010 17 12 9645 8.16800000 2211628536 2211628536 -3.00000000
8.08891106 -0.91732496 -0.14209749 14 14 9647 8.14200000 2211628540 2211628540 -1.00000000
8.14639854 -0.92528450 2.19685602 47 15 9648 8.48800000 2211628543 2211628543 15.00000000
2.19556856 -0.25248277 -0.59217799 4 0 9656 2.28800000 2211628564 2211628564 -15.00000000
8.07736492 -0.93029737 0.14192297 12 1 9657 8.13200000 2211628566 2211628566 1.00000000
2.58055925 -0.29766810 -0.59971952 4 2 9658 2.66600000 2211628568 2211628568 -13.00000000
8.10688019 -0.93656427 0.42768943 10 3 9659 8.17200000 2211628570 2211628570 3.00000000
3.08534741 -0.35644117 -0.60371965 5 4 9659 3.16400000 2211628573 2211628573 -11.00000000
8.09684753 -0.93683720 0.71310830 83 5 9660 8.18200000 2211628575 2211628575 5.00000000
3.87543535 -0.44908863 -0.61791611 4 6 9661 3.95000000 2211628577 2211628577 -9.00000000
8.10235977 -0.94034123 1.00152230 90 7 9662 8.21800000 2211628580 2211628580 7.00000000
5.15235758 -0.59888214 -0.63688916 6 8 9663 5.22600000 2211628582 2211628582 -7.00000000
8.20561218 -0.95522755 1.30841792 7 9 9664 8.36400000 2211628584 2211628584 9.00000000
6.58421612 -0.76647836 -0.57993430 80 10 9664 6.65400000 2211628587 2211628587 -5.00000000
8.09581184 -0.94530982 -0.42716607 17 12 9666 8.16200000 2211628591 2211628591 -3.00000000
8.08549500 -0.94696617 -0.14209749 14 14 9668 8.14200000 2211628596 2211628596 -1.00000000
8.15079403 -0.95461398 2.19892669 49 15 9668 8.49600000 2211628598 2211628598 15.00000000
2.19851089 -0.26060000 -0.59321326 4 0 9676 2.29200000 2211628619 2211628619 -15.00000000
8.08598328 -0.95990139 0.14213240 12 1 9677 8.14400000 2211628621 2211628621 1.00000000
2.57176399 -0.30575386 -0.59791988 5 2 9678 2.65800000 2211628623 2211628623 -13.00000000
8.09959507 -0.96438456 0.42748010 13 3 9679 8.16800000 2211628626 2211628626 3.00000000
3.09383178 -0.36836946 -0.60562778 5 4 9679 3.17400000 2211628628 2211628628 -11.00000000
8.09946251 -0.96580249 0.71363121 79 5 9680 8.18800000 2211628630 2211628630 5.00000000
3.85226822 -0.46003711 -0.61447459 4 6 9681 3.92800000 2211628633 2211628633 -9.00000000
8.09902763 -0.96861804 1.00152230 90 7 9682 8.21800000 2211628635 2211628635 7.00000000
5.14038086 -0.61568320 -0.63567048 6 8 9683 5.21600000 2211628637 2211628637 -7.00000000
8.20418930 -0.98409992 1.30873072 7 9 9684 8.36600000 2211628640 2211628640 9.00000000
8.07461548 -0.97141665 -0.42622402 17 12 9686 8.14400000 2211628646 2211628646 -3.00000000
8.10596371 -0.97805858 -0.14251634 14 14 9688 8.16600000 2211628651 2211628651 -1.00000000
8.15124798 -0.98352259 2.19996190 47 15 9688 8.50000000 2211628653 2211628653 15.00000000
2.20142293 -0.26874083 -0.59424853 4 0 9696 2.29600000 2211628674 2211628674 -15.00000000
8.09052277 -0.98909152 0.14227201 12 1 9697 8.15200000 2211628676 2211628676 1.00000000
2.57068110 -0.31472912 -0.59791988 5 2 9698 2.65800000 2211628679 2211628679 -13.00000000
8.09437084 -0.99099576 0.42737541 13 3 9698 8.16600000 2211628681 2211628681 3.00000000
3.08668113 -0.37844995 -0.60448289 5 4 9699 3.16800000 2211628683 2211628683 -11.00000000
8.11186218 -0.99601150 0.71502572 76 5 9700 8.20400000 2211628686 2211628686 5.00000000
3.86632395 -0.47540987 -0.61697751 4 6 9701 3.94400000 2211628688 2211628688 -9.00000000
8.10150814 -0.99761087 1.00225353 92 7 9702 8.22400000 2211628690 2211628690 7.00000000
5.12637901 -0.63216501 -0.63420808 4 8 9703 5.20400000 2211628692 2211628692 -7.00000000
8.18715763 -1.00960827 1.30654061 7 9 9703 8.35200000 2211628695 2211628695 9.00000000
6.58859158 -0.81364679 -0.58080590 49 10 9704 6.66400000 2211628697 2211628697 -5.00000000
8.08505058 -1.00131476 -0.42695674 17 12 9706 8.15800000 2211628702 2211628702 -3.00000000
8.07868671 -1.00339007 -0.14209749 14 14 9708 8.14200000 2211628706 2211628706 -1.00000000
8.15543365 -1.01292217 2.20203233 47 15 9708 8.50800000 2211628709 2211628709 15.00000000
2.18513727 -0.27449730 -0.59010744 4 0 9716 2.28000000 2211628729 2211628729 -15.00000000
8.10289383 -1.01932347 0.14255126 12 1 9717 8.16800000 2211628732 2211628732 1.00000000
2.57343364 -0.32418770 -0.59881973 4 2 9718 2.66200000 2211628734 2211628734 -13.00000000
8.09662819 -1.02140641 0.42768943 10 3 9719 8.17200000 2211628736 2211628736 3.00000000
3.08728909 -0.38946790 -0.60486454 5 4 9719 3.17000000 2211628739 2211628739 -11.00000000
8.10438347 -1.02382171 0.71467710 79 5 9720 8.20000000 2211628741 2211628741 5.00000000
3.86856031 -0.48939881 -0.61760324 4 6 9721 3.94800000 2211628743 2211628743 -9.00000000
8.10585403 -1.02688229 1.00322843 92 7 9722 8.23200000 2211628745 2211628745 7.00000000
5.13398790 -0.65130472 -0.63542676 2 8 9723 5.21400000 2211628748 2211628748 -7.00000000
8.18928051 -1.04035568 1.30747926 5 9 9724 8.35800000 2211628750 2211628750 9.00000000
8.09735584 -1.03154993 -0.42779410 17 12 9726 8.17400000 2211628757 2211628757 -3.00000000
8.07513523 -1.03158379 -0.14209749 14 14 9728 8.14200000 2211628762 2211628762 -1.00000000
8.14783478 -1.04231632 2.20099711 49 15 9729 8.50400000 2211628764 2211628764 15.00000000
2.18038297 -0.28124768 -0.58907217 4 0 9735 2.27600000 2211628785 2211628785 -15.00000000
8.09550190 -1.04567564 0.14248145 12 1 9736 8.16400000 2211628787 2211628787 1.00000000
2.58394051 -0.33421957 -0.60151911 5 2 9737 2.67400000 2211628789 2211628789 -13.00000000
8.10130310 -1.04786241 0.42810813 13 3 9737 8.18000000 2211628792 2211628792 3.00000000
3.08987451 -0.40020794 -0.60562778 5 4 9738 3.17400000 2211628794 2211628794 -11.00000000
8.08908844 -1.04915357 0.71363121 79 5 9739 8.18800000 2211628796 2211628796 5.00000000
3.85124469 -0.50018936 -0.61510032 6 6 9740 3.93200000 2211628798 2211628798 -9.00000000
8.11224651 -1.05503666 1.00444710 87 7 9741 8.24200000 2211628801 2211628801 7.00000000
5.11014652 -0.66550612 -0.63274562 2 8 9742 5.19200000 2211628803 2211628803 -7.00000000
8.18970394 -1.06801748 1.30810499 5 9 9743 8.36200000 2211628805 2211628805 9.00000000
6.55721712 -0.85512531 -0.57853985 16 10 9743 6.63800000 2211628808 2211628808 -5.00000000
8.09785175 -1.05891395 -0.42800346 17 12 9745 8.17800000 2211628812 2211628812 -3.00000000
8.08753204 -1.06043601 -0.14237674 14 14 9747 8.15800000 2211628817 2211628817 -1.00000000
8.14260387 -1.06765711 2.20047951 45 15 9747 8.50200000 2211628819 2211628819 15.00000000
2.18513322 -0.28961840 -0.59062505 4 0 9755 2.28200000 2211628840 2211628840 -15.00000000
8.08783817 -1.07340169 0.14241163 12 1 9756 8.16000000 2211628842 2211628842 1.00000000
2.57503104 -0.34221029 -0.59971952 5 2 9757 2.66600000 2211628844 2211628844 -13.00000000
8.10749531 -1.07745039 0.42863148 13 3 9757 8.19000000 2211628847 2211628847 3.00000000
3.08456659 -0.41047320 -0.60486454 5 4 9758 3.17000000 2211628849 2211628849 -11.00000000
8.09130192 -1.07817280 0.71415418 76 5 9759 8.19400000 2211628851 2211628851 5.00000000
3.82989502 -0.51101708 -0.61197162 4 6 9760 3.91200000 2211628854 2211628854 -9.00000000
8.10261154 -1.08255863 1.00371587 90 7 9761 8.23600000 2211628856 2211628856 7.00000000
5.13927364 -0.68755144 -0.63664544 2 8 9762 5.22400000 2211628858 2211628858 -7.00000000
8.19571495 -1.09790981 1.30966938 7 9 9763 8.37200000 2211628861 2211628861 9.00000000
6.56604052 -0.87959629 -0.57958567 16 10 9763 6.65000000 2211628863 2211628863 -5.00000000
8.08816719 -1.08637667 -0.42768943 17 12 9765 8.17200000 2211628868 2211628868 -3.00000000
8.08576298 -1.08892715 -0.14241163 16 14 9767 8.16000000 2211628872 2211628872 -1.00000000
8.14457130 -1.09684718 2.20203233 47 15 9767 8.50800000 2211628874 2211628874 15.00000000
2.18607497 -0.29712316 -0.59114271 4 0 9774 2.28400000 2211628895 2211628895 -15.00000000
8.08027172 -1.09967673 0.14234182 15 1 9775 8.15600000 2211628897 2211628897 1.00000000
2.56615853 -0.34969503 -0.59791988 5 2 9776 2.65800000 2211628900 2211628900 -13.00000000
8.10566330 -1.10601437 0.42873615 13 3 9777 8.19200000 2211628902 2211628902 3.00000000
3.08707881 -0.42123058 -0.60562778 5 4 9777 3.17400000 2211628904 2211628904 -11.00000000
8.10939598 -1.10796547 0.71607161 90 5 9778 8.21600000 2211628907 2211628907 5.00000000
3.83600807 -0.52478570 -0.61322308 6 6 9779 3.92000000 2211628909 2211628909 -9.00000000
8.09111023 -1.10834432 1.00274098 92 7 9780 8.22800000 2211628911 2211628911 7.00000000
5.12123156 -0.70243210 -0.63469553 2 8 9781 5.20800000 2211628914 2211628914 -7.00000000
8.21962452 -1.12741005 1.31404948 7 9 9781 8.40000000 2211628916 2211628916 9.00000000
6.57295704 -0.90272069 -0.58045727 16 10 9782 6.66000000 2211628918 2211628918 -5.00000000
8.08452034 -1.11319208 -0.42768943 17 12 9784 8.17200000 2211628923 2211628923 -3.00000000
8.09003067 -1.11682844 -0.14255126 16 14 9786 8.16800000 2211628927 2211628927 -1.00000000
8.15217495 -1.12685740 2.20513821 47 15 9787 8.52000000 2211628930 2211628930 15.00000000
2.19650459 -0.30635333 -0.59424853 4 0 9794 2.29600000 2211628950 2211628950 -15.00000000
8.08826637 -1.12953484 0.14255126 12 1 9795 8.16800000 2211628953 2211628953 1.00000000
2.56106234 -0.35811073 -0.59702009 4 2 9796 2.65400000 2211628955 2211628955 -13.00000000
8.09403896 -1.13178122 0.42831746 13 3 9796 8.18400000 2211628957 2211628957 3.00000000
3.07975674 -0.43118730 -0.60448289 5 4 9797 3.16800000 2211628960 2211628960 -11.00000000
8.10547924 -1.13626575 0.71607161 79 5 9798 8.21600000 2211628962 2211628962 5.00000000
3.84197760 -0.53927094 -0.61447459 4 6 9799 3.92800000 2211628964 2211628964 -9.00000000
8.09505558 -1.13768589 1.00371587 90 7 9800 8.23600000 2211628967 2211628967 7.00000000
5.12464571 -0.72113413 -0.63542676 4 8 9801 5.21400000 2211628969 2211628969 -7.00000000
8.20761299 -1.15642643 1.31279802 7 9 9802 8.39200000 2211628971 2211628971 9.00000000
6.58160353 -0.92732692 -0.58150309 16 10 9802 6.67200000 2211628974 2211628974 -5.00000000
8.08058548 -1.14140546 -0.42768943 21 12 9804 8.17200000 2211628978 2211628978 -3.00000000
8.08014297 -1.14421999 -0.14244655 18 14 9806 8.16200000 2211628983 2211628983 -1.00000000
8.15201759 -1.15584934 2.20617366 47 15 9807 8.52400000 2211628985 2211628985 15.00000000
2.18777227 -0.31292453 -0.59217799 4 0 9814 2.28800000 2211629006 2211629006 -15.00000000
8.08427429 -1.15776134 0.14255126 12 1 9815 8.16800000 2211629008 2211629008 1.00000000
2.56365466 -0.36760151 -0.59791988 5 2 9816 2.65800000 2211629010 2211629010 -13.00000000
8.09992409 -1.16144526 0.42884082 13 3 9816 8.19400000 2211629013 2211629013 3.00000000
3.07045960 -0.44081903 -0.60295641 5 4 9817 3.16000000 2211629015 2211629015 -11.00000000
8.09357548 -1.16341829 0.71537435 79 5 9818 8.20800000 2211629017 2211629017 5.00000000
3.84789276 -0.55380428 -0.61572605 6 6 9819 3.93600000 2211629020 2211629020 -9.00000000
8.10282326 -1.16763473 1.00517833 95 7 9820 8.24800000 2211629022 2211629022 7.00000000
5.13192129 -0.74043542 -0.63664544 6 8 9821 5.22400000 2211629024 2211629024 -7.00000000
8.18027115 -1.18025243 1.30904365 7 9 9821 8.36800000 2211629027 2211629027 9.00000000
6.58029842 -0.95058024 -0.58167744 8 10 9822 6.67400000 2211629029 2211629029 -5.00000000
8.09236526 -1.17189503 -0.42852682 17 12 9824 8.18800000 2211629033 2211629033 -3.00000000
8.07016277 -1.17155612 -0.14234182 16 14 9826 8.15600000 2211629038 2211629038 -1.00000000
8.14793301 -1.18429816 2.20617366 49 15 9827 8.52400000 2211629040 2211629040 15.00000000
2.17137527 -0.31831771 -0.58803689 4 0 9834 2.27200000 2211629061 2211629061 -15.00000000
8.08809757 -1.18713522 0.14269088 12 1 9835 8.17600000 2211629063 2211629063 1.00000000
2.56235576 -0.37654811 -0.59791988 5 2 9836 2.65800000 2211629066 2211629066 -13.00000000
8.10965347 -1.19174492 0.42957354 15 3 9836 8.20800000 2211629068 2211629068 3.00000000
3.07278681 -0.45210582 -0.60371965 5 4 9837 3.16400000 2211629070 2211629070 -11.00000000
8.08946514 -1.19166303 0.71537435 79 5 9838 8.20800000 2211629073 2211629073 5.00000000
3.82053113 -0.56348562 -0.61165875 6 6 9839 3.91000000 2211629075 2211629075 -9.00000000
8.10655403 -1.19707167 1.00615335 90 7 9840 8.25600000 2211629077 2211629077 7.00000000
5.11752272 -0.75660270 -0.63518304 6 8 9841 5.21200000 2211629080 2211629080 -7.00000000
8.18391800 -1.20995533 1.31029510 10 9 9841 8.37600000 2211629082 2211629082 9.00000000
8.05512524 -1.19235063 -0.71241105 17 10 9842 8.17400000 2211629084 2211629084 -5.00000000
8.09612751 -1.20130813 -0.42894551 17 12 9844 8.19600000 2211629089 2211629089 -3.00000000
8.07789230 -1.20148420 -0.14255126 16 14 9846 8.16800000 2211629093 2211629093 -1.00000000
8.13610649 -1.21159434 2.20410299 49 15 9847 8.51600000 2211629096 2211629096 15.00000000
2.17794967 -0.32666269 -0.59010744 4 0 9853 2.28000000 2211629116 2211629116 -15.00000000
8.07225132 -1.21216798 0.14248145 12 1 9854 8.16400000 2211629119 2211629119 1.00000000
2.56494713 -0.38562256 -0.59881973 5 2 9855 2.66200000 2211629121 2211629121 -13.00000000
8.11158180 -1.21952176 0.42988753 15 3 9855 8.21400000 2211629123 2211629123 3.00000000
3.07127070 -0.46229306 -0.60371965 5 4 9856 3.16400000 2211629126 2211629126 -11.00000000
8.09137917 -1.21937287 0.71589726 83 5 9857 8.21400000 2211629128 2211629128 5.00000000
3.81668830 -0.57585716 -0.61134589 6 6 9858 3.90800000 2211629130 2211629130 -9.00000000
8.09272480 -1.22246492 1.00493455 90 7 9859 8.24600000 2211629132 2211629132 7.00000000
5.13068771 -0.77594358 -0.63713294 6 8 9860 5.22800000 2211629135 2211629135 -7.00000000
8.19548607 -1.23945069 1.31279802 10 9 9860 8.39200000 2211629137 2211629137 9.00000000
8.05112743 -1.21905589 -0.71241105 17 10 9861 8.17400000 2211629139 2211629139 -5.00000000
8.09407425 -1.22844887 -0.42905018 17 12 9863 8.19800000 2211629144 2211629144 -3.00000000
8.08177090 -1.22946787 -0.14269088 16 14 9865 8.17600000 2211629149 2211629149 -1.00000000
8.13989925 -1.23831081 2.20617366 47 15 9865 8.52400000 2211629151 2211629151 15.00000000
2.19016242 -0.33631566 -0.59373087 4 0 9873 2.29400000 2211629172 2211629172 -15.00000000
8.07587719 -1.24155354 0.14262107 12 1 9874 8.17200000 2211629174 2211629174 1.00000000
2.55780745 -0.39368421 -0.59746999 6 2 9875 2.65600000 2211629176 2211629176 -13.00000000
8.10135365 -1.24691761 0.42957354 18 3 9875 8.20800000 2211629179 2211629179 3.00000000
3.06963825 -0.47301099 -0.60371965 5 4 9876 3.16400000 2211629181 2211629181 -11.00000000
8.09888840 -1.24943233 0.71694314 83 5 9877 8.22600000 2211629183 2211629183 5.00000000
3.82636809 -0.59098548 -0.61322308 6 6 9878 3.92000000 2211629185 2211629185 -9.00000000
8.09429455 -1.25161636 1.00566578 90 7 9879 8.25200000 2211629188 2211629188 7.00000000
5.10048389 -0.78959662 -0.63372058 8 8 9880 5.20000000 2211629190 2211629190 -7.00000000
8.18915749 -1.26774848 1.31248522 10 9 9880 8.39000000 2211629192 2211629192 9.00000000
8.02713394 -1.24410057 -0.71066791 17 10 9881 8.15400000 2211629195 2211629195 -5.00000000
8.07789516 -1.25485551 -0.42842212 17 12 9883 8.18600000 2211629199 2211629199 -3.00000000
8.08335781 -1.25859404 -0.14279559 14 14 9885 8.18200000 2211629204 2211629204 -1.00000000
8.14675903 -1.26992202 2.20927930 47 15 9886 8.53600000 2211629206 2211629206 15.00000000
2.18515825 -0.34335893 -0.59269559 4 0 9893 2.29000000 2211629227 2211629227 -15.00000000
8.09124756 -1.27284348 0.14297011 12 1 9894 8.19200000 2211629229 2211629229 1.00000000
2.54871750 -0.40139753 -0.59567040 6 2 9895 2.64800000 2211629232 2211629232 -13.00000000
8.08489132 -1.27473569 0.42894551 15 3 9896 8.19600000 2211629234 2211629234 3.00000000
3.05633259 -0.48188853 -0.60142994 5 4 9896 3.15200000 2211629236 2211629236 -11.00000000
8.10431767 -1.27924824 0.71781468 76 5 9897 8.23600000 2211629238 2211629238 5.00000000
3.81257486 -0.60248840 -0.61134589 6 6 9898 3.90800000 2211629241 2211629241 -9.00000000
8.09771824 -1.28110385 1.00664079 90 7 9899 8.26000000 2211629243 2211629243 7.00000000
5.08005047 -0.80460101 -0.63152695 8 8 9900 5.18200000 2211629245 2211629245 -7.00000000
8.18468189 -1.29632628 1.31248522 10 9 9900 8.39000000 2211629248 2211629248 9.00000000
7.99912882 -1.26836872 -0.70857620 17 10 9901 8.13000000 2211629250 2211629250 -5.00000000
8.07938290 -1.28398538 -0.42873615 17 12 9903 8.19200000 2211629255 2211629255 -3.00000000
8.08286476 -1.28743160 -0.14286540 14 14 9905 8.18600000 2211629259 2211629259 -1.00000000
8.15013409 -1.29814613 2.21134996 47 15 9905 8.54400000 2211629262 2211629262 15.00000000
2.17250204 -0.34914526 -0.58958977 4 0 9913 2.27800000 2211629282 2211629282 -15.00000000
8.08675575 -1.30107951 0.14297011 15 1 9914 8.19200000 2211629285 2211629285 1.00000000
2.55692053 -0.41184121 -0.59791988 7 2 9915 2.65800000 2211629287 2211629287 -13.00000000
8.08236408 -1.30326748 0.42905018 13 3 9916 8.19800000 2211629289 2211629289 3.00000000
3.05463195 -0.49255419 -0.60142994 5 4 9916 3.15200000 2211629291 2211629291 -11.00000000
8.09586906 -1.30689478 0.71746606 79 5 9917 8.23200000 2211629294 2211629294 5.00000000
3.82994938 -0.61894453 -0.61447459 6 6 9918 3.92800000 2211629296 2211629296 -9.00000000
8.10103607 -1.31063056 1.00761569 95 7 9919 8.26800000 2211629298 2211629298 7.00000000
5.08113050 -0.82296354 -0.63201439 8 8 9920 5.18600000 2211629301 2211629301 -7.00000000
8.18182564 -1.32663214 1.31279802 10 9 9921 8.39200000 2211629303 2211629303 9.00000000
8.01038647 -1.29883420 -0.70997065 17 10 9921 8.14600000 2211629305 2211629305 -5.00000000
8.09062290 -1.31474268 -0.42957354 17 12 9923 8.20800000 2211629310 2211629310 -3.00000000
8.07437420 -1.31499541 -0.14279559 14 14 9925 8.18200000 2211629315 2211629315 -1.00000000
8.14150810 -1.32738745 2.21031475 47 15 9926 8.54000000 2211629317 2211629317 15.00000000
2.16745758 -0.35610020 -0.58855450 4 0 9933 2.27400000 2211629338 2211629338 -15.00000000
8.08216476 -1.32929957 0.14297011 12 1 9934 8.19200000 2211629340 2211629340 1.00000000
2.56123590 -0.42171383 -0.59926963 6 2 9935 2.66400000 2211629342 2211629342 -13.00000000
8.09747219 -1.33472049 0.43009689 13 3 9936 8.21800000 2211629344 2211629344 3.00000000
3.05676818 -0.50385243 -0.60219318 5 4 9936 3.15600000 2211629347 2211629347 -11.00000000
8.08929157 -1.33482230 0.71729177 76 5 9937 8.23000000 2211629349 2211629349 5.00000000
3.81217384 -0.62973422 -0.61197162 6 6 9938 3.91200000 2211629351 2211629351 -9.00000000
8.10816288 -1.34084368 1.00907815 90 7 9939 8.28000000 2211629354 2211629354 7.00000000
5.07039309 -0.83939809 -0.63103944 8 8 9940 5.17800000 2211629356 2211629356 -7.00000000
8.17738152 -1.35375679 1.31279802 10 9 9940 8.39200000 2211629358 2211629358 9.00000000
8.01366615 -1.32809079 -0.71066791 17 10 9941 8.15400000 2211629361 2211629361 -5.00000000
8.19257927 -1.35921109 1.61424410 3 11 9942 8.46000000 2211629363 2211629363 11.00000000
8.09189510 -1.34395802 -0.42988753 12 12 9943 8.21400000 2211629365 2211629365 -3.00000000
8.07762527 -1.34448552 -0.14293520 14 14 9945 8.19000000 2211629370 2211629370 -1.00000000
8.14087296 -1.35501277 2.21134996 47 15 9945 8.54400000 2211629372 2211629372 15.00000000
2.17191696 -0.36462340 -0.59010744 4 0 9953 2.28000000 2211629393 2211629393 -15.00000000
8.08141899 -1.35816634 0.14303993 12 1 9954 8.19600000 2211629395 2211629395 1.00000000
2.54053092 -0.42741853 -0.59477061 6 2 9955 2.64400000 2211629397 2211629397 -13.00000000
8.10655117 -1.36529982 0.43082958 13 3 9956 8.23200000 2211629400 2211629400 3.00000000
3.05886292 -0.51517159 -0.60295641 5 4 9956 3.16000000 2211629402 2211629402 -11.00000000
8.09244156 -1.36437607 0.71798903 76 5 9957 8.23800000 2211629404 2211629404 5.00000000
3.79436994 -0.64040732 -0.60946870 4 6 9958 3.89600000 2211629407 2211629407 -9.00000000
8.09364605 -1.36748481 1.00785947 90 7 9959 8.27000000 2211629409 2211629409 7.00000000
5.07526112 -0.85841614 -0.63201439 8 8 9960 5.18600000 2211629411 2211629411 -7.00000000
8.19378948 -1.38734674 1.31623960 5 9 9961 8.41400000 2211629414 2211629414 9.00000000
7.90683079 -1.33875990 -0.70160371 13 10 9961 8.05000000 2211629416 2211629416 -5.00000000
8.08321667 -1.37152755 -0.42967820 17 12 9963 8.21000000 2211629420 2211629420 -3.00000000
8.08273983 -1.37434947 -0.14310974 12 14 9965 8.20000000 2211629425 2211629425 -1.00000000
8.14346981 -1.38613808 2.21342039 47 15 9966 8.55200000 2211629427 2211629427 15.00000000
2.16885662 -0.37111905 -0.58958977 4 0 9971 2.27800000 2211629448 2211629448 -15.00000000
8.08105469 -1.38422334 0.14310974 12 1 9972 8.20000000 2211629450 2211629450 1.00000000
2.54301691 -0.43605641 -0.59567040 6 2 9973 2.64800000 2211629453 2211629453 -13.00000000
8.09828472 -1.39008474 0.43062025 18 3 9974 8.22800000 2211629455 2211629455 3.00000000
3.05722928 -0.52477872 -0.60295641 5 4 9974 3.16000000 2211629457 2211629457 -11.00000000
8.09989738 -1.39181685 0.71903485 76 5 9975 8.25000000 2211629460 2211629460 5.00000000
3.78844571 -0.65165478 -0.60884291 6 6 9976 3.89200000 2211629462 2211629462 -9.00000000
8.08539772 -1.39223123 1.00737202 90 7 9977 8.26600000 2211629464 2211629464 7.00000000
5.06080198 -0.87233311 -0.63055199 8 8 9978 5.17400000 2211629467 2211629467 -7.00000000
8.19937038 -1.41332972 1.31780398 7 9 9978 8.42400000 2211629469 2211629469 9.00000000
7.83190441 -1.35139716 -0.69532853 12 10 9979 7.97800000 2211629471 2211629471 -5.00000000
8.08083630 -1.39725518 -0.42978287 17 12 9981 8.21200000 2211629476 2211629476 -3.00000000
8.08035278 -1.40007675 -0.14314464 14 14 9983 8.20200000 2211629480 2211629480 -1.00000000
8.14693451 -1.41161335 2.21549106 47 15 9983 8.56000000 2211629483 2211629483 15.00000000
2.17135382 -0.37935245 -0.59062505 4 0 9991 2.28200000 2211629503 2211629503 -15.00000000
8.08208275 -1.41345656 0.14321445 12 1 9992 8.20600000 2211629506 2211629506 1.00000000
2.53764033 -0.44425845 -0.59477061 6 2 9993 2.64400000 2211629508 2211629508 -13.00000000
8.08551407 -1.41696548 0.43020156 15 3 9994 8.22000000 2211629510 2211629510 3.00000000
3.04764366 -0.53409171 -0.60142994 5 4 9994 3.15200000 2211629513 2211629513 -11.00000000
8.10283947 -1.42145944 0.71973211 76 5 9995 8.25800000 2211629515 2211629515 5.00000000
3.79003906 -0.66555828 -0.60946870 6 6 9996 3.89600000 2211629517 2211629517 -9.00000000
8.08830833 -1.42182076 1.00834692 87 7 9997 8.27400000 2211629520 2211629520 7.00000000
5.06554604 -0.89136940 -0.63152695 8 8 9998 5.18200000 2211629522 2211629522 -7.00000000
8.19413471 -1.44337249 1.31780398 7 9 9999 8.42400000 2211629524 2211629524 9.00000000
7.80359316 -1.37457979 -0.69323677 17 10 9999 7.95400000 2211629526 2211629526 -5.00000000
8.09164429 -1.42823136 -0.43062025 17 12 10001 8.22800000 2211629531 2211629531 -3.00000000
8.07147789 -1.42757738 -0.14307483 20 14 10003 8.19800000 2211629536 2211629536 -1.00000000
8.14551067 -1.44213748 2.21652627 47 15 10004 8.56400000 2211629538 2211629538 15.00000000
2.16621280 -0.38625136 -0.58958977 4 0 10011 2.27800000 2211629559 2211629559 -15.00000000
8.09284878 -1.44447064 0.14349368 15 1 10012 8.22200000 2211629561 2211629561 1.00000000
2.54758430 -0.45517024 -0.59746999 6 2 10013 2.65600000 2211629563 2211629563 -13.00000000
8.09034920 -1.44693863 0.43072492 18 3 10014 8.23000000 2211629566 2211629566 3.00000000
3.03416514 -0.54265290 -0.59914023 5 4 10014 3.14000000 2211629568 2211629568 -11.00000000
8.09782791 -1.44973493 0.71973211 76 5 10015 8.25800000 2211629570 2211629570 5.00000000
3.79935908 -0.68087465 -0.61134589 6 6 10016 3.90800000 2211629573 2211629573 -9.00000000
8.09697342 -1.45249915 1.01005316 90 7 10017 8.28800000 2211629575 2211629575 7.00000000
5.05458832 -0.90764260 -0.63055199 8 8 10018 5.17400000 2211629577 2211629577 -7.00000000
8.17374897 -1.46774423 1.31530094 7 9 10018 8.40800000 2211629579 2211629579 9.00000000
7.78698206 -1.39969611 -0.69219089 12 10 10019 7.94200000 2211629582 2211629582 -5.00000000
8.08464336 -1.45611382 -0.43051559 17 12 10021 8.22600000 2211629586 2211629586 -3.00000000
8.07038116 -1.45645368 -0.14314464 16 14 10023 8.20200000 2211629591 2211629591 -1.00000000
8.13688183 -1.46845484 2.21549106 47 15 10023 8.56000000 2211629593 2211629593 15.00000000
2.15724874 -0.39242747 -0.58751923 4 0 10031 2.27000000 2211629614 2211629614 -15.00000000
8.07398605 -1.47020352 0.14324935 15 1 10032 8.20800000 2211629616 2211629616 1.00000000
2.55364847 -0.46545798 -0.59926963 6 2 10033 2.66400000 2211629619 2211629619 -13.00000000
8.09507275 -1.47696292 0.43124828 18 3 10034 8.24000000 2211629621 2211629621 3.00000000
3.04770350 -0.55605984 -0.60219318 5 4 10034 3.15600000 2211629623 2211629623 -11.00000000
8.09075832 -1.47763479 0.71955782 76 5 10035 8.25600000 2211629626 2211629626 5.00000000
3.78530025 -0.69200128 -0.60946870 4 6 10036 3.89600000 2211629628 2211629628 -9.00000000
8.09771252 -1.48182595 1.01078439 87 7 10037 8.29400000 2211629630 2211629630 7.00000000
5.03967381 -0.92313492 -0.62908953 8 8 10038 5.16200000 2211629632 2211629632 -7.00000000
8.18774414 -1.50125515 1.31842971 7 9 10039 8.42800000 2211629635 2211629635 9.00000000
7.75461245 -1.42183876 -0.68975055 12 10 10039 7.91400000 2211629637 2211629637 -5.00000000
8.09129810 -1.48649085 -0.43114361 17 12 10041 8.23800000 2211629642 2211629642 -3.00000000
8.07311535 -1.48606372 -0.14328426 14 14 10043 8.21000000 2211629646 2211629646 -1.00000000
8.13904381 -1.49966836 2.21756148 49 15 10044 8.56800000 2211629649 2211629649 15.00000000
2.16353345 -0.40098724 -0.58958977 4 0 10050 2.27800000 2211629669 2211629669 -15.00000000
8.07496452 -1.49806404 0.14335407 15 1 10051 8.21400000 2211629672 2211629672 1.00000000
2.53676319 -0.47107723 -0.59567040 6 2 10052 2.64800000 2211629674 2211629674 -13.00000000
8.10191250 -1.50598896 0.43187630 18 3 10053 8.25200000 2211629676 2211629676 3.00000000
3.03233147 -0.56365186 -0.59952188 4 4 10053 3.14200000 2211629679 2211629679 -11.00000000
8.08777237 -1.50482106 0.71973211 72 5 10054 8.25800000 2211629681 2211629681 5.00000000
3.77910066 -0.70382667 -0.60884291 4 6 10055 3.89200000 2211629683 2211629683 -9.00000000
8.09665680 -1.50939834 1.01127183 90 7 10056 8.29800000 2211629685 2211629685 7.00000000
5.05609894 -0.94348341 -0.63152695 8 8 10057 5.18200000 2211629688 2211629688 -7.00000000
8.18492985 -1.52733266 1.31874251 5 9 10057 8.43000000 2211629690 2211629690 9.00000000
7.77923250 -1.45303345 -0.69236523 17 10 10058 7.94400000 2211629692 2211629692 -5.00000000
8.06865597 -1.51000786 -0.43020156 17 12 10060 8.22000000 2211629697 2211629697 -3.00000000
8.08386612 -1.51577520 -0.14356349 14 14 10062 8.22600000 2211629702 2211629702 -1.00000000
8.14188766 -1.52665460 2.21963215 47 15 10062 8.57600000 2211629704 2211629704 15.00000000
2.16591716 -0.40925428 -0.59062505 4 0 10070 2.28200000 2211629725 2211629725 -15.00000000
8.08147526 -1.52847147 0.14356349 18 1 10071 8.22600000 2211629727 2211629727 1.00000000
2.52552962 -0.47811690 -0.59342086 6 2 10072 2.63800000 2211629729 2211629729 -13.00000000
8.09464359 -1.53388894 0.43177164 15 3 10073 8.25000000 2211629732 2211629732 3.00000000
3.03034544 -0.57423323 -0.59952188 4 4 10073 3.14200000 2211629734 2211629734 -11.00000000
8.09225750 -1.53489995 0.72060370 76 5 10074 8.26800000 2211629736 2211629736 5.00000000
3.76885796 -0.71554005 -0.60759145 6 6 10075 3.88400000 2211629738 2211629738 -9.00000000
8.08548832 -1.53653991 1.01054060 92 7 10076 8.29200000 2211629741 2211629741 7.00000000
5.04107428 -0.95890105 -0.63006449 8 8 10077 5.17000000 2211629743 2211629743 -7.00000000
8.17566681 -1.55515587 1.31811678 5 9 10077 8.42600000 2211629745 2211629745 9.00000000
7.71539640 -1.46899962 -0.68713588 17 10 10078 7.88400000 2211629748 2211629748 -5.00000000
8.06725883 -1.53891206 -0.43041089 17 12 10080 8.22400000 2211629752 2211629752 -3.00000000
8.08441830 -1.54511011 -0.14366820 12 14 10082 8.23200000 2211629757 2211629757 -1.00000000
8.14030361 -1.55579114 2.22066736 49 15 10082 8.58000000 2211629759 2211629759 15.00000000
2.16826940 -0.41754287 -0.59166032 4 0 10090 2.28600000 2211629780 2211629780 -15.00000000
8.08198166 -1.55780721 0.14366820 15 1 10091 8.23200000 2211629782 2211629782 1.00000000
2.52958560 -0.48803723 -0.59477061 6 2 10092 2.64400000 2211629785 2211629785 -13.00000000
8.08335686 -1.56099904 0.43145761 15 3 10093 8.24400000 2211629787 2211629787 3.00000000
3.03410554 -0.58592433 -0.60066670 5 4 10093 3.14800000 2211629789 2211629789 -11.00000000
8.09858799 -1.56540656 0.72164953 76 5 10094 8.28000000 2211629791 2211629791 5.00000000
3.78573155 -0.73244375 -0.61072016 4 6 10095 3.90400000 2211629794 2211629794 -9.00000000
8.08592224 -1.56588650 1.01127183 90 7 10096 8.29800000 2211629796 2211629796 7.00000000
5.01820803 -0.97271430 -0.62762713 8 8 10097 5.15000000 2211629798 2211629798 -7.00000000
8.18348694 -1.58774436 1.32030690 7 9 10098 8.44000000 2211629801 2211629801 9.00000000
7.72391319 -1.49857879 -0.68835604 17 10 10098 7.89800000 2211629803 2211629803 -5.00000000
8.07360172 -1.56934917 -0.43103895 17 12 10100 8.23600000 2211629808 2211629808 -3.00000000
8.07308674 -1.57217383 -0.14356349 12 14 10102 8.22600000 2211629812 2211629812 -1.00000000
8.14999390 -1.58715081 2.22480845 47 15 10102 8.59600000 2211629814 2211629814 15.00000000
2.15163302 -0.42213359 -0.58751923 4 0 10110 2.27000000 2211629835 2211629835 -15.00000000
8.08826733 -1.58832109 0.14387764 15 1 10111 8.24400000 2211629838 2211629838 1.00000000
2.53169107 -0.49761584 -0.59567040 6 2 10112 2.64800000 2211629840 2211629840 -13.00000000
8.08569813 -1.59074795 0.43187630 13 3 10113 8.25200000 2211629842 2211629842 3.00000000
3.01855755 -0.59385896 -0.59799540 4 4 10113 3.13400000 2211629844 2211629844 -11.00000000
8.09307384 -1.59366632 0.72164953 72 5 10114 8.28000000 2211629847 2211629847 5.00000000
3.77152324 -0.74336201 -0.60884291 6 6 10115 3.89200000 2211629849 2211629849 -9.00000000
8.09598732 -1.59717572 1.01322174 90 7 10116 8.31400000 2211629851 2211629851 7.00000000
5.02646685 -0.99253249 -0.62908953 8 8 10117 5.16200000 2211629854 2211629854 -7.00000000
8.18177032 -1.61706650 1.32093263 7 9 10118 8.44400000 2211629856 2211629856 9.00000000
7.73818064 -1.52939415 -0.69009918 12 10 10118 7.91800000 2211629858 2211629858 -5.00000000
8.07395172 -1.59868562 -0.43135294 12 12 10120 8.24200000 2211629863 2211629863 -3.00000000
8.06558895 -1.59995556 -0.14352860 12 14 10122 8.22400000 2211629867 2211629867 -1.00000000
8.14033222 -1.61625898 2.22377324 47 15 10123 8.59200000 2211629870 2211629870 15.00000000
2.14635754 -0.42888457 -0.58648396 4 0 10130 2.26600000 2211629891 2211629891 -15.00000000
8.08463478 -1.61693692 0.14391254 12 1 10131 8.24600000 2211629893 2211629893 1.00000000
2.53567100 -0.50759757 -0.59702009 7 2 10132 2.65400000 2211629895 2211629895 -13.00000000
8.09184551 -1.62131679 0.43250436 13 3 10133 8.26400000 2211629897 2211629897 3.00000000
3.00876617 -0.60284925 -0.59646893 4 4 10133 3.12600000 2211629900 2211629900 -11.00000000
8.08941555 -1.62229848 0.72182387 76 5 10134 8.28200000 2211629902 2211629902 5.00000000
3.76503181 -0.75574499 -0.60821718 4 6 10135 3.88800000 2211629904 2211629904 -9.00000000
8.10982418 -1.62933636 1.01565909 90 7 10136 8.33400000 2211629907 2211629907 7.00000000
5.01129484 -1.00772405 -0.62762713 8 8 10137 5.15000000 2211629909 2211629909 -7.00000000
8.16833019 -1.64405727 1.31968117 7 9 10138 8.43600000 2211629911 2211629911 9.00000000
7.70154333 -1.55010617 -0.68731016 12 10 10138 7.88600000 2211629914 2211629914 -5.00000000
8.08398533 -1.63001740 -0.43219033 12 12 10140 8.25800000 2211629918 2211629918 -3.00000000
8.07367516 -1.63087153 -0.14377293 12 14 10142 8.23800000 2211629923 2211629923 -1.00000000
8.13492775 -1.64324439 2.22377324 47 15 10142 8.59200000 2211629925 2211629925 15.00000000
2.14674044 -0.43675926 -0.58700162 4 0 10150 2.26800000 2211629946 2211629946 -15.00000000
8.06522465 -1.64235449 0.14366820 12 1 10151 8.23200000 2211629948 2211629948 1.00000000
