# .PCD v0.7 - Point Cloud Data file format
VERSION 0.7
FIELDS x y z intensity laser_id azimuth distance_m adjustedtime timestamp vertical_angle
SIZE 4 4 4 1 1 2 8 8 4 8
TYPE F F F U U U F U U F
COUNT 1 1 1 1 1 1 1 1 1 1
WIDTH 534
HEIGHT 1
VIEWPOINT 0 0 0 1 0 0 0
POINTS 534
DATA ascii
0.42726150 2.23131895 -0.60874242 4 0 1084 2.35200000 2340704372 2340704372 -15.00000000
0.50558186 2.63535643 -0.61951518 3 2 1086 2.75400000 2340704377 2340704377 -13.00000000
0.60681188 3.16003919 -0.62547189 4 4 1087 3.27800000 2340704382 2340704382 -11.00000000
0.77288926 4.01733303 -0.64795154 2 6 1089 4.14200000 2340704386 2340704386 -9.00000000
1.03057837 5.34669161 -0.66857523 2 8 1091 5.48600000 2340704391 2340704391 -7.00000000
1.54521751 8.00914383 -0.71363121 4 10 1092 8.18800000 2340704395 2340704395 -5.00000000
2.03137827 10.51913166 2.08248949 59 11 1093 10.91400000 2340704398 2340704398 11.00000000
1.87230802 9.67726898 2.27560496 46 13 1095 10.11600000 2340704402 2340704402 13.00000000
1.68664837 8.70137501 2.37492347 45 15 1097 9.17600000 2340704407 2340704407 15.00000000
0.43393785 2.22412562 -0.60718948 3 0 1104 2.34600000 2340704428 2340704428 -15.00000000
0.51440406 2.63166308 -0.61906528 3 2 1106 2.75200000 2340704432 2340704432 -13.00000000
0.61708486 3.15404844 -0.62470865 2 4 1107 3.27400000 2340704437 2340704437 -11.00000000
0.78690767 4.01461077 -0.64795154 2 6 1109 4.14200000 2340704441 2340704441 -9.00000000
1.04961801 5.34500933 -0.66881895 2 8 1111 5.48800000 2340704446 2340704446 -7.00000000
1.56932259 7.98415089 -0.71188813 4 10 1112 8.16800000 2340704451 2340704451 -5.00000000
2.06884241 10.51583004 2.08325267 59 11 1113 10.91800000 2340704453 2340704453 11.00000000
1.98257589 10.05880165 2.36693501 57 13 1115 10.52200000 2340704458 2340704458 13.00000000
1.71549380 8.69573402 2.37492347 45 15 1116 9.17600000 2340704462 2340704462 15.00000000
0.43830985 2.20554423 -0.60253072 4 0 1124 2.32800000 2340704483 2340704483 -15.00000000
0.52853382 2.65469742 -0.62491405 3 2 1126 2.77800000 2340704487 2340704487 -13.00000000
0.63039285 3.16342759 -0.62699836 2 4 1127 3.28600000 2340704492 2340704492 -11.00000000
0.79859614 4.00021648 -0.64607435 2 6 1129 4.13000000 2340704497 2340704497 -9.00000000
1.07099438 5.35493898 -0.67052513 2 8 1131 5.50200000 2340704501 2340704501 -7.00000000
1.59874725 7.98643875 -0.71258533 4 10 1132 8.17600000 2340704506 2340704506 -5.00000000
2.10630822 10.51239395 2.08401585 56 11 1133 10.92200000 2340704508 2340704508 11.00000000
2.01959324 10.06137371 2.36918449 56 13 1135 10.53200000 2340704513 2340704513 13.00000000
1.74241245 8.67264748 2.37026477 42 15 1136 9.15800000 2340704517 2340704517 15.00000000
0.44830498 2.21536160 -0.60563654 4 0 1144 2.34000000 2340704538 2340704538 -15.00000000
0.53392541 2.63373733 -0.62041503 3 2 1146 2.75800000 2340704543 2340704543 -13.00000000
0.63986987 3.15351152 -0.62547189 4 4 1147 3.27800000 2340704547 2340704547 -11.00000000
0.81098068 3.98966146 -0.64482284 2 6 1149 4.12200000 2340704552 2340704552 -9.00000000
1.08809566 5.34338713 -0.66955018 2 8 1151 5.49400000 2340704557 2340704557 -7.00000000
1.61308682 7.91443300 -0.70665878 4 10 1152 8.10800000 2340704561 2340704561 -5.00000000
2.14181328 10.49920654 2.08287096 59 11 1153 10.91600000 2340704564 2340704564 11.00000000
2.05470157 10.05426216 2.36918449 57 13 1155 10.53200000 2340704568 2340704568 13.00000000
1.77457511 8.66809559 2.37078238 45 15 1157 9.16000000 2340704573 2340704573 15.00000000
0.45759439 2.22135162 -0.60770714 4 0 1164 2.34800000 2340704593 2340704593 -15.00000000
0.54154021 2.62422347 -0.61861539 3 2 1166 2.75000000 2340704598 2340704598 -13.00000000
0.65007955 3.14741349 -0.62470865 2 4 1167 3.27400000 2340704603 2340704603 -11.00000000
0.82490224 3.98680615 -0.64482284 2 6 1169 4.12200000 2340704607 2340704607 -9.00000000
1.10835242 5.34733152 -0.67052513 2 8 1171 5.50200000 2340704612 2340704612 -7.00000000
1.68117476 8.10383892 -0.72408992 4 10 1172 8.30800000 2340704617 2340704617 -5.00000000
2.18164229 10.50704479 2.08592391 59 11 1173 10.93200000 2340704619 2340704619 11.00000000
2.08661032 10.03176594 2.36558533 57 13 1175 10.51600000 2340704623 2340704623 13.00000000
1.80560970 8.66563034 2.37181783 45 15 1177 9.16400000 2340704628 2340704628 15.00000000
0.46613833 2.22352242 -0.60874242 4 0 1184 2.35200000 2340704649 2340704649 -15.00000000
0.55229920 2.62994576 -0.62041503 3 2 1186 2.75800000 2340704653 2340704653 -13.00000000
0.66267741 3.15281010 -0.62623513 2 4 1187 3.28200000 2340704658 2340704658 -11.00000000
0.84288371 4.00323248 -0.64795154 2 6 1189 4.14200000 2340704663 2340704663 -9.00000000
1.12701142 5.34343004 -0.67052513 2 8 1191 5.50200000 2340704667 2340704667 -7.00000000
1.70945215 8.09792137 -0.72408992 4 10 1192 8.30800000 2340704672 2340704672 -5.00000000
2.22074056 10.51089001 2.08821368 59 11 1193 10.94400000 2340704674 2340704674 11.00000000
2.12080789 10.02060795 2.36468554 56 13 1195 10.51200000 2340704679 2340704679 13.00000000
1.83785069 8.66872406 2.37440586 42 15 1197 9.17400000 2340704683 2340704683 15.00000000
0.47309107 2.21810293 -0.60770714 4 0 1204 2.34800000 2340704704 2340704704 -15.00000000
0.55984741 2.62037897 -0.61861539 3 2 1206 2.75000000 2340704709 2340704709 -13.00000000
0.67203659 3.14279842 -0.62470865 2 4 1207 3.27400000 2340704713 2340704713 -11.00000000
0.85395628 3.98674488 -0.64576149 2 6 1209 4.12800000 2340704718 2340704718 -9.00000000
1.14648950 5.34334517 -0.67101258 2 8 1211 5.50600000 2340704723 2340704723 -7.00000000
1.73770881 8.09190464 -0.72408992 4 10 1212 8.30800000 2340704727 2340704727 -5.00000000
2.26195478 10.52418804 2.09241152 59 11 1213 10.96600000 2340704729 2340704729 11.00000000
2.15659380 10.01695347 2.36558533 57 13 1215 10.51600000 2340704734 2340704734 13.00000000
1.86443365 8.64525986 2.36974716 45 15 1217 9.15600000 2340704739 2340704739 15.00000000
0.47635159 2.19764185 -0.60253072 4 0 1223 2.32800000 2340704759 2340704759 -15.00000000
0.57018775 2.62612557 -0.62041503 3 2 1225 2.75800000 2340704764 2340704764 -13.00000000
0.68412238 3.14822650 -0.62623513 2 4 1226 3.28200000 2340704769 2340704769 -11.00000000
0.86465126 3.97231007 -0.64388424 2 6 1228 4.11600000 2340704773 2340704773 -9.00000000
1.15997350 5.32011890 -0.66857523 2 8 1230 5.48600000 2340704778 2340704778 -7.00000000
1.73904622 7.96930313 -0.71363121 4 10 1231 8.18800000 2340704782 2340704782 -5.00000000
2.29474735 10.50703907 2.09050345 59 11 1232 10.95600000 2340704785 2340704785 11.00000000
2.18979931 10.00974751 2.36558533 60 13 1234 10.51600000 2340704789 2340704789 13.00000000
1.88951838 8.62992477 2.36715889 45 15 1235 9.14600000 2340704794 2340704794 15.00000000
0.48734650 2.21105838 -0.60667187 4 0 1243 2.34400000 2340704815 2340704815 -15.00000000
0.58019137 2.62792492 -0.62131482 3 2 1245 2.76200000 2340704819 2340704819 -13.00000000
0.69595474 3.14965343 -0.62699836 2 4 1246 3.28600000 2340704824 2340704824 -11.00000000
0.87680441 3.96155286 -0.64263278 2 6 1248 4.10800000 2340704828 2340704828 -9.00000000
1.18369293 5.33929396 -0.67150009 2 8 1250 5.51000000 2340704833 2340704833 -7.00000000
1.79274797 8.07988930 -0.72408992 4 10 1251 8.30800000 2340704838 2340704838 -5.00000000
2.33268642 10.50471401 2.09164810 62 11 1252 10.96200000 2340704840 2340704840 11.00000000
2.22726512 10.01345634 2.36828470 60 13 1254 10.52800000 2340704845 2340704845 13.00000000
1.92197609 8.62671185 2.36819434 45 15 1256 9.15000000 2340704849 2340704849 15.00000000
0.49675119 2.21688414 -0.60874242 4 0 1263 2.35200000 2340704870 2340704870 -15.00000000
0.58808076 2.62017941 -0.61996508 4 2 1265 2.75600000 2340704875 2340704875 -13.00000000
0.70866597 3.15486693 -0.62852484 2 4 1266 3.29400000 2340704879 2340704879 -11.00000000
0.89409631 3.97388577 -0.64513576 2 6 1268 4.12400000 2340704884 2340704884 -9.00000000
1.19883204 5.31963730 -0.66955018 2 8 1270 5.49400000 2340704888 2340704888 -7.00000000
2.37323117 10.51374340 2.09508276 53 11 1272 10.98000000 2340704895 2340704895 11.00000000
2.25790763 9.98661232 2.36378574 60 13 1274 10.50800000 2340704900 2340704900 13.00000000
1.95313096 8.63159657 2.37129998 45 15 1275 9.16200000 2340704905 2340704905 15.00000000
0.50362855 2.21136928 -0.60770714 4 0 1283 2.34800000 2340704925 2340704925 -15.00000000
0.59678990 2.61621070 -0.61951518 3 2 1285 2.75400000 2340704930 2340704930 -13.00000000
0.71355671 3.12557793 -0.62318218 2 4 1286 3.26600000 2340704934 2340704934 -11.00000000
0.90620100 3.96303773 -0.64388424 2 6 1288 4.11600000 2340704939 2340704939 -9.00000000
1.22005272 5.32703018 -0.67101258 2 8 1290 5.50600000 2340704944 2340704944 -7.00000000
2.40991640 10.50539494 2.09508276 46 11 1292 10.98000000 2340704951 2340704951 11.00000000
2.29188085 9.97487164 2.36288595 60 13 1294 10.50400000 2340704955 2340704955 13.00000000
1.98475420 8.62438011 2.37129998 42 15 1296 9.16200000 2340704960 2340704960 15.00000000
0.51134461 2.20959783 -0.60770714 4 0 1303 2.34800000 2340704981 2340704981 -15.00000000
0.60855871 2.62550211 -0.62221462 3 2 1305 2.76600000 2340704985 2340704985 -13.00000000
0.72889906 3.14219284 -0.62699836 2 4 1306 3.28600000 2340704990 2340704990 -11.00000000
0.92628777 3.98678827 -0.64826441 2 6 1308 4.14400000 2340704994 2340704994 -9.00000000
1.23594058 5.31113815 -0.66955018 2 8 1310 5.49400000 2340704999 2340704999 -7.00000000
1.87726045 8.06067276 -0.72408992 4 10 1311 8.30800000 2340705004 2340705004 -5.00000000
2.45147443 10.51795101 2.09928060 50 11 1312 11.00200000 2340705006 2340705006 11.00000000
2.32845783 9.97440147 2.36468554 64 13 1314 10.51200000 2340705011 2340705011 13.00000000
2.01158476 8.61022568 2.36922956 42 15 1315 9.15400000 2340705015 2340705015 15.00000000
0.51728594 2.20027709 -0.60563654 4 0 1323 2.34000000 2340705036 2340705036 -15.00000000
0.61861300 2.62715554 -0.62311441 3 2 1325 2.77000000 2340705040 2340705040 -13.00000000
0.73986292 3.13962936 -0.62699836 2 4 1326 3.28600000 2340705045 2340705045 -11.00000000
0.93566102 3.96430492 -0.64513576 2 6 1328 4.12400000 2340705050 2340705050 -9.00000000
1.25995243 5.32997370 -0.67247504 2 8 1330 5.51800000 2340705054 2340705054 -7.00000000
1.89346015 8.00366020 -0.71955782 4 10 1331 8.25600000 2340705059 2340705059 -5.00000000
2.48953104 10.51506138 2.10042548 46 11 1332 11.00800000 2340705061 2340705061 11.00000000
2.36146212 9.95862865 2.36288595 57 13 1334 10.50400000 2340705066 2340705066 13.00000000
2.03911185 8.58587933 2.36457086 45 15 1336 9.13600000 2340705070 2340705070 15.00000000
0.52765530 2.20973229 -0.60874242 4 0 1343 2.35200000 2340705091 2340705091 -15.00000000
0.62506014 2.61360836 -0.62041503 3 2 1345 2.75800000 2340705096 2340705096 -13.00000000
0.75081778 3.13702750 -0.62699836 2 4 1346 3.28600000 2340705100 2340705100 -11.00000000
0.94857234 3.95717287 -0.64450997 2 6 1348 4.12000000 2340705105 2340705105 -9.00000000
1.27762306 5.32168293 -0.67198753 2 8 1350 5.51400000 2340705110 2340705110 -7.00000000
1.91952479 7.98925304 -0.71886057 4 10 1351 8.24800000 2340705114 2340705114 -5.00000000
2.39803481 9.95790291 2.36468554 59 13 1354 10.51200000 2340705121 2340705121 13.00000000
2.06847763 8.58282661 2.36560607 45 15 1355 9.14000000 2340705126 2340705126 15.00000000
0.53536552 2.20787692 -0.60874242 4 0 1363 2.35200000 2340705146 2340705146 -15.00000000
0.63325971 2.60762334 -0.61951518 3 2 1365 2.75400000 2340705151 2340705151 -13.00000000
0.75990891 3.12675667 -0.62547189 2 4 1366 3.27800000 2340705156 2340705156 -11.00000000
0.96144533 3.94999909 -0.64388424 2 6 1368 4.11600000 2340705160 2340705160 -9.00000000
1.29619133 5.31719065 -0.67198753 2 8 1370 5.51400000 2340705165 2340705165 -7.00000000
1.94267869 7.96314812 -0.71711743 4 10 1371 8.22800000 2340705169 2340705169 -5.00000000
2.34915018 9.62200356 1.92526281 6 11 1372 10.09000000 2340705172 2340705172 11.00000000
2.43092847 9.94190025 2.36288595 57 13 1374 10.50400000 2340705176 2340705176 13.00000000
2.10129976 8.58081627 2.36715889 42 15 1376 9.14600000 2340705181 2340705181 15.00000000
0.54322135 2.20993614 -0.60977769 4 0 1381 2.35600000 2340705202 2340705202 -15.00000000
0.64144868 2.60562086 -0.61951518 3 2 1383 2.75400000 2340705206 2340705206 -13.00000000
0.77066737 3.12816644 -0.62623513 2 4 1384 3.28200000 2340705211 2340705211 -11.00000000
0.97952831 3.96997333 -0.64763868 2 6 1386 4.14000000 2340705216 2340705216 -9.00000000
1.31384182 5.31694651 -0.67247504 2 8 1388 5.51800000 2340705220 2340705220 -7.00000000
1.97055578 7.96861029 -0.71816331 4 10 1389 8.24000000 2340705225 2340705225 -5.00000000
2.37936711 9.61457634 1.92526281 9 11 1390 10.09000000 2340705227 2340705227 11.00000000
2.45886827 9.92097282 2.35973644 54 13 1392 10.49000000 2340705232 2340705232 13.00000000
2.12861061 8.58204460 2.36922956 45 15 1393 9.15400000 2340705236 2340705236 15.00000000
0.54625535 2.18928266 -0.60460126 4 0 1401 2.33600000 2340705257 2340705257 -15.00000000
0.64865035 2.59580350 -0.61771560 3 2 1403 2.74600000 2340705262 2340705262 -13.00000000
0.78348720 3.13307571 -0.62776160 2 4 1404 3.29000000 2340705266 2340705266 -11.00000000
0.98762137 3.94353557 -0.64388424 2 6 1406 4.11600000 2340705271 2340705271 -9.00000000
1.33335924 5.31617880 -0.67296249 2 8 1408 5.52200000 2340705275 2340705275 -7.00000000
1.99835944 7.96168327 -0.71816331 4 10 1409 8.24000000 2340705280 2340705280 -5.00000000
2.41626167 9.61954117 1.92793405 12 11 1410 10.10400000 2340705282 2340705282 11.00000000
2.49491000 9.91799927 2.36108637 56 13 1412 10.49600000 2340705287 2340705287 13.00000000
2.15769148 8.56481838 2.36664128 45 15 1414 9.14400000 2340705292 2340705292 15.00000000
0.55673939 2.19859886 -0.60770714 4 0 1421 2.34800000 2340705312 2340705312 -15.00000000
0.66441387 2.61996889 -0.62401420 3 2 1423 2.77400000 2340705317 2340705317 -13.00000000
0.79152131 3.11890411 -0.62547189 2 4 1424 3.27800000 2340705322 2340705322 -11.00000000
1.00430036 3.95155120 -0.64576149 2 6 1426 4.12800000 2340705326 2340705326 -9.00000000
1.34505308 5.28455973 -0.66955018 2 8 1428 5.49400000 2340705331 2340705331 -7.00000000
2.02220440 7.93921328 -0.71676880 4 10 1429 8.22400000 2340705335 2340705335 -5.00000000
2.45273495 9.62246227 1.93022382 12 11 1430 10.11600000 2340705338 2340705338 11.00000000
2.52855110 9.90545368 2.36018658 56 13 1432 10.49200000 2340705342 2340705342 13.00000000
2.18177819 8.54077053 2.36198258 42 15 1433 9.12600000 2340705347 2340705347 15.00000000
0.56441051 2.19664216 -0.60770714 4 0 1441 2.34800000 2340705368 2340705368 -15.00000000
0.66675651 2.59121180 -0.61771560 3 2 1443 2.74600000 2340705372 2340705372 -13.00000000
0.80436176 3.12372708 -0.62699836 4 4 1444 3.28600000 2340705377 2340705377 -11.00000000
1.02006078 3.95567274 -0.64701295 2 6 1446 4.13600000 2340705381 2340705381 -9.00000000
1.37341857 5.31827307 -0.67442495 2 8 1448 5.53400000 2340705386 2340705386 -7.00000000
2.04591703 7.91667414 -0.71537435 4 10 1449 8.20800000 2340705391 2340705391 -5.00000000
2.48237610 9.59863663 1.92717087 21 11 1450 10.10000000 2340705393 2340705393 11.00000000
2.56408930 9.90034008 2.36108637 60 13 1452 10.49600000 2340705398 2340705398 13.00000000
2.21690917 8.55367279 2.36767673 45 15 1453 9.14800000 2340705402 2340705402 15.00000000
0.57245785 2.19455886 -0.60770714 4 0 1462 2.34800000 2340705423 2340705423 -15.00000000
0.67674184 2.59063625 -0.61816549 3 2 1464 2.74800000 2340705428 2340705428 -13.00000000
0.81779152 3.12835574 -0.62852484 2 4 1465 3.29400000 2340705432 2340705432 -11.00000000
1.03055000 3.93661952 -0.64450997 2 6 1467 4.12000000 2340705437 2340705437 -9.00000000
1.39189494 5.30936289 -0.67393744 2 8 1469 5.53000000 2340705441 2340705441 -7.00000000
2.07491946 7.90912199 -0.71537435 4 10 1470 8.20800000 2340705446 2340705446 -5.00000000
2.52402115 9.61415958 1.93213189 18 11 1471 10.12600000 2340705448 2340705448 11.00000000
2.59837675 9.88333702 2.35928655 60 13 1473 10.48800000 2340705453 2340705453 13.00000000
2.24873662 8.54735851 2.36819434 45 15 1474 9.15000000 2340705457 2340705457 15.00000000
0.58209133 2.20001745 -0.60977769 4 0 1482 2.35600000 2340705478 2340705478 -15.00000000
0.68727809 2.59390926 -0.61951518 3 2 1484 2.75400000 2340705483 2340705483 -13.00000000
0.82669389 3.11789131 -0.62699836 2 4 1485 3.28600000 2340705487 2340705487 -11.00000000
1.04834056 3.94827199 -0.64701295 2 6 1487 4.13600000 2340705492 2340705492 -9.00000000
1.40123785 5.26994038 -0.66955018 2 8 1489 5.49400000 2340705497 2340705497 -7.00000000
2.11583471 7.95189142 -0.71990645 4 10 1490 8.26000000 2340705501 2340705501 -5.00000000
2.56059623 9.61667347 1.93442154 18 11 1491 10.13800000 2340705504 2340705504 11.00000000
2.63085198 9.86667442 2.35748696 60 13 1493 10.48000000 2340705508 2340705508 13.00000000
2.28104591 8.54279232 2.36922956 45 15 1495 9.15400000 2340705513 2340705513 15.00000000
0.58838302 2.19434333 -0.60874242 4 0 1501 2.35200000 2340705534 2340705534 -15.00000000
0.69941348 2.60479045 -0.62266451 3 2 1503 2.76800000 2340705538 2340705538 -13.00000000
0.83702868 3.11513281 -0.62699836 2 4 1504 3.28600000 2340705543 2340705543 -11.00000000
1.06450737 3.95621920 -0.64889014 2 6 1506 4.14800000 2340705547 2340705547 -9.00000000
1.43006790 5.30743265 -0.67491245 2 8 1508 5.53800000 2340705552 2340705552 -7.00000000
2.13285613 7.91020489 -0.71676880 4 10 1509 8.22400000 2340705557 2340705557 -5.00000000
2.59554076 9.61950207 1.93671131 21 11 1510 10.15000000 2340705559 2340705559 11.00000000
2.66355658 9.85789680 2.35748696 60 13 1512 10.48000000 2340705563 2340705563 13.00000000
2.30333447 8.51879978 2.36457086 38 15 1513 9.13600000 2340705568 2340705568 15.00000000
0.59401172 2.18481922 -0.60667187 4 0 1521 2.34400000 2340705589 2340705589 -15.00000000
0.70901358 2.60421348 -0.62311441 3 2 1523 2.77000000 2340705593 2340705593 -13.00000000
0.84686530 3.10840368 -0.62623513 2 4 1524 3.28200000 2340705598 2340705598 -11.00000000
1.07727087 3.94866776 -0.64826441 2 6 1526 4.14400000 2340705603 2340705603 -9.00000000
1.44073844 5.27368498 -0.67125636 2 8 1528 5.50800000 2340705607 2340705607 -7.00000000
2.17201376 7.94499302 -0.72060370 4 10 1529 8.26800000 2340705612 2340705612 -5.00000000
2.63013935 9.61417007 1.93747449 21 11 1530 10.15400000 2340705614 2340705614 11.00000000
2.70104003 9.85981560 2.36018658 59 13 1532 10.49200000 2340705619 2340705619 13.00000000
2.33152437 8.50511837 2.36301780 40 15 1533 9.13000000 2340705623 2340705623 15.00000000
0.60266125 2.18645740 -0.60770714 4 0 1541 2.34800000 2340705644 2340705644 -15.00000000
0.71602571 2.59420872 -0.62131482 3 2 1543 2.76200000 2340705649 2340705649 -13.00000000
0.85980117 3.11299801 -0.62776160 2 4 1544 3.29000000 2340705653 2340705653 -11.00000000
1.08841479 3.93536377 -0.64670008 2 6 1546 4.13400000 2340705658 2340705658 -9.00000000
1.45860851 5.26671028 -0.67101258 2 8 1548 5.50600000 2340705662 2340705662 -7.00000000
2.19334841 7.91432238 -0.71851194 4 10 1549 8.24400000 2340705667 2340705667 -5.00000000
2.66368318 9.60493088 1.93747449 25 11 1550 10.15400000 2340705669 2340705669 11.00000000
2.73439789 9.84657192 2.35928655 55 13 1552 10.48800000 2340705674 2340705674 13.00000000
2.36068130 8.49506664 2.36250019 38 15 1553 9.12800000 2340705679 2340705679 15.00000000
0.60925007 2.18061900 -0.60667187 4 0 1561 2.34400000 2340705699 2340705699 -15.00000000
0.72192663 2.58043337 -0.61861539 3 2 1563 2.75000000 2340705704 2340705704 -13.00000000
0.87595510 3.12888360 -0.63157779 2 4 1564 3.31000000 2340705709 2340705709 -11.00000000
1.09841275 3.91822624 -0.64450997 2 6 1566 4.12000000 2340705713 2340705713 -9.00000000
1.47805679 5.26540947 -0.67150009 2 8 1568 5.51000000 2340705718 2340705718 -7.00000000
2.21341777 7.87976408 -0.71607161 4 10 1569 8.21600000 2340705722 2340705722 -5.00000000
2.69878817 9.60124493 1.93861938 25 11 1570 10.16000000 2340705725 2340705725 11.00000000
2.76769614 9.83321571 2.35838675 57 13 1572 10.48400000 2340705729 2340705729 13.00000000
2.39442182 8.49565411 2.36508846 42 15 1574 9.13800000 2340705734 2340705734 15.00000000
0.61752993 2.18230438 -0.60770714 4 0 1580 2.34800000 2340705755 2340705755 -15.00000000
0.73154217 2.58177519 -0.61951518 3 2 1582 2.75400000 2340705759 2340705759 -13.00000000
0.88204169 3.11085129 -0.62852484 2 4 1583 3.29400000 2340705764 2340705764 -11.00000000
1.11463702 3.92596388 -0.64638722 2 6 1585 4.13200000 2340705768 2340705768 -9.00000000
1.49659514 5.26429796 -0.67198753 2 8 1587 5.51400000 2340705773 2340705773 -7.00000000
2.24498749 7.89154434 -0.71781468 4 10 1588 8.23600000 2340705778 2340705778 -5.00000000
2.73706245 9.61490154 1.94319880 25 11 1589 10.18400000 2340705780 2340705780 11.00000000
3.19655275 11.22158527 -0.61149329 4 12 1590 11.68400000 2340705782 2340705782 -3.00000000
2.79708385 9.81273842 2.35568738 56 13 1591 10.47200000 2340705785 2340705785 13.00000000
3.19175792 11.18992710 -0.20311111 2 14 1592 11.63800000 2340705787 2340705787 -1.00000000
2.42321944 8.49552155 2.36715889 42 15 1592 9.14600000 2340705789 2340705789 15.00000000
0.62727380 2.18756366 -0.60977769 4 0 1600 2.35600000 2340705810 2340705810 -15.00000000
3.21208882 11.19451046 0.20328563 3 1 1601 11.64800000 2340705812 2340705812 1.00000000
0.74377662 2.59044433 -0.62221462 3 2 1602 2.76600000 2340705814 2340705814 -13.00000000
0.88964242 3.09643173 -0.62623513 2 4 1603 3.28200000 2340705819 2340705819 -11.00000000
1.13270366 3.93723607 -0.64889014 2 6 1605 4.14800000 2340705824 2340705824 -9.00000000
1.51661026 5.26476431 -0.67271876 2 8 1607 5.52000000 2340705828 2340705828 -7.00000000
2.27252054 7.88365936 -0.71781468 4 10 1608 8.23600000 2340705833 2340705833 -5.00000000
2.77441669 9.61849308 1.94587016 25 11 1609 10.19800000 2340705835 2340705835 11.00000000
3.20911813 11.11825085 -0.60646904 4 12 1610 11.58800000 2340705838 2340705838 -3.00000000
2.83240128 9.80665970 2.35658717 59 13 1611 10.47600000 2340705840 2340705840 13.00000000
3.21414232 11.12108517 -0.20206396 6 14 1612 11.57800000 2340705842 2340705842 -1.00000000
2.44964123 8.47587585 2.36405325 42 15 1612 9.13400000 2340705844 2340705844 15.00000000
0.63167214 2.17422986 -0.60667187 4 0 1620 2.34400000 2340705865 2340705865 -15.00000000
3.22881603 11.10642242 0.20188944 6 1 1621 11.56800000 2340705867 2340705867 1.00000000
0.75390309 2.59157443 -0.62311441 3 2 1622 2.77000000 2340705870 2340705870 -13.00000000
3.24326801 11.14162350 0.60814381 26 3 1623 11.62000000 2340705872 2340705872 3.00000000
0.90154296 3.09707761 -0.62699836 2 4 1623 3.28600000 2340705874 2340705874 -11.00000000
3.24621511 11.14449978 1.01553869 21 5 1624 11.65200000 2340705877 2340705877 5.00000000
1.13759589 3.90291476 -0.64388424 2 6 1625 4.11600000 2340705879 2340705879 -9.00000000
3.25932288 11.17496967 1.42928362 23 7 1626 11.72800000 2340705881 2340705881 7.00000000
1.52774858 5.23466539 -0.66955018 2 8 1627 5.49400000 2340705884 2340705884 -7.00000000
3.26246786 11.17849445 1.84436238 9 9 1627 11.79000000 2340705886 2340705886 9.00000000
2.29555750 7.86037874 -0.71642023 4 10 1628 8.22000000 2340705888 2340705888 -5.00000000
2.80797482 9.60874939 1.94587016 21 11 1629 10.19800000 2340705891 2340705891 11.00000000
3.19633675 10.93061924 -0.59683925 4 12 1630 11.40400000 2340705893 2340705893 -3.00000000
2.86661553 9.79671288 2.35658717 56 13 1631 10.47600000 2340705895 2340705895 13.00000000
3.21417022 10.97737885 -0.19965553 6 14 1632 11.44000000 2340705897 2340705897 -1.00000000
2.47851777 8.45942497 2.36198258 45 15 1633 9.12600000 2340705900 2340705900 15.00000000
0.64034867 2.17571807 -0.60770714 4 0 1640 2.34800000 2340705920 2340705920 -15.00000000
3.22801971 10.96080685 0.19944610 6 1 1641 11.42800000 2340705923 2340705923 1.00000000
0.75963962 2.57771158 -0.62041503 3 2 1642 2.75800000 2340705925 2340705925 -13.00000000
3.23954749 10.99286938 0.60060745 28 3 1642 11.47600000 2340705927 2340705927 3.00000000
0.91345888 3.09767795 -0.62776160 2 4 1643 3.29000000 2340705930 2340705930 -11.00000000
3.25070095 11.01653290 1.00490570 12 5 1644 11.53000000 2340705932 2340705932 5.00000000
1.15345025 3.90649819 -0.64513576 2 6 1645 4.12400000 2340705934 2340705934 -9.00000000
3.25275111 11.00932121 1.40954077 25 7 1646 11.56600000 2340705937 2340705937 7.00000000
1.55276525 5.25214434 -0.67247504 2 8 1647 5.51800000 2340705939 2340705939 -7.00000000
3.27147579 11.05849075 1.82652879 31 9 1648 11.67600000 2340705941 2340705941 9.00000000
2.33089423 7.87906551 -0.71886057 4 10 1648 8.24800000 2340705944 2340705944 -5.00000000
2.84261298 9.60265446 1.94663334 18 11 1649 10.20200000 2340705946 2340705946 11.00000000
3.19589901 10.78917408 -0.58972156 4 12 1650 11.26800000 2340705948 2340705948 -3.00000000
2.90079498 9.78664684 2.35658717 55 13 1651 10.47600000 2340705950 2340705950 13.00000000
3.21266580 10.83189201 -0.19721219 6 14 1652 11.30000000 2340705953 2340705953 -1.00000000
2.50913072 8.45442581 2.36301780 42 15 1653 9.13000000 2340705955 2340705955 15.00000000
0.65125090 2.18457770 -0.61081296 4 0 1660 2.36000000 2340705976 2340705976 -15.00000000
3.22396040 10.80766964 0.19686314 6 1 1661 11.28000000 2340705978 2340705978 1.00000000
0.76751810 2.57130957 -0.61951518 3 2 1662 2.75400000 2340705980 2340705980 -13.00000000
3.23734045 10.84561348 0.59317571 26 3 1662 11.33400000 2340705983 2340705983 3.00000000
0.92426622 3.09447050 -0.62776160 2 4 1663 3.29000000 2340705985 2340705985 -11.00000000
3.23607635 10.82758617 0.98869473 12 5 1664 11.34400000 2340705987 2340705987 5.00000000
1.17160738 3.91758847 -0.64763868 2 6 1665 4.14000000 2340705990 2340705990 -9.00000000
3.25189233 10.86667824 1.39272285 31 7 1666 11.42800000 2340705992 2340705992 7.00000000
1.56824195 5.23718405 -0.67125636 2 8 1667 5.50800000 2340705994 2340705994 -7.00000000
3.26393008 10.89997768 1.80212510 28 9 1667 11.52000000 2340705997 2340705997 9.00000000
2.35609555 7.86324692 -0.71816331 4 10 1668 8.24000000 2340705999 2340705999 -5.00000000
2.88006186 9.60583687 1.94930470 15 11 1669 10.21600000 2340706001 2340706001 11.00000000
3.19221759 10.64021492 -0.58218515 4 12 1670 11.12400000 2340706003 2340706003 -3.00000000
2.93269777 9.76899624 2.35478759 59 13 1671 10.46800000 2340706006 2340706006 13.00000000
3.20788431 10.67889023 -0.19462924 4 14 1672 11.15200000 2340706008 2340706008 -1.00000000
2.54196358 8.45671558 2.36612368 42 15 1673 9.14200000 2340706010 2340706010 15.00000000
0.65887254 2.18229103 -0.61081296 4 0 1680 2.36000000 2340706031 2340706031 -15.00000000
3.22060657 10.66043854 0.19438490 3 1 1681 11.13800000 2340706033 2340706033 1.00000000
0.77987236 2.57980704 -0.62221462 3 2 1682 2.76600000 2340706036 2340706036 -13.00000000
3.23414540 10.69850826 0.58574402 31 3 1682 11.19200000 2340706038 2340706038 3.00000000
0.93619919 3.09498358 -0.62852484 2 4 1683 3.29400000 2340706040 2340706040 -11.00000000
3.24614644 10.72469044 0.98032779 28 5 1684 11.24800000 2340706043 2340706043 5.00000000
1.18183959 3.90213156 -0.64576149 2 6 1685 4.12800000 2340706045 2340706045 -9.00000000
3.25007796 10.72417736 1.37590492 29 7 1686 11.29000000 2340706047 2340706047 7.00000000
1.59285045 5.25257444 -0.67393744 2 8 1687 5.53000000 2340706050 2340706050 -7.00000000
3.26011038 10.75052071 1.77928555 31 9 1687 11.37400000 2340706052 2340706052 9.00000000
2.38468623 7.85878801 -0.71851194 4 10 1688 8.24400000 2340706054 2340706054 -5.00000000
2.91813827 9.61075401 1.95235765 12 11 1689 10.23200000 2340706056 2340706056 11.00000000
3.21772718 10.59078789 -0.58009171 17 12 1690 11.08400000 2340706059 2340706059 -3.00000000
2.96678019 9.75869942 2.35478759 55 13 1691 10.46800000 2340706061 2340706061 13.00000000
3.22302556 10.59492874 -0.19330285 8 14 1692 11.07600000 2340706063 2340706063 -1.00000000
2.57034254 8.44409466 2.36508846 45 15 1693 9.13800000 2340706066 2340706066 15.00000000
0.66422689 2.17258811 -0.60874242 4 0 1700 2.35200000 2340706086 2340706086 -15.00000000
3.24375892 10.60323811 0.19354719 13 1 1701 11.09000000 2340706089 2340706089 1.00000000
0.78887284 2.57706904 -0.62221462 3 2 1702 2.76600000 2340706091 2340706091 -13.00000000
3.25568604 10.63558960 0.58291787 10 3 1702 11.13800000 2340706093 2340706093 3.00000000
0.94929689 3.09920549 -0.63005131 2 4 1703 3.30200000 2340706096 2340706096 -11.00000000
3.25845742 10.63138294 0.97283238 12 5 1704 11.16200000 2340706098 2340706098 5.00000000
3.24984932 10.59669590 -1.75550759 2 6 1705 11.22200000 2340706100 2340706100 -9.00000000
3.26827431 10.65014172 1.36786151 10 7 1706 11.22400000 2340706102 2340706102 7.00000000
3.25265193 10.59264183 -1.36054933 2 8 1707 11.16400000 2340706105 2340706105 -7.00000000
3.27152348 10.65409946 1.76520646 12 9 1707 11.28400000 2340706107 2340706107 9.00000000
2.41678548 7.86565208 -0.71990645 4 10 1708 8.26000000 2340706109 2340706109 -5.00000000
2.95628381 9.61552143 1.95541060 12 11 1709 10.24800000 2340706112 2340706112 11.00000000
3.26172376 10.60239887 -0.58134782 12 12 1710 11.10800000 2340706114 2340706114 -3.00000000
2.99967957 9.74455929 2.35388780 59 13 1711 10.46400000 2340706116 2340706116 13.00000000
3.26057792 10.58552456 -0.19333775 12 14 1712 11.07800000 2340706119 2340706119 -1.00000000
2.59719253 8.43183231 2.36405325 40 15 1712 9.13400000 2340706121 2340706121 15.00000000
0.66895026 2.16102910 -0.60615420 4 0 1720 2.34200000 2340706142 2340706142 -15.00000000
3.28489304 10.60522175 0.19379152 13 1 1721 11.10400000 2340706144 2340706144 1.00000000
0.79786366 2.57429957 -0.62221462 3 2 1722 2.76600000 2340706146 2340706146 -13.00000000
3.29279113 10.62415981 0.58291787 10 3 1722 11.13800000 2340706149 2340706149 3.00000000
0.95545709 3.08087182 -0.62699836 2 4 1723 3.28600000 2340706151 2340706151 -11.00000000
3.29554796 10.61994362 0.97283238 12 5 1724 11.16200000 2340706153 2340706153 5.00000000
1.20788109 3.89001274 -0.64513576 2 6 1725 4.12400000 2340706155 2340706155 -9.00000000
3.30543017 10.63866806 1.36786151 10 7 1726 11.22400000 2340706158 2340706158 7.00000000
1.62594521 5.22995234 -0.67247504 2 8 1727 5.51800000 2340706160 2340706160 -7.00000000
3.30693412 10.63695621 1.76426792 12 9 1727 11.27800000 2340706162 2340706162 9.00000000
2.44185972 7.84955835 -0.71920919 4 10 1728 8.25200000 2340706165 2340706165 -5.00000000
3.00733519 9.66137981 1.96685910 12 11 1729 10.30800000 2340706167 2340706167 11.00000000
3.30405855 10.60811043 -0.58228987 12 12 1730 11.12600000 2340706169 2340706169 -3.00000000
3.03483582 9.73775005 2.35478759 59 13 1731 10.46800000 2340706172 2340706172 13.00000000
3.30822420 10.60844135 -0.19396605 12 14 1732 11.11400000 2340706174 2340706174 -1.00000000
2.62232471 8.40381527 2.35887671 40 15 1733 9.11400000 2340706176 2340706176 15.00000000
0.67686629 2.15856266 -0.60615420 4 0 1741 2.34200000 2340706197 2340706197 -15.00000000
3.32553720 10.59883499 0.19389623 13 1 1742 11.11000000 2340706199 2340706199 1.00000000
0.80612612 2.56763959 -0.62131482 3 2 1743 2.76200000 2340706202 2340706202 -13.00000000
3.34074378 10.63430405 0.58417392 13 3 1744 11.16200000 2340706204 2340706204 3.00000000
0.97027308 3.08858728 -0.62928808 2 4 1744 3.29800000 2340706206 2340706206 -11.00000000
3.33803463 10.61919785 0.97387826 12 5 1745 11.17400000 2340706208 2340706208 5.00000000
1.22213054 3.88555956 -0.64513576 2 6 1746 4.12400000 2340706211 2340706211 -9.00000000
3.34916830 10.64163017 1.36981142 12 7 1747 11.24000000 2340706213 2340706213 7.00000000
1.64391053 5.22017097 -0.67198753 2 8 1748 5.51400000 2340706215 2340706215 -7.00000000
3.35005164 10.63795280 1.76645803 12 9 1748 11.29200000 2340706218 2340706218 9.00000000
2.46821809 7.83295441 -0.71851194 4 10 1749 8.24400000 2340706220 2340706220 -5.00000000
3.06043649 9.70646477 1.97830760 12 11 1750 10.36800000 2340706222 2340706222 11.00000000
3.34532070 10.60354805 -0.58270854 12 12 1751 11.13400000 2340706225 2340706225 -3.00000000
3.07285261 9.73399448 2.35658717 57 13 1752 10.47600000 2340706227 2340706227 13.00000000
3.35370946 10.61721992 -0.19435000 10 14 1753 11.13600000 2340706229 2340706229 -1.00000000
2.65513492 8.40566349 2.36198258 42 15 1753 9.12600000 2340706232 2340706232 15.00000000
0.68790370 2.16723490 -0.60926002 4 0 1761 2.35400000 2340706252 2340706252 -15.00000000
3.36856675 10.60622120 0.19424528 13 1 1762 11.13000000 2340706255 2340706255 1.00000000
0.81272310 2.55738115 -0.61951518 3 2 1763 2.75400000 2340706257 2340706257 -13.00000000
3.37844944 10.62448120 0.58427864 13 3 1764 11.16400000 2340706259 2340706259 3.00000000
0.97985846 3.08143950 -0.62852484 2 4 1764 3.29400000 2340706261 2340706261 -11.00000000
3.38112330 10.62646675 0.97562140 12 5 1765 11.19400000 2340706264 2340706264 5.00000000
1.24227822 3.90197492 -0.64857727 2 6 1766 4.14600000 2340706266 2340706266 -9.00000000
3.38508892 10.62609196 1.36932397 10 7 1767 11.23600000 2340706268 2340706268 7.00000000
1.65850508 5.20305300 -0.67052513 4 8 1768 5.50200000 2340706271 2340706271 -7.00000000
3.39742279 10.65195084 1.77083814 12 9 1769 11.32000000 2340706273 2340706273 9.00000000
2.50644279 7.85845804 -0.72164953 4 10 1769 8.28000000 2340706275 2340706275 -5.00000000
3.38049102 10.58609867 -0.58239454 12 12 1771 11.12800000 2340706280 2340706280 -3.00000000
3.10206699 9.70835876 2.35298800 56 13 1772 10.46000000 2340706282 2340706282 13.00000000
3.39196801 10.60925770 -0.19441980 10 14 1773 11.14000000 2340706285 2340706285 -1.00000000
2.68592548 8.39587498 2.36198258 42 15 1774 9.12600000 2340706287 2340706287 15.00000000
0.69529909 2.16690254 -0.60977769 3 0 1779 2.35600000 2340706308 2340706308 -15.00000000
3.40676093 10.61081791 0.19452453 13 1 1780 11.14600000 2340706310 2340706310 1.00000000
0.82194543 2.55852604 -0.62041503 3 2 1781 2.75800000 2340706312 2340706312 -13.00000000
3.41364408 10.61951923 0.58459264 10 3 1782 11.17000000 2340706314 2340706314 3.00000000
0.99073589 3.08208418 -0.62928808 2 4 1782 3.29800000 2340706317 2340706317 -11.00000000
3.41693068 10.62337971 0.97631866 12 5 1783 11.20200000 2340706319 2340706319 5.00000000
1.25150454 3.88865089 -0.64701295 2 6 1784 4.13600000 2340706321 2340706321 -9.00000000
3.42332292 10.63052082 1.37127388 14 7 1785 11.25200000 2340706324 2340706324 7.00000000
1.68214846 5.22048998 -0.67344999 2 8 1786 5.52600000 2340706326 2340706326 -7.00000000
3.42780113 10.63806343 1.77021241 12 9 1786 11.31600000 2340706328 2340706328 9.00000000
2.52622747 7.83537531 -0.72025508 4 10 1787 8.26400000 2340706331 2340706331 -5.00000000
3.21636510 9.96995544 2.03631353 40 11 1788 10.67200000 2340706333 2340706333 11.00000000
3.42170739 10.60013485 -0.58375525 12 12 1789 11.15400000 2340706335 2340706335 -3.00000000
3.12176991 9.66518593 2.34488988 60 13 1790 10.42400000 2340706338 2340706338 13.00000000
3.43020082 10.61377144 -0.19469905 10 14 1791 11.15600000 2340706340 2340706340 -1.00000000
2.71201277 8.39154530 2.36301780 42 15 1791 9.13000000 2340706342 2340706342 15.00000000
0.70345545 2.16629958 -0.61029530 4 0 1799 2.35800000 2340706363 2340706363 -15.00000000
3.45119405 10.62168312 0.19494338 13 1 1800 11.17000000 2340706365 2340706365 1.00000000
0.83508897 2.56861401 -0.62356430 3 2 1801 2.77200000 2340706367 2340706367 -13.00000000
3.45501733 10.62083340 0.58532536 13 3 1802 11.18400000 2340706370 2340706370 3.00000000
1.00027370 3.07487321 -0.62852484 2 4 1802 3.29400000 2340706372 2340706372 -11.00000000
3.45399261 10.61138725 0.97631866 12 5 1803 11.20200000 2340706374 2340706374 5.00000000
1.26507092 3.88425875 -0.64701295 2 6 1804 4.13600000 2340706377 2340706377 -9.00000000
3.46409988 10.62983036 1.37273633 12 7 1805 11.26400000 2340706379 2340706379 7.00000000
3.46287799 10.61978912 -1.37151754 2 8 1806 11.25400000 2340706381 2340706381 -7.00000000
3.46860671 10.63106155 1.77115107 12 9 1807 11.32200000 2340706384 2340706384 9.00000000
2.55109048 7.81893253 -0.71955782 4 10 1807 8.25600000 2340706386 2340706386 -5.00000000
3.25358415 9.96613216 2.03784013 46 11 1808 10.68000000 2340706388 2340706388 11.00000000
3.46488953 10.60711193 -0.58480197 12 12 1809 11.17400000 2340706390 2340706390 -3.00000000
3.12158489 9.55050087 2.31969523 60 13 1810 10.31200000 2340706393 2340706393 13.00000000
3.46474242 10.59413052 -0.19455943 10 14 1811 11.14800000 2340706395 2340706395 -1.00000000
2.74154949 8.37787724 2.36198258 40 15 1812 9.12600000 2340706397 2340706397 15.00000000
0.70498228 2.14547777 -0.60511893 4 0 1819 2.33800000 2340706418 2340706418 -15.00000000
3.48824978 10.60957146 0.19494338 13 1 1820 11.17000000 2340706420 2340706420 1.00000000
0.84222305 2.56012988 -0.62221462 3 2 1821 2.76600000 2340706423 2340706423 -13.00000000
3.49831462 10.62767982 0.58637208 15 3 1822 11.20400000 2340706425 2340706425 3.00000000
1.00363469 3.04898500 -0.62394542 2 4 1822 3.27000000 2340706427 2340706427 -11.00000000
3.49599838 10.61440468 0.97771311 12 5 1823 11.21800000 2340706430 2340706430 5.00000000
1.27738512 3.87606692 -0.64638722 2 6 1824 4.13200000 2340706432 2340706432 -9.00000000
3.50864363 10.64029694 1.37566113 12 7 1825 11.28800000 2340706434 2340706434 7.00000000
3.50117087 10.61140728 -1.37200511 2 8 1826 11.25800000 2340706437 2340706437 -7.00000000
3.50879288 10.63450813 1.77365398 12 9 1826 11.33800000 2340706439 2340706439 9.00000000
2.56650066 7.77403307 -0.71624589 4 10 1827 8.21800000 2340706441 2340706441 -5.00000000
3.28588939 9.94725800 2.03631353 43 11 1828 10.67200000 2340706443 2340706443 11.00000000
3.50628185 10.60822678 -0.58553469 12 12 1829 11.18800000 2340706446 2340706446 -3.00000000
3.12308502 9.44333649 2.29630041 62 13 1830 10.20800000 2340706448 2340706448 13.00000000
3.51049685 10.60855007 -0.19504809 10 14 1831 11.17600000 2340706450 2340706450 -1.00000000
2.76567507 8.35773563 2.35887671 42 15 1831 9.11400000 2340706453 2340706453 15.00000000
0.71734285 2.15766954 -0.60926002 4 0 1839 2.35400000 2340706473 2340706473 -15.00000000
3.52841878 10.60681820 0.19511791 13 1 1840 11.18000000 2340706476 2340706476 1.00000000
0.85176986 2.55902338 -0.62266451 3 2 1841 2.76800000 2340706478 2340706478 -13.00000000
3.54170179 10.63435268 0.58741879 13 3 1842 11.22400000 2340706480 2340706480 3.00000000
1.02419710 3.07526588 -0.63005131 2 4 1842 3.30200000 2340706483 2340706483 -11.00000000
3.53302836 10.60213757 0.97771311 12 5 1843 11.21800000 2340706485 2340706485 5.00000000
1.28903294 3.86596251 -0.64544863 2 6 1844 4.12600000 2340706487 2340706487 -9.00000000
3.54827690 10.63551712 1.37663615 14 7 1845 11.29600000 2340706490 2340706490 7.00000000
3.54699016 10.62548256 -1.37541735 2 8 1846 11.28600000 2340706492 2340706492 -7.00000000
3.55463076 10.64218616 1.77709556 12 9 1847 11.36000000 2340706494 2340706494 9.00000000
2.59993362 7.78392458 -0.71798903 4 10 1847 8.23800000 2340706496 2340706496 -5.00000000
3.31934714 9.93200302 2.03555036 46 11 1848 10.66800000 2340706499 2340706499 11.00000000
3.54835725 10.61107635 -0.58637208 12 12 1849 11.20400000 2340706501 2340706501 -3.00000000
3.11769199 9.31779957 2.26840639 60 13 1850 10.08400000 2340706503 2340706503 13.00000000
3.55385470 10.61519432 -0.19539714 10 14 1851 11.19600000 2340706506 2340706506 -1.00000000
2.79567552 8.34571075 2.35835910 45 15 1852 9.11200000 2340706508 2340706508 15.00000000
0.72487015 2.15515232 -0.60926002 4 0 1859 2.35400000 2340706529 2340706529 -15.00000000
3.56733537 10.60012245 0.19522262 13 1 1860 11.18600000 2340706531 2340706531 1.00000000
0.85634410 2.54310679 -0.61951518 3 2 1861 2.75400000 2340706533 2340706533 -13.00000000
3.58007646 10.62571049 0.58762813 13 3 1862 11.22800000 2340706536 2340706536 3.00000000
1.03492558 3.07167196 -0.63005131 2 4 1862 3.30200000 2340706538 2340706538 -11.00000000
3.57765293 10.61239624 0.97980487 12 5 1863 11.24200000 2340706540 2340706540 5.00000000
1.30630803 3.87266994 -0.64732581 2 6 1864 4.13800000 2340706543 2340706543 -9.00000000
3.58664966 10.62682819 1.37712359 14 7 1865 11.30000000 2340706545 2340706545 7.00000000
3.57770705 10.59422970 -1.37298000 2 8 1866 11.26600000 2340706547 2340706547 -7.00000000
3.59369421 10.64156914 1.77897274 12 9 1866 11.37200000 2340706549 2340706549 9.00000000
2.62134862 7.75781393 -0.71642023 4 10 1867 8.22000000 2340706552 2340706552 -5.00000000
3.35148096 9.91291714 2.03402400 43 11 1868 10.66000000 2340706554 2340706554 11.00000000
3.58409524 10.59484196 -0.58616269 12 12 1869 11.20000000 2340706556 2340706556 -3.00000000
3.12020826 9.21825790 2.24681115 64 13 1870 9.98800000 2340706559 2340706559 13.00000000
3.59345269 10.61030102 -0.19553676 10 14 1871 11.20400000 2340706561 2340706561 -1.00000000
2.82829309 8.35103226 2.36250019 40 15 1871 9.12800000 2340706563 2340706563 15.00000000
0.73487765 2.15992451 -0.61133057 4 0 1879 2.36200000 2340706584 2340706584 -15.00000000
3.60947061 10.60274982 0.19550186 13 1 1880 11.20200000 2340706586 2340706586 1.00000000
0.86647266 2.54379129 -0.62041503 3 2 1881 2.75800000 2340706589 2340706589 -13.00000000
3.61972237 10.62071133 0.58804679 13 3 1882 11.23600000 2340706591 2340706591 3.00000000
1.04437470 3.06432414 -0.62928808 2 4 1882 3.29800000 2340706593 2340706593 -11.00000000
3.62625051 10.63378620 0.98294246 12 5 1883 11.27800000 2340706596 2340706596 5.00000000
1.31790447 3.86247778 -0.64638722 2 6 1884 4.13200000 2340706598 2340706598 -9.00000000
3.62628794 10.62175846 1.37809849 12 7 1885 11.30800000 2340706600 2340706600 7.00000000
3.61723280 10.58919048 -1.37395501 2 8 1886 11.27400000 2340706602 2340706602 -7.00000000
3.63586760 10.63767242 1.78053713 12 9 1887 11.38200000 2340706605 2340706605 9.00000000
2.66001129 7.78255177 -0.71955782 4 10 1887 8.25600000 2340706607 2340706607 -5.00000000
3.38860416 9.90858841 2.03555036 43 11 1888 10.66800000 2340706609 2340706609 11.00000000
3.62622929 10.59738445 -0.58700007 12 12 1889 11.21600000 2340706612 2340706612 -3.00000000
3.10818076 9.07825279 2.21531796 49 13 1890 9.84800000 2340706614 2340706614 13.00000000
3.63565230 10.61282635 -0.19581600 10 14 1891 11.22000000 2340706616 2340706616 -1.00000000
2.86326694 8.35340214 2.36612368 42 15 1892 9.14200000 2340706619 2340706619 15.00000000
0.73864090 2.14638591 -0.60822475 4 0 1899 2.35000000 2340706639 2340706639 -15.00000000
3.65231824 10.60710239 0.19581600 13 1 1900 11.22000000 2340706642 2340706642 1.00000000
0.87979025 2.55364847 -0.62356430 3 2 1901 2.77200000 2340706644 2340706644 -13.00000000
3.65872622 10.61367607 0.58836085 13 3 1902 11.24200000 2340706646 2340706646 3.00000000
1.05506492 3.06065989 -0.62928808 2 4 1902 3.29800000 2340706649 2340706649 -11.00000000
3.66464639 10.62483120 0.98329109 12 5 1903 11.28200000 2340706651 2340706651 5.00000000
1.33395672 3.86532331 -0.64763868 4 6 1904 4.14000000 2340706653 2340706653 -9.00000000
3.66982198 10.62779903 1.38053596 14 7 1905 11.32800000 2340706655 2340706655 7.00000000
3.66065645 10.59526157 -1.37639236 2 8 1906 11.29400000 2340706658 2340706658 -7.00000000
3.67176867 10.62742424 1.78084993 12 9 1906 11.38400000 2340706660 2340706660 9.00000000
2.67869878 7.74873972 -0.71729177 4 10 1907 8.23000000 2340706662 2340706662 -5.00000000
3.42573810 9.90412140 2.03707695 50 11 1908 10.67600000 2340706665 2340706665 11.00000000
3.66581178 10.59221172 -0.58741879 12 12 1909 11.22400000 2340706667 2340706667 -3.00000000
3.10860538 8.97711658 2.19327283 59 13 1910 9.75000000 2340706669 2340706669 13.00000000
3.67136645 10.59629250 -0.19574618 10 14 1911 11.21600000 2340706672 2340706672 -1.00000000
0.74295366 2.13467193 -0.60563654 4 0 1919 2.34000000 2340706695 2340706695 -15.00000000
3.68800664 10.59051228 0.19574618 13 1 1920 11.21600000 2340706697 2340706697 1.00000000
0.88869882 2.55056190 -0.62356430 3 2 1921 2.77200000 2340706699 2340706699 -13.00000000
3.70232749 10.61969948 0.58940756 10 3 1922 11.26200000 2340706702 2340706702 3.00000000
1.06444955 3.05325079 -0.62852484 2 4 1922 3.29400000 2340706704 2340706704 -11.00000000
3.70105553 10.61009312 0.98311681 12 5 1923 11.28000000 2340706706 2340706706 5.00000000
1.34809196 3.86250830 -0.64795154 2 6 1924 4.14200000 2340706708 2340706708 -9.00000000
3.71475101 10.63741302 1.38346076 12 7 1925 11.35200000 2340706711 2340706711 7.00000000
3.70809531 10.61240292 -1.38029218 2 8 1926 11.32600000 2340706713 2340706713 -7.00000000
3.71535873 10.63319111 1.78397858 12 9 1926 11.40400000 2340706715 2340706715 9.00000000
2.69981289 7.72241497 -0.71572298 4 10 1927 8.21200000 2340706718 2340706718 -5.00000000
3.45899248 9.88839626 2.03631353 46 11 1928 10.67200000 2340706720 2340706720 11.00000000
3.70804143 10.59443188 -0.58825612 12 12 1929 11.24000000 2340706722 2340706722 -3.00000000
3.10900640 8.87792873 2.17167759 53 13 1930 9.65400000 2340706725 2340706725 13.00000000
3.71494460 10.60228443 -0.19609524 10 14 1931 11.23600000 2340706727 2340706727 -1.00000000
2.41730618 6.89888287 1.95874250 9 15 1931 7.56800000 2340706729 2340706729 15.00000000
0.75066948 2.13401890 -0.60615420 4 0 1938 2.34200000 2340706750 2340706750 -15.00000000
3.72775292 10.59142780 0.19599052 13 1 1939 11.23000000 2340706752 2340706752 1.00000000
0.89650458 2.54576278 -0.62311441 3 2 1940 2.77000000 2340706755 2340706755 -13.00000000
3.74283338 10.62243366 0.59024489 10 3 1941 11.27800000 2340706757 2340706757 3.00000000
1.07456863 3.04970407 -0.62852484 2 4 1941 3.29400000 2340706759 2340706759 -11.00000000
3.74218154 10.61467266 0.98468560 12 5 1942 11.29800000 2340706761 2340706761 5.00000000
1.35629332 3.84497643 -0.64576149 4 6 1943 4.12800000 2340706764 2340706764 -9.00000000
3.75132704 10.62878036 1.38394821 12 7 1944 11.35600000 2340706766 2340706766 7.00000000
3.74458885 10.60379219 -1.38077962 2 8 1945 11.33000000 2340706768 2340706768 -7.00000000
3.75705957 10.63319492 1.78616869 12 9 1946 11.41800000 2340706771 2340706771 9.00000000
2.73602653 7.74347687 -0.71851194 4 10 1946 8.24400000 2340706773 2340706773 -5.00000000
3.49045587 9.87316990 2.03555036 43 11 1947 10.66800000 2340706775 2340706775 11.00000000
3.74182153 10.57831097 -0.58804679 12 12 1948 11.23600000 2340706778 2340706778 -3.00000000
3.10461998 8.77204132 2.14828253 29 13 1949 9.55000000 2340706780 2340706780 13.00000000
3.75475526 10.60310173 -0.19633958 10 14 1950 11.25000000 2340706782 2340706782 -1.00000000
2.44532943 6.90539694 1.96288359 9 15 1950 7.58400000 2340706784 2340706784 15.00000000
0.75940883 2.13502574 -0.60718948 4 0 1958 2.34600000 2340706805 2340706805 -15.00000000
3.77006483 10.59342289 0.19626977 13 1 1959 11.24600000 2340706808 2340706808 1.00000000
0.90015584 2.52793121 -0.61951518 3 2 1960 2.75400000 2340706810 2340706810 -13.00000000
3.78123045 10.61306667 0.59045428 13 3 1961 11.28200000 2340706812 2340706812 3.00000000
1.08388972 3.04223585 -0.62776160 2 4 1961 3.29000000 2340706814 2340706814 -11.00000000
3.78121781 10.60717583 0.98520851 12 5 1962 11.30400000 2340706817 2340706817 5.00000000
1.37236094 3.84766102 -0.64701295 4 6 1963 4.13600000 2340706819 2340706819 -9.00000000
3.79107428 10.62309933 1.38492322 10 7 1964 11.36400000 2340706821 2340706821 7.00000000
3.78024507 10.58691692 -1.38029218 2 8 1965 11.32600000 2340706824 2340706824 -7.00000000
3.79747629 10.62931633 1.78773308 12 9 1966 11.42800000 2340706826 2340706826 9.00000000
2.75834751 7.72074556 -0.71729177 4 10 1966 8.23000000 2340706828 2340706828 -5.00000000
3.52489853 9.86092567 2.03555036 43 11 1967 10.66800000 2340706831 2340706831 11.00000000
3.78208685 10.57458878 -0.58857018 12 12 1968 11.24600000 2340706833 2340706833 -3.00000000
3.00718594 8.40336609 2.06055164 6 13 1969 9.16000000 2340706835 2340706835 13.00000000
3.79915905 10.61063957 -0.19672352 10 14 1970 11.27200000 2340706837 2340706837 -1.00000000
2.47192550 6.90002537 1.96391892 9 15 1971 7.58800000 2340706840 2340706840 15.00000000
0.77133745 2.14717436 -0.61133057 4 0 1976 2.36200000 2340706861 2340706861 -15.00000000
3.81009030 10.60034466 0.19661881 13 1 1977 11.26600000 2340706863 2340706863 1.00000000
0.91139048 2.53425956 -0.62176472 3 2 1978 2.76400000 2340706865 2340706865 -13.00000000
