# .PCD v0.7 - Point Cloud Data file format
VERSION 0.7
FIELDS x y z intensity laser_id azimuth distance_m adjustedtime timestamp vertical_angle
SIZE 4 4 4 1 1 2 8 8 4 8
TYPE F F F U U U F U U F
COUNT 1 1 1 1 1 1 1 1 1 1
WIDTH 522
HEIGHT 1
VIEWPOINT 0 0 0 1 0 0 0
POINTS 522
DATA ascii
-1.00251997 2.35835505 -0.59162128 3 2 33697 2.63000000 2340295020 2340295020 -13.00000000
-4.56513786 10.74436188 0.61180735 18 3 33698 11.69000000 2340295022 2340295022 3.00000000
-1.18154478 2.78084564 -0.58731008 4 4 33698 3.07800000 2340295024 2340295024 -11.00000000
-4.56070328 10.73913193 1.02076805 17 5 33699 11.71200000 2340295027 2340295027 5.00000000
-1.47267294 3.46939993 -0.59695393 2 6 33700 3.81600000 2340295029 2340295029 -9.00000000
-4.56507492 10.75986290 1.43513334 19 7 33701 11.77600000 2340295031 2340295031 7.00000000
-1.92432368 4.53782606 -0.60520315 2 8 33702 4.96600000 2340295034 2340295034 -7.00000000
-4.56014347 10.75345993 1.84999394 12 9 33702 11.82600000 2340295036 2340295036 9.00000000
-4.55631495 10.74965096 -1.02146530 4 10 33703 11.72000000 2340295038 2340295038 -5.00000000
-4.39746904 10.37992954 2.19125056 46 11 33704 11.48400000 2340295040 2340295040 11.00000000
-4.54266214 10.72786140 -0.61055124 8 12 33705 11.66600000 2340295043 2340295043 -3.00000000
-3.89499569 9.20281696 2.30709791 55 13 33706 10.25600000 2340295045 2340295045 13.00000000
-4.53666306 10.72411728 -0.20325072 17 14 33707 11.64600000 2340295047 2340295047 -1.00000000
-3.64062333 8.60598850 2.50381541 40 15 33707 9.67400000 2340295050 2340295050 15.00000000
-0.84019762 1.99387872 -0.57975465 4 0 33715 2.24000000 2340295070 2340295070 -15.00000000
-4.51825953 10.72754478 0.20318091 13 1 33716 11.64200000 2340295073 2340295073 1.00000000
-0.98520833 2.34028721 -0.58622247 3 2 33717 2.60600000 2340295075 2340295075 -13.00000000
-4.52218294 10.74734497 0.61107463 18 3 33718 11.67600000 2340295077 2340295077 3.00000000
-1.17183053 2.78495312 -0.58731008 4 4 33718 3.07800000 2340295080 2340295080 -11.00000000
-4.51546478 10.73662090 1.01902497 17 5 33719 11.69200000 2340295082 2340295082 5.00000000
-1.45749152 3.46723533 -0.59570247 2 6 33720 3.80800000 2340295084 2340295084 -9.00000000
-4.51979876 10.75743198 1.43269598 19 7 33721 11.75600000 2340295087 2340295087 7.00000000
-1.92384434 4.58112049 -0.61007792 2 8 33722 5.00600000 2340295089 2340295089 -7.00000000
-4.51611233 10.75917244 1.84811676 12 9 33723 11.81400000 2340295091 2340295091 9.00000000
-4.51413727 10.75446796 -1.02041948 4 10 33723 11.70800000 2340295093 2340295093 -5.00000000
-4.35665226 10.38435459 2.18896079 46 11 33724 11.47200000 2340295096 2340295096 11.00000000
-4.49437428 10.71786594 -0.60908586 8 12 33725 11.63800000 2340295098 2340295098 -3.00000000
-3.89297938 9.28824806 2.32509398 68 13 33726 10.33600000 2340295100 2340295100 13.00000000
-4.49379253 10.72697735 -0.20300639 19 14 33727 11.63200000 2340295103 2340295103 -1.00000000
-3.60980248 8.62105656 2.50433302 38 15 33728 9.67600000 2340295105 2340295105 15.00000000
-0.83879095 2.00913310 -0.58337814 4 0 33734 2.25400000 2340295126 2340295126 -15.00000000
-4.47650051 10.72770500 0.20290168 10 1 33735 11.62600000 2340295128 2340295128 1.00000000
-0.98044282 2.35073566 -0.58802205 3 2 33736 2.61400000 2340295130 2340295130 -13.00000000
-4.47960186 10.74569035 0.61013258 23 3 33737 11.65800000 2340295133 2340295133 3.00000000
-1.16787684 2.80150843 -0.58998144 4 4 33737 3.09200000 2340295135 2340295135 -11.00000000
-4.48596668 10.76624870 1.02041948 80 5 33738 11.70800000 2340295137 2340295137 5.00000000
-1.44598579 3.47204947 -0.59570247 2 6 33739 3.80800000 2340295140 2340295140 -9.00000000
-4.47113228 10.74120522 1.42855239 19 7 33740 11.72200000 2340295142 2340295142 7.00000000
-4.46163225 10.72365761 -1.42611504 2 8 33741 11.70200000 2340295144 2340295144 -7.00000000
-4.47621870 10.75871658 1.84561384 12 9 33741 11.79800000 2340295146 2340295146 9.00000000
-4.48762989 10.79145336 -1.02251112 4 10 33742 11.73200000 2340295149 2340295149 -5.00000000
-4.32369995 10.40237045 2.18972397 46 11 33743 11.47600000 2340295151 2340295151 11.00000000
-4.44961309 10.71057796 -0.60782981 8 12 33744 11.61400000 2340295153 2340295153 -3.00000000
-3.89055538 9.36949635 2.34219027 64 13 33745 10.41200000 2340295156 2340295156 13.00000000
-4.45589638 10.73627949 -0.20290168 17 14 33746 11.62600000 2340295158 2340295158 -1.00000000
-3.58566308 8.63949203 2.50640368 38 15 33746 9.68400000 2340295160 2340295160 15.00000000
-0.83620095 2.02276063 -0.58648396 4 0 33754 2.26600000 2340295181 2340295181 -15.00000000
-4.43597174 10.73587322 0.20276205 13 1 33755 11.61800000 2340295183 2340295183 1.00000000
-0.97371900 2.35774612 -0.58892184 3 2 33756 2.61800000 2340295186 2340295186 -13.00000000
-4.42758608 10.72618484 0.60814381 21 3 33757 11.62000000 2340295188 2340295188 3.00000000
-1.15584338 2.80012393 -0.58883655 4 4 33757 3.08600000 2340295190 2340295190 -11.00000000
-4.43695974 10.75421524 1.01780474 80 5 33758 11.67800000 2340295193 2340295193 5.00000000
-1.43686950 3.48438048 -0.59695393 2 6 33759 3.81600000 2340295195 2340295195 -9.00000000
-4.42982912 10.74757099 1.42733371 21 7 33760 11.71200000 2340295197 2340295197 7.00000000
-1.87446988 4.55005884 -0.60422820 2 8 33761 4.95800000 2340295199 2340295199 -7.00000000
-4.43073893 10.76043797 1.84311092 15 9 33762 11.78200000 2340295202 2340295202 9.00000000
-2.71274471 6.58813858 -0.62333786 4 10 33762 7.15200000 2340295204 2340295204 -5.00000000
-4.28885651 10.42103004 2.19048738 50 11 33763 11.48000000 2340295206 2340295206 11.00000000
-4.41219902 10.72604465 -0.60782981 8 12 33764 11.61400000 2340295209 2340295209 -3.00000000
-3.88302112 9.44429970 2.35748696 64 13 33765 10.48000000 2340295211 2340295211 13.00000000
-4.41231203 10.73697090 -0.20262244 8 14 33766 11.61000000 2340295213 2340295213 -1.00000000
-3.55470753 8.65436268 2.50692129 38 15 33767 9.68600000 2340295216 2340295216 15.00000000
-0.82181704 2.00778842 -0.58130759 4 0 33774 2.24600000 2340295236 2340295236 -15.00000000
-4.39089775 10.73278427 0.20241301 10 1 33775 11.59800000 2340295239 2340295239 1.00000000
-0.96990842 2.37195325 -0.59162128 3 2 33776 2.63000000 2340295241 2340295241 -13.00000000
-4.38633966 10.73233032 0.60762048 21 3 33777 11.61000000 2340295243 2340295243 3.00000000
-1.14606202 2.80414152 -0.58883655 2 4 33777 3.08600000 2340295246 2340295246 -11.00000000
-4.38809204 10.74197102 1.01519012 80 5 33778 11.64800000 2340295248 2340295248 5.00000000
-1.42469800 3.48937488 -0.59695393 2 6 33779 3.81600000 2340295250 2340295250 -9.00000000
-4.38703585 10.75010300 1.42562759 21 7 33780 11.69800000 2340295252 2340295252 7.00000000
-4.38216066 10.74351597 -1.42465258 2 8 33781 11.69000000 2340295255 2340295255 -7.00000000
-4.38384056 10.74763489 1.83841789 18 9 33781 11.75200000 2340295257 2340295257 9.00000000
-2.70627880 6.63815689 -0.62717271 4 10 33782 7.19600000 2340295259 2340295259 -5.00000000
-4.25245428 10.43593788 2.19048738 46 11 33783 11.48000000 2340295262 2340295262 11.00000000
-4.37322426 10.73768139 -0.60762048 8 12 33784 11.61000000 2340295264 2340295264 -3.00000000
-3.88382864 9.54082298 2.37818265 66 13 33785 10.57200000 2340295266 2340295266 13.00000000
-4.36576271 10.73008060 -0.20220359 8 14 33786 11.58600000 2340295269 2340295269 -1.00000000
-3.52671719 8.66789246 2.50743890 38 15 33786 9.68800000 2340295271 2340295271 15.00000000
-0.81190127 2.00348306 -0.57923704 4 0 33794 2.23800000 2340295292 2340295292 -15.00000000
-4.34289646 10.72209740 0.20192434 13 1 33795 11.57000000 2340295294 2340295294 1.00000000
-0.96016032 2.37171173 -0.59072149 3 2 33796 2.62600000 2340295296 2340295296 -13.00000000
-4.34585333 10.74017048 0.60720176 21 3 33797 11.60200000 2340295299 2340295299 3.00000000
-1.14068520 2.81904435 -0.59112626 2 4 33797 3.09800000 2340295301 2340295301 -11.00000000
-4.34011078 10.73136425 1.01274967 21 5 33798 11.62000000 2340295303 2340295303 5.00000000
-1.41398978 3.49798965 -0.59757966 2 6 33799 3.82000000 2340295305 2340295305 -9.00000000
-4.34948397 10.76535130 1.42562759 21 7 33800 11.69800000 2340295308 2340295308 7.00000000
-4.33422565 10.73297787 -1.42124033 2 8 33801 11.66200000 2340295310 2340295310 -7.00000000
-4.34185982 10.75188255 1.83654058 18 9 33801 11.74000000 2340295312 2340295312 9.00000000
-2.67115951 6.61800194 -0.62438375 4 10 33802 7.16400000 2340295315 2340295315 -5.00000000
-4.21746922 10.45435905 2.19125056 43 11 33803 11.48400000 2340295317 2340295317 11.00000000
-4.32675362 10.73065376 -0.60636437 8 12 33804 11.58600000 2340295319 2340295319 -3.00000000
-3.88109565 9.63023567 2.39707851 60 13 33805 10.65600000 2340295322 2340295322 13.00000000
-4.31707335 10.71743107 -0.20168000 8 14 33806 11.55600000 2340295324 2340295324 -1.00000000
-3.48994279 8.66402245 2.50278020 40 15 33806 9.67000000 2340295326 2340295326 15.00000000
-0.80957073 2.01692152 -0.58234286 4 0 33813 2.25000000 2340295347 2340295347 -15.00000000
-4.29763746 10.71231365 0.20147058 13 1 33814 11.54400000 2340295349 2340295349 1.00000000
-0.94938904 2.36764765 -0.58892184 3 2 33815 2.61800000 2340295352 2340295352 -13.00000000
-4.30352688 10.73783779 0.60625970 21 3 33816 11.58400000 2340295354 2340295354 3.00000000
-1.12548780 2.80823278 -0.58807331 2 4 33816 3.08200000 2340295356 2340295356 -11.00000000
-4.30375957 10.74384785 1.01257539 55 5 33817 11.61800000 2340295358 2340295358 5.00000000
-1.39503992 3.48432088 -0.59445095 2 6 33818 3.80000000 2340295361 2340295361 -9.00000000
-4.30048561 10.74654102 1.42124033 21 7 33819 11.66200000 2340295363 2340295363 7.00000000
-1.83783817 4.59492350 -0.60764056 2 8 33820 4.98600000 2340295365 2340295365 -7.00000000
-4.30210257 10.76146984 1.83560205 18 9 33821 11.73400000 2340295368 2340295368 9.00000000
-4.30143499 10.75979996 -1.01379561 4 10 33821 11.63200000 2340295370 2340295370 -5.00000000
-4.17695045 10.45370293 2.18819761 43 11 33822 11.46800000 2340295372 2340295372 11.00000000
-4.28077507 10.71897507 -0.60489899 8 12 33823 11.55800000 2340295375 2340295375 -3.00000000
-3.88092637 9.72268772 2.41687417 66 13 33824 10.74400000 2340295377 2340295377 13.00000000
-4.28076839 10.72983074 -0.20164511 8 14 33825 11.55400000 2340295379 2340295379 -1.00000000
-3.46405625 8.68272591 2.50485063 36 15 33825 9.67800000 2340295381 2340295381 15.00000000
-0.80252546 2.01973510 -0.58234286 4 0 33833 2.25000000 2340295402 2340295402 -15.00000000
-4.25726604 10.71981525 0.20133096 13 1 33834 11.53600000 2340295405 2340295405 1.00000000
-0.93968070 2.36732459 -0.58802205 3 2 33835 2.61400000 2340295407 2340295407 -13.00000000
-4.26012611 10.73794270 0.60542232 21 3 33836 11.56800000 2340295409 2340295409 3.00000000
-1.12436628 2.83404279 -0.59265274 2 4 33836 3.10600000 2340295411 2340295411 -11.00000000
-4.26476145 10.75510120 1.01222682 72 5 33837 11.61400000 2340295414 2340295414 5.00000000
-1.38578022 3.49651480 -0.59570247 2 6 33838 3.80800000 2340295416 2340295416 -9.00000000
-4.25271177 10.73564911 1.41782796 21 7 33839 11.63400000 2340295418 2340295418 7.00000000
-1.82178771 4.60131073 -0.60764056 2 8 33840 4.98600000 2340295421 2340295421 -7.00000000
-4.25724316 10.75805378 1.83247328 18 9 33841 11.71400000 2340295423 2340295423 9.00000000
-4.24185610 10.71917152 -1.00856626 4 10 33841 11.57200000 2340295425 2340295425 -5.00000000
-4.14043474 10.46821880 2.18819761 46 11 33842 11.46800000 2340295428 2340295428 11.00000000
-4.24333286 10.73385239 -0.60489899 8 12 33843 11.55800000 2340295430 2340295430 -3.00000000
-3.87560892 9.80867195 2.43487024 60 13 33844 10.82400000 2340295432 2340295432 13.00000000
-4.23814678 10.73168945 -0.20140077 10 14 33845 11.54000000 2340295434 2340295434 -1.00000000
-3.43362761 8.69895744 2.50588608 40 15 33846 9.68200000 2340295437 2340295437 15.00000000
-0.79829872 2.02971530 -0.58441341 4 0 33853 2.25800000 2340295458 2340295458 -15.00000000
-4.21616316 10.72530556 0.20115644 16 1 33854 11.52600000 2340295460 2340295460 1.00000000
-0.93141150 2.37059045 -0.58802205 3 2 33855 2.61400000 2340295462 2340295462 -13.00000000
-4.21166706 10.72486210 0.60385227 18 3 33856 11.53800000 2340295464 2340295464 3.00000000
-1.11159635 2.83064079 -0.59112626 2 4 33856 3.09800000 2340295467 2340295467 -11.00000000
-4.21772957 10.74581242 1.00996077 85 5 33857 11.58800000 2340295469 2340295469 5.00000000
-1.38366640 3.52707577 -0.60008264 2 6 33858 3.83600000 2340295471 2340295471 -9.00000000
-4.21231270 10.74303627 1.41685295 21 7 33859 11.62600000 2340295474 2340295474 7.00000000
-1.78978014 4.56698084 -0.60227829 2 8 33860 4.94200000 2340295476 2340295476 -7.00000000
-4.20885754 10.74525928 1.82778025 15 9 33861 11.68400000 2340295478 2340295478 9.00000000
-4.21749306 10.76730537 -1.01170385 4 10 33861 11.60800000 2340295481 2340295481 -5.00000000
-4.10673141 10.48992062 2.18972397 50 11 33862 11.47600000 2340295483 2340295483 11.00000000
-4.19637775 10.72441959 -0.60353827 8 12 33863 11.53200000 2340295485 2340295485 -3.00000000
-3.86689878 9.88747597 2.45106673 64 13 33864 10.89600000 2340295487 2340295487 13.00000000
-4.19046831 10.72034264 -0.20091210 19 14 33865 11.51200000 2340295490 2340295490 -1.00000000
-3.40616870 8.71389484 2.50692129 36 15 33865 9.68600000 2340295492 2340295492 15.00000000
-0.78980720 2.02888894 -0.58337814 4 0 33873 2.25400000 2340295513 2340295513 -15.00000000
-4.17362356 10.72691250 0.20091210 13 1 33874 11.51200000 2340295515 2340295515 1.00000000
-0.92595607 2.38109207 -0.58982164 3 2 33875 2.62200000 2340295517 2340295517 -13.00000000
-4.17275763 10.73577499 0.60364294 21 3 33876 11.53400000 2340295520 2340295520 3.00000000
-1.10028625 2.83084393 -0.59036303 2 4 33876 3.09400000 2340295522 2340295522 -11.00000000
-4.17009354 10.73446846 1.00752044 21 5 33877 11.56000000 2340295524 2340295524 5.00000000
-1.36705625 3.52083564 -0.59820539 2 6 33878 3.82400000 2340295527 2340295527 -9.00000000
-4.17191410 10.75027180 1.41587806 19 7 33879 11.61800000 2340295529 2340295529 7.00000000
-4.15711641 10.71768665 -1.41149068 2 8 33880 11.58200000 2340295531 2340295531 -7.00000000
-4.16703987 10.74883461 1.82590306 15 9 33881 11.67200000 2340295534 2340295534 9.00000000
-4.15971756 10.72994709 -1.00682318 4 10 33881 11.55200000 2340295536 2340295536 -5.00000000
-4.07079935 10.50602245 2.19010568 50 11 33882 11.47800000 2340295538 2340295538 11.00000000
-4.14954042 10.71479034 -0.60217750 8 12 33883 11.50600000 2340295540 2340295540 -3.00000000
-3.87175441 10.00268555 2.47626114 64 13 33884 11.00800000 2340295543 2340295543 13.00000000
-4.14147758 10.70506573 -0.20035362 21 14 33885 11.48000000 2340295545 2340295545 -1.00000000
-3.37154865 8.71492100 2.50381541 40 15 33885 9.67400000 2340295547 2340295547 15.00000000
-0.78133124 2.02802825 -0.58234286 4 0 33893 2.25000000 2340295568 2340295568 -15.00000000
-4.12968683 10.72462082 0.20059796 10 1 33894 11.49400000 2340295570 2340295570 1.00000000
-0.91763890 2.38430977 -0.58982164 3 2 33895 2.62200000 2340295573 2340295573 -13.00000000
-4.13282919 10.73836994 0.60301489 23 3 33895 11.52200000 2340295575 2340295575 3.00000000
-1.08757865 2.82733798 -0.58883655 2 4 33896 3.08600000 2340295577 2340295577 -11.00000000
-4.12616301 10.73222256 1.00595152 17 5 33897 11.54200000 2340295580 2340295580 5.00000000
-1.34908950 3.51083469 -0.59570247 2 6 33898 3.80800000 2340295582 2340295582 -9.00000000
-4.12938166 10.75179672 1.41417181 21 7 33899 11.60400000 2340295584 2340295584 7.00000000
-4.10972023 10.70618629 -1.40807843 2 8 33900 11.55400000 2340295586 2340295586 -7.00000000
-4.12570953 10.74783993 1.82340014 15 9 33900 11.65600000 2340295589 2340295589 9.00000000
-2.58353543 6.73385286 -0.63100755 4 10 33901 7.24000000 2340295591 2340295591 -5.00000000
-4.03199291 10.51466942 2.18896079 43 11 33902 11.47200000 2340295593 2340295593 11.00000000
-4.11354303 10.73293972 -0.60238683 8 12 33903 11.51000000 2340295596 2340295596 -3.00000000
-3.86469865 10.08893108 2.49425721 68 13 33904 11.08800000 2340295598 2340295598 13.00000000
-4.10122442 10.71198654 -0.20021401 19 14 33905 11.47200000 2340295600 2340295600 -1.00000000
-3.33834434 8.71942043 2.50174499 36 15 33905 9.66600000 2340295603 2340295603 15.00000000
-0.77287090 2.02713299 -0.58130759 4 0 33913 2.24600000 2340295623 2340295623 -15.00000000
-4.08510542 10.72028446 0.20024891 13 1 33914 11.47400000 2340295626 2340295626 1.00000000
-0.90931052 2.38749838 -0.58982164 3 2 33915 2.62200000 2340295628 2340295628 -13.00000000
-4.08775902 10.73851204 0.60217750 18 3 33916 11.50600000 2340295630 2340295630 3.00000000
-1.08329034 2.84579563 -0.59188950 4 4 33916 3.10200000 2340295633 2340295633 -11.00000000
-4.08159065 10.72793865 1.00420845 17 5 33917 11.52200000 2340295635 2340295635 5.00000000
-1.33963454 3.52290797 -0.59695393 2 6 33918 3.81600000 2340295637 2340295637 -9.00000000
-4.08547831 10.74944592 1.41197824 19 7 33919 11.58600000 2340295639 2340295639 7.00000000
-4.06950378 10.71304417 -1.40710342 2 8 33920 11.54600000 2340295642 2340295642 -7.00000000
-4.08067942 10.74811554 1.82089722 18 9 33921 11.64000000 2340295644 2340295644 9.00000000
-2.55435681 6.72792864 -0.62961310 4 10 33921 7.22400000 2340295646 2340295646 -5.00000000
-3.98969293 10.51399517 2.18590784 50 11 33922 11.45600000 2340295649 2340295649 11.00000000
-4.06330442 10.71361923 -0.60050279 8 12 33923 11.47400000 2340295651 2340295651 -3.00000000
-3.83222103 10.10964870 2.49605680 59 13 33924 11.09600000 2340295653 2340295653 13.00000000
-4.05955696 10.71501732 -0.20000458 14 14 33925 11.46000000 2340295656 2340295656 -1.00000000
-3.30567956 8.72979069 2.50122714 36 15 33926 9.66400000 2340295658 2340295658 15.00000000
-0.76988167 2.04066348 -0.58441341 4 0 33933 2.25800000 2340295679 2340295679 -15.00000000
-4.03778219 10.70828342 0.19976024 13 1 33934 11.44600000 2340295681 2340295681 1.00000000
-0.89959657 2.38701081 -0.58892184 3 2 33935 2.61800000 2340295683 2340295683 -13.00000000
-4.04437876 10.73145008 0.60102612 21 3 33935 11.48400000 2340295686 2340295686 3.00000000
-1.07750237 2.86058307 -0.59417921 4 4 33936 3.11400000 2340295688 2340295688 -11.00000000
-4.04131031 10.73466206 1.00351119 17 5 33937 11.51400000 2340295690 2340295690 5.00000000
-1.33567715 3.54974866 -0.60070837 2 6 33938 3.84000000 2340295692 2340295692 -9.00000000
-4.03535318 10.73019600 1.40759087 21 7 33939 11.55000000 2340295695 2340295695 7.00000000
-1.75377822 4.66585112 -0.61202782 2 8 33940 5.02200000 2340295697 2340295697 -7.00000000
-4.04244232 10.76044464 1.82058430 18 9 33941 11.63800000 2340295699 2340295699 9.00000000
-2.53926444 6.75918531 -0.63170481 4 10 33941 7.24800000 2340295702 2340295702 -5.00000000
-3.95296788 10.52785778 2.18590784 46 11 33942 11.45600000 2340295704 2340295704 11.00000000
-4.01465416 10.69781876 -0.59882802 8 12 33943 11.44200000 2340295706 2340295706 -3.00000000
-3.79553986 10.11931515 2.49515700 55 13 33944 11.09200000 2340295709 2340295709 13.00000000
-4.01932192 10.72163296 -0.19986495 8 14 33945 11.45200000 2340295711 2340295711 -1.00000000
-3.27942491 8.74794006 2.50329781 40 15 33945 9.67200000 2340295713 2340295713 15.00000000
-0.76748294 2.05600739 -0.58803689 4 0 33953 2.27200000 2340295734 2340295734 -15.00000000
-3.99548554 10.70919800 0.19951591 13 1 33954 11.43200000 2340295736 2340295736 1.00000000
-0.88989711 2.38648462 -0.58802205 3 2 33955 2.61400000 2340295738 2340295738 -13.00000000
-3.99991584 10.72678852 0.59997940 21 3 33955 11.46400000 2340295741 2340295741 3.00000000
-1.05928302 2.84225106 -0.58959979 4 4 33956 3.09000000 2340295743 2340295743 -11.00000000
-4.00033712 10.73936844 1.00263965 17 5 33957 11.50400000 2340295745 2340295745 5.00000000
-1.31776440 3.53957963 -0.59820539 2 6 33958 3.82400000 2340295748 2340295748 -9.00000000
-3.99579644 10.73863506 1.40685976 21 7 33959 11.54400000 2340295750 2340295750 7.00000000
-3.97454762 10.68723583 -1.40003502 2 8 33960 11.48800000 2340295752 2340295752 -7.00000000
-3.99728584 10.75412273 1.81714272 18 9 33961 11.61600000 2340295755 2340295755 9.00000000
-3.98659134 10.72535038 -1.00107086 4 10 33961 11.48600000 2340295757 2340295757 -5.00000000
-3.91824579 10.54711342 2.18705273 50 11 33962 11.46200000 2340295759 2340295759 11.00000000
-3.97867775 10.71551228 -0.59903735 8 12 33963 11.44600000 2340295762 2340295762 -3.00000000
-3.75544763 10.11971283 2.49200773 53 13 33964 11.07800000 2340295764 2340295764 13.00000000
-3.96796393 10.69810009 -0.19916686 17 14 33965 11.41200000 2340295766 2340295766 -1.00000000
-3.24819708 8.75752258 2.50278020 36 15 33965 9.67000000 2340295768 2340295768 15.00000000
-0.75695503 2.04961276 -0.58544868 4 0 33973 2.26200000 2340295789 2340295789 -15.00000000
-3.95738673 10.72120285 0.19948101 30 1 33974 11.43000000 2340295791 2340295791 1.00000000
-0.88291031 2.39323306 -0.58892184 3 2 33975 2.61800000 2340295794 2340295794 -13.00000000
-3.95642757 10.73013306 0.59935135 13 3 33976 11.45200000 2340295796 2340295796 3.00000000
-1.05071366 2.84961557 -0.59036303 4 4 33976 3.09400000 2340295798 2340295798 -11.00000000
-3.95662498 10.73644161 1.00107086 12 5 33977 11.48600000 2340295801 2340295801 5.00000000
-1.31222844 3.56269431 -0.60133410 2 6 33978 3.84400000 2340295803 2340295803 -9.00000000
-3.95622993 10.74692917 1.40612853 21 7 33979 11.53800000 2340295805 2340295805 7.00000000
-1.71430743 4.65935135 -0.60959047 2 8 33980 5.00200000 2340295808 2340295808 -7.00000000
-3.95068860 10.73765659 1.81213689 25 9 33980 11.58400000 2340295810 2340295810 9.00000000
-2.50026679 6.79918766 -0.63379657 4 10 33981 7.27200000 2340295812 2340295812 -5.00000000
-3.89088750 10.58652401 2.19239545 53 11 33982 11.49000000 2340295815 2340295815 11.00000000
-3.92885327 10.69558907 -0.59715325 8 12 33983 11.41000000 2340295817 2340295817 -3.00000000
-3.72010040 10.13276005 2.49200773 54 13 33984 11.07800000 2340295819 2340295819 13.00000000
-3.92577457 10.69874382 -0.19892253 6 14 33985 11.39800000 2340295821 2340295821 -1.00000000
-3.21275139 8.76030064 2.50019193 38 15 33986 9.66000000 2340295824 2340295824 15.00000000
-0.74449235 2.03772640 -0.58130759 4 0 33993 2.24600000 2340295844 2340295844 -15.00000000
-3.90827823 10.70301914 0.19888762 10 1 33994 11.39600000 2340295847 2340295847 1.00000000
-0.87722337 2.40362287 -0.59072149 3 2 33995 2.62600000 2340295849 2340295849 -13.00000000
-3.91876936 10.73756599 0.59903735 10 3 33995 11.44600000 2340295851 2340295851 3.00000000
-1.04210579 2.85695457 -0.59112626 2 4 33996 3.09800000 2340295854 2340295854 -11.00000000
-3.91093469 10.72772408 0.99897915 12 5 33997 11.46200000 2340295856 2340295856 5.00000000
-1.29302156 3.54869294 -0.59820539 2 6 33998 3.82400000 2340295858 2340295858 -9.00000000
-3.91937113 10.76253891 1.40637219 17 7 33999 11.54000000 2340295861 2340295861 7.00000000
-1.71568525 4.71380663 -0.61592764 2 8 34000 5.05400000 2340295863 2340295863 -7.00000000
-3.91063118 10.75020885 1.81182396 12 9 34001 11.58200000 2340295865 2340295865 9.00000000
-2.47106910 6.79289484 -0.63240206 4 10 34001 7.25600000 2340295868 2340295868 -5.00000000
-3.87269306 10.65170383 2.20308065 56 11 34002 11.54600000 2340295870 2340295870 11.00000000
-3.90991211 10.75992107 -0.59997940 4 12 34003 11.46400000 2340295872 2340295872 -3.00000000
-3.68337727 10.14202118 2.49110794 54 13 34004 11.07400000 2340295874 2340295874 13.00000000
-3.90614462 10.76125431 -0.19983006 6 14 34005 11.45000000 2340295877 2340295877 -1.00000000
-3.17819977 8.76056576 2.49708605 38 15 34006 9.64800000 2340295879 2340295879 15.00000000
-0.74459755 2.06029797 -0.58700162 4 0 34013 2.26800000 2340295900 2340295900 -15.00000000
-3.88991547 10.76925755 0.19986495 6 1 34014 11.45200000 2340295902 2340295902 1.00000000
-0.86882782 2.40667033 -0.59072149 3 2 34015 2.62600000 2340295904 2340295904 -13.00000000
-3.89618444 10.79250813 0.60134012 7 3 34015 11.49000000 2340295907 2340295907 3.00000000
-1.04145527 2.88642883 -0.59646893 2 4 34016 3.12600000 2340295909 2340295909 -11.00000000
-3.89779592 10.80878353 1.00525439 42 5 34017 11.53400000 2340295911 2340295911 5.00000000
-1.28732431 3.57176828 -0.60133410 2 6 34018 3.84400000 2340295914 2340295914 -9.00000000
-3.89254308 10.80603695 1.41027200 40 7 34019 11.57200000 2340295916 2340295916 7.00000000
-1.70325518 4.73097324 -0.61739010 2 8 34020 5.06600000 2340295918 2340295918 -7.00000000
-3.88365936 10.78727913 1.81589127 37 9 34020 11.60800000 2340295921 2340295921 9.00000000
-2.44599319 6.79772997 -0.63205343 4 10 34021 7.25200000 2340295923 2340295923 -5.00000000
-3.84146762 10.68178463 2.20651531 59 11 34022 11.56400000 2340295925 2340295925 11.00000000
-3.91286302 10.88627625 -0.60625970 4 12 34023 11.58400000 2340295927 2340295927 -3.00000000
-3.64531732 10.14748096 2.48930836 52 13 34024 11.06600000 2340295930 2340295930 13.00000000
-3.90977669 10.88963032 -0.20195925 8 14 34025 11.57200000 2340295932 2340295932 -1.00000000
-3.14760017 8.77160645 2.49708605 36 15 34026 9.64800000 2340295934 2340295934 15.00000000
-0.73740125 2.06288457 -0.58700162 4 0 34033 2.26800000 2340295955 2340295955 -15.00000000
-3.89804864 10.91082287 0.20223849 6 1 34034 11.58800000 2340295957 2340295957 1.00000000
-0.85648984 2.39867687 -0.58802205 3 2 34035 2.61400000 2340295960 2340295960 -13.00000000
-3.89274073 10.90197086 0.60667843 21 3 34035 11.59200000 2340295962 2340295962 3.00000000
-1.02741420 2.87895250 -0.59417921 4 4 34036 3.11400000 2340295964 2340295964 -11.00000000
-3.89217043 10.91240025 1.01362133 59 5 34037 11.63000000 2340295967 2340295967 5.00000000
-1.27153218 3.56693673 -0.59976971 2 6 34038 3.83400000 2340295969 2340295969 -9.00000000
-3.88477969 10.90370655 1.42124033 40 7 34039 11.66200000 2340295971 2340295971 7.00000000
-1.67474437 4.70322847 -0.61300278 2 8 34040 5.03000000 2340295974 2340295974 -7.00000000
-3.87712550 10.88823318 1.83059609 37 9 34040 11.70200000 2340295976 2340295976 9.00000000
-2.44229054 6.86253834 -0.63728279 4 10 34041 7.31200000 2340295978 2340295978 -5.00000000
-3.80086803 10.68587971 2.20460725 59 11 34042 11.55400000 2340295980 2340295980 11.00000000
-3.91230273 11.00525379 -0.61212134 8 12 34043 11.69600000 2340295983 2340295983 -3.00000000
-3.52049136 9.90857315 2.42767167 105 13 34044 10.79200000 2340295985 2340295985 13.00000000
-3.90319133 10.99177837 -0.20359978 6 14 34045 11.66600000 2340295987 2340295987 -1.00000000
-3.11437798 8.77525806 2.49501562 38 15 34046 9.64000000 2340295990 2340295990 15.00000000
-0.72955203 2.06362462 -0.58648396 4 0 34053 2.26600000 2340296010 2340296010 -15.00000000
-3.89258265 11.01675129 0.20394883 10 1 34054 11.68600000 2340296013 2340296013 1.00000000
-0.85200506 2.41267729 -0.59072149 3 2 34055 2.62600000 2340296015 2340296015 -13.00000000
-3.85133672 10.90607643 0.60615504 28 3 34055 11.58200000 2340296017 2340296017 3.00000000
-1.01343799 2.87141323 -0.59188950 2 4 34056 3.10200000 2340296020 2340296020 -11.00000000
-3.86664796 10.96161938 1.01693320 17 5 34057 11.66800000 2340296022 2340296022 5.00000000
-1.26367104 3.58439445 -0.60195982 2 6 34058 3.84800000 2340296024 2340296024 -9.00000000
-3.88165879 11.01642990 1.43415844 38 7 34059 11.76800000 2340296026 2340296026 7.00000000
-1.66622925 4.73151445 -0.61592764 2 8 34060 5.05400000 2340296029 2340296029 -7.00000000
-3.87255812 10.99672508 1.84655237 31 9 34060 11.80400000 2340296031 2340296031 9.00000000
-2.41832089 6.87102175 -0.63728279 4 10 34061 7.31200000 2340296033 2340296033 -5.00000000
-3.75768113 10.68241405 2.20117259 59 11 34062 11.53600000 2340296036 2340296036 11.00000000
-3.91294646 11.13001156 -0.61829698 4 12 34063 11.81400000 2340296038 2340296038 -3.00000000
-3.56921816 10.15797424 2.48570919 56 13 34064 11.05000000 2340296040 2340296040 13.00000000
-3.90654135 11.12420082 -0.20579877 6 14 34065 11.79200000 2340296043 2340296043 -1.00000000
-3.08526111 8.78553677 2.49501562 36 15 34065 9.64000000 2340296045 2340296045 15.00000000
-0.72234416 2.06615853 -0.58648396 4 0 34073 2.26600000 2340296066 2340296066 -15.00000000
-3.89499903 11.14731312 0.20611292 10 1 34074 11.81000000 2340296068 2340296068 1.00000000
-0.84357804 2.41563654 -0.59072149 3 2 34075 2.62600000 2340296070 2340296070 -13.00000000
-3.80402517 10.89305592 0.60468966 26 3 34075 11.55400000 2340296073 2340296073 3.00000000
-1.00211489 2.87122607 -0.59112626 2 4 34076 3.09800000 2340296075 2340296075 -11.00000000
-3.81917429 10.94871235 1.01449287 4 5 34077 11.64000000 2340296077 2340296077 5.00000000
-1.25635386 3.60370588 -0.60446280 2 6 34078 3.86400000 2340296079 2340296079 -9.00000000
-3.87910438 11.13301373 1.44756401 40 7 34079 11.87800000 2340296082 2340296082 7.00000000
-1.63795209 4.70355749 -0.61154038 2 8 34080 5.01800000 2340296084 2340296084 -7.00000000
-3.86533117 11.09971905 1.86157012 37 9 34080 11.90000000 2340296086 2340296086 9.00000000
-2.39432168 6.87942123 -0.63728279 4 10 34081 7.31200000 2340296089 2340296089 -5.00000000
-3.71585464 10.68248558 2.19850135 56 11 34082 11.52200000 2340296091 2340296091 11.00000000
-3.91014314 11.24736023 -0.62405396 8 12 34083 11.92400000 2340296093 2340296093 -3.00000000
-3.53309894 10.16853046 2.48525929 53 13 34084 11.04800000 2340296096 2340296096 13.00000000
-3.89720607 11.22277641 -0.20736949 8 14 34085 11.88200000 2340296098 2340296098 -1.00000000
-3.05050611 8.78948593 2.49294496 36 15 34086 9.63200000 2340296100 2340296100 15.00000000
-0.71296257 2.06123972 -0.58441341 4 0 34092 2.25800000 2340296121 2340296121 -15.00000000
-3.88871908 11.24899673 0.20775345 6 1 34093 11.90400000 2340296123 2340296123 1.00000000
-0.83810842 2.42578840 -0.59252107 3 2 34094 2.63400000 2340296126 2340296126 -13.00000000
-3.76271868 10.89682865 0.60416627 26 3 34095 11.54400000 2340296128 2340296128 3.00000000
-0.99643278 2.88566780 -0.59341598 2 4 34095 3.11000000 2340296130 2340296130 -11.00000000
-3.75749707 10.88786507 1.00769472 4 5 34096 11.56200000 2340296132 2340296132 5.00000000
-1.24053204 3.59664774 -0.60258555 2 6 34097 3.85200000 2340296135 2340296135 -9.00000000
-3.87904000 11.25278854 1.46145713 38 7 34098 11.99200000 2340296137 2340296137 7.00000000
-1.62881160 4.72773170 -0.61397773 2 8 34099 5.03800000 2340296139 2340296139 -7.00000000
-2.37149572 6.88732338 -0.63728279 4 10 34100 7.31200000 2340296144 2340296144 -5.00000000
-3.67721558 10.68546677 2.19659305 59 11 34101 11.51200000 2340296146 2340296146 11.00000000
-3.50189328 10.18756199 2.48705888 50 13 34103 11.05600000 2340296151 2340296151 13.00000000
-3.01660132 8.78075600 2.48776865 38 15 34104 9.61200000 2340296156 2340296156 15.00000000
-0.70763850 2.06919956 -0.58596629 4 0 34112 2.26400000 2340296176 2340296176 -15.00000000
-0.82963568 2.42869902 -0.59252107 3 2 34114 2.63400000 2340296181 2340296181 -13.00000000
-3.72272301 10.90422535 0.60385227 26 3 34115 11.53800000 2340296183 2340296183 3.00000000
-0.98508519 2.88541269 -0.59265274 4 4 34115 3.10600000 2340296185 2340296185 -11.00000000
-3.71110439 10.87640190 1.00542867 4 5 34116 11.53600000 2340296188 2340296188 5.00000000
-1.22031891 3.57852030 -0.59883112 2 6 34117 3.82800000 2340296190 2340296190 -9.00000000
-1.62766016 4.77848625 -0.61982751 2 8 34119 5.08600000 2340296195 2340296195 -7.00000000
-2.34744000 6.89555931 -0.63728279 4 10 34120 7.31200000 2340296199 2340296199 -5.00000000
-3.63167310 10.67407608 2.19163203 59 11 34121 11.48600000 2340296202 2340296202 11.00000000
-3.46505666 10.19603348 2.48615909 51 13 34123 11.05200000 2340296206 2340296206 13.00000000
-2.98812389 8.80272865 2.49087453 36 15 34125 9.62400000 2340296211 2340296211 15.00000000
-0.69917387 2.06799698 -0.58493102 4 0 34132 2.26000000 2340296232 2340296232 -15.00000000
-0.81741190 2.42050242 -0.58982164 3 2 34134 2.62200000 2340296236 2340296236 -13.00000000
-3.68527603 10.91904640 0.60395694 7 3 34135 11.54000000 2340296238 2340296238 3.00000000
-0.98505241 2.91859627 -0.59875864 2 4 34135 3.13800000 2340296241 2340296241 -11.00000000
-3.68139458 10.91383171 1.00769472 12 5 34136 11.56200000 2340296243 2340296243 5.00000000
-1.21286845 3.59773302 -0.60133410 2 6 34137 3.84400000 2340296245 2340296245 -9.00000000
-1.61097026 4.78413868 -0.61982751 2 8 34139 5.08600000 2340296250 2340296250 -7.00000000
-3.59063625 10.67552280 2.18934250 59 11 34141 11.47400000 2340296257 2340296257 11.00000000
-3.42510056 10.19513607 2.48300982 48 13 34143 11.03800000 2340296262 2340296262 13.00000000
-2.95645690 8.80526352 2.48880386 36 15 34144 9.61600000 2340296266 2340296266 15.00000000
-0.69440037 2.07775402 -0.58700162 4 0 34152 2.26800000 2340296287 2340296287 -15.00000000
-0.80895782 2.42334104 -0.58982164 3 2 34154 2.62200000 2340296291 2340296291 -13.00000000
-3.68822479 11.05499268 0.61076063 2 3 34155 11.67000000 2340296294 2340296294 3.00000000
-0.97113067 2.91084290 -0.59646893 4 4 34155 3.12600000 2340296296 2340296296 -11.00000000
-3.68550014 11.05325222 1.01937354 8 5 34156 11.69600000 2340296298 2340296298 5.00000000
-1.20030260 3.60194492 -0.60133410 2 6 34157 3.84400000 2340296301 2340296301 -9.00000000
-1.59426069 4.78973293 -0.61982751 2 8 34159 5.08600000 2340296305 2340296305 -7.00000000
-3.54963350 10.67681313 2.18705273 53 11 34161 11.46200000 2340296312 2340296312 11.00000000
-3.38580704 10.19593239 2.48031044 50 13 34163 11.02600000 2340296317 2340296317 13.00000000
-2.92538047 8.81970787 2.48983932 36 15 34165 9.62000000 2340296321 2340296321 15.00000000
-0.68532556 2.07466197 -0.58544868 4 0 34172 2.26200000 2340296342 2340296342 -15.00000000
-0.80293620 2.43355250 -0.59162128 3 2 34174 2.63000000 2340296347 2340296347 -13.00000000
-3.67775917 11.15315533 0.61547083 2 3 34175 11.76000000 2340296349 2340296349 3.00000000
-0.96342325 2.92167306 -0.59799540 2 4 34175 3.13400000 2340296351 2340296351 -11.00000000
-3.67308640 11.14552498 1.02669466 8 5 34176 11.78000000 2340296354 2340296354 5.00000000
-1.18772221 3.60611272 -0.60133410 2 6 34177 3.84400000 2340296356 2340296356 -9.00000000
-1.56760621 4.76509809 -0.61592764 2 8 34179 5.05400000 2340296361 2340296361 -7.00000000
-3.50866580 10.67794800 2.18476295 56 11 34181 11.45000000 2340296367 2340296367 11.00000000
-3.35201907 10.21324444 2.48166013 51 13 34183 11.03200000 2340296372 2340296372 13.00000000
-2.89130044 8.81467533 2.48569822 38 15 34184 9.60400000 2340296377 2340296377 15.00000000
-0.67508179 2.06785941 -0.58286047 4 0 34192 2.25200000 2340296397 2340296397 -15.00000000
-0.79685318 2.44375134 -0.59342086 3 2 34194 2.63800000 2340296402 2340296402 -13.00000000
-3.68212414 11.29885292 0.62279791 2 3 34195 11.90000000 2340296404 2340296404 3.00000000
-0.95321888 2.92501807 -0.59799540 2 4 34195 3.13400000 2340296407 2340296407 -11.00000000
-1.17390442 3.60647988 -0.60070837 2 6 34197 3.84000000 2340296411 2340296411 -9.00000000
-1.56078339 4.80074644 -0.61982751 2 8 34199 5.08600000 2340296416 2340296416 -7.00000000
-3.46773314 10.67892647 2.18247318 56 11 34201 11.43800000 2340296423 2340296423 11.00000000
-3.31815147 10.23044395 2.48300982 48 13 34203 11.03800000 2340296427 2340296427 13.00000000
-2.85778284 8.82153797 2.48466277 38 15 34205 9.60000000 2340296432 2340296432 15.00000000
-0.67118800 2.07927895 -0.58544868 4 0 34211 2.26200000 2340296453 2340296453 -15.00000000
-0.78754902 2.44267082 -0.59252107 3 2 34213 2.63400000 2340296457 2340296457 -13.00000000
-0.94110543 2.92068839 -0.59646893 2 4 34214 3.12600000 2340296462 2340296462 -11.00000000
-1.16920054 3.63291764 -0.60446280 2 6 34216 3.86400000 2340296467 2340296467 -9.00000000
-1.54485500 4.80589581 -0.61982751 2 8 34218 5.08600000 2340296471 2340296471 -7.00000000
-3.42630005 10.67167473 2.17865705 53 11 34220 11.41800000 2340296478 2340296478 11.00000000
-3.28420782 10.24139118 2.48300982 50 13 34222 11.03800000 2340296483 2340296483 13.00000000
-2.83241343 8.83783054 2.48673344 36 15 34223 9.60800000 2340296487 2340296487 15.00000000
-0.66568696 2.08713055 -0.58700162 4 0 34231 2.26800000 2340296508 2340296508 -15.00000000
-0.77665168 2.43797779 -0.59072149 3 2 34233 2.62600000 2340296513 2340296513 -13.00000000
-0.93209577 2.92769718 -0.59723216 2 4 34234 3.13000000 2340296517 2340296517 -11.00000000
-1.15292060 3.62568188 -0.60258555 2 6 34236 3.85200000 2340296522 2340296522 -9.00000000
-1.52806985 4.81125879 -0.61982751 2 8 34238 5.08600000 2340296526 2340296526 -7.00000000
-3.38546634 10.67234135 2.17636728 53 11 34240 11.40600000 2340296533 2340296533 11.00000000
-3.24373007 10.23793030 2.47941041 50 13 34242 11.02200000 2340296538 2340296538 13.00000000
-2.80058503 8.84999466 2.48725104 38 15 34244 9.61000000 2340296543 2340296543 15.00000000
-0.66224766 2.10038114 -0.59010744 4 0 34250 2.28000000 2340296563 2340296563 -15.00000000
-0.77207488 2.45169258 -0.59342086 3 2 34252 2.63800000 2340296568 2340296568 -13.00000000
-0.92002451 2.92328119 -0.59570569 4 4 34253 3.12200000 2340296573 2340296573 -11.00000000
-1.14799941 3.65209866 -0.60633999 2 6 34255 3.87600000 2340296577 2340296577 -9.00000000
-1.50734985 4.80114794 -0.61787754 2 8 34257 5.07000000 2340296582 2340296582 -7.00000000
-3.34888196 10.67976284 2.17560410 53 11 34259 11.40200000 2340296589 2340296589 11.00000000
-3.20976186 10.24863052 2.47941041 50 13 34261 11.02200000 2340296593 2340296593 13.00000000
-2.77219105 8.85690594 2.48673344 38 15 34262 9.60800000 2340296598 2340296598 15.00000000
-0.65146500 2.09161329 -0.58700162 4 0 34270 2.26800000 2340296619 2340296619 -15.00000000
-0.76466990 2.45809412 -0.59432071 3 2 34272 2.64200000 2340296623 2340296623 -13.00000000
-0.90748340 2.91897607 -0.59417921 4 4 34273 3.11400000 2340296628 2340296628 -11.00000000
-1.13407266 3.65231061 -0.60571426 2 6 34275 3.87200000 2340296632 2340296632 -9.00000000
-1.49528551 4.82154846 -0.61982751 2 8 34277 5.08600000 2340296637 2340296637 -7.00000000
-3.30925870 10.68388653 2.17407775 56 11 34279 11.39400000 2340296644 2340296644 11.00000000
-3.17281604 10.25604916 2.47851062 47 13 34281 11.01800000 2340296649 2340296649 13.00000000
-2.73840475 8.85729980 2.48414516 40 15 34282 9.59800000 2340296653 2340296653 15.00000000
-0.64415997 2.09387469 -0.58700162 4 0 34290 2.26800000 2340296674 2340296674 -15.00000000
-0.75780195 2.46633673 -0.59567040 3 2 34292 2.64800000 2340296679 2340296679 -13.00000000
-0.90305167 2.94089365 -0.59799540 4 4 34293 3.13400000 2340296683 2340296683 -11.00000000
-1.11899996 3.64869285 -0.60446280 2 6 34295 3.86400000 2340296688 2340296688 -9.00000000
-1.47030675 4.80016613 -0.61641514 2 8 34297 5.05800000 2340296692 2340296692 -7.00000000
-3.26735020 10.68035412 2.17102480 53 11 34299 11.37800000 2340296699 2340296699 11.00000000
-3.13699651 10.26706219 2.47851062 48 13 34301 11.01800000 2340296704 2340296704 13.00000000
-2.70634198 8.86310959 2.48310995 42 15 34302 9.59400000 2340296708 2340296708 15.00000000
-0.63572383 2.09241366 -0.58596629 4 0 34310 2.26400000 2340296729 2340296729 -15.00000000
-0.74862236 2.46710205 -0.59522051 3 2 34312 2.64600000 2340296734 2340296734 -13.00000000
-0.89164108 2.94027042 -0.59723216 2 4 34313 3.13000000 2340296738 2340296738 -11.00000000
-1.10511172 3.64879560 -0.60383701 2 6 34315 3.86000000 2340296743 2340296743 -9.00000000
-1.46848559 4.85467100 -0.62275237 2 8 34317 5.11000000 2340296748 2340296748 -7.00000000
-3.22437119 10.67290020 2.16720867 56 11 34319 11.35800000 2340296755 2340296755 11.00000000
-3.10339046 10.28541183 2.48031044 47 13 34321 11.02600000 2340296759 2340296759 13.00000000
-2.67328143 8.87111950 2.48259234 38 15 34323 9.59200000 2340296764 2340296764 15.00000000
-0.63285720 2.10942292 -0.59010744 4 0 34330 2.28000000 2340296785 2340296785 -15.00000000
-0.73553133 2.45476627 -0.59162128 3 2 34332 2.63000000 2340296789 2340296789 -13.00000000
-0.88249856 2.94712639 -0.59799540 2 4 34333 3.13400000 2340296794 2340296794 -11.00000000
-1.09236825 3.65263081 -0.60383701 2 6 34335 3.86000000 2340296798 2340296798 -9.00000000
-1.44471335 4.83694267 -0.61982751 2 8 34337 5.08600000 2340296803 2340296803 -7.00000000
-3.18485141 10.67656517 2.16568208 56 11 34339 11.35000000 2340296810 2340296810 11.00000000
-3.06413031 10.28497696 2.47761083 48 13 34341 11.01400000 2340296814 2340296814 13.00000000
-2.64495158 8.88363934 2.48362756 38 15 34342 9.59600000 2340296819 2340296819 15.00000000
-0.62549007 2.11161923 -0.59010744 4 0 34350 2.28000000 2340296840 2340296840 -15.00000000
-0.72806370 2.46105623 -0.59252107 3 2 34352 2.63400000 2340296844 2340296844 -13.00000000
-0.87331897 2.95395422 -0.59875864 2 4 34353 3.13800000 2340296849 2340296849 -11.00000000
-1.08464599 3.67347240 -0.60665286 2 6 34355 3.87800000 2340296854 2340296854 -9.00000000
-1.42445159 4.83053207 -0.61836505 2 8 34357 5.07400000 2340296858 2340296858 -7.00000000
-3.14534521 10.68008423 2.16415572 59 11 34359 11.34200000 2340296865 2340296865 11.00000000
-3.02601075 10.28813171 2.47581124 50 13 34361 11.00600000 2340296870 2340296870 13.00000000
-2.61174655 8.88540363 2.48155689 38 15 34362 9.58800000 2340296874 2340296874 15.00000000
-0.61486208 2.10266447 -0.58700162 4 0 34370 2.26800000 2340296895 2340296895 -15.00000000
-0.72165376 2.47106504 -0.59432071 3 2 34372 2.64200000 2340296900 2340296900 -13.00000000
-0.86080229 2.94944620 -0.59723216 2 4 34373 3.13000000 2340296904 2340296904 -11.00000000
-1.07734430 3.69620061 -0.60978156 2 6 34375 3.89800000 2340296909 2340296909 -9.00000000
-1.41091013 4.84691048 -0.61982751 2 8 34377 5.08600000 2340296913 2340296913 -7.00000000
-3.10694957 10.68722820 2.16339231 53 11 34379 11.33800000 2340296920 2340296920 11.00000000
-2.98790669 10.29114628 2.47401166 50 13 34381 10.99800000 2340296925 2340296925 13.00000000
-2.57909989 8.88889980 2.48000407 40 15 34382 9.58200000 2340296930 2340296930 15.00000000
-0.60859019 2.10851002 -0.58803689 4 0 34390 2.27200000 2340296950 2340296950 -15.00000000
-0.71410328 2.47731400 -0.59522051 3 2 34392 2.64600000 2340296955 2340296955 -13.00000000
-0.85593611 2.97129846 -0.60104835 2 4 34393 3.15000000 2340296960 2340296960 -11.00000000
-1.05842793 3.67905664 -0.60633999 2 6 34395 3.87600000 2340296964 2340296964 -9.00000000
-1.40275335 4.88233280 -0.62372732 2 8 34397 5.11800000 2340296969 2340296969 -7.00000000
-3.06312752 10.67536259 2.15881300 50 11 34399 11.31400000 2340296976 2340296976 11.00000000
-2.95303917 10.30525970 2.47491145 50 13 34401 11.00200000 2340296980 2340296980 13.00000000
-2.54225087 8.88343525 2.47586298 42 15 34403 9.56600000 2340296985 2340296985 15.00000000
-0.60477215 2.12166381 -0.59114271 4 0 34409 2.28400000 2340297006 2340297006 -15.00000000
-0.70588428 2.47966862 -0.59522051 3 2 34411 2.64600000 2340297010 2340297010 -13.00000000
-0.84392941 2.96656704 -0.59952188 2 4 34412 3.14200000 2340297015 2340297015 -11.00000000
-1.04406261 3.67494559 -0.60508853 2 6 34414 3.86800000 2340297019 2340297019 -9.00000000
-1.37788582 4.85640192 -0.61982751 2 8 34416 5.08600000 2340297024 2340297024 -7.00000000
-3.02556896 10.67790604 2.15728641 50 11 34418 11.30600000 2340297031 2340297031 11.00000000
-2.91991067 10.31874561 2.47581124 50 13 34420 11.00600000 2340297036 2340297036 13.00000000
-2.51643300 8.89881420 2.47793365 40 15 34421 9.57400000 2340297040 2340297040 15.00000000
-0.59422398 2.11260366 -0.58803689 4 0 34429 2.27200000 2340297061 2340297061 -15.00000000
-0.69300830 2.46710849 -0.59162128 3 2 34431 2.63000000 2340297065 2340297065 -13.00000000
-0.83569145 2.97705579 -0.60104835 2 4 34432 3.15000000 2340297070 2340297070 -11.00000000
-1.03122830 3.67856765 -0.60508853 2 6 34434 3.86800000 2340297075 2340297075 -9.00000000
-1.36520684 4.87647486 -0.62177742 2 8 34436 5.10200000 2340297079 2340297079 -7.00000000
-2.98774910 10.68651199 2.15690494 46 11 34438 11.30400000 2340297086 2340297086 11.00000000
-2.88230157 10.32324409 2.47446156 51 13 34440 11.00000000 2340297091 2340297091 13.00000000
-2.48639345 8.91126537 2.47896886 42 15 34441 9.57800000 2340297095 2340297095 15.00000000
-0.58994555 2.12583399 -0.59114271 4 0 34449 2.28400000 2340297116 2340297116 -15.00000000
-0.68855584 2.48453593 -0.59522051 3 2 34451 2.64600000 2340297121 2340297121 -13.00000000
-0.82215053 2.96860242 -0.59875864 2 4 34452 3.13800000 2340297125 2340297125 -11.00000000
-1.02470016 3.70499182 -0.60884291 2 6 34454 3.89200000 2340297130 2340297130 -9.00000000
-1.35134733 4.89269114 -0.62323982 2 8 34456 5.11400000 2340297135 2340297135 -7.00000000
-2.94729590 10.68552017 2.15461516 50 11 34458 11.29200000 2340297142 2340297142 11.00000000
-2.84314418 10.32196999 2.47176218 59 13 34460 10.98800000 2340297146 2340297146 13.00000000
-2.45371532 8.92031860 2.47896886 40 15 34462 9.57800000 2340297151 2340297151 15.00000000
-0.58150125 2.12415385 -0.59010744 4 0 34469 2.28000000 2340297171 2340297171 -15.00000000
-0.68193460 2.49444342 -0.59702009 3 2 34471 2.65400000 2340297176 2340297176 -13.00000000
-0.80867881 2.96009111 -0.59646893 4 4 34472 3.12600000 2340297181 2340297181 -11.00000000
-1.01280093 3.71235752 -0.60946870 2 6 34474 3.89600000 2340297185 2340297185 -9.00000000
-1.33739126 4.90887022 -0.62470227 2 8 34476 5.12600000 2340297190 2340297190 -7.00000000
-2.90997863 10.69574356 2.15461516 43 11 34478 11.29200000 2340297197 2340297197 11.00000000
-2.80811834 10.33559322 2.47266197 57 13 34480 10.99200000 2340297201 2340297201 13.00000000
-2.41750407 8.91018486 2.47379231 42 15 34482 9.55800000 2340297206 2340297206 15.00000000
-0.57106149 2.11498046 -0.58700162 4 0 34489 2.26800000 2340297227 2340297227 -15.00000000
-0.67322320 2.49680877 -0.59702009 3 2 34491 2.65400000 2340297231 2340297231 -13.00000000
-0.80447054 2.98564363 -0.60104835 4 4 34492 3.15000000 2340297236 2340297236 -11.00000000
-1.00291586 3.72731543 -0.61134589 2 6 34494 3.90800000 2340297241 2340297241 -9.00000000
-1.31406653 4.89050388 -0.62177742 2 8 34496 5.10200000 2340297245 2340297245 -7.00000000
-2.87160826 10.70204353 2.15385199 43 11 34498 11.28800000 2340297252 2340297252 11.00000000
-2.77252769 10.34721470 2.47311187 60 13 34500 10.99400000 2340297257 2340297257 13.00000000
-2.38339090 8.90737152 2.47068667 42 15 34502 9.54600000 2340297261 2340297261 15.00000000
-0.56566364 2.12442803 -0.58907217 4 0 34509 2.27600000 2340297282 2340297282 -15.00000000
-0.66450363 2.49914336 -0.59702009 3 2 34511 2.65400000 2340297287 2340297287 -13.00000000
-0.79404378 2.98843360 -0.60104835 2 4 34512 3.15000000 2340297291 2340297291 -11.00000000
-0.98483294 3.71170044 -0.60821718 2 6 34514 3.88800000 2340297296 2340297296 -9.00000000
-1.30613911 4.92960072 -0.62616467 2 8 34516 5.13800000 2340297301 2340297301 -7.00000000
-2.83322930 10.70820618 2.15308881 43 11 34518 11.28400000 2340297307 2340297307 11.00000000
-2.73639226 10.35682964 2.47311187 57 13 34520 10.99400000 2340297312 2340297312 13.00000000
-2.35228395 8.91563702 2.47068667 40 15 34522 9.54600000 2340297317 2340297317 15.00000000
-0.55922568 2.13012671 -0.59010744 4 0 34529 2.28000000 2340297337 2340297337 -15.00000000
-0.65478754 2.49767780 -0.59612030 3 2 34531 2.65000000 2340297342 2340297342 -13.00000000
-0.78460240 2.99498534 -0.60181159 2 4 34532 3.15400000 2340297347 2340297347 -11.00000000
-0.97287053 3.71893764 -0.60884291 2 6 34534 3.89200000 2340297351 2340297351 -9.00000000
-1.28892362 4.93412971 -0.62616467 2 8 34536 5.13800000 2340297356 2340297356 -7.00000000
-2.79484224 10.71423149 2.15232539 46 11 34538 11.28000000 2340297363 2340297363 11.00000000
-2.69334650 10.33991623 2.46681333 56 13 34540 10.96600000 2340297367 2340297367 13.00000000
-2.32173228 8.91964912 2.46965122 42 15 34541 9.54200000 2340297372 2340297372 15.00000000
-0.55372280 2.13954663 -0.59217799 4 0 34549 2.28800000 2340297393 2340297393 -15.00000000
-0.64313948 2.48862767 -0.59342086 3 2 34551 2.63800000 2340297397 2340297397 -13.00000000
-0.77217960 2.99010253 -0.60028511 2 4 34552 3.14600000 2340297402 2340297402 -11.00000000
-0.96876174 3.75674129 -0.61447459 2 6 34554 3.92800000 2340297406 2340297406 -9.00000000
-1.26674235 4.91937542 -0.62372732 2 8 34556 5.11800000 2340297411 2340297411 -7.00000000
