# .PCD v0.7 - Point Cloud Data file format
VERSION 0.7
FIELDS x y z intensity laser_id azimuth distance_m adjustedtime timestamp vertical_angle
SIZE 4 4 4 1 1 2 8 8 4 8
TYPE F F F U U U F U U F
COUNT 1 1 1 1 1 1 1 1 1 1
WIDTH 540
HEIGHT 1
VIEWPOINT 0 0 0 1 0 0 0
POINTS 540
DATA ascii
3.49383807 2.49305058 -0.22493994 8 12 5449 4.29800000 2340816540 2340816540 -3.00000000
3.53472114 2.52129197 1.00238192 8 13 5450 4.45600000 2340816543 2340816543 13.00000000
3.50222754 2.49719238 -0.07508025 7 14 5451 4.30200000 2340816545 2340816545 -1.00000000
3.52226472 2.51055241 1.15899169 8 15 5452 4.47800000 2340816547 2340816547 15.00000000
1.86130250 1.32275879 -0.61184824 4 0 5460 2.36400000 2340816568 2340816568 -15.00000000
3.51799202 2.49918270 0.07532459 7 1 5461 4.31600000 2340816570 2340816570 1.00000000
2.20375752 1.56497145 -0.62401420 3 2 5462 2.77400000 2340816573 2340816573 -13.00000000
3.52923465 2.50531626 0.22682403 7 3 5463 4.33400000 2340816575 2340816575 3.00000000
2.66229415 1.88989675 -0.63463074 5 4 5463 3.32600000 2340816577 2340816577 -11.00000000
3.53081489 2.50551152 0.37877885 7 5 5464 4.34600000 2340816580 2340816580 5.00000000
3.34320354 2.37150288 -0.64920300 9 6 5465 4.15000000 2340816582 2340816582 -9.00000000
3.53818631 2.50888586 0.53256905 7 7 5466 4.37000000 2340816584 2340816584 7.00000000
3.52404857 2.49793673 -0.53037536 8 8 5467 4.35200000 2340816587 2340816587 -7.00000000
3.54386711 2.51198459 0.68799877 8 9 5467 4.39800000 2340816589 2340816589 9.00000000
3.52606058 2.49843836 -0.37808162 10 10 5468 4.33800000 2340816591 2340816591 -5.00000000
3.55182838 2.51576543 0.84604710 8 11 5469 4.43400000 2340816593 2340816593 11.00000000
3.52251267 2.49407792 -0.22619601 8 12 5470 4.32200000 2340816596 2340816596 -3.00000000
3.55030084 2.51282287 1.00418150 8 13 5471 4.46400000 2340816598 2340816598 13.00000000
3.53257823 2.49935389 -0.07553402 7 14 5472 4.32800000 2340816600 2340816600 -1.00000000
3.55466247 2.51497889 1.16675627 8 15 5472 4.50800000 2340816603 2340816603 15.00000000
1.87538004 1.32293510 -0.61495405 4 0 5480 2.37600000 2340816623 2340816623 -15.00000000
3.53976822 2.49610662 0.07560383 7 1 5481 4.33200000 2340816626 2340816626 1.00000000
2.21239233 1.55951488 -0.62491405 3 2 5482 2.77800000 2340816628 2340816628 -13.00000000
3.55101943 2.50218511 0.22766142 7 3 5483 4.35000000 2340816630 2340816630 3.00000000
2.66566515 1.87833047 -0.63386750 5 4 5483 3.32200000 2340816633 2340816633 -11.00000000
3.56071472 2.50808692 0.38104489 7 5 5484 4.37200000 2340816635 2340816635 5.00000000
3.34661579 2.35640669 -0.64826441 6 6 5485 4.14400000 2340816637 2340816637 -9.00000000
3.56315541 2.50794578 0.53500640 7 7 5486 4.39000000 2340816640 2340816640 7.00000000
3.53924060 2.49018931 -0.53135031 8 8 5487 4.36000000 2340816642 2340816642 -7.00000000
3.57082367 2.51147938 0.69144034 8 9 5488 4.42000000 2340816644 2340816644 9.00000000
3.55757570 2.50216174 -0.38052198 10 10 5488 4.36600000 2340816646 2340816646 -5.00000000
3.58949709 2.52367687 0.85291618 9 11 5489 4.47000000 2340816649 2340816649 11.00000000
3.54917169 2.49439955 -0.22734739 8 12 5490 4.34400000 2340816651 2340816651 -3.00000000
3.56861806 2.50713634 1.00688088 8 13 5491 4.47600000 2340816653 2340816653 13.00000000
3.55273628 2.49505258 -0.07577835 7 14 5492 4.34200000 2340816656 2340816656 -1.00000000
3.57650542 2.51081347 1.17089736 8 15 5493 4.52400000 2340816658 2340816658 15.00000000
1.87026298 1.31005883 -0.61184824 4 0 5499 2.36400000 2340816679 2340816679 -15.00000000
3.57095885 2.50041246 0.07609249 7 1 5500 4.36000000 2340816681 2340816681 1.00000000
2.21435881 1.54993474 -0.62401420 3 2 5501 2.77400000 2340816683 2340816683 -13.00000000
3.57566214 2.50184584 0.22870813 7 3 5502 4.37000000 2340816686 2340816686 3.00000000
2.66061902 1.86160183 -0.63119614 5 4 5502 3.30800000 2340816688 2340816688 -11.00000000
3.57391024 2.49969101 0.38156784 7 5 5503 4.37800000 2340816690 2340816690 5.00000000
3.36574388 2.35321927 -0.65045452 9 6 5504 4.15800000 2340816693 2340816693 -9.00000000
3.59423161 2.51203656 0.53841877 7 7 5505 4.41800000 2340816695 2340816695 7.00000000
3.56700635 2.49208188 -0.53427517 8 8 5506 4.38400000 2340816697 2340816697 -7.00000000
3.58679271 2.50590563 0.69300467 8 9 5506 4.43000000 2340816699 2340816699 9.00000000
3.57728791 2.49833632 -0.38174215 10 10 5507 4.38000000 2340816702 2340816702 -5.00000000
3.60750484 2.51850271 0.85520589 9 11 5508 4.48200000 2340816704 2340816704 11.00000000
3.58362961 2.50090456 -0.22902215 8 12 5509 4.37600000 2340816706 2340816706 -3.00000000
3.59768963 2.50978303 1.01272964 8 13 5510 4.50200000 2340816709 2340816709 13.00000000
3.58067369 2.49698353 -0.07619721 7 14 5511 4.36600000 2340816711 2340816711 -1.00000000
3.60022163 2.51061535 1.17607379 8 15 5511 4.54400000 2340816713 2340816713 15.00000000
1.87323844 1.30241954 -0.61133057 4 0 5519 2.36200000 2340816734 2340816734 -15.00000000
3.59608579 2.49934459 0.07644154 7 1 5520 4.38000000 2340816736 2340816736 1.00000000
2.23255873 1.55109096 -0.62761343 3 2 5521 2.79000000 2340816739 2340816739 -13.00000000
3.60405874 2.50302076 0.22996420 7 3 5522 4.39400000 2340816741 2340816741 3.00000000
2.67838883 1.86014247 -0.63386750 5 4 5522 3.32200000 2340816743 2340816743 -11.00000000
3.60389042 2.50197148 0.38383389 7 5 5523 4.40400000 2340816746 2340816746 5.00000000
3.36095476 2.33244634 -0.64795154 9 6 5524 4.14200000 2340816748 2340816748 -9.00000000
3.62255096 2.51305294 0.54134363 7 7 5525 4.44200000 2340816750 2340816750 7.00000000
3.58873343 2.48866534 -0.53622514 8 8 5526 4.40000000 2340816752 2340816752 -7.00000000
3.61868143 2.50849819 0.69738483 8 9 5527 4.45800000 2340816755 2340816755 9.00000000
3.59581161 2.49264455 -0.38278803 10 10 5527 4.39200000 2340816757 2340816757 -5.00000000
3.63402462 2.51819515 0.85940373 9 11 5528 4.50400000 2340816759 2340816759 11.00000000
3.61368132 2.50316477 -0.23038287 8 12 5529 4.40200000 2340816762 2340816762 -3.00000000
3.63366508 2.51606894 1.02037799 9 13 5530 4.53600000 2340816764 2340816764 13.00000000
3.60909867 2.49812651 -0.07661606 7 14 5531 4.39000000 2340816766 2340816766 -1.00000000
3.62369728 2.50729609 1.18073249 8 15 5532 4.56200000 2340816769 2340816769 15.00000000
1.88072670 1.29839563 -0.61236584 4 0 5538 2.36600000 2340816789 2340816789 -15.00000000
3.61258316 2.49308491 0.07661606 7 1 5539 4.39000000 2340816792 2340816792 1.00000000
2.23608589 1.54257238 -0.62716353 4 2 5540 2.78800000 2340816794 2340816794 -13.00000000
3.64029098 2.51033092 0.23174362 7 3 5541 4.42800000 2340816796 2340816796 3.00000000
2.68454242 1.85125041 -0.63386750 5 4 5541 3.32200000 2340816799 2340816799 -11.00000000
3.63349271 2.50470710 0.38609993 7 5 5542 4.43000000 2340816801 2340816801 5.00000000
3.36379123 2.31792569 -0.64701295 9 6 5543 4.13600000 2340816803 2340816803 -9.00000000
3.64067340 2.50778294 0.54280603 7 7 5544 4.45400000 2340816805 2340816805 7.00000000
3.62312627 2.49476361 -0.54012495 8 8 5545 4.43200000 2340816808 2340816808 -7.00000000
3.64118719 2.50719976 0.70020068 8 9 5545 4.47600000 2340816810 2340816810 9.00000000
3.62539315 2.49539208 -0.38505408 10 10 5546 4.41800000 2340816812 2340816812 -5.00000000
3.65205956 2.51280737 0.86169344 9 11 5547 4.51600000 2340816815 2340816815 11.00000000
3.62360787 2.49229956 -0.23048756 8 12 5548 4.40400000 2340816817 2340816817 -3.00000000
3.65162349 2.51062989 1.02307737 8 13 5549 4.54800000 2340816819 2340816819 13.00000000
3.64043498 2.50200152 -0.07710473 7 14 5550 4.41800000 2340816822 2340816822 -1.00000000
3.65702963 2.51340675 1.18901467 8 15 5550 4.59400000 2340816824 2340816824 15.00000000
1.89162195 1.29619074 -0.61443639 4 0 5558 2.37400000 2340816845 2340816845 -15.00000000
3.63941121 2.49289012 0.07700001 7 1 5559 4.41200000 2340816847 2340816847 1.00000000
2.23020148 1.52705073 -0.62401420 3 2 5560 2.77400000 2340816849 2340816849 -13.00000000
3.65892029 2.50437713 0.23237164 7 3 5561 4.44000000 2340816852 2340816852 3.00000000
2.69260836 1.84297717 -0.63424909 5 4 5561 3.32400000 2340816854 2340816854 -11.00000000
3.66030121 2.50438428 0.38801736 7 5 5562 4.45200000 2340816856 2340816856 5.00000000
3.37023139 2.30505443 -0.64670008 6 6 5563 4.13400000 2340816858 2340816858 -9.00000000
3.66087604 2.50290179 0.54451221 7 7 5564 4.46800000 2340816861 2340816861 7.00000000
3.64820147 2.49330235 -0.54256231 8 8 5565 4.45200000 2340816863 2340816863 -7.00000000
3.67111826 2.50896430 0.70426798 8 9 5565 4.50200000 2340816865 2340816865 9.00000000
3.65382314 2.49620891 -0.38714582 10 10 5566 4.44200000 2340816868 2340816868 -5.00000000
3.67377877 2.50890160 0.86474639 9 11 5567 4.53200000 2340816870 2340816870 11.00000000
3.64713144 2.48977041 -0.23142959 8 12 5568 4.42200000 2340816872 2340816872 -3.00000000
3.68290019 2.51324630 1.02937603 9 13 5569 4.57600000 2340816875 2340816875 13.00000000
3.66731787 2.50167465 -0.07748868 7 14 5570 4.44000000 2340816877 2340816877 -1.00000000
3.69450712 2.52022171 1.19833219 8 15 5570 4.63000000 2340816879 2340816879 15.00000000
1.89294016 1.28740692 -0.61340111 4 0 5578 2.37000000 2340816900 2340816900 -15.00000000
3.67785764 2.50040793 0.07762831 8 1 5579 4.44800000 2340816902 2340816902 1.00000000
2.23874164 1.52144730 -0.62491405 3 2 5580 2.77800000 2340816905 2340816905 -13.00000000
3.67424846 2.49607921 0.23279034 7 3 5581 4.44800000 2340816907 2340816907 3.00000000
2.69090533 1.82805085 -0.63234103 5 4 5581 3.31400000 2340816909 2340816909 -11.00000000
3.69704127 2.51062059 0.39098066 8 5 5582 4.48600000 2340816911 2340816911 5.00000000
3.38642883 2.29882360 -0.64826441 6 6 5583 4.14400000 2340816914 2340816914 -9.00000000
3.69094443 2.50459814 0.54768085 7 7 5584 4.49400000 2340816916 2340816916 7.00000000
3.67002487 2.48946738 -0.54451221 8 8 5585 4.46800000 2340816918 2340816918 -7.00000000
3.70154381 2.50990415 0.70833528 8 9 5586 4.52800000 2340816921 2340816921 9.00000000
3.67900467 2.49462104 -0.38888893 10 10 5586 4.46200000 2340816923 2340816923 -5.00000000
3.70689082 2.51258540 0.87047064 9 11 5587 4.56200000 2340816925 2340816925 11.00000000
3.67564178 2.49046803 -0.23268566 8 12 5588 4.44600000 2340816928 2340816928 -3.00000000
3.70939898 2.51239634 1.03432500 9 13 5589 4.59800000 2340816930 2340816930 13.00000000
3.68430734 2.49446344 -0.07766321 7 14 5590 4.45000000 2340816932 2340816932 -1.00000000
3.72567749 2.52247334 1.20557916 8 15 5590 4.65800000 2340816934 2340816934 15.00000000
1.88781524 1.27430654 -0.61029530 4 0 5598 2.35800000 2340816955 2340816955 -15.00000000
3.70645499 2.50097680 0.07804716 8 1 5599 4.47200000 2340816958 2340816958 1.00000000
2.24727011 1.51580286 -0.62581384 3 2 5600 2.78200000 2340816960 2340816960 -13.00000000
3.70612288 2.49887037 0.23425575 7 3 5601 4.47600000 2340816962 2340816962 3.00000000
2.69075871 1.81425643 -0.63081455 5 4 5601 3.30600000 2340816964 2340816964 -11.00000000
3.71899962 2.50660872 0.39237514 8 5 5602 4.50200000 2340816967 2340816967 5.00000000
3.39443254 2.28698874 -0.64826441 9 6 5603 4.14400000 2340816969 2340816969 -9.00000000
3.72600842 2.50944138 0.55158067 8 7 5604 4.52600000 2340816971 2340816971 7.00000000
3.70503950 2.49437904 -0.54841202 8 8 5605 4.50000000 2340816974 2340816974 -7.00000000
3.71683764 2.50137949 0.70958674 8 9 5606 4.53600000 2340816976 2340816976 9.00000000
3.70091367 2.49066281 -0.39028341 10 10 5606 4.47800000 2340816978 2340816978 -5.00000000
3.74170208 2.51716423 0.87657654 9 11 5607 4.59400000 2340816981 2340816981 11.00000000
3.70585823 2.49211168 -0.23404640 8 12 5608 4.47200000 2340816983 2340816983 -3.00000000
3.73917103 2.51356602 1.04017365 9 13 5609 4.62400000 2340816985 2340816985 13.00000000
3.70793009 2.49162555 -0.07797735 7 14 5610 4.46800000 2340816987 2340816987 -1.00000000
3.74612331 2.51634145 1.20920253 8 15 5611 4.67200000 2340816990 2340816990 15.00000000
1.88583207 1.26340806 -0.60822475 4 0 5618 2.35000000 2340817011 2340817011 -15.00000000
3.72679305 2.49581242 0.07829150 8 1 5619 4.48600000 2340817013 2340817013 1.00000000
2.25254750 1.50794911 -0.62581384 3 2 5620 2.78200000 2340817015 2340817015 -13.00000000
3.74138117 2.50369096 0.23593049 7 3 5621 4.50800000 2340817017 2340817017 3.00000000
2.70197010 1.80812848 -0.63195938 5 4 5621 3.31200000 2340817020 2340817020 -11.00000000
3.73600698 2.49915051 0.39324671 8 5 5622 4.51200000 2340817022 2340817022 5.00000000
3.38761616 2.26524353 -0.64544863 9 6 5623 4.12600000 2340817024 2340817024 -9.00000000
3.75619984 2.51076078 0.55474925 8 7 5624 4.55200000 2340817027 2340817027 7.00000000
3.73518085 2.49576807 -0.55158067 8 8 5625 4.52600000 2340817029 2340817029 -7.00000000
3.74525833 2.50155616 0.71334118 8 9 5626 4.56000000 2340817031 2340817031 9.00000000
3.72118258 2.48547554 -0.39150360 10 10 5626 4.49200000 2340817034 2340817034 -5.00000000
3.76679349 2.51498938 0.88039273 9 11 5627 4.61400000 2340817036 2340817036 11.00000000
3.73779225 2.49468303 -0.23551181 8 12 5628 4.50000000 2340817038 2340817038 -3.00000000
3.77710152 2.51996613 1.04827189 9 13 5629 4.66000000 2340817040 2340817040 13.00000000
3.73823237 2.49309111 -0.07843111 7 14 5630 4.49400000 2340817043 2340817043 -1.00000000
3.76087594 2.50819254 1.21127307 8 15 5630 4.68000000 2340817045 2340817045 15.00000000
1.89666557 1.26109612 -0.61029530 4 0 5638 2.35800000 2340817066 2340817066 -15.00000000
3.75047088 2.49275064 0.07860564 8 1 5639 4.50400000 2340817068 2340817068 1.00000000
2.25130486 1.49576342 -0.62401420 3 2 5640 2.77400000 2340817070 2340817070 -13.00000000
3.76839924 2.50277042 0.23708189 7 3 5641 4.53000000 2340817073 2340817073 3.00000000
2.70335889 1.79542732 -0.63081455 5 4 5641 3.30600000 2340817075 2340817075 -11.00000000
3.75964689 2.49601221 0.39481550 8 5 5642 4.53000000 2340817077 2340817077 5.00000000
3.40208626 2.25777411 -0.64670008 9 6 5643 4.13400000 2340817080 2340817080 -9.00000000
3.77321219 2.50312090 0.55596793 8 7 5644 4.56200000 2340817082 2340817082 7.00000000
3.76703143 2.49807382 -0.55499297 8 8 5645 4.55400000 2340817084 2340817084 -7.00000000
3.77866483 2.50483918 0.71803421 8 9 5646 4.59000000 2340817087 2340817087 9.00000000
3.76304913 2.49448752 -0.39498982 10 10 5646 4.53200000 2340817089 2340817089 -5.00000000
3.79027843 2.51158571 0.88382727 9 11 5647 4.63200000 2340817091 2340817091 11.00000000
3.75646806 2.48823810 -0.23613983 8 12 5648 4.51200000 2340817093 2340817093 -3.00000000
3.76525474 2.49216771 -0.07881507 7 14 5650 4.51600000 2340817098 2340817098 -1.00000000
3.79860520 2.51424193 1.22059059 6 15 5650 4.71600000 2340817100 2340817100 15.00000000
1.90750575 1.25872386 -0.61236584 4 0 5658 2.36600000 2340817121 2340817121 -15.00000000
3.78084970 2.49395776 0.07905940 6 1 5659 4.53000000 2340817123 2340817123 1.00000000
2.25325871 1.48575032 -0.62311441 3 2 5660 2.77000000 2340817126 2340817126 -13.00000000
2.72108412 1.79354310 -0.63348585 6 4 5661 3.32000000 2340817130 2340817130 -11.00000000
8.25706577 5.44039726 0.86510789 50 5 5662 9.92600000 2340817133 2340817133 5.00000000
3.40829706 2.24479818 -0.64638722 9 6 5663 4.13200000 2340817135 2340817135 -9.00000000
3.80016470 2.50194216 0.55864906 4 7 5664 4.58400000 2340817137 2340817137 7.00000000
3.78236103 2.48927450 -0.55596793 6 8 5665 4.56200000 2340817139 2340817139 -7.00000000
3.78504944 2.49009728 -0.39638433 10 10 5666 4.54800000 2340817144 2340817144 -5.00000000
8.65770340 5.69353962 2.01417971 31 11 5667 10.55600000 2340817146 2340817146 11.00000000
3.78849602 2.49047017 -0.23760524 6 12 5668 4.54000000 2340817149 2340817149 -3.00000000
8.30903816 5.46009445 2.29540062 64 13 5669 10.20400000 2340817151 2340817151 13.00000000
8.24554539 5.41837120 -0.17222035 8 14 5669 9.86800000 2340817153 2340817153 -1.00000000
6.27293777 4.12055016 2.01102400 9 15 5670 7.77000000 2340817156 2340817156 15.00000000
1.91188788 1.25205779 -0.61236584 4 0 5678 2.36600000 2340817176 2340817176 -15.00000000
8.25070095 5.40322161 0.17215054 13 1 5678 9.86400000 2340817179 2340817179 1.00000000
2.25491238 1.47613537 -0.62221462 3 2 5679 2.76600000 2340817181 2340817181 -13.00000000
8.25088787 5.39922953 0.51676524 84 3 5680 9.87400000 2340817183 2340817183 3.00000000
2.72239923 1.78080964 -0.63234103 9 4 5681 3.31400000 2340817186 2340817186 -11.00000000
8.26766872 5.40608978 0.86423635 77 5 5682 9.91600000 2340817188 2340817188 5.00000000
3.41902900 2.23564577 -0.64701295 6 6 5682 4.13600000 2340817190 2340817190 -9.00000000
8.33968735 5.45110416 1.22332442 2 7 5683 10.03800000 2340817192 2340817192 7.00000000
4.59989786 3.00550437 -0.67466867 4 8 5684 5.53600000 2340817195 2340817195 -7.00000000
7.07359982 4.61826181 -0.73908073 8 10 5686 8.48000000 2340817199 2340817199 -5.00000000
8.68146801 5.66801786 2.01532459 37 11 5686 10.56200000 2340817202 2340817202 11.00000000
8.23573494 5.37495470 -0.51540452 12 12 5687 9.84800000 2340817204 2340817204 -3.00000000
8.30914593 5.42079782 2.29045153 74 13 5688 10.18200000 2340817206 2340817206 13.00000000
8.23928356 5.37317085 -0.17169677 12 14 5689 9.83800000 2340817209 2340817209 -1.00000000
7.38776016 4.81602001 2.36301780 29 15 5690 9.13000000 2340817211 2340817211 15.00000000
1.91279006 1.24360478 -0.61133057 4 0 5697 2.36200000 2340817232 2340817232 -15.00000000
8.24435997 5.35804272 0.17162697 13 1 5698 9.83400000 2340817234 2340817234 1.00000000
2.26658797 1.47250187 -0.62401420 3 2 5699 2.77400000 2340817236 2340817236 -13.00000000
8.24697399 5.35769415 0.51540452 89 3 5699 9.84800000 2340817239 2340817239 3.00000000
2.71347094 1.76214862 -0.62890643 8 4 5700 3.29600000 2340817241 2340817241 -11.00000000
8.25045586 5.35586214 0.86057580 69 5 5701 9.87400000 2340817243 2340817243 5.00000000
3.42349792 2.22154689 -0.64638722 6 6 5702 4.13200000 2340817245 2340817245 -9.00000000
8.34367561 5.41223717 1.22113085 2 7 5703 10.02000000 2340817248 2340817248 7.00000000
4.59870195 2.98186946 -0.67296249 6 8 5704 5.52200000 2340817250 2340817250 -7.00000000
7.08218813 4.59044504 -0.73838347 13 10 5705 8.47200000 2340817255 2340817255 -5.00000000
8.69296169 5.63234186 2.01341653 37 11 5706 10.55200000 2340817257 2340817257 11.00000000
8.24103546 5.33748817 -0.51456714 12 12 5707 9.83200000 2340817259 2340817259 -3.00000000
8.31002331 5.38011074 2.28550267 75 13 5708 10.16000000 2340817262 2340817262 13.00000000
8.22684193 5.32625723 -0.17106849 12 14 5708 9.80200000 2340817264 2340817264 -1.00000000
7.40855551 4.79464388 2.36457086 40 15 5709 9.13600000 2340817266 2340817266 15.00000000
1.91062629 1.23273098 -0.60926002 4 0 5717 2.35400000 2340817287 2340817287 -15.00000000
8.23687840 5.31441212 0.17110339 13 1 5717 9.80400000 2340817289 2340817289 1.00000000
2.28128457 1.47131479 -0.62671363 3 2 5718 2.78600000 2340817291 2340817291 -13.00000000
8.26058960 5.32562733 0.51509047 99 3 5719 9.84200000 2340817294 2340817294 3.00000000
2.72125578 1.75372970 -0.62928808 9 4 5720 3.29800000 2340817296 2340817296 -11.00000000
8.24900246 5.31408167 0.85848409 77 5 5721 9.85000000 2340817298 2340817298 5.00000000
3.42586398 2.20697260 -0.64544863 6 6 5721 4.12600000 2340817301 2340817301 -9.00000000
8.33821201 5.36949253 1.21771848 2 7 5722 9.99200000 2340817303 2340817303 7.00000000
4.63026381 2.98057127 -0.67613113 4 8 5723 5.54800000 2340817305 2340817305 -7.00000000
7.08811474 4.55922842 -0.73733759 13 10 5725 8.46000000 2340817310 2340817310 -5.00000000
8.69838238 5.59498739 2.01036358 43 11 5725 10.53600000 2340817312 2340817312 11.00000000
8.23517036 5.29500771 -0.51310170 12 12 5726 9.80400000 2340817315 2340817315 -3.00000000
8.31142521 5.34198761 2.28100371 82 13 5727 10.14000000 2340817317 2340817317 13.00000000
8.24033642 5.29426479 -0.17096378 12 14 5728 9.79600000 2340817319 2340817319 -1.00000000
7.41061735 4.75935841 2.35991216 45 15 5729 9.11800000 2340817321 2340817321 15.00000000
1.91795719 1.22847223 -0.61029530 4 0 5736 2.35800000 2340817342 2340817342 -15.00000000
8.22674942 5.26729727 0.17051001 13 1 5737 9.77000000 2340817344 2340817344 1.00000000
2.27655816 1.45703971 -0.62401420 3 2 5738 2.77400000 2340817347 2340817347 -13.00000000
8.25801754 5.28528500 0.51383442 99 3 5738 9.81800000 2340817349 2340817349 3.00000000
2.72540259 1.74363792 -0.62890643 8 4 5739 3.29600000 2340817351 2340817351 -11.00000000
8.23804474 5.26844931 0.85552078 77 5 5740 9.81600000 2340817354 2340817354 5.00000000
3.42688942 2.19074464 -0.64419711 6 6 5741 4.11800000 2340817356 2340817356 -9.00000000
8.34854031 5.33500910 1.21649981 2 7 5742 9.98200000 2340817358 2340817358 7.00000000
4.64012241 2.96520042 -0.67613113 6 8 5742 5.54800000 2340817361 2340817361 -7.00000000
7.10319471 4.53569841 -0.73733759 13 10 5744 8.46000000 2340817365 2340817365 -5.00000000
8.70296574 5.55508375 2.00692892 37 11 5745 10.51800000 2340817368 2340817368 11.00000000
8.22834778 5.25011492 -0.51153165 12 12 5746 9.77400000 2340817370 2340817370 -3.00000000
8.30373383 5.29617596 2.27380514 76 13 5747 10.10800000 2340817372 2340817372 13.00000000
8.23930168 5.25508118 -0.17057982 12 14 5747 9.77400000 2340817374 2340817374 -1.00000000
7.43287468 4.73891211 2.36198258 42 15 5748 9.12600000 2340817377 2340817377 15.00000000
1.93038559 1.22695124 -0.61288351 4 0 5756 2.36800000 2340817397 2340817397 -15.00000000
8.23404503 5.23355103 0.17030059 13 1 5756 9.75800000 2340817400 2340817400 1.00000000
2.26821876 1.44112194 -0.62041503 3 2 5757 2.75800000 2340817402 2340817402 -13.00000000
8.25618458 5.24357796 0.51257837 99 3 5758 9.79400000 2340817404 2340817404 3.00000000
2.73810220 1.73832297 -0.63043290 5 4 5759 3.30400000 2340817407 2340817407 -11.00000000
8.25302029 5.23752594 0.85517216 81 5 5760 9.81200000 2340817409 2340817409 5.00000000
3.44080687 2.18360257 -0.64544863 6 6 5760 4.12600000 2340817411 2340817411 -9.00000000
8.33098507 5.28496408 1.21138132 2 7 5761 9.94000000 2340817414 2340817414 7.00000000
4.64373875 2.94473314 -0.67515618 4 8 5762 5.54000000 2340817416 2340817416 -7.00000000
7.12234974 4.51300859 -0.73768622 13 10 5764 8.46400000 2340817421 2340817421 -5.00000000
8.71802235 5.52409124 2.00616574 37 11 5764 10.51400000 2340817423 2340817423 11.00000000
8.22209072 5.20783806 -0.51006621 17 12 5765 9.74600000 2340817425 2340817425 -3.00000000
8.29984665 5.25505877 2.26795650 74 13 5766 10.08200000 2340817427 2340817427 13.00000000
8.24238777 5.21666384 -0.17026567 14 14 5767 9.75600000 2340817430 2340817430 -1.00000000
7.45753431 4.71810198 2.36457086 45 15 5768 9.13600000 2340817432 2340817432 15.00000000
1.93444371 1.22054303 -0.61288351 4 0 5775 2.36800000 2340817453 2340817453 -15.00000000
8.23704147 5.19517612 0.16998644 13 1 5776 9.74000000 2340817455 2340817455 1.00000000
2.27982926 1.43735278 -0.62221462 3 2 5777 2.76600000 2340817457 2340817457 -13.00000000
8.24987507 5.20125818 0.51111293 94 3 5777 9.76600000 2340817460 2340817460 3.00000000
2.74551249 1.73028028 -0.63081455 5 4 5778 3.30600000 2340817462 2340817462 -11.00000000
8.24674225 5.19526148 0.85273176 85 5 5779 9.78400000 2340817464 2340817464 5.00000000
3.44005036 2.16631532 -0.64388424 6 6 5780 4.11600000 2340817467 2340817467 -9.00000000
8.35274220 5.25796652 1.21186876 2 7 5781 9.94400000 2340817469 2340817469 7.00000000
4.64726925 2.92427659 -0.67418122 4 8 5782 5.53200000 2340817471 2340817471 -7.00000000
7.13390350 4.48724365 -0.73733759 13 10 5783 8.46000000 2340817476 2340817476 -5.00000000
8.73558998 5.49258089 2.00578427 21 11 5784 10.51200000 2340817478 2340817478 11.00000000
8.22669125 5.17060328 -0.50922883 17 12 5785 9.73000000 2340817480 2340817480 -3.00000000
8.29668808 5.21257782 2.26210785 75 13 5786 10.05600000 2340817483 2340817483 13.00000000
8.23254967 5.17228127 -0.16970719 16 14 5786 9.72400000 2340817485 2340817485 -1.00000000
7.47313881 4.69334555 2.36457086 45 15 5787 9.13600000 2340817487 2340817487 15.00000000
1.93050539 1.20865738 -0.61029530 4 0 5795 2.35800000 2340817508 2340817508 -15.00000000
8.22879982 5.15191555 0.16946286 13 1 5795 9.71000000 2340817510 2340817510 1.00000000
2.29119086 1.43392003 -0.62401420 3 2 5796 2.77400000 2340817513 2340817513 -13.00000000
8.24766159 5.15971756 0.50985688 94 3 5797 9.74200000 2340817515 2340817515 3.00000000
2.74321270 1.71548140 -0.62890643 5 4 5798 3.29600000 2340817517 2340817517 -11.00000000
8.24624348 5.15482616 0.85081434 81 5 5799 9.76200000 2340817520 2340817520 5.00000000
3.47066569 2.16955495 -0.64826441 4 6 5799 4.14400000 2340817522 2340817522 -9.00000000
4.66367531 2.91305614 -0.67515618 4 8 5801 5.54000000 2340817527 2340817527 -7.00000000
7.15290356 4.46442413 -0.73768622 13 10 5803 8.46400000 2340817531 2340817531 -5.00000000
8.22515297 5.13166475 -0.50807744 17 12 5804 9.70800000 2340817536 2340817536 -3.00000000
8.30070019 5.17678642 2.25850868 68 13 5805 10.04000000 2340817538 2340817538 13.00000000
8.22679710 5.12870216 -0.16921854 14 14 5806 9.69600000 2340817540 2340817540 -1.00000000
7.47799969 4.66007900 2.36094737 45 15 5807 9.12200000 2340817543 2340817543 15.00000000
1.92856669 1.19716048 -0.60822475 4 0 5817 2.35000000 2340817563 2340817563 -15.00000000
8.22732544 5.10513496 0.16900910 13 1 5818 9.68400000 2340817566 2340817566 1.00000000
2.29361653 1.42265666 -0.62311441 3 2 5819 2.77000000 2340817568 2340817568 -13.00000000
8.25722885 5.12169456 0.50922883 94 3 5819 9.73000000 2340817570 2340817570 3.00000000
2.75478530 1.70803916 -0.63005131 5 4 5820 3.30200000 2340817573 2340817573 -11.00000000
8.24226665 5.10843039 0.84837401 81 5 5821 9.73400000 2340817575 2340817575 5.00000000
3.47598839 2.15352464 -0.64763868 4 6 5822 4.14000000 2340817577 2340817577 -9.00000000
4.67533159 2.89431143 -0.67515618 4 8 5824 5.54000000 2340817582 2340817582 -7.00000000
7.16660452 4.43482924 -0.73733759 13 10 5825 8.46000000 2340817586 2340817586 -5.00000000
8.23379517 5.09125328 -0.50734478 12 12 5827 9.69400000 2340817591 2340817591 -3.00000000
8.30483723 5.13317776 2.25400949 68 13 5828 10.02000000 2340817593 2340817593 13.00000000
8.23282146 5.08866501 -0.16893929 14 14 5828 9.68000000 2340817596 2340817596 -1.00000000
7.49419403 4.63031578 2.36042976 45 15 5829 9.12000000 2340817598 2340817598 15.00000000
1.93252599 1.19075847 -0.60822475 4 0 5836 2.35000000 2340817619 2340817619 -15.00000000
8.22037315 5.06314230 0.16852044 13 1 5837 9.65600000 2340817621 2340817621 1.00000000
2.29832149 1.41504300 -0.62311441 3 2 5838 2.77000000 2340817623 2340817623 -13.00000000
8.25804710 5.08237171 0.50818211 84 3 5839 9.71000000 2340817626 2340817626 3.00000000
2.75069761 1.69224048 -0.62776160 5 4 5840 3.29000000 2340817628 2340817628 -11.00000000
8.23628807 5.06501675 0.84593362 77 5 5841 9.70600000 2340817630 2340817630 5.00000000
3.46291876 2.12956882 -0.64388424 4 6 5841 4.11600000 2340817632 2340817632 -9.00000000
4.68321228 2.87775230 -0.67491245 4 8 5843 5.53800000 2340817637 2340817637 -7.00000000
7.17864561 4.40770149 -0.73698896 13 10 5845 8.45600000 2340817642 2340817642 -5.00000000
8.21999264 5.04511547 -0.50546068 12 12 5846 9.65800000 2340817646 2340817646 -3.00000000
8.30852604 5.09745693 2.25041032 70 13 5847 10.00400000 2340817649 2340817649 13.00000000
8.23519230 5.05048704 -0.16862515 16 14 5848 9.66200000 2340817651 2340817651 -1.00000000
7.52019358 4.61018610 2.36353540 45 15 5849 9.13200000 2340817653 2340817653 15.00000000
1.94635236 1.19039118 -0.61133057 4 0 5855 2.36200000 2340817674 2340817674 -15.00000000
8.22688103 5.02959633 0.16831101 13 1 5856 9.64400000 2340817676 2340817676 1.00000000
2.29635000 1.40334892 -0.62131482 3 2 5857 2.76200000 2340817679 2340817679 -13.00000000
8.24841022 5.04078102 0.50661206 81 3 5857 9.68000000 2340817681 2340817681 3.00000000
2.76940346 1.69177830 -0.63081455 5 4 5858 3.30600000 2340817683 2340817683 -11.00000000
8.23855591 5.03080988 0.84453917 73 5 5859 9.69000000 2340817685 2340817685 5.00000000
3.47333384 2.12013197 -0.64450997 6 6 5860 4.12000000 2340817688 2340817688 -9.00000000
4.69611931 2.86427379 -0.67539990 4 8 5862 5.54200000 2340817692 2340817692 -7.00000000
7.15843439 4.36438417 -0.73350275 8 10 5863 8.41600000 2340817697 2340817697 -5.00000000
8.21279907 5.00328159 -0.50399524 12 12 5865 9.63000000 2340817702 2340817702 -3.00000000
8.30041790 5.05467319 2.24366188 74 13 5866 9.97400000 2340817704 2340817704 13.00000000
8.23223114 5.01314974 -0.16824120 14 14 5866 9.64000000 2340817706 2340817706 -1.00000000
7.53463936 4.58653784 2.36353540 45 15 5867 9.13200000 2340817709 2340817709 15.00000000
1.95710206 1.18759871 -0.61340111 4 0 5875 2.37000000 2340817729 2340817729 -15.00000000
8.23325729 4.99606276 0.16810158 13 1 5875 9.63200000 2340817732 2340817732 1.00000000
2.30765581 1.39976895 -0.62311441 3 2 5876 2.77000000 2340817734 2340817734 -13.00000000
8.23863029 4.99538946 0.50493729 81 3 5877 9.64800000 2340817736 2340817736 3.00000000
2.76857615 1.67803049 -0.62928808 5 4 5878 3.29800000 2340817738 2340817738 -11.00000000
8.24584198 4.99582672 0.84349328 73 5 5879 9.67800000 2340817741 2340817741 5.00000000
3.49048209 2.11474395 -0.64638722 6 6 5879 4.13200000 2340817743 2340817743 -9.00000000
4.69540262 2.84251690 -0.67393744 4 8 5881 5.53000000 2340817748 2340817748 -7.00000000
6.70652151 4.05681562 -0.68574136 8 10 5883 7.86800000 2340817752 2340817752 -5.00000000
8.22079945 4.97085238 -0.50347191 17 12 5884 9.62000000 2340817757 2340817757 -3.00000000
8.29211712 5.01199961 2.23691320 78 13 5885 9.94400000 2340817759 2340817759 13.00000000
8.23085308 4.97300816 -0.16785724 16 14 5886 9.61800000 2340817762 2340817762 -1.00000000
7.55391121 4.56220675 2.36457086 45 15 5887 9.13600000 2340817764 2340817764 15.00000000
1.95482075 1.17643309 -0.61133057 4 0 5896 2.36200000 2340817785 2340817785 -15.00000000
8.23181725 4.95204306 0.16768272 13 1 5897 9.60800000 2340817787 2340817787 1.00000000
2.31969380 1.39491487 -0.62491405 3 2 5898 2.77800000 2340817789 2340817789 -13.00000000
8.23634434 4.95280886 0.50368124 60 3 5898 9.62400000 2340817791 2340817791 3.00000000
2.77134252 1.66584897 -0.62852484 5 4 5899 3.29400000 2340817794 2340817794 -11.00000000
8.24531174 4.95428324 0.84157586 77 5 5900 9.65600000 2340817796 2340817796 5.00000000
3.49180293 2.09725738 -0.64513576 4 6 5901 4.12400000 2340817798 2340817798 -9.00000000
4.70287848 2.82242393 -0.67344999 4 8 5903 5.52600000 2340817803 2340817803 -7.00000000
8.32144642 4.99410152 1.53712511 2 9 5903 9.82600000 2340817805 2340817805 9.00000000
6.68717480 4.01170874 -0.68225515 8 10 5904 7.82800000 2340817808 2340817808 -5.00000000
8.34619617 5.00499296 1.89168036 3 11 5905 9.91400000 2340817810 2340817810 11.00000000
8.22612095 4.93103504 -0.50263453 17 12 5906 9.60400000 2340817812 2340817812 -3.00000000
8.30127144 4.97411346 2.23421383 84 13 5907 9.93200000 2340817815 2340817815 13.00000000
8.22329426 4.92739010 -0.16733368 14 14 5907 9.58800000 2340817817 2340817817 -1.00000000
7.56063795 4.52853346 2.36146498 40 15 5908 9.12400000 2340817819 2340817819 15.00000000
1.95725667 1.16861188 -0.61081296 4 0 5916 2.36000000 2340817840 2340817840 -15.00000000
8.22415638 4.91036606 0.16719405 13 1 5916 9.58000000 2340817842 2340817842 1.00000000
2.33100009 1.39120972 -0.62671363 3 2 5917 2.78600000 2340817844 2340817844 -13.00000000
8.23299980 4.91174889 0.50242519 49 3 5918 9.60000000 2340817847 2340817847 3.00000000
2.78725767 1.66219842 -0.63081455 5 4 5919 3.30600000 2340817849 2340817849 -11.00000000
8.23517323 4.90914822 0.83878684 81 5 5920 9.62400000 2340817851 2340817851 5.00000000
3.50552559 2.08971262 -0.64638722 4 6 5920 4.13200000 2340817854 2340817854 -9.00000000
4.71391726 2.80782890 -0.67369372 6 8 5922 5.52800000 2340817858 2340817858 -7.00000000
6.69086504 3.98222756 -0.68120927 12 10 5924 7.81600000 2340817863 2340817863 -5.00000000
8.33912849 4.96323109 1.88633776 3 11 5924 9.88600000 2340817865 2340817865 11.00000000
8.23556232 4.89964437 -0.50221586 12 12 5925 9.59600000 2340817867 2340817867 -3.00000000
8.29427147 4.93261290 2.22791529 76 13 5926 9.90400000 2340817870 2340817870 13.00000000
8.23013115 4.89252424 -0.16712424 14 14 5927 9.57600000 2340817872 2340817872 -1.00000000
6.92870188 4.11723375 2.15958619 40 15 5928 8.34400000 2340817874 2340817874 15.00000000
1.95447326 1.15817559 -0.60874242 4 0 5935 2.35200000 2340817895 2340817895 -15.00000000
8.22748280 4.87347555 0.16691482 13 1 5936 9.56400000 2340817897 2340817897 1.00000000
2.32578111 1.37710726 -0.62401420 3 2 5937 2.77400000 2340817900 2340817900 -13.00000000
8.23721218 4.87729740 0.50169247 26 3 5937 9.58600000 2340817902 2340817902 3.00000000
2.78261733 1.64694667 -0.62852484 5 4 5938 3.29400000 2340817904 2340817904 -11.00000000
8.23425961 4.87166739 0.83704376 85 5 5939 9.60400000 2340817907 2340817907 5.00000000
3.50939798 2.07545209 -0.64576149 4 6 5940 4.12800000 2340817909 2340817909 -9.00000000
4.73736191 2.79943633 -0.67564362 4 8 5942 5.54400000 2340817914 2340817914 -7.00000000
6.69545650 3.95495152 -0.68033773 55 10 5943 7.80600000 2340817918 2340817918 -5.00000000
8.34625912 4.92810249 1.88404799 3 11 5944 9.87400000 2340817920 2340817920 11.00000000
8.22509480 4.85462427 -0.50054109 12 12 5945 9.56400000 2340817923 2340817923 -3.00000000
8.29297638 4.89273787 2.22296643 74 13 5946 9.88200000 2340817925 2340817925 13.00000000
8.22564220 4.85301161 -0.16670538 14 14 5946 9.55200000 2340817927 2340817927 -1.00000000
7.59128714 4.47696543 2.36146498 45 15 5947 9.12400000 2340817930 2340817930 15.00000000
1.97182739 1.15917850 -0.61288351 4 0 5955 2.36800000 2340817950 2340817950 -15.00000000
8.22635937 4.83603144 0.16656576 13 1 5955 9.54400000 2340817953 2340817953 1.00000000
2.31689405 1.36148870 -0.62041503 3 2 5956 2.75800000 2340817955 2340817955 -13.00000000
8.23524380 4.83738708 0.50054109 26 3 5957 9.56400000 2340817957 2340817957 3.00000000
2.80020022 1.64418185 -0.63119614 5 4 5958 3.30800000 2340817960 2340817960 -11.00000000
8.24090481 4.83684397 0.83599788 85 5 5959 9.59200000 2340817962 2340817962 5.00000000
3.51966834 2.06580305 -0.64638722 4 6 5959 4.13200000 2340817964 2340817964 -9.00000000
8.32456684 4.88399458 1.18505752 18 7 5960 9.72400000 2340817967 2340817967 7.00000000
4.73463249 2.77668190 -0.67393744 6 8 5961 5.53000000 2340817969 2340817969 -7.00000000
8.35368538 4.89715910 1.53368354 2 9 5962 9.80400000 2340817971 2340817971 9.00000000
8.36255550 4.90039825 1.88404799 3 11 5963 9.87400000 2340817976 2340817976 11.00000000
8.21357346 4.81117058 -0.49886635 17 12 5964 9.53200000 2340817978 2340817978 -3.00000000
8.28897572 4.85339499 2.21756744 74 13 5965 9.85800000 2340817980 2340817980 13.00000000
8.23217773 4.81820869 -0.16649596 14 14 5966 9.54000000 2340817983 2340817983 -1.00000000
7.60686827 4.45043945 2.36146498 45 15 5967 9.12400000 2340817985 2340817985 15.00000000
1.97919917 1.15423489 -0.61391878 4 0 5975 2.37200000 2340818006 2340818006 -15.00000000
8.22675323 4.79577684 0.16621672 13 1 5976 9.52400000 2340818008 2340818008 1.00000000
2.32860351 1.35691237 -0.62221462 3 2 5977 2.76600000 2340818010 2340818010 -13.00000000
8.22792053 4.79453325 0.49907568 21 3 5977 9.53600000 2340818013 2340818013 3.00000000
2.79913664 1.63044477 -0.62966967 5 4 5978 3.30000000 2340818015 2340818015 -11.00000000
8.24052048 4.79802322 0.83425474 81 5 5979 9.57200000 2340818017 2340818017 5.00000000
3.52721620 2.05288887 -0.64638722 4 6 5980 4.13200000 2340818020 2340818020 -9.00000000
4.74477768 2.75930977 -0.67393744 6 8 5982 5.53000000 2340818024 2340818024 -7.00000000
8.22078991 4.77501488 -0.49823830 17 12 5985 9.52000000 2340818033 2340818033 -3.00000000
8.28479958 4.81026125 2.21171880 72 13 5986 9.83200000 2340818036 2340818036 13.00000000
8.22819424 4.77739477 -0.16607709 16 14 5986 9.51600000 2340818038 2340818038 -1.00000000
7.63572359 4.43161726 2.36560607 45 15 5987 9.14000000 2340818040 2340818040 15.00000000
1.96983874 1.13958001 -0.60977769 4 0 5995 2.35600000 2340818061 2340818061 -15.00000000
8.22703362 4.75945711 0.16590257 13 1 5995 9.50600000 2340818063 2340818063 1.00000000
2.34321213 1.35503626 -0.62491405 3 2 5996 2.77800000 2340818066 2340818066 -13.00000000
8.23596001 4.76078558 0.49855232 13 3 5997 9.52600000 2340818068 2340818068 3.00000000
2.79121184 1.61280620 -0.62661672 5 4 5998 3.28400000 2340818070 2340818070 -11.00000000
8.23306465 4.75527811 0.83181441 77 5 5999 9.54400000 2340818073 2340818073 5.00000000
3.53742552 2.04315686 -0.64701295 4 6 5999 4.13600000 2340818075 2340818075 -9.00000000
4.75734043 2.74554491 -0.67442495 6 8 6001 5.53400000 2340818079 2340818079 -7.00000000
8.21927547 4.73775339 -0.49719158 17 12 6004 9.50000000 2340818089 2340818089 -3.00000000
8.29057503 4.77692413 2.20901942 70 13 6005 9.82000000 2340818091 2340818091 13.00000000
8.21536160 4.73167753 -0.16548371 16 14 6006 9.48200000 2340818093 2340818093 -1.00000000
7.64444971 4.40108109 2.36353540 45 15 6007 9.13200000 2340818096 2340818096 15.00000000
1.97025609 1.13111794 -0.60874242 4 0 6014 2.35200000 2340818116 2340818116 -15.00000000
8.22278404 4.71876669 0.16548371 16 1 6015 9.48200000 2340818119 2340818119 1.00000000
2.35130858 1.34878790 -0.62581384 3 2 6016 2.78200000 2340818121 2340818121 -13.00000000
8.23611069 4.72450352 0.49761027 13 3 6016 9.50800000 2340818123 2340818123 3.00000000
2.80506039 1.60842431 -0.62852484 5 4 6017 3.29400000 2340818126 2340818126 -11.00000000
8.22804546 4.71606112 0.82972264 77 5 6018 9.52000000 2340818128 2340818128 5.00000000
3.54453611 2.03079653 -0.64701295 4 6 6019 4.13600000 2340818130 2340818130 -9.00000000
4.76344967 2.72694945 -0.67393744 6 8 6021 5.53000000 2340818135 2340818135 -7.00000000
8.21842480 4.69912004 -0.49614486 17 12 6024 9.48000000 2340818144 2340818144 -3.00000000
8.29704762 4.74215317 2.20632005 70 13 6025 9.80800000 2340818146 2340818146 13.00000000
8.22059059 4.69845438 -0.16527429 16 14 6025 9.47000000 2340818149 2340818149 -1.00000000
7.65396976 4.37283230 2.36198258 45 15 6026 9.12600000 2340818151 2340818151 15.00000000
1.96915615 1.12136555 -0.60718948 4 0 6034 2.34600000 2340818172 2340818172 -15.00000000
8.21579647 4.67860889 0.16502996 16 1 6034 9.45600000 2340818174 2340818174 1.00000000
2.34560704 1.33519900 -0.62311441 3 2 6035 2.77000000 2340818176 2340818176 -13.00000000
8.24907970 4.69374990 0.49740094 10 3 6036 9.50400000 2340818179 2340818179 3.00000000
2.80895114 1.59765232 -0.62814319 5 4 6037 3.29200000 2340818181 2340818181 -11.00000000
8.22713661 4.67746353 0.82797956 73 5 6038 9.50000000 2340818183 2340818183 5.00000000
3.53407860 2.00926805 -0.64388424 6 6 6038 4.11600000 2340818185 2340818185 -9.00000000
8.24441624 4.68538380 1.16433966 20 7 6039 9.55400000 2340818188 2340818188 7.00000000
4.77246666 2.71113825 -0.67393744 6 8 6040 5.53000000 2340818190 2340818190 -7.00000000
6.69521427 3.80032039 -0.67353958 42 10 6042 7.72800000 2340818195 2340818195 -5.00000000
8.20964336 4.65804243 -0.49467945 17 12 6043 9.45200000 2340818199 2340818199 -3.00000000
8.30086136 4.70788383 2.20317054 74 13 6044 9.79400000 2340818202 2340818202 13.00000000
8.21432686 4.65690994 -0.16482052 14 14 6045 9.44400000 2340818204 2340818204 -1.00000000
7.67086792 4.34704065 2.36250019 45 15 6046 9.12800000 2340818206 2340818206 15.00000000
1.98315084 1.12018585 -0.61029530 4 0 6054 2.35800000 2340818227 2340818227 -15.00000000
8.21895885 4.64059973 0.16475071 16 1 6055 9.44000000 2340818229 2340818229 1.00000000
2.34369659 1.32276165 -0.62131482 3 2 6056 2.76200000 2340818232 2340818232 -13.00000000
8.23584461 4.64823818 0.49562150 10 3 6056 9.47000000 2340818234 2340818234 3.00000000
2.82477045 1.59362555 -0.63043290 5 4 6057 3.30400000 2340818236 2340818236 -11.00000000
8.23300171 4.64284515 0.82693368 77 5 6058 9.48800000 2340818238 2340818238 5.00000000
3.54830241 2.00018167 -0.64513576 4 6 6059 4.12400000 2340818241 2340818241 -9.00000000
8.24078083 4.64344120 1.16141486 47 7 6060 9.53000000 2340818243 2340818243 7.00000000
4.78410101 2.69460225 -0.67418122 4 8 6061 5.53200000 2340818245 2340818245 -7.00000000
6.68066072 3.76128721 -0.67075062 46 10 6062 7.69600000 2340818250 2340818250 -5.00000000
8.20229053 4.61421156 -0.49321404 17 12 6064 9.42400000 2340818255 2340818255 -3.00000000
8.28918552 4.66119003 2.19552231 78 13 6065 9.76000000 2340818257 2340818257 13.00000000
8.22530270 4.62526798 -0.16471581 12 14 6065 9.43800000 2340818259 2340818259 -1.00000000
7.69273138 4.32402420 2.36457086 45 15 6066 9.13600000 2340818261 2340818261 15.00000000
1.99716115 1.11892188 -0.61340111 4 0 6074 2.37000000 2340818282 2340818282 -15.00000000
8.21860218 4.60452271 0.16443658 16 1 6074 9.42200000 2340818285 2340818285 1.00000000
2.34807014 1.31498241 -0.62131482 3 2 6075 2.76200000 2340818287 2340818287 -13.00000000
8.23459244 4.60970545 0.49457479 10 3 6076 9.45000000 2340818289 2340818289 3.00000000
2.81832314 1.57704473 -0.62776160 5 4 6077 3.29000000 2340818291 2340818291 -11.00000000
8.23698616 4.60726976 0.82571352 77 5 6078 9.47400000 2340818294 2340818294 5.00000000
3.55491567 1.98840404 -0.64513576 4 6 6078 4.12400000 2340818296 2340818296 -9.00000000
8.24400520 4.60930729 1.15970862 67 7 6079 9.51600000 2340818298 2340818298 7.00000000
4.78434610 2.67388058 -0.67296249 4 8 6080 5.52200000 2340818301 2340818301 -7.00000000
8.21929073 4.58795977 -0.49331874 17 12 6083 9.42600000 2340818310 2340818310 -3.00000000
8.28077221 4.62038326 2.18922377 82 13 6084 9.73200000 2340818312 2340818312 13.00000000
8.21345520 4.58094311 -0.16415733 12 14 6085 9.40600000 2340818314 2340818314 -1.00000000
7.70777798 4.29714489 2.36457086 45 15 6086 9.13600000 2340818317 2340818317 15.00000000
1.98735273 1.10478377 -0.60926002 4 0 6093 2.35400000 2340818338 2340818338 -15.00000000
8.21889305 4.56706476 0.16412243 13 1 6094 9.40400000 2340818340 2340818340 1.00000000
2.35605311 1.30867064 -0.62221462 3 2 6095 2.76600000 2340818342 2340818342 -13.00000000
8.22888184 4.57073545 0.49331874 13 3 6095 9.42600000 2340818344 2340818344 3.00000000
2.82182097 1.56673717 -0.62737995 4 4 6096 3.28800000 2340818347 2340818347 -11.00000000
8.23828220 4.57219505 0.82431901 81 5 6097 9.45800000 2340818349 2340818349 5.00000000
3.56874442 1.97981608 -0.64638722 4 6 6098 4.13200000 2340818351 2340818351 -9.00000000
8.24615574 4.57280064 1.15775871 90 7 6099 9.50000000 2340818354 2340818354 7.00000000
4.79885912 2.66005111 -0.67369372 4 8 6100 5.52800000 2340818356 2340818356 -7.00000000
8.22477150 4.55343723 -0.49269068 17 12 6103 9.41400000 2340818365 2340818365 -3.00000000
8.27297878 4.57823944 2.18292499 76 13 6104 9.70400000 2340818367 2340818367 13.00000000
8.20935535 4.54303026 -0.16377339 14 14 6104 9.38400000 2340818370 2340818370 -1.00000000
7.71522379 4.26782131 2.36250019 45 15 6105 9.12800000 2340818372 2340818372 15.00000000
1.98104656 1.09224343 -0.60615420 4 0 6113 2.34200000 2340818393 2340818393 -15.00000000
8.21297836 4.52819872 0.16370358 16 1 6113 9.38000000 2340818395 2340818395 1.00000000
2.37062001 1.30649412 -0.62491405 3 2 6114 2.77800000 2340818397 2340818397 -13.00000000
8.23778820 4.53812885 0.49290004 15 3 6115 9.41800000 2340818400 2340818400 3.00000000
2.82039356 1.55308962 -0.62585348 4 4 6116 3.28000000 2340818402 2340818402 -11.00000000
8.22451973 4.52707720 0.82135570 81 5 6117 9.42400000 2340818404 2340818404 5.00000000
3.57875109 1.96987593 -0.64701295 4 6 6117 4.13600000 2340818407 2340818407 -9.00000000
8.24909973 4.53873158 1.15605259 90 7 6118 9.48600000 2340818409 2340818409 7.00000000
4.81461143 2.64794946 -0.67466867 4 8 6119 5.53600000 2340818411 2340818411 -7.00000000
8.22232056 4.51652193 -0.49164397 17 12 6122 9.39400000 2340818420 2340818420 -3.00000000
8.27786636 4.54515266 2.18022561 78 13 6123 9.69200000 2340818423 2340818423 13.00000000
8.21113873 4.50664949 -0.16349414 16 14 6124 9.36800000 2340818425 2340818425 -1.00000000
7.71991205 4.23528862 2.35939431 45 15 6125 9.11600000 2340818427 2340818427 15.00000000
1.99671209 1.09180951 -0.60977769 4 0 6133 2.35600000 2340818448 2340818448 -15.00000000
8.20670891 4.48559809 0.16324981 13 1 6134 9.35400000 2340818450 2340818450 1.00000000
2.37197232 1.29592788 -0.62401420 3 2 6135 2.77400000 2340818453 2340818453 -13.00000000
8.24131012 4.50264263 0.49216732 10 3 6135 9.40400000 2340818455 2340818455 3.00000000
2.84475136 1.55358613 -0.63005131 5 4 6136 3.30200000 2340818457 2340818457 -11.00000000
8.23327637 4.49452209 0.82065845 85 5 6137 9.41600000 2340818460 2340818460 5.00000000
3.57207489 1.94917631 -0.64450997 4 6 6138 4.12000000 2340818462 2340818462 -9.00000000
8.23953915 4.49420834 1.15239656 94 7 6139 9.45600000 2340818464 2340818464 7.00000000
4.82428408 2.63028502 -0.67466867 4 8 6140 5.53600000 2340818466 2340818466 -7.00000000
8.21426201 4.47298336 -0.49017856 21 12 6143 9.36600000 2340818476 2340818476 -3.00000000
8.27564144 4.50453424 2.17527676 73 13 6144 9.67000000 2340818478 2340818478 13.00000000
8.22233200 4.47365713 -0.16338943 16 14 6145 9.36200000 2340818480 2340818480 -1.00000000
7.74143696 4.21200848 2.36146498 45 15 6145 9.12400000 2340818483 2340818483 15.00000000
2.00730395 1.08851671 -0.61184824 4 0 6153 2.36400000 2340818503 2340818503 -15.00000000
8.21528435 4.45311213 0.16311020 13 1 6154 9.34600000 2340818506 2340818506 1.00000000
2.36620116 1.28207004 -0.62131482 3 2 6155 2.76200000 2340818508 2340818508 -13.00000000
8.22439003 4.45433426 0.49017856 10 3 6156 9.36600000 2340818510 2340818510 3.00000000
2.84497786 1.54084170 -0.62890643 4 4 6156 3.29600000 2340818513 2340818513 -11.00000000
8.23314667 4.45721865 0.81908965 89 5 6157 9.39800000 2340818515 2340818515 5.00000000
3.56843305 1.93105471 -0.64263278 6 6 6158 4.10800000 2340818517 2340818517 -9.00000000
8.22898674 4.45125294 1.14874041 90 7 6159 9.42600000 2340818519 2340818519 7.00000000
4.82295895 2.60776424 -0.67320627 4 8 6160 5.52400000 2340818522 2340818522 -7.00000000
6.69206762 3.61687827 -0.66552126 17 10 6161 7.63600000 2340818526 2340818526 -5.00000000
8.21400928 4.43574142 -0.48923653 17 12 6163 9.34800000 2340818531 2340818531 -3.00000000
8.27759647 4.46821404 2.17167759 74 13 6164 9.65400000 2340818533 2340818533 13.00000000
8.22381878 4.43733168 -0.16311020 16 14 6165 9.34600000 2340818536 2340818536 -1.00000000
7.75682259 4.18360662 2.36146498 45 15 6166 9.12400000 2340818538 2340818538 15.00000000
2.01449418 1.08333313 -0.61288351 4 0 6173 2.36800000 2340818559 2340818559 -15.00000000
8.20964241 4.41304684 0.16269134 12 1 6174 9.32200000 2340818561 2340818561 1.00000000
2.37752867 1.27749217 -0.62311441 3 2 6175 2.77000000 2340818563 2340818563 -13.00000000
8.22152233 4.41758299 0.48913184 10 3 6175 9.34600000 2340818566 2340818566 3.00000000
2.83996177 1.52532780 -0.62661672 4 4 6176 3.28400000 2340818568 2340818568 -11.00000000
8.23812199 4.42279768 0.81804383 89 5 6177 9.38600000 2340818570 2340818570 5.00000000
3.58559561 1.92419124 -0.64450997 6 6 6178 4.12000000 2340818572 2340818572 -9.00000000
8.23397827 4.41687107 1.14727795 90 7 6179 9.41400000 2340818575 2340818575 7.00000000
4.82853365 2.58903694 -0.67271876 4 8 6180 5.52000000 2340818577 2340818577 -7.00000000
6.68357944 3.58220220 -0.66342950 12 10 6181 7.61200000 2340818582 2340818582 -5.00000000
8.21359634 4.39855623 -0.48829448 17 12 6183 9.33000000 2340818586 2340818586 -3.00000000
8.27424335 4.42917633 2.16672850 68 13 6184 9.63200000 2340818589 2340818589 13.00000000
8.22162628 4.39916420 -0.16276114 16 14 6185 9.32600000 2340818591 2340818591 -1.00000000
7.78087330 4.16332960 2.36457086 45 15 6185 9.13600000 2340818593 2340818593 15.00000000
2.00803590 1.07084048 -0.60977769 4 0 6193 2.35600000 2340818614 2340818614 -15.00000000
8.21617413 4.37965965 0.16251680 12 1 6194 9.31200000 2340818616 2340818616 1.00000000
2.39229250 1.27468359 -0.62581384 3 2 6195 2.78200000 2340818618 2340818618 -13.00000000
8.22279072 4.38134432 0.48829448 10 3 6195 9.33000000 2340818621 2340818621 3.00000000
2.83140635 1.50802195 -0.62356383 4 4 6196 3.26800000 2340818623 2340818623 -11.00000000
8.23240662 4.38277864 0.81595206 89 5 6197 9.36200000 2340818625 2340818625 5.00000000
