# .PCD v0.7 - Point Cloud Data file format
VERSION 0.7
FIELDS x y z intensity laser_id azimuth distance_m adjustedtime timestamp vertical_angle
SIZE 4 4 4 1 1 2 8 8 4 8
TYPE F F F U U U F U U F
COUNT 1 1 1 1 1 1 1 1 1 1
WIDTH 528
HEIGHT 1
VIEWPOINT 0 0 0 1 0 0 0
POINTS 528
DATA ascii
-4.10758305 2.68076563 1.31428313 74 15 30313 5.07800000 2340485600 2340485600 15.00000000
-1.71511126 1.12233734 -0.54921401 4 0 30320 2.12200000 2340485620 2340485620 -15.00000000
-4.14589882 2.71403360 0.08649413 9 1 30321 4.95600000 2340485623 2340485623 1.00000000
-1.97750974 1.29503226 -0.54573125 4 2 30322 2.42600000 2340485625 2340485625 -13.00000000
-4.14371634 2.71363807 0.25958633 8 3 30322 4.96000000 2340485627 2340485627 3.00000000
-2.34344530 1.53526068 -0.54456890 2 4 30323 2.85400000 2340485630 2340485630 -11.00000000
-4.14933157 2.71938586 0.43403560 23 5 30324 4.98000000 2340485632 2340485632 5.00000000
-2.85627365 1.87265515 -0.54095036 1 6 30325 3.45800000 2340485634 2340485634 -9.00000000
-4.13650894 2.71304631 0.60739678 12 7 30326 4.98400000 2340485637 2340485637 7.00000000
-3.76591635 2.47092295 -0.55304307 8 8 30327 4.53800000 2340485639 2340485639 -7.00000000
-4.13018370 2.71096015 0.78248519 9 9 30328 5.00200000 2340485641 2340485641 9.00000000
-3.85927725 2.53314352 -0.40387970 30 10 30328 4.63400000 2340485644 2340485644 -5.00000000
-4.11585522 2.70258331 0.95709795 65 11 30329 5.01600000 2340485646 2340485646 11.00000000
-4.14493084 2.72271085 -0.25990036 15 12 30330 4.96600000 2340485648 2340485648 -3.00000000
-4.10891914 2.70008183 1.13510299 62 13 30331 5.04600000 2340485650 2340485650 13.00000000
-4.15070629 2.72857904 -0.08670355 14 14 30332 4.96800000 2340485653 2340485653 -1.00000000
-4.10627127 2.70039487 1.31687129 74 15 30333 5.08800000 2340485655 2340485655 15.00000000
-1.71440876 1.13044429 -0.55024928 4 0 30340 2.12600000 2340485676 2340485676 -15.00000000
-4.13973808 2.73069119 0.08656394 9 1 30341 4.96000000 2340485678 2340485678 1.00000000
-1.98598945 1.31051362 -0.54933047 4 2 30342 2.44200000 2340485680 2340485680 -13.00000000
-4.13421869 2.72808576 0.25958633 8 3 30342 4.96000000 2340485683 2340485683 3.00000000
-2.32824111 1.53694189 -0.54227918 3 4 30343 2.84200000 2340485685 2340485685 -11.00000000
-4.13648891 2.73165727 0.43368697 19 5 30344 4.97600000 2340485687 2340485687 5.00000000
-2.84971952 1.88261390 -0.54095036 1 6 30345 3.45800000 2340485690 2340485690 -9.00000000
-4.13695002 2.73403597 0.60885924 12 7 30346 4.99600000 2340485692 2340485692 7.00000000
-3.75395656 2.48186398 -0.55255562 8 8 30347 4.53400000 2340485694 2340485694 -7.00000000
-4.12611437 2.72790980 0.78342378 11 9 30347 5.00800000 2340485697 2340485697 9.00000000
-3.85041142 2.54659939 -0.40387970 33 10 30348 4.63400000 2340485699 2340485699 -5.00000000
-4.11949492 2.72560024 0.96015084 70 11 30349 5.03200000 2340485701 2340485701 11.00000000
-4.15205669 2.74818635 -0.26094708 15 12 30350 4.98600000 2340485703 2340485703 -3.00000000
-4.10434341 2.71763587 1.13645267 62 13 30351 5.05200000 2340485706 2340485706 13.00000000
-4.14449072 2.74525952 -0.08677337 14 14 30352 4.97200000 2340485708 2340485708 -1.00000000
-4.10809278 2.72218156 1.32049477 68 15 30353 5.10200000 2340485710 2340485710 15.00000000
-1.71045232 1.13642180 -0.55024928 4 0 30360 2.12600000 2340485731 2340485731 -15.00000000
-4.14183903 2.75287318 0.08680827 9 1 30361 4.97400000 2340485733 2340485733 1.00000000
-1.98464835 1.31959605 -0.55023026 3 2 30362 2.44600000 2340485736 2340485736 -13.00000000
-4.13797569 2.75134706 0.26042372 8 3 30362 4.97600000 2340485738 2340485738 3.00000000
-2.32613134 1.54723418 -0.54304242 3 4 30363 2.84600000 2340485740 2340485740 -11.00000000
-4.13522196 2.75159812 0.43455854 21 5 30364 4.98600000 2340485743 2340485743 5.00000000
-2.84477496 1.89364445 -0.54126322 3 6 30365 3.46000000 2340485745 2340485745 -9.00000000
-4.13894701 2.75616169 0.61056542 9 7 30366 5.01000000 2340485747 2340485747 7.00000000
-3.74692249 2.49605322 -0.55279934 10 8 30367 4.53600000 2340485750 2340485750 -7.00000000
-4.12314320 2.74667668 0.78467530 24 9 30367 5.01600000 2340485752 2340485752 9.00000000
-3.82657719 2.55008030 -0.40231091 35 10 30368 4.61600000 2340485754 2340485754 -5.00000000
-4.12629080 2.75085354 0.96396703 80 11 30369 5.05200000 2340485756 2340485756 11.00000000
-4.14243841 2.76266289 -0.26094708 22 12 30370 4.98600000 2340485759 2340485759 -3.00000000
-4.10455847 2.73843527 1.13915217 60 13 30371 5.06400000 2340485761 2340485761 13.00000000
-4.12656641 2.75415945 -0.08659884 16 14 30372 4.96200000 2340485763 2340485763 -1.00000000
-4.10338545 2.73972297 1.32204771 76 15 30373 5.10800000 2340485766 2340485766 15.00000000
-1.70005369 1.13808680 -0.54817873 4 0 30380 2.11800000 2340485786 2340485786 -15.00000000
-4.14051199 2.77287769 0.08698279 9 1 30381 4.98400000 2340485789 2340485789 1.00000000
-1.98002994 1.32651567 -0.55023026 3 2 30382 2.44600000 2340485791 2340485791 -13.00000000
-4.13996172 2.77355623 0.26115641 8 3 30382 4.99000000 2340485793 2340485793 3.00000000
-2.33050156 1.56190252 -0.54533213 3 4 30383 2.85800000 2340485796 2340485796 -11.00000000
-4.13055658 2.76934457 0.43508148 19 5 30384 4.99200000 2340485798 2340485798 5.00000000
-2.83486652 1.90136242 -0.54063749 3 6 30385 3.45600000 2340485800 2340485800 -9.00000000
-4.14413691 2.78054690 0.61275905 13 7 30386 5.02800000 2340485802 2340485802 7.00000000
-3.73983502 2.51022339 -0.55304307 12 8 30387 4.53800000 2340485805 2340485805 -7.00000000
-4.13321209 2.77426314 0.78842968 42 9 30387 5.04000000 2340485807 2340485807 9.00000000
-3.80607367 2.55564737 -0.40109074 28 10 30388 4.60200000 2340485809 2340485809 -5.00000000
-4.12644196 2.77180839 0.96625674 77 11 30389 5.06400000 2340485812 2340485812 11.00000000
-4.16095161 2.79604340 -0.26272649 10 12 30390 5.02000000 2340485814 2340485814 -3.00000000
-4.10791302 2.76144361 1.14275134 63 13 30391 5.08000000 2340485816 2340485816 13.00000000
-4.14181805 2.78528547 -0.08712241 14 14 30392 4.99200000 2340485819 2340485819 -1.00000000
-4.09748363 2.75547147 1.32308292 72 15 30392 5.11200000 2340485821 2340485821 15.00000000
-1.69927382 1.14617467 -0.54921401 4 0 30400 2.12200000 2340485842 2340485842 -15.00000000
-4.13080740 2.78731394 0.08698279 11 1 30401 4.98400000 2340485844 2340485844 1.00000000
-1.97538757 1.33341920 -0.55023026 3 2 30402 2.44600000 2340485846 2340485846 -13.00000000
-4.14018774 2.79469490 0.26178446 8 3 30402 5.00200000 2340485849 2340485849 3.00000000
-2.32178116 1.56783056 -0.54456890 3 4 30403 2.85400000 2340485851 2340485851 -11.00000000
-4.12746859 2.78820729 0.43577871 9 5 30404 5.00000000 2340485853 2340485853 5.00000000
-2.82821226 1.91124630 -0.54063749 3 6 30405 3.45600000 2340485855 2340485855 -9.00000000
-4.13276100 2.79388380 0.61251533 9 7 30406 5.02600000 2340485858 2340485858 7.00000000
-3.74091601 2.52993488 -0.55450553 16 8 30407 4.55000000 2340485860 2340485860 -7.00000000
-4.12023020 2.78646064 0.78780395 51 9 30407 5.03600000 2340485862 2340485862 9.00000000
-3.79217911 2.56556821 -0.40056780 42 10 30408 4.59600000 2340485865 2340485865 -5.00000000
-4.11023760 2.78179407 0.96473026 70 11 30409 5.05600000 2340485867 2340485867 11.00000000
-4.15116596 2.81055069 -0.26272649 10 12 30410 5.02000000 2340485869 2340485869 -3.00000000
-4.10470247 2.78013754 1.14455092 67 13 30411 5.08800000 2340485872 2340485872 13.00000000
-4.15193653 2.81318641 -0.08754127 14 14 30412 5.01600000 2340485874 2340485874 -1.00000000
-4.09055519 2.77263880 1.32411826 74 15 30413 5.11600000 2340485876 2340485876 15.00000000
-1.69845819 1.15427101 -0.55024928 4 0 30420 2.12600000 2340485897 2340485897 -15.00000000
-4.14089727 2.81520748 0.08740165 20 1 30421 5.00800000 2340485899 2340485899 1.00000000
-1.96105266 1.33373094 -0.54753089 3 2 30422 2.43400000 2340485902 2340485902 -13.00000000
-4.13156796 2.81097412 0.26188913 8 3 30423 5.00400000 2340485904 2340485904 3.00000000
-2.32278705 1.58034301 -0.54609537 3 4 30423 2.86200000 2340485906 2340485906 -11.00000000
-4.12924051 2.81044507 0.43699890 9 5 30424 5.01400000 2340485908 2340485908 5.00000000
-2.82968760 1.92666578 -0.54220188 1 6 30425 3.46600000 2340485911 2340485911 -9.00000000
-4.12790537 2.81164527 0.61324656 9 7 30426 5.03200000 2340485913 2340485913 7.00000000
-3.72714067 2.53962445 -0.55377430 12 8 30427 4.54400000 2340485915 2340485915 -7.00000000
-4.13333273 2.81639838 0.79218411 76 9 30427 5.06400000 2340485918 2340485918 9.00000000
-3.77990770 2.57654524 -0.40021917 44 10 30428 4.59200000 2340485920 2340485920 -5.00000000
-4.10536861 2.79944277 0.96587515 77 11 30429 5.06200000 2340485922 2340485922 11.00000000
-4.14133024 2.82502389 -0.26272649 10 12 30430 5.02000000 2340485925 2340485925 -3.00000000
-4.10141182 2.79884243 1.14635062 67 13 30431 5.09600000 2340485927 2340485927 13.00000000
-4.15200043 2.83442688 -0.08775070 14 14 30432 5.02800000 2340485929 2340485929 -1.00000000
-4.10367537 2.80143714 1.33136511 72 15 30432 5.14400000 2340485932 2340485932 15.00000000
-1.69123065 1.15800977 -0.54921401 4 0 30440 2.12200000 2340485952 2340485952 -15.00000000
-4.13599443 2.83303499 0.08750637 18 1 30441 5.01400000 2340485955 2340485955 1.00000000
-1.96281540 1.34497428 -0.54933047 3 2 30442 2.44200000 2340485957 2340485957 -13.00000000
-4.12832022 2.82989597 0.26230782 8 3 30443 5.01200000 2340485959 2340485959 3.00000000
-2.31077909 1.58400130 -0.54456890 3 4 30443 2.85400000 2340485961 2340485961 -11.00000000
-4.12926388 2.83160233 0.43804476 9 5 30444 5.02600000 2340485964 2340485964 5.00000000
-2.81642938 1.93206167 -0.54095036 1 6 30445 3.45800000 2340485966 2340485966 -9.00000000
-4.13279676 2.83614635 0.61544019 9 7 30446 5.05000000 2340485968 2340485968 7.00000000
-3.73625517 2.56497765 -0.55645543 20 8 30447 4.56600000 2340485971 2340485971 -7.00000000
-4.12135410 2.83041048 0.79187125 81 9 30448 5.06200000 2340485973 2340485973 9.00000000
-3.78238750 2.59761953 -0.40143934 49 10 30448 4.60600000 2340485975 2340485975 -5.00000000
-4.11337137 2.82598495 0.97007293 70 11 30449 5.08400000 2340485978 2340485978 11.00000000
-4.14625740 2.84964395 -0.26366854 10 12 30450 5.03800000 2340485980 2340485980 -3.00000000
-4.09804010 2.81755829 1.14815021 67 13 30451 5.10400000 2340485982 2340485982 13.00000000
-4.14867163 2.85343575 -0.08789032 14 14 30452 5.03600000 2340485985 2340485985 -1.00000000
-4.10292912 2.82302928 1.33447099 72 15 30453 5.15600000 2340485987 2340485987 15.00000000
-1.70010424 1.17238545 -0.55335510 4 0 30459 2.13800000 2340486008 2340486008 -15.00000000
-4.14139128 2.85695457 0.08782051 15 1 30460 5.03200000 2340486010 2340486010 1.00000000
-1.95513666 1.34926212 -0.54843068 3 2 30461 2.43800000 2340486012 2340486012 -13.00000000
-4.14028025 2.85832167 0.26366854 8 3 30462 5.03800000 2340486014 2340486014 3.00000000
-2.29905128 1.58719397 -0.54304242 3 4 30462 2.84600000 2340486017 2340486017 -11.00000000
-4.13132715 2.85320544 0.43926495 9 5 30463 5.04000000 2340486019 2340486019 5.00000000
-2.82300878 1.95037341 -0.54345334 3 6 30464 3.47400000 2340486021 2340486021 -9.00000000
-4.12663507 2.85209298 0.61592764 9 7 30465 5.05400000 2340486024 2340486024 7.00000000
-3.73262739 2.58074021 -0.55718666 8 8 30466 4.57200000 2340486026 2340486026 -7.00000000
-4.10919237 2.84109735 0.79124552 81 9 30466 5.05800000 2340486028 2340486028 9.00000000
-3.76228237 2.60221434 -0.40021917 44 10 30467 4.59200000 2340486031 2340486031 -5.00000000
-4.12012196 2.85078049 0.97388911 80 11 30468 5.10400000 2340486033 2340486033 11.00000000
-4.14499617 2.86906123 -0.26419190 10 12 30469 5.04800000 2340486035 2340486035 -3.00000000
-4.09508276 2.83556986 1.14994979 67 13 30470 5.11200000 2340486038 2340486038 13.00000000
-4.13261127 2.86262274 -0.08775070 14 14 30471 5.02800000 2340486040 2340486040 -1.00000000
-4.09880447 2.83920527 1.33602393 68 15 30471 5.16200000 2340486042 2340486042 15.00000000
-1.68648231 1.17169929 -0.55024928 4 0 30479 2.12600000 2340486063 2340486063 -15.00000000
-4.13303566 2.87253451 0.08785541 13 1 30480 5.03400000 2340486065 2340486065 1.00000000
-1.95361495 1.35830355 -0.54933047 3 2 30481 2.44200000 2340486067 2340486067 -13.00000000
-4.13683605 2.87731814 0.26408723 8 3 30482 5.04600000 2340486070 2340486070 3.00000000
-2.30639076 1.60417759 -0.54609537 3 4 30482 2.86200000 2340486072 2340486072 -11.00000000
-4.12624884 2.87102294 0.43978786 9 5 30483 5.04600000 2340486074 2340486074 5.00000000
-2.82266855 1.96472967 -0.54470479 1 6 30484 3.48200000 2340486077 2340486077 -9.00000000
-4.14271927 2.88462949 0.61982751 11 7 30485 5.08600000 2340486079 2340486079 7.00000000
-3.70079184 2.57786918 -0.55377430 8 8 30486 4.54400000 2340486081 2340486081 -7.00000000
-4.11171722 2.86517406 0.79374850 85 9 30487 5.07400000 2340486084 2340486084 9.00000000
-3.75808001 2.61874866 -0.40074211 28 10 30487 4.59800000 2340486086 2340486086 -5.00000000
-4.11336708 2.86739063 0.97465235 72 11 30488 5.10800000 2340486088 2340486088 11.00000000
-4.16116810 2.90179157 -0.26586667 10 12 30489 5.08000000 2340486090 2340486090 -3.00000000
-4.09634781 2.85765171 1.15309906 69 13 30490 5.12600000 2340486093 2340486093 13.00000000
-4.14719152 2.89419699 -0.08827427 8 14 30491 5.05800000 2340486095 2340486095 -1.00000000
-4.09312296 2.85752654 1.33757687 72 15 30492 5.16800000 2340486097 2340486097 15.00000000
-1.67921674 1.17536342 -0.54921401 4 0 30499 2.12200000 2340486118 2340486118 -15.00000000
-4.12462139 2.88809109 0.08789032 11 1 30500 5.03600000 2340486120 2340486120 1.00000000
-1.95205402 1.36735070 -0.55023026 3 2 30501 2.44600000 2340486123 2340486123 -13.00000000
-4.14639521 2.90549469 0.26534331 10 3 30502 5.07000000 2340486125 2340486125 3.00000000
-2.29756141 1.60996532 -0.54533213 3 4 30502 2.85800000 2340486127 2340486127 -11.00000000
-4.12925386 2.89455795 0.44118237 9 5 30503 5.06200000 2340486130 2340486130 5.00000000
-2.79315042 1.95869243 -0.54032463 3 6 30504 3.45400000 2340486132 2340486132 -9.00000000
-4.13262463 2.89907289 0.61982751 13 7 30505 5.08600000 2340486134 2340486134 7.00000000
-3.71126986 2.60445523 -0.55669916 22 8 30506 4.56800000 2340486137 2340486137 -7.00000000
-4.11836243 2.89014053 0.79687715 83 9 30506 5.09400000 2340486139 2340486139 9.00000000
-3.75869989 2.63871956 -0.40178797 26 10 30507 4.61000000 2340486141 2340486141 -5.00000000
-4.10975933 2.88624477 0.97617882 84 11 30508 5.11600000 2340486143 2340486143 11.00000000
-4.14611101 2.91285467 -0.26555264 10 12 30509 5.07400000 2340486146 2340486146 -3.00000000
-4.10866880 2.88762069 1.15939772 69 13 30510 5.15400000 2340486148 2340486148 13.00000000
-4.14197111 2.91210604 -0.08837899 8 14 30511 5.06400000 2340486150 2340486150 -1.00000000
-4.09468699 2.87886190 1.34120023 70 15 30511 5.18200000 2340486153 2340486153 15.00000000
-1.68141890 1.18567109 -0.55128455 4 0 30519 2.13000000 2340486173 2340486173 -15.00000000
-4.13739157 2.91860867 0.08837899 11 1 30520 5.06400000 2340486176 2340486176 1.00000000
-1.94408476 1.37190914 -0.54933047 3 2 30521 2.44200000 2340486178 2340486178 -13.00000000
-4.13785934 2.92110252 0.26544797 12 3 30522 5.07200000 2340486180 2340486180 3.00000000
-2.30475855 1.62703347 -0.54838502 3 4 30522 2.87400000 2340486183 2340486183 -11.00000000
-4.13051701 2.91699934 0.44240254 9 5 30523 5.07600000 2340486185 2340486185 5.00000000
-2.80727005 1.98324776 -0.54439193 1 6 30524 3.48000000 2340486187 2340486187 -9.00000000
-4.12734318 2.91691780 0.62055868 9 7 30525 5.09200000 2340486190 2340486190 7.00000000
-3.66811681 2.59332871 -0.55158067 22 8 30526 4.52600000 2340486192 2340486192 -7.00000000
-4.12064409 2.91434073 0.79938012 83 9 30527 5.11000000 2340486194 2340486194 9.00000000
-3.76735950 2.66447878 -0.40370539 35 10 30527 4.63200000 2340486196 2340486196 -5.00000000
-4.10286474 2.90284061 0.97694206 78 11 30528 5.12000000 2340486199 2340486199 11.00000000
-4.13917828 2.92961717 -0.26576197 10 12 30529 5.07800000 2340486201 2340486201 -3.00000000
-4.10333538 2.90532351 1.16074741 65 13 30530 5.16000000 2340486203 2340486203 13.00000000
-4.14483500 2.93579316 -0.08865822 8 14 30531 5.08000000 2340486206 2340486206 -1.00000000
-4.09514141 2.90166855 1.34482372 31 15 30532 5.19600000 2340486208 2340486208 15.00000000
-1.67726982 1.19153309 -0.55128455 4 0 30539 2.13000000 2340486229 2340486229 -15.00000000
-4.13695860 2.93998337 0.08858842 15 1 30540 5.07600000 2340486231 2340486231 1.00000000
-1.94246054 1.38094521 -0.55023026 3 2 30541 2.44600000 2340486233 2340486233 -13.00000000
-4.12926531 2.93668604 0.26555264 12 3 30542 5.07400000 2340486236 2340486236 3.00000000
-2.29266548 1.63051736 -0.54685861 3 4 30542 2.86600000 2340486238 2340486238 -11.00000000
-4.13654423 2.94294977 0.44414568 10 5 30543 5.09600000 2340486240 2340486240 5.00000000
-2.80354905 1.99532580 -0.54501766 1 6 30544 3.48400000 2340486243 2340486243 -9.00000000
-4.12683868 2.93821526 0.62202114 9 7 30545 5.10400000 2340486245 2340486245 7.00000000
-3.65580821 2.60381389 -0.55109316 42 8 30546 4.52200000 2340486247 2340486247 -7.00000000
-4.11578417 2.93142724 0.80031872 78 9 30546 5.11600000 2340486249 2340486249 9.00000000
-3.79697919 2.70536041 -0.40788889 11 10 30547 4.68000000 2340486252 2340486252 -5.00000000
-4.11508894 2.93309784 0.98228472 73 11 30548 5.14800000 2340486254 2340486254 11.00000000
-4.14193630 2.95332408 -0.26659936 10 12 30549 5.09400000 2340486256 2340486256 -3.00000000
-4.09951496 2.92415547 1.16254699 67 13 30550 5.16800000 2340486259 2340486259 13.00000000
-4.13618994 2.95140481 -0.08869313 8 14 30551 5.08200000 2340486261 2340486261 -1.00000000
-4.10593987 2.92981982 1.35155308 21 15 30551 5.22200000 2340486263 2340486263 15.00000000
-1.67624235 1.19962919 -0.55231982 4 0 30559 2.13400000 2340486284 2340486284 -15.00000000
-4.14130449 2.96488285 0.08890256 13 1 30560 5.09400000 2340486286 2340486286 1.00000000
-1.94396567 1.39225590 -0.55202991 3 2 30561 2.45400000 2340486289 2340486289 -13.00000000
-4.12873077 2.95806122 0.26618066 12 3 30562 5.08600000 2340486291 2340486291 3.00000000
-2.28695989 1.63851023 -0.54685861 3 4 30562 2.86600000 2340486293 2340486293 -11.00000000
-4.13272381 2.96201372 0.44484290 10 5 30563 5.10400000 2340486296 2340486296 5.00000000
-2.79977775 2.00740194 -0.54564339 3 6 30564 3.48800000 2340486298 2340486298 -9.00000000
-4.12139654 2.95607352 0.62275237 11 7 30565 5.11000000 2340486300 2340486300 7.00000000
-3.65798712 2.62466002 -0.55279934 34 8 30566 4.53600000 2340486302 2340486302 -7.00000000
-4.11624575 2.95455575 0.80250883 83 9 30567 5.13000000 2340486305 2340486305 9.00000000
-3.87006092 2.77784944 -0.41677877 8 10 30567 4.78200000 2340486307 2340486307 -5.00000000
-4.11758327 2.95660496 0.98533767 73 11 30568 5.16400000 2340486309 2340486309 11.00000000
-4.14620161 2.97825098 -0.26754141 10 12 30569 5.11200000 2340486312 2340486312 -3.00000000
-4.10194302 2.94754505 1.16614628 67 13 30570 5.18400000 2340486314 2340486314 13.00000000
-4.13073349 2.96932650 -0.08879784 8 14 30571 5.08800000 2340486316 2340486316 -1.00000000
-4.10301638 2.95048857 1.35414124 21 15 30572 5.23200000 2340486319 2340486319 15.00000000
-1.65929937 1.19672453 -0.54817873 4 0 30580 2.11800000 2340486339 2340486339 -15.00000000
-4.13851833 2.98589158 0.08907709 11 1 30581 5.10400000 2340486342 2340486342 1.00000000
-1.93568945 1.39709067 -0.55113006 3 2 30582 2.45000000 2340486344 2340486344 -13.00000000
-4.13405418 2.98486567 0.26722738 10 3 30583 5.10600000 2340486346 2340486346 3.00000000
-2.27775574 1.64458287 -0.54609537 3 4 30583 2.86200000 2340486349 2340486349 -11.00000000
-4.12507010 2.97947431 0.44519153 10 5 30584 5.10800000 2340486351 2340486351 5.00000000
-2.78279448 2.01070857 -0.54376620 1 6 30585 3.47600000 2340486353 2340486353 -9.00000000
-4.13305759 2.98743963 0.62616467 9 7 30586 5.13800000 2340486355 2340486355 7.00000000
-3.69016671 2.66829157 -0.55913657 34 8 30587 4.58800000 2340486358 2340486358 -7.00000000
-4.11871338 2.97816586 0.80501175 81 9 30587 5.14600000 2340486360 2340486360 9.00000000
-4.10523129 2.96950841 -0.44327411 12 10 30588 5.08600000 2340486362 2340486362 -5.00000000
-4.10671902 2.97167683 0.98533767 13 11 30589 5.16400000 2340486365 2340486365 11.00000000
-4.15790796 3.00982332 -0.26900682 10 12 30590 5.14000000 2340486367 2340486367 -3.00000000
-4.10689592 2.97398925 1.17064524 65 13 30591 5.20400000 2340486369 2340486369 13.00000000
-4.14087534 2.99969721 -0.08925161 8 14 30592 5.11400000 2340486372 2340486372 -1.00000000
-4.07548285 2.95232606 1.34844720 44 15 30592 5.21000000 2340486374 2340486374 15.00000000
-1.66448939 1.20932233 -0.55128455 4 0 30600 2.13000000 2340486395 2340486395 -15.00000000
-4.12483501 2.99796820 0.08900727 9 1 30601 5.10000000 2340486397 2340486397 1.00000000
-1.93710554 1.40842295 -0.55292970 3 2 30602 2.45800000 2340486399 2340486399 -13.00000000
-4.13653135 3.00867629 0.26806477 12 3 30603 5.12200000 2340486402 2340486402 3.00000000
-2.28470278 1.66176212 -0.54914826 3 4 30603 2.87800000 2340486404 2340486404 -11.00000000
-4.12108850 2.99854422 0.44588879 10 5 30604 5.11600000 2340486406 2340486406 5.00000000
-2.78374434 2.02622271 -0.54533052 3 6 30605 3.48600000 2340486408 2340486408 -9.00000000
-4.12099981 3.00067997 0.62592095 9 7 30606 5.13600000 2340486411 2340486411 7.00000000
-3.69366646 2.69050670 -0.56108648 46 8 30607 4.60400000 2340486413 2340486413 -7.00000000
-4.11946917 3.00066614 0.80720186 74 9 30607 5.16000000 2340486415 2340486415 9.00000000
-4.15602970 3.02840757 -0.44989794 12 10 30608 5.16200000 2340486418 2340486418 -5.00000000
-4.08997536 2.98136783 0.98381120 34 11 30609 5.15600000 2340486420 2340486420 11.00000000
-4.14576244 3.02314210 -0.26890215 10 12 30610 5.13800000 2340486422 2340486422 -3.00000000
-4.10908461 2.99749470 1.17424452 63 13 30611 5.22000000 2340486425 2340486425 13.00000000
-4.14007092 3.02120590 -0.08946104 8 14 30612 5.12600000 2340486427 2340486427 -1.00000000
-4.08699989 2.98247719 1.35569417 55 15 30612 5.23800000 2340486429 2340486429 15.00000000
-1.66337574 1.21740699 -0.55231982 4 0 30620 2.13400000 2340486450 2340486450 -15.00000000
-4.12725306 3.02179885 0.08928651 9 1 30621 5.11600000 2340486452 2340486452 1.00000000
-1.91960013 1.40596414 -0.54933047 3 2 30622 2.44200000 2340486455 2340486455 -13.00000000
-4.13244820 3.02781892 0.26848346 12 3 30623 5.13000000 2340486457 2340486457 3.00000000
-2.26938629 1.66276515 -0.54685861 2 4 30623 2.86600000 2340486459 2340486459 -11.00000000
-4.12345219 3.02233386 0.44728327 10 5 30624 5.13200000 2340486461 2340486461 5.00000000
-2.76550341 2.02775097 -0.54314047 3 6 30625 3.47200000 2340486464 2340486464 -9.00000000
-4.11850357 3.02091718 0.62713963 9 7 30626 5.14600000 2340486466 2340486466 7.00000000
-3.67945099 2.69986057 -0.56035525 34 8 30627 4.59800000 2340486468 2340486468 -7.00000000
-4.12118292 3.02509570 0.80970478 74 9 30628 5.17600000 2340486471 2340486471 9.00000000
-4.16470718 3.05704379 -0.45198968 12 10 30628 5.18600000 2340486473 2340486473 -5.00000000
-4.09220266 3.00492239 0.98686415 55 11 30629 5.17200000 2340486475 2340486475 11.00000000
-4.14162302 3.04232478 -0.26932085 10 12 30630 5.14600000 2340486478 2340486478 -3.00000000
-4.10173702 3.01412773 1.17514431 62 13 30631 5.22400000 2340486480 2340486480 13.00000000
-4.14238930 3.04511428 -0.08974028 8 14 30632 5.14200000 2340486482 2340486482 -1.00000000
-4.09212923 3.00816774 1.36087048 10 15 30632 5.25800000 2340486484 2340486484 15.00000000
-1.65911603 1.22320592 -0.55231982 4 0 30640 2.13400000 2340486505 2340486505 -15.00000000
-4.13921022 3.05280423 0.08977518 9 1 30641 5.14400000 2340486508 2340486508 1.00000000
-1.91781700 1.41497016 -0.55023026 3 2 30642 2.44600000 2340486510 2340486510 -13.00000000
-4.12024689 3.04103947 0.26837879 8 3 30643 5.12800000 2340486512 2340486512 3.00000000
-2.26672745 1.67300832 -0.54762185 3 4 30643 2.87000000 2340486514 2340486514 -11.00000000
-4.13050842 3.04972696 0.44920069 10 5 30644 5.15400000 2340486517 2340486517 5.00000000
-2.77906466 2.05264902 -0.54720777 3 6 30645 3.49800000 2340486519 2340486519 -9.00000000
-4.12389898 3.04707170 0.62957704 9 7 30646 5.16600000 2340486521 2340486521 7.00000000
-3.67160058 2.71386766 -0.56059897 20 8 30647 4.60000000 2340486524 2340486524 -7.00000000
-4.11695194 3.04416060 0.81095624 74 9 30648 5.18400000 2340486526 2340486526 9.00000000
-4.16041851 3.07630086 -0.45268694 12 10 30648 5.19400000 2340486528 2340486528 -5.00000000
-4.10378599 3.03553367 0.99220675 70 11 30649 5.20000000 2340486531 2340486531 11.00000000
-4.14221668 3.06507921 -0.27005354 10 12 30650 5.16000000 2340486533 2340486533 -3.00000000
-4.09119081 3.02842712 1.17514431 62 13 30651 5.22400000 2340486535 2340486535 13.00000000
-4.13977003 3.06550550 -0.08991480 8 14 30652 5.15200000 2340486537 2340486537 -1.00000000
-4.10125685 3.03809476 1.36759984 17 15 30653 5.28400000 2340486540 2340486540 15.00000000
-1.66103995 1.23359704 -0.55439037 4 0 30660 2.14200000 2340486561 2340486561 -15.00000000
-4.13494968 3.07200456 0.08991480 9 1 30661 5.15200000 2340486563 2340486563 1.00000000
-1.91599429 1.42398083 -0.55113006 3 2 30662 2.45000000 2340486565 2340486565 -13.00000000
-4.12723780 3.06851149 0.26953018 8 3 30663 5.15000000 2340486567 2340486567 3.00000000
-2.24826956 1.67153955 -0.54456890 2 4 30663 2.85400000 2340486570 2340486570 -11.00000000
-4.12463379 3.06769347 0.44972363 10 5 30664 5.16000000 2340486572 2340486572 5.00000000
-2.78139162 2.06941199 -0.54908496 3 6 30665 3.51000000 2340486574 2340486574 -9.00000000
-4.12916183 3.07330036 0.63201439 9 7 30666 5.18600000 2340486577 2340486577 7.00000000
-3.60956192 2.68754554 -0.55255562 6 8 30667 4.53400000 2340486579 2340486579 -7.00000000
-4.10946894 3.06087303 0.81158203 74 9 30668 5.18800000 2340486581 2340486581 9.00000000
-4.14805698 3.08961463 -0.45251262 12 10 30668 5.19200000 2340486584 2340486584 -5.00000000
-4.10890818 3.06157017 0.99602294 63 11 30669 5.22000000 2340486586 2340486586 11.00000000
-4.14590454 3.09026217 -0.27099559 10 12 30670 5.17800000 2340486588 2340486588 -3.00000000
-4.09309244 3.05200863 1.17874348 63 13 30671 5.24000000 2340486590 2340486590 13.00000000
-4.12904406 3.07993722 -0.08991480 14 14 30672 5.15200000 2340486593 2340486593 -1.00000000
-4.08806229 3.04936814 1.36656451 29 15 30672 5.28000000 2340486595 2340486595 15.00000000
-1.65053618 1.23475873 -0.55231982 4 0 30680 2.13400000 2340486616 2340486616 -15.00000000
-4.12740326 3.08881569 0.08998461 9 1 30681 5.15600000 2340486618 2340486618 1.00000000
-1.91725206 1.43533182 -0.55292970 3 2 30682 2.45800000 2340486620 2340486620 -13.00000000
-4.13568497 3.09726644 0.27078623 8 3 30683 5.17400000 2340486623 2340486623 3.00000000
-2.25499249 1.68879211 -0.54762185 3 4 30683 2.87000000 2340486625 2340486625 -11.00000000
-4.12187338 3.08804560 0.45059520 10 5 30684 5.17000000 2340486627 2340486627 5.00000000
-2.76940894 2.07555437 -0.54814637 1 6 30685 3.50400000 2340486630 2340486630 -9.00000000
-4.13111496 3.09722137 0.63396430 9 7 30686 5.20200000 2340486632 2340486632 7.00000000
-3.58427787 2.68821836 -0.55011821 8 8 30687 4.51400000 2340486634 2340486634 -7.00000000
-4.11140013 3.08468294 0.81408495 72 9 30688 5.20400000 2340486637 2340486637 9.00000000
-4.15159035 3.11483669 -0.45408142 12 10 30688 5.21000000 2340486639 2340486639 -5.00000000
-4.11075783 3.08532238 0.99907589 57 11 30689 5.23600000 2340486641 2340486641 11.00000000
-4.15425873 3.11910558 -0.27225164 10 12 30690 5.20200000 2340486643 2340486643 -3.00000000
-4.09487963 3.07564020 1.18234277 63 13 30691 5.25600000 2340486646 2340486646 13.00000000
-4.13585377 3.10754490 -0.09029875 14 14 30692 5.17400000 2340486648 2340486648 -1.00000000
-4.08665991 3.07058239 1.36967039 61 15 30692 5.29200000 2340486650 2340486650 15.00000000
-1.64951849 1.24255002 -0.55335510 4 0 30699 2.13800000 2340486671 2340486671 -15.00000000
-4.12512255 3.10850286 0.09015913 9 1 30700 5.16600000 2340486673 2340486673 1.00000000
-1.91559398 1.44402790 -0.55382949 3 2 30701 2.46200000 2340486676 2340486676 -13.00000000
-4.13231373 3.11505270 0.27120492 8 3 30701 5.18200000 2340486678 2340486678 3.00000000
-2.24937987 1.69626069 -0.54762185 3 4 30702 2.87000000 2340486680 2340486680 -11.00000000
-4.12433481 3.11129618 0.45198968 10 5 30703 5.18600000 2340486683 2340486683 5.00000000
-2.75462699 2.07877707 -0.54658204 1 6 30704 3.49400000 2340486685 2340486685 -9.00000000
-4.12715912 3.11568785 0.63493925 9 7 30705 5.21000000 2340486687 2340486687 7.00000000
-3.57534361 2.70008945 -0.55011821 12 8 30706 4.51400000 2340486689 2340486689 -7.00000000
-4.11114740 3.10472703 0.81596220 76 9 30706 5.21600000 2340486692 2340486692 9.00000000
-4.03313684 3.04691911 -0.44222823 9 10 30707 5.07400000 2340486694 2340486694 -5.00000000
-4.10206985 3.10012102 0.99945754 39 11 30708 5.23800000 2340486696 2340486696 11.00000000
-4.14707851 3.13527346 -0.27246100 10 12 30709 5.20600000 2340486699 2340486699 -3.00000000
-4.10020065 3.10095739 1.18684173 65 13 30710 5.27600000 2340486701 2340486701 13.00000000
-4.13031006 3.12486243 -0.09040347 14 14 30711 5.18000000 2340486703 2340486703 -1.00000000
-4.07799578 3.08528304 1.37018800 21 15 30711 5.29400000 2340486706 2340486706 15.00000000
-1.65440512 1.25530672 -0.55646098 4 0 30719 2.15000000 2340486726 2340486726 -15.00000000
-4.12221098 3.12892842 0.09033366 9 1 30720 5.17600000 2340486729 2340486729 1.00000000
-1.89502144 1.43892097 -0.54933047 3 2 30721 2.44200000 2340486731 2340486731 -13.00000000
-4.12723064 3.13501000 0.27162361 8 3 30722 5.19000000 2340486733 2340486733 3.00000000
-2.26064229 1.71716499 -0.55181962 3 4 30722 2.89200000 2340486736 2340486736 -11.00000000
-4.12455368 3.13411188 0.45320988 10 5 30723 5.20000000 2340486738 2340486738 5.00000000
-2.74735403 2.08837986 -0.54658204 1 6 30724 3.49400000 2340486740 2340486740 -9.00000000
-4.11941814 3.13247848 0.63542676 9 7 30725 5.21400000 2340486742 2340486742 7.00000000
-3.56273699 2.71014977 -0.54963076 16 8 30726 4.51000000 2340486745 2340486745 -7.00000000
-4.11231613 3.12934399 0.81846511 76 9 30727 5.23200000 2340486747 2340486747 9.00000000
-4.03357553 3.06942463 -0.44344842 9 10 30727 5.08800000 2340486749 2340486749 -5.00000000
-4.11309338 3.13106918 1.00480020 15 11 30728 5.26600000 2340486752 2340486752 11.00000000
-4.14246511 3.15457034 -0.27287969 10 12 30729 5.21400000 2340486754 2340486754 -3.00000000
-4.08935118 3.11525083 1.18684173 65 13 30730 5.27600000 2340486756 2340486756 13.00000000
-4.13051081 3.14774537 -0.09064780 12 14 30731 5.19400000 2340486759 2340486759 -1.00000000
-4.08970499 3.11777711 1.37795258 17 15 30732 5.32400000 2340486761 2340486761 15.00000000
-1.64409280 1.25609481 -0.55439037 4 0 30738 2.14200000 2340486782 2340486782 -15.00000000
-4.12611151 3.15350962 0.09064780 9 1 30739 5.19400000 2340486784 2340486784 1.00000000
-1.90572047 1.45703340 -0.55382949 3 2 30740 2.46200000 2340486786 2340486786 -13.00000000
-4.12053490 3.15038657 0.27183294 8 3 30740 5.19400000 2340486789 2340486789 3.00000000
-2.24401951 1.71630311 -0.54914826 3 4 30741 2.87800000 2340486791 2340486791 -11.00000000
-4.13312626 3.16230035 0.45530161 12 5 30742 5.22400000 2340486793 2340486793 5.00000000
-2.74511957 2.10108066 -0.54752064 1 6 30743 3.50000000 2340486795 2340486795 -9.00000000
-4.11531258 3.15094900 0.63640171 9 7 30744 5.22200000 2340486798 2340486798 7.00000000
-3.54112267 2.71229267 -0.54768085 16 8 30745 4.49400000 2340486800 2340486800 -7.00000000
-4.10975647 3.14897084 0.82002944 83 9 30746 5.24200000 2340486802 2340486802 9.00000000
-4.12142849 3.15791440 -0.45425573 9 10 30746 5.21200000 2340486805 2340486805 -5.00000000
-4.11359501 3.15305185 1.00747144 84 11 30747 5.28000000 2340486807 2340486807 11.00000000
-4.14624596 3.17922759 -0.27382171 10 12 30748 5.23200000 2340486809 2340486809 -3.00000000
-4.08518314 3.13353872 1.18864143 67 13 30749 5.28400000 2340486812 2340486812 13.00000000
-4.13115501 3.16994667 -0.09089214 10 14 30750 5.20800000 2340486814 2340486814 -1.00000000
-4.09828186 3.14472222 1.38416421 21 15 30750 5.34800000 2340486816 2340486816 15.00000000
-1.63357425 1.25711334 -0.55231982 4 0 30758 2.13400000 2340486837 2340486837 -15.00000000
-4.13409328 3.18253112 0.09106666 11 1 30759 5.21800000 2340486839 2340486839 1.00000000
-1.89753497 1.46129870 -0.55292970 3 2 30760 2.45800000 2340486841 2340486841 -13.00000000
-4.11742496 3.17084384 0.27235630 8 3 30760 5.20400000 2340486844 2340486844 3.00000000
-2.24112535 1.72652209 -0.54991150 3 4 30761 2.88200000 2340486846 2340486846 -11.00000000
-4.12837505 3.18157315 0.45599884 13 5 30762 5.23200000 2340486848 2340486848 5.00000000
-2.73933291 2.11185622 -0.54783350 3 6 30763 3.50200000 2340486851 2340486851 -9.00000000
-4.11686420 3.17499328 0.63835162 9 7 30764 5.23800000 2340486853 2340486853 7.00000000
-3.53477693 2.72706199 -0.54816830 8 8 30765 4.49800000 2340486855 2340486855 -7.00000000
-4.09873962 3.16329741 0.82002944 81 9 30766 5.24200000 2340486858 2340486858 9.00000000
-4.15138960 3.20393133 -0.45878783 13 10 30766 5.26400000 2340486860 2340486860 -5.00000000
-4.11344194 3.17579031 1.01014280 76 11 30767 5.29400000 2340486862 2340486862 11.00000000
-4.13828468 3.19612312 -0.27403107 10 12 30768 5.23600000 2340486865 2340486865 -3.00000000
-4.08655691 3.15731120 1.19224060 67 13 30769 5.30000000 2340486867 2340486867 13.00000000
-4.12797546 3.19046211 -0.09106666 8 14 30770 5.21800000 2340486869 2340486869 -1.00000000
-4.09339380 3.16373444 1.38623476 31 15 30770 5.35600000 2340486871 2340486871 15.00000000
-1.62917614 1.26280797 -0.55231982 4 0 30778 2.13400000 2340486892 2340486892 -15.00000000
-4.13086033 3.20306921 0.09124118 14 1 30779 5.22800000 2340486894 2340486894 1.00000000
-1.89858174 1.47269094 -0.55472928 3 2 30780 2.46600000 2340486897 2340486897 -13.00000000
-4.12471056 3.20060658 0.27361238 8 3 30781 5.22800000 2340486899 2340486899 3.00000000
-2.22888064 1.72952032 -0.54838502 3 4 30781 2.87400000 2340486901 2340486901 -11.00000000
-4.10937500 3.18985605 0.45512730 10 5 30782 5.22200000 2340486904 2340486904 5.00000000
-2.73038435 2.12019396 -0.54752064 1 6 30783 3.50000000 2340486906 2340486906 -9.00000000
-4.12143278 3.20152211 0.64078903 9 7 30784 5.25800000 2340486908 2340486908 7.00000000
-3.47350979 2.69918871 -0.54012495 8 8 30785 4.43200000 2340486911 2340486911 -7.00000000
-4.10382509 3.18899274 0.82315814 81 9 30785 5.26200000 2340486913 2340486913 9.00000000
-4.14332628 3.22084856 -0.45913646 9 10 30786 5.26800000 2340486915 2340486915 -5.00000000
-4.09923172 3.18771911 1.00937963 73 11 30787 5.29000000 2340486918 2340486918 11.00000000
-4.14444351 3.22403860 -0.27518246 10 12 30788 5.25800000 2340486920 2340486920 -3.00000000
-4.09089041 3.18352485 1.19673955 67 13 30789 5.32000000 2340486922 2340486922 13.00000000
-4.13417101 3.21836424 -0.09145061 12 14 30790 5.24000000 2340486924 2340486924 -1.00000000
-4.07719803 3.17515516 1.38468194 55 15 30791 5.35000000 2340486927 2340486927 15.00000000
-1.62475824 1.26848710 -0.55231982 4 0 30798 2.13400000 2340486947 2340486947 -15.00000000
-4.11492634 3.21377635 0.09113646 11 1 30799 5.22200000 2340486950 2340486950 1.00000000
-1.89035833 1.47690976 -0.55382949 3 2 30800 2.46200000 2340486952 2340486952 -13.00000000
-4.13453436 3.23025227 0.27497312 8 3 30800 5.25400000 2340486954 2340486954 3.00000000
-2.22901750 1.74212587 -0.54991150 3 4 30801 2.88200000 2340486957 2340486957 -11.00000000
-4.11861992 3.22013450 0.45739335 10 5 30802 5.24800000 2340486959 2340486959 5.00000000
-2.70585108 2.11632514 -0.54407907 3 6 30803 3.47800000 2340486961 2340486961 -9.00000000
-4.11648607 3.22078204 0.64176399 9 7 30804 5.26600000 2340486964 2340486964 7.00000000
-3.46406674 2.71129704 -0.54012495 10 8 30805 4.43200000 2340486966 2340486966 -7.00000000
-4.10766268 3.21619058 0.82628685 81 9 30806 5.28200000 2340486968 2340486968 9.00000000
-4.13519573 3.23774838 -0.45948508 13 10 30806 5.27200000 2340486971 2340486971 -5.00000000
-4.08962488 3.20321918 1.00976121 70 11 30807 5.29200000 2340486973 2340486973 11.00000000
-4.13945293 3.24341321 -0.27560115 10 12 30808 5.26600000 2340486975 2340486975 -3.00000000
-4.09662390 3.21100926 1.20168853 69 13 30809 5.34200000 2340486977 2340486977 13.00000000
-4.13077974 3.23894501 -0.09162513 8 14 30810 5.25000000 2340486980 2340486980 -1.00000000
-4.07825041 3.19890618 1.38882303 70 15 30811 5.36600000 2340486982 2340486982 15.00000000
-1.62335765 1.27653921 -0.55335510 4 0 30818 2.13800000 2340487003 2340487003 -15.00000000
-4.12097168 3.24172044 0.09152042 9 1 30819 5.24400000 2340487005 2340487005 1.00000000
-1.88365996 1.48229420 -0.55337960 4 2 30820 2.46000000 2340487007 2340487007 -13.00000000
-4.12637281 3.24713516 0.27518246 8 3 30820 5.25800000 2340487010 2340487010 3.00000000
-2.21983743 1.74746728 -0.54914826 3 4 30821 2.87800000 2340487012 2340487012 -11.00000000
-4.12144232 3.24558544 0.45896214 10 5 30822 5.26600000 2340487014 2340487014 5.00000000
-2.73103333 2.15142775 -0.55064934 1 6 30823 3.52000000 2340487017 2340487017 -9.00000000
-4.11145496 3.24004650 0.64273894 9 7 30824 5.27400000 2340487019 2340487019 7.00000000
-3.44834566 2.71845651 -0.53915000 12 8 30825 4.42400000 2340487021 2340487021 -7.00000000
-4.11248779 3.24202394 0.82941556 81 9 30825 5.30200000 2340487024 2340487024 9.00000000
-4.14889956 3.27190304 -0.46227404 13 10 30826 5.30400000 2340487026 2340487026 -5.00000000
-4.09383249 3.22963500 1.01357734 70 11 30827 5.31200000 2340487028 2340487028 11.00000000
-4.14064884 3.26774120 -0.27643853 11 12 30828 5.28200000 2340487030 2340487030 -3.00000000
-4.09150887 3.23011947 1.20348811 69 13 30829 5.35000000 2340487033 2340487033 13.00000000
-4.13357210 3.26449871 -0.09193928 8 14 30830 5.26800000 2340487035 2340487035 -1.00000000
-4.08828115 3.22988868 1.39606988 68 15 30831 5.39400000 2340487037 2340487037 15.00000000
-1.62797809 1.28939462 -0.55646098 4 0 30838 2.15000000 2340487058 2340487058 -15.00000000
-4.12373734 3.26726222 0.09183456 9 1 30839 5.26200000 2340487060 2340487060 1.00000000
-1.87694705 1.48764992 -0.55292970 3 2 30840 2.45800000 2340487063 2340487063 -13.00000000
-4.11657810 3.26275969 0.27528712 8 3 30840 5.26000000 2340487065 2340487065 3.00000000
-2.20757055 1.75032640 -0.54762185 3 4 30841 2.87000000 2340487067 2340487067 -11.00000000
-4.11789274 3.26614261 0.45983371 10 5 30842 5.27600000 2340487070 2340487070 5.00000000
-2.72505426 2.16217566 -0.55096221 1 6 30843 3.52200000 2340487072 2340487072 -9.00000000
-4.11255884 3.26425123 0.64468884 11 7 30844 5.29000000 2340487074 2340487074 7.00000000
-3.42950773 2.72307062 -0.53768754 12 8 30845 4.41200000 2340487077 2340487077 -7.00000000
-4.10578680 3.26004434 0.83035415 78 9 30845 5.30800000 2340487079 2340487079 9.00000000
-4.14993429 3.29627919 -0.46366856 9 10 30846 5.32000000 2340487081 2340487081 -5.00000000
-4.09790468 3.25611901 1.01739359 73 11 30847 5.33200000 2340487083 2340487083 11.00000000
-4.13078070 3.28341770 -0.27654320 11 12 30848 5.28400000 2340487086 2340487086 -3.00000000
-4.08630991 3.24923325 1.20528769 69 13 30849 5.35800000 2340487088 2340487088 13.00000000
-4.12371683 3.28015256 -0.09197418 8 14 30850 5.27000000 2340487090 2340487090 -1.00000000
-4.09512186 3.25857425 1.40228164 65 15 30851 5.41800000 2340487093 2340487093 15.00000000
-1.61720133 1.29053283 -0.55439037 4 0 30859 2.14200000 2340487113 2340487113 -15.00000000
-4.13361359 3.29982042 0.09232323 16 1 30860 5.29000000 2340487116 2340487116 1.00000000
-1.87757301 1.49938345 -0.55472928 3 2 30861 2.46600000 2340487118 2340487118 -13.00000000
-4.12332010 3.29278159 0.27654320 8 3 30861 5.28400000 2340487120 2340487120 3.00000000
-2.20727611 1.76330721 -0.54914826 3 4 30862 2.87800000 2340487123 2340487123 -11.00000000
-4.11367655 3.28743267 0.46070525 10 5 30863 5.28600000 2340487125 2340487125 5.00000000
-2.71711135 2.17214894 -0.55096221 1 6 30864 3.52200000 2340487127 2340487127 -9.00000000
-4.12072134 3.29542017 0.64785743 19 7 30865 5.31600000 2340487129 2340487129 7.00000000
-3.39780283 2.71826077 -0.53427517 22 8 30866 4.38400000 2340487132 2340487132 -7.00000000
-4.10306549 3.28247499 0.83223134 76 9 30866 5.32000000 2340487134 2340487134 9.00000000
-4.15338087 3.32391644 -0.46541166 13 10 30867 5.34000000 2340487136 2340487136 -5.00000000
-4.09820414 3.28093243 1.02044654 74 11 30868 5.34800000 2340487139 2340487139 11.00000000
-4.13118982 3.30852365 -0.27738056 11 12 30869 5.30000000 2340487141 2340487141 -3.00000000
-4.09110260 3.27759147 1.21023667 65 13 30870 5.38000000 2340487143 2340487143 13.00000000
-4.12102938 3.30274796 -0.09218361 8 14 30871 5.28200000 2340487146 2340487146 -1.00000000
-4.08372259 3.27284908 1.40228164 65 15 30871 5.41800000 2340487148 2340487148 15.00000000
-1.60365212 1.28890860 -0.55128455 4 0 30879 2.13000000 2340487169 2340487169 -15.00000000
-4.11895323 3.31172323 0.09225342 19 1 30880 5.28600000 2340487171 2340487171 1.00000000
-1.87536478 1.50837100 -0.55562907 3 2 30881 2.47000000 2340487173 2340487173 -13.00000000
-4.12425184 3.31716871 0.27738056 10 3 30881 5.30000000 2340487176 2340487176 3.00000000
-2.20416689 1.77346277 -0.54991150 3 4 30882 2.88200000 2340487178 2340487178 -11.00000000
-4.11459255 3.31176615 0.46209976 7 5 30883 5.30200000 2340487180 2340487180 5.00000000
-2.70181942 2.17542601 -0.54939783 1 6 30884 3.51200000 2340487182 2340487182 -9.00000000
-4.11846876 3.31725550 0.64931989 28 7 30885 5.32800000 2340487185 2340487185 7.00000000
-3.35737848 2.70519519 -0.52940041 18 8 30886 4.34400000 2340487187 2340487187 -7.00000000
-4.10388803 3.30669260 0.83473432 74 9 30886 5.33600000 2340487189 2340487189 9.00000000
-4.14330387 3.33964443 -0.46558598 13 10 30887 5.34200000 2340487192 2340487192 -5.00000000
-4.09895277 3.30507636 1.02349949 74 11 30888 5.36400000 2340487194 2340487194 11.00000000
-4.13671637 3.33671737 -0.27853197 11 12 30889 5.32200000 2340487196 2340487196 -3.00000000
-4.09480286 3.30408931 1.21473575 63 13 30890 5.40000000 2340487199 2340487199 13.00000000
-4.12347984 3.32841706 -0.09249775 6 14 30891 5.30000000 2340487201 2340487201 -1.00000000
-4.08372355 3.29750395 1.40642273 63 15 30892 5.43400000 2340487203 2340487203 15.00000000
-1.60837960 1.30151081 -0.55439037 4 0 30898 2.14200000 2340487224 2340487224 -15.00000000
-4.11571980 3.33165479 0.09242795 11 1 30899 5.29600000 2340487226 2340487226 1.00000000
-1.87035263 1.51458168 -0.55562907 3 2 30900 2.47000000 2340487229 2340487229 -13.00000000
-4.13127089 3.34663105 0.27863663 21 3 30901 5.32400000 2340487231 2340487231 3.00000000
-2.20437574 1.78570545 -0.55143797 3 4 30901 2.89000000 2340487233 2340487233 -11.00000000
-4.10977983 3.33041000 0.46279699 7 5 30902 5.31000000 2340487235 2340487235 5.00000000
-2.69459057 2.18437338 -0.54939783 1 6 30903 3.51200000 2340487238 2340487238 -9.00000000
-4.11207104 3.33464551 0.65005106 40 7 30904 5.33400000 2340487240 2340487240 7.00000000
-3.35763907 2.72381735 -0.53086287 10 8 30905 4.35600000 2340487242 2340487242 -7.00000000
-4.11130905 3.33521724 0.83848876 72 9 30905 5.36000000 2340487245 2340487245 9.00000000
-4.15077114 3.36843157 -0.46767771 13 10 30906 5.36600000 2340487247 2340487247 -5.00000000
-4.09711552 3.32607508 1.02578914 71 11 30907 5.37600000 2340487249 2340487249 11.00000000
-4.13338041 3.35671234 -0.27905533 11 12 30908 5.33200000 2340487252 2340487252 -3.00000000
-4.09894896 3.32993770 1.21923470 63 13 30909 5.42000000 2340487254 2340487254 13.00000000
-4.11241961 3.34207273 -0.09249775 8 14 30910 5.30000000 2340487256 2340487256 -1.00000000
-4.08084011 3.31640887 1.40901089 61 15 30910 5.44400000 2340487259 2340487259 15.00000000
-1.60382664 1.30711710 -0.55439037 4 0 30918 2.14200000 2340487279 2340487279 -15.00000000
-4.11491394 3.35484624 0.09267228 19 1 30919 5.31000000 2340487282 2340487282 1.00000000
-1.85901368 1.51617455 -0.55382949 3 2 30920 2.46200000 2340487284 2340487284 -13.00000000
-4.11337328 3.35598111 0.27821794 17 3 30921 5.31600000 2340487286 2340487286 3.00000000
-2.19508672 1.79090703 -0.55067474 3 4 30921 2.88600000 2340487288 2340487288 -11.00000000
-4.11047792 3.35481381 0.46419150 10 5 30922 5.32600000 2340487291 2340487291 5.00000000
-2.69460011 2.20001245 -0.55096221 3 6 30923 3.52200000 2340487293 2340487293 -9.00000000
-4.10348082 3.35149050 0.65053856 52 7 30924 5.33800000 2340487295 2340487295 7.00000000
-3.34657335 2.73426509 -0.53061914 10 8 30925 4.35400000 2340487298 2340487298 -7.00000000
-4.11588192 3.36401463 0.84193027 69 9 30926 5.38200000 2340487300 2340487300 9.00000000
-4.15132952 3.39298677 -0.46907219 13 10 30926 5.38200000 2340487302 2340487302 -5.00000000
-4.09156036 3.34532714 1.02731562 71 11 30927 5.38400000 2340487305 2340487305 11.00000000
-4.11236238 3.36353302 -0.27842727 22 12 30928 5.32000000 2340487307 2340487307 -3.00000000
-4.09031677 3.34669352 1.22013450 62 13 30929 5.42400000 2340487309 2340487309 13.00000000
-4.12548780 3.37667251 -0.09305623 19 14 30930 5.33200000 2340487312 2340487312 -1.00000000
-4.08061552 3.34113455 1.41315198 57 15 30931 5.46000000 2340487314 2340487314 15.00000000
-1.60522711 1.31761038 -0.55646098 4 0 30938 2.15000000 2340487335 2340487335 -15.00000000
-4.10781479 3.37299657 0.09277699 23 1 30939 5.31600000 2340487337 2340487337 1.00000000
-1.85370982 1.52265441 -0.55382949 3 2 30940 2.46200000 2340487339 2340487339 -13.00000000
-4.10009050 3.36905098 0.27811328 12 3 30941 5.31400000 2340487341 2340487341 3.00000000
-2.18882179 1.79855835 -0.55067474 2 4 30941 2.88600000 2340487344 2340487344 -11.00000000
-4.11105537 3.37926292 0.46558598 10 5 30942 5.34200000 2340487346 2340487346 5.00000000
-2.68080091 2.20438647 -0.54971069 3 6 30943 3.51400000 2340487348 2340487348 -9.00000000
-4.10862064 3.37966561 0.65321970 57 7 30944 5.36000000 2340487351 2340487351 7.00000000
-3.33241010 2.74214625 -0.52988791 14 8 30945 4.34800000 2340487353 2340487353 -7.00000000
-4.10470390 3.37764478 0.84193027 69 9 30945 5.38200000 2340487355 2340487355 9.00000000
-4.15638113 3.42138553 -0.47098964 10 10 30946 5.40400000 2340487358 2340487358 -5.00000000
-4.09804440 3.37456489 1.03189504 66 11 30947 5.40800000 2340487360 2340487360 11.00000000
-4.12372017 3.39691544 -0.27999738 16 12 30948 5.35000000 2340487362 2340487362 -3.00000000
-4.08161736 3.36342955 1.22103429 62 13 30949 5.42800000 2340487365 2340487365 13.00000000
-4.11213255 3.38978052 -0.09302133 17 14 30950 5.33000000 2340487367 2340487367 -1.00000000
-4.08143854 3.36447835 1.41729307 61 15 30950 5.47600000 2340487369 2340487369 15.00000000
-1.59764016 1.32074380 -0.55542564 4 0 30958 2.14600000 2340487390 2340487390 -15.00000000
-4.11450815 3.40260768 0.09319585 17 1 30959 5.34000000 2340487392 2340487392 1.00000000
-1.85138655 1.53160024 -0.55472928 3 2 30960 2.46600000 2340487394 2340487394 -13.00000000
-4.10677004 3.39862299 0.27936932 20 3 30961 5.33800000 2340487397 2340487397 3.00000000
-2.17950535 1.80368447 -0.54991150 3 4 30961 2.88200000 2340487399 2340487399 -11.00000000
-4.10844278 3.40121579 0.46663186 31 5 30962 5.35400000 2340487401 2340487401 5.00000000
-2.68069696 2.22003055 -0.55127507 1 6 30963 3.52400000 2340487404 2340487404 -9.00000000
-4.11361361 3.40791726 0.65590084 47 7 30964 5.38200000 2340487406 2340487406 7.00000000
-3.30294824 2.73729491 -0.52671933 20 8 30965 4.32200000 2340487408 2340487408 -7.00000000
-4.10142088 3.40023112 0.84380752 63 9 30966 5.39400000 2340487411 2340487411 9.00000000
-4.63830709 3.84532976 -0.52711791 3 10 30966 6.04800000 2340487413 2340487413 -5.00000000
-4.09832954 3.39887547 1.03494799 57 11 30967 5.42400000 2340487415 2340487415 11.00000000
-4.08184862 3.38761282 1.22463357 60 13 30969 5.44400000 2340487420 2340487420 13.00000000
-4.06907988 3.37941504 1.41729307 61 15 30971 5.47600000 2340487424 2340487424 15.00000000
-1.58559692 1.32013214 -0.55283749 4 0 30978 2.13600000 2340487445 2340487445 -15.00000000
