# .PCD v0.7 - Point Cloud Data file format
VERSION 0.7
FIELDS x y z intensity laser_id azimuth distance_m adjustedtime timestamp vertical_angle
SIZE 4 4 4 1 1 2 8 8 4 8
TYPE F F F U U U F U U F
COUNT 1 1 1 1 1 1 1 1 1 1
WIDTH 532
HEIGHT 1
VIEWPOINT 0 0 0 1 0 0 0
POINTS 532
DATA ascii
8.11236191 -0.60427630 0.42632869 21 3 9426 8.14600000 2339427537 2339427537 3.00000000
3.12078166 -0.23246183 -0.60829908 4 4 9426 3.18800000 2339427540 2339427540 -11.00000000
8.10241127 -0.60495710 0.71084225 76 5 9427 8.15600000 2339427542 2339427542 5.00000000
3.91215754 -0.29278332 -0.62135768 6 6 9428 3.97200000 2339427544 2339427544 -9.00000000
8.10419750 -0.60793525 0.99786621 87 7 9429 8.18800000 2339427547 2339427547 7.00000000
5.20015860 -0.39100188 -0.64030153 4 8 9430 5.25400000 2339427549 2339427549 -7.00000000
8.20023727 -0.61801827 1.30247331 10 9 9431 8.32600000 2339427551 2339427551 9.00000000
6.59403992 -0.49696574 -0.57853985 20 10 9431 6.63800000 2339427554 2339427554 -5.00000000
8.08771896 -0.61237746 -0.42507264 17 12 9433 8.12200000 2339427558 2339427558 -3.00000000
8.09338188 -0.61564761 -0.14167863 16 14 9435 8.11800000 2339427563 2339427563 -1.00000000
8.15974998 -0.62069613 2.19271493 51 15 9435 8.47200000 2339427565 2339427565 15.00000000
2.21884441 -0.17189948 -0.59631908 4 0 9443 2.30400000 2339427586 2339427586 -15.00000000
8.09439850 -0.62851477 0.14171354 12 1 9444 8.12000000 2339427588 2339427588 1.00000000
2.58983970 -0.20155090 -0.59971952 6 2 9445 2.66600000 2339427590 2339427590 -13.00000000
8.09427357 -0.63134754 0.42549133 23 3 9446 8.13000000 2339427593 2339427593 3.00000000
3.11995125 -0.24335398 -0.60829908 4 4 9446 3.18800000 2339427595 2339427595 -11.00000000
8.10422230 -0.63354671 0.71119088 76 5 9447 8.16000000 2339427597 2339427597 5.00000000
3.89535689 -0.30520311 -0.61885476 6 6 9448 3.95600000 2339427600 2339427600 -9.00000000
8.10598469 -0.63653129 0.99835366 87 7 9449 8.19200000 2339427602 2339427602 7.00000000
5.18095112 -0.40774968 -0.63810790 4 8 9450 5.23600000 2339427604 2339427604 -7.00000000
8.19409180 -0.64632803 1.30184758 10 9 9451 8.32200000 2339427607 2339427607 9.00000000
6.61808586 -0.52201688 -0.58080590 48 10 9451 6.66400000 2339427609 2339427609 -5.00000000
8.20828056 -0.64888877 1.60050583 6 11 9452 8.38800000 2339427611 2339427611 11.00000000
8.08553123 -0.64060509 -0.42507264 17 12 9453 8.12200000 2339427613 2339427613 -3.00000000
8.08719635 -0.64357781 -0.14160882 16 14 9455 8.11400000 2339427618 2339427618 -1.00000000
8.16331100 -0.64963496 2.19426775 49 15 9455 8.47800000 2339427620 2339427620 15.00000000
2.21826220 -0.17925648 -0.59631908 4 0 9462 2.30400000 2339427641 2339427641 -15.00000000
8.09625626 -0.65567613 0.14178336 15 1 9463 8.12400000 2339427643 2339427643 1.00000000
2.59886885 -0.21092622 -0.60196900 6 2 9464 2.67600000 2339427646 2339427646 -13.00000000
8.10419369 -0.65774274 0.42611936 21 3 9464 8.14200000 2339427648 2339427648 3.00000000
3.10738635 -0.25274381 -0.60600936 4 4 9465 3.17600000 2339427650 2339427650 -11.00000000
8.10009098 -0.66025591 0.71101654 76 5 9466 8.15800000 2339427653 2339427653 5.00000000
3.89432335 -0.31811890 -0.61885476 6 6 9467 3.95600000 2339427655 2339427655 -9.00000000
8.11569977 -0.66438001 0.99981612 90 7 9468 8.20400000 2339427657 2339427657 7.00000000
5.18748426 -0.42557734 -0.63908285 4 8 9469 5.24400000 2339427659 2339427659 -7.00000000
8.20383358 -0.67303640 1.30372488 7 9 9469 8.33400000 2339427662 2339427662 9.00000000
6.59646130 -0.54232782 -0.57906276 56 10 9470 6.64400000 2339427664 2339427664 -5.00000000
8.10525799 -0.66922200 -0.42622402 17 12 9472 8.14400000 2339427669 2339427669 -3.00000000
8.08900356 -0.67072284 -0.14167863 16 14 9474 8.11800000 2339427673 2339427673 -1.00000000
8.15726185 -0.67638266 2.19323254 47 15 9474 8.47400000 2339427676 2339427676 15.00000000
2.20222259 -0.18569997 -0.59217799 4 0 9482 2.28800000 2339427696 2339427696 -15.00000000
8.08993244 -0.68359655 0.14171354 15 1 9483 8.12000000 2339427699 2339427699 1.00000000
2.59617496 -0.21983226 -0.60151911 7 2 9484 2.67400000 2339427701 2339427701 -13.00000000
8.10570908 -0.68777937 0.42632869 18 3 9485 8.14600000 2339427703 2339427703 3.00000000
3.10844135 -0.26375505 -0.60639101 5 4 9485 3.17800000 2339427706 2339427706 -11.00000000
8.09773731 -0.68852651 0.71101654 76 5 9486 8.15800000 2339427708 2339427708 5.00000000
3.89909410 -0.33221379 -0.61979336 6 6 9487 3.96200000 2339427710 2339427710 -9.00000000
8.12322044 -0.69354939 1.00103474 95 7 9488 8.21400000 2339427712 2339427712 7.00000000
5.18992281 -0.44402090 -0.63957030 4 8 9489 5.24800000 2339427715 2339427715 -7.00000000
8.19343853 -0.70242548 1.30247331 7 9 9490 8.32600000 2339427717 2339427717 9.00000000
6.58857298 -0.56483996 -0.57853985 100 10 9490 6.63800000 2339427719 2339427719 -5.00000000
8.10287285 -0.69751054 -0.42622402 17 12 9492 8.14400000 2339427724 2339427724 -3.00000000
8.08661366 -0.69895464 -0.14167863 18 14 9494 8.11800000 2339427729 2339427729 -1.00000000
8.14895344 -0.70577586 2.19167972 47 15 9495 8.46800000 2339427731 2339427731 15.00000000
2.20929265 -0.19367662 -0.59424853 4 0 9501 2.29600000 2339427752 2339427752 -15.00000000
8.08961391 -0.71059495 0.14174844 15 1 9502 8.12200000 2339427754 2339427754 1.00000000
2.59154916 -0.22809856 -0.60061932 6 2 9503 2.67000000 2339427756 2339427756 -13.00000000
8.11544609 -0.71429145 0.42695674 18 3 9503 8.15800000 2339427759 2339427759 3.00000000
3.12906194 -0.27595881 -0.61058879 4 4 9504 3.20000000 2339427761 2339427761 -11.00000000
8.10334778 -0.71607727 0.71171379 90 5 9505 8.16600000 2339427763 2339427763 5.00000000
3.88222957 -0.34374803 -0.61729038 6 6 9506 3.94600000 2339427765 2339427765 -9.00000000
8.11098957 -0.71960598 0.99981612 87 7 9507 8.20400000 2339427768 2339427768 7.00000000
5.17853546 -0.46034998 -0.63835162 6 8 9508 5.23800000 2339427770 2339427770 -7.00000000
8.20286942 -0.73064357 1.30435061 7 9 9509 8.33800000 2339427772 2339427772 9.00000000
6.60055542 -0.58792269 -0.57976002 125 10 9509 6.65200000 2339427775 2339427775 -5.00000000
8.09653664 -0.72402102 -0.42601469 17 12 9511 8.14000000 2339427779 2339427779 -3.00000000
8.09620094 -0.72683984 -0.14188807 16 14 9513 8.13000000 2339427784 2339427784 -1.00000000
8.15246868 -0.73189127 2.19323254 49 15 9513 8.47400000 2339427786 2339427786 15.00000000
2.20475531 -0.20103645 -0.59321326 4 0 9521 2.29200000 2339427807 2339427807 -15.00000000
8.08907509 -0.73901063 0.14178336 15 1 9522 8.12400000 2339427809 2339427809 1.00000000
2.57327151 -0.23554465 -0.59657019 6 2 9523 2.65200000 2339427811 2339427811 -13.00000000
8.11688042 -0.74297941 0.42716607 21 3 9523 8.16200000 2339427814 2339427814 3.00000000
3.12025928 -0.28616238 -0.60906231 4 4 9524 3.19200000 2339427816 2339427816 -11.00000000
8.10476780 -0.74472350 0.71206242 79 5 9525 8.17000000 2339427818 2339427818 5.00000000
3.88100600 -0.35729745 -0.61729038 6 6 9526 3.94600000 2339427821 2339427821 -9.00000000
8.10447502 -0.74754959 0.99932861 90 7 9527 8.20000000 2339427823 2339427823 7.00000000
5.17294359 -0.47805828 -0.63786417 8 8 9528 5.23400000 2339427825 2339427825 -7.00000000
8.20420361 -0.75963676 1.30497634 7 9 9529 8.34200000 2339427828 2339427828 9.00000000
6.59251118 -0.61040825 -0.57923704 107 10 9529 6.64600000 2339427830 2339427830 -5.00000000
8.08202744 -0.75116980 -0.42538664 17 12 9531 8.12800000 2339427835 2339427835 -3.00000000
8.09759712 -0.75546789 -0.14195788 16 14 9533 8.13400000 2339427839 2339427839 -1.00000000
8.15755844 -0.76106203 2.19530320 47 15 9533 8.48200000 2339427841 2339427841 15.00000000
2.20019364 -0.20836699 -0.59217799 4 0 9541 2.28800000 2339427862 2339427862 -15.00000000
8.09440899 -0.76799780 0.14192297 12 1 9542 8.13200000 2339427864 2339427864 1.00000000
2.58989358 -0.24618529 -0.60061932 7 2 9543 2.67000000 2339427867 2339427867 -13.00000000
8.09422016 -0.77083081 0.42611936 15 3 9544 8.14200000 2339427869 2339427869 3.00000000
3.10360622 -0.29556340 -0.60600936 4 4 9544 3.17600000 2339427871 2339427871 -11.00000000
8.11203575 -0.77395606 0.71293396 83 5 9545 8.18000000 2339427874 2339427874 5.00000000
3.87973499 -0.37084252 -0.61729038 6 6 9546 3.94600000 2339427876 2339427876 -9.00000000
8.10379219 -0.77602416 0.99957234 90 7 9547 8.20200000 2339427878 2339427878 7.00000000
5.16926718 -0.49592274 -0.63762039 8 8 9548 5.23200000 2339427881 2339427881 -7.00000000
8.19377422 -0.78608412 1.30372488 7 9 9548 8.33400000 2339427883 2339427883 9.00000000
8.08730888 -0.78014386 -0.42580533 17 12 9551 8.13600000 2339427890 2339427890 -3.00000000
8.09092903 -0.78334379 -0.14188807 16 14 9553 8.13000000 2339427894 2339427894 -1.00000000
8.16240501 -0.79170185 2.19737363 49 15 9554 8.49000000 2339427897 2339427897 15.00000000
2.20329809 -0.21642353 -0.59321326 4 0 9561 2.29200000 2339427917 2339427917 -15.00000000
8.09167957 -0.79624784 0.14192297 12 1 9562 8.13200000 2339427920 2339427920 1.00000000
2.58901858 -0.25522420 -0.60061932 6 2 9563 2.67000000 2339427922 2339427922 -13.00000000
8.09957027 -0.79845172 0.42653805 15 3 9563 8.15000000 2339427924 2339427924 3.00000000
3.10255551 -0.30639520 -0.60600936 4 4 9564 3.17600000 2339427927 2339427927 -11.00000000
8.10333633 -0.80167913 0.71241105 79 5 9565 8.17400000 2339427929 2339427929 5.00000000
3.87841702 -0.38438305 -0.61729038 6 6 9566 3.94600000 2339427931 2339427931 -9.00000000
8.11288643 -0.80548370 1.00103474 90 7 9567 8.21400000 2339427934 2339427934 7.00000000
5.16948032 -0.51416034 -0.63786417 8 8 9568 5.23400000 2339427936 2339427936 -7.00000000
8.19869995 -0.81689388 1.30497634 7 9 9569 8.34200000 2339427938 2339427938 9.00000000
6.57817602 -0.65542972 -0.57836550 40 10 9569 6.63600000 2339427941 2339427941 -5.00000000
8.08851051 -0.80876654 -0.42601469 17 12 9571 8.14000000 2339427945 2339427945 -3.00000000
8.07819748 -0.81058335 -0.14171354 14 14 9573 8.12000000 2339427950 2339427950 -1.00000000
8.15767002 -0.81999594 2.19685602 56 15 9574 8.48800000 2339427952 2339427952 15.00000000
2.19488049 -0.22294784 -0.59114271 4 0 9580 2.28400000 2339427973 2339427973 -15.00000000
8.10093117 -0.82429105 0.14213240 12 1 9581 8.14400000 2339427975 2339427975 1.00000000
2.59591269 -0.26459873 -0.60241890 5 2 9582 2.67800000 2339427977 2339427977 -13.00000000
8.10085201 -0.82571155 0.42674738 13 3 9582 8.15400000 2339427980 2339427980 3.00000000
3.10933471 -0.31747964 -0.60753584 4 4 9583 3.18400000 2339427982 2339427982 -11.00000000
8.09468746 -0.82793820 0.71188813 83 5 9584 8.16800000 2339427984 2339427984 5.00000000
3.85943508 -0.39543018 -0.61447459 6 6 9585 3.92800000 2339427987 2339427987 -9.00000000
8.11214542 -0.83258522 1.00127852 90 7 9586 8.21600000 2339427989 2339427989 7.00000000
5.15589857 -0.53008199 -0.63640171 6 8 9587 5.22200000 2339427991 2339427991 -7.00000000
8.22360325 -0.84547514 1.30935645 7 9 9587 8.37000000 2339427994 2339427994 9.00000000
6.57794857 -0.67744428 -0.57853985 40 10 9588 6.63800000 2339427996 2339427996 -5.00000000
8.09571743 -0.83661103 -0.42653805 17 12 9590 8.15000000 2339428000 2339428000 -3.00000000
8.08143234 -0.83798593 -0.14181826 16 14 9592 8.12600000 2339428005 2339428005 -1.00000000
8.14721966 -0.84624493 2.19478559 49 15 9593 8.48000000 2339428007 2339428007 15.00000000
2.19024634 -0.23020416 -0.59010744 4 0 9600 2.28000000 2339428028 2339428028 -15.00000000
8.08607197 -0.85130727 0.14192297 12 1 9601 8.13200000 2339428030 2339428030 1.00000000
2.58722138 -0.27284104 -0.60061932 4 2 9602 2.67000000 2339428033 2339428033 -13.00000000
8.11381054 -0.85565948 0.42758477 18 3 9602 8.17000000 2339428035 2339428035 3.00000000
3.09844565 -0.32730013 -0.60562778 5 4 9603 3.17400000 2339428037 2339428037 -11.00000000
8.09967327 -0.85702747 0.71258533 76 5 9604 8.17600000 2339428040 2339428040 5.00000000
3.86588883 -0.40973249 -0.61572605 4 6 9605 3.93600000 2339428042 2339428042 -9.00000000
8.10524178 -0.86047769 1.00079107 90 7 9606 8.21200000 2339428044 2339428044 7.00000000
5.15796471 -0.54849601 -0.63688916 6 8 9607 5.22600000 2339428047 2339428047 -7.00000000
8.19899464 -0.87187803 1.30591488 7 9 9607 8.34800000 2339428049 2339428049 9.00000000
6.57158136 -0.69997942 -0.57819122 20 10 9608 6.63400000 2339428051 2339428051 -5.00000000
8.08679008 -0.86422855 -0.42622402 17 12 9610 8.14400000 2339428056 2339428056 -3.00000000
8.08641052 -0.86704308 -0.14195788 16 14 9612 8.13400000 2339428060 2339428060 -1.00000000
8.14997864 -0.87529773 2.19633842 49 15 9613 8.48600000 2339428063 2339428063 15.00000000
2.19711161 -0.23868272 -0.59217799 4 0 9620 2.28800000 2339428083 2339428083 -15.00000000
8.08702660 -0.87996042 0.14199278 12 1 9621 8.13600000 2339428086 2339428086 1.00000000
2.56881785 -0.27997023 -0.59657019 4 2 9622 2.65200000 2339428088 2339428088 -13.00000000
8.10878849 -0.88376033 0.42748010 15 3 9622 8.16800000 2339428090 2339428090 3.00000000
3.09923601 -0.33832678 -0.60600936 5 4 9623 3.17600000 2339428093 2339428093 -11.00000000
8.10653496 -0.88637817 0.71345693 79 5 9624 8.18600000 2339428095 2339428095 5.00000000
3.85658050 -0.42236426 -0.61447459 4 6 9625 3.92800000 2339428097 2339428097 -9.00000000
8.10218811 -0.88876504 1.00079107 90 7 9626 8.21200000 2339428099 2339428099 7.00000000
5.14417934 -0.56519651 -0.63542676 6 8 9627 5.21400000 2339428102 2339428102 -7.00000000
8.20964622 -0.90200269 1.30810499 7 9 9627 8.36200000 2339428104 2339428104 9.00000000
6.57701969 -0.72378600 -0.57888842 16 10 9628 6.64200000 2339428106 2339428106 -5.00000000
8.07975388 -0.89201313 -0.42601469 17 12 9630 8.14000000 2339428111 2339428111 -3.00000000
8.09128475 -0.89614511 -0.14209749 16 14 9632 8.14200000 2339428116 2339428116 -1.00000000
8.15471172 -0.90316987 2.19840908 49 15 9632 8.49400000 2339428118 2339428118 15.00000000
2.20394444 -0.24721198 -0.59424853 4 0 9640 2.29600000 2339428139 2339428139 -15.00000000
8.08589363 -0.90840727 0.14202769 12 1 9641 8.13800000 2339428141 2339428141 1.00000000
2.56976128 -0.28915325 -0.59702009 4 2 9642 2.65400000 2339428143 2339428143 -13.00000000
8.09176159 -0.91049665 0.42674738 10 3 9642 8.15400000 2339428146 2339428146 3.00000000
3.08828163 -0.34804374 -0.60410130 5 4 9643 3.16600000 2339428148 2339428148 -11.00000000
8.11131096 -0.91556376 0.71415418 90 5 9644 8.19400000 2339428150 2339428150 5.00000000
3.87863708 -0.43848655 -0.61822903 4 6 9645 3.95200000 2339428152 2339428152 -9.00000000
8.10495377 -0.91771156 1.00152230 90 7 9646 8.21800000 2339428155 2339428155 7.00000000
5.14612007 -0.58359700 -0.63591421 6 8 9647 5.21800000 2339428157 2339428157 -7.00000000
8.21037388 -0.93109941 1.30873072 7 9 9647 8.36600000 2339428159 2339428159 9.00000000
6.60018873 -0.74966276 -0.58115447 40 10 9648 6.66800000 2339428162 2339428162 -5.00000000
8.09445095 -0.92224616 -0.42695674 17 12 9650 8.15800000 2339428166 2339428166 -3.00000000
8.08612061 -0.92415649 -0.14206259 14 14 9652 8.14000000 2339428171 2339428171 -1.00000000
8.15518475 -0.93349171 2.19944429 49 15 9653 8.49800000 2339428173 2339428173 15.00000000
2.19159794 -0.25318891 -0.59114271 4 0 9659 2.28400000 2339428194 2339428194 -15.00000000
8.10071468 -0.93728465 0.14234182 12 1 9660 8.15600000 2339428196 2339428196 1.00000000
2.57265997 -0.29812193 -0.59791988 5 2 9661 2.65800000 2339428199 2339428199 -13.00000000
8.09250164 -0.93919712 0.42695674 10 3 9662 8.15800000 2339428201 2339428201 3.00000000
3.08516026 -0.35805660 -0.60371965 5 4 9662 3.16400000 2339428203 2339428203 -11.00000000
8.10822964 -0.94245678 0.71415418 76 5 9663 8.19400000 2339428205 2339428205 5.00000000
3.86538911 -0.44997567 -0.61635178 4 6 9664 3.94000000 2339428208 2339428208 -9.00000000
8.10581017 -0.94504327 1.00200975 90 7 9665 8.22200000 2339428210 2339428210 7.00000000
5.14218473 -0.60042870 -0.63567048 4 8 9666 5.21600000 2339428212 2339428212 -7.00000000
8.19154453 -0.95648807 1.30622780 7 9 9666 8.35000000 2339428215 2339428215 9.00000000
6.59370852 -0.77108282 -0.58080590 100 10 9667 6.66400000 2339428217 2339428217 -5.00000000
8.09729862 -0.94978130 -0.42727074 17 12 9669 8.16400000 2339428222 2339428222 -3.00000000
8.07506752 -0.95003134 -0.14192297 14 14 9671 8.13200000 2339428226 2339428226 -1.00000000
8.15221214 -0.95910734 2.19944429 47 15 9671 8.49800000 2339428229 2339428229 15.00000000
2.19453740 -0.26129428 -0.59217799 4 0 9679 2.28800000 2339428249 2339428249 -15.00000000
8.08945084 -0.96460861 0.14220221 12 1 9680 8.14800000 2339428252 2339428252 1.00000000
2.58321357 -0.30848685 -0.60061932 6 2 9681 2.67000000 2339428254 2339428254 -13.00000000
8.10503864 -0.96933693 0.42779410 13 3 9682 8.17400000 2339428256 2339428256 3.00000000
3.09558773 -0.37022248 -0.60600936 5 4 9682 3.17600000 2339428258 2339428258 -11.00000000
8.09302139 -0.96933240 0.71310830 76 5 9683 8.18200000 2339428261 2339428261 5.00000000
3.85594940 -0.46252459 -0.61510032 4 6 9684 3.93200000 2339428263 2339428263 -9.00000000
8.11034489 -0.97427911 1.00298464 92 7 9685 8.23000000 2339428265 2339428265 7.00000000
5.15385389 -0.62003440 -0.63737667 6 8 9686 5.23000000 2339428268 2339428268 -7.00000000
8.19975090 -0.98792291 1.30810499 7 9 9687 8.36200000 2339428270 2339428270 9.00000000
8.10384846 -0.97923833 -0.42779410 17 12 9689 8.17400000 2339428277 2339428277 -3.00000000
8.08361340 -0.97965628 -0.14213240 14 14 9691 8.14400000 2339428282 2339428282 -1.00000000
8.14288902 -0.98828197 2.19789124 51 15 9692 8.49200000 2339428284 2339428284 15.00000000
2.19351792 -0.26971877 -0.59217799 4 0 9701 2.28800000 2339428305 2339428305 -15.00000000
8.07377911 -0.99419630 0.14199278 12 1 9702 8.13600000 2339428307 2339428307 1.00000000
2.57040548 -0.31697235 -0.59791988 4 2 9703 2.65800000 2339428309 2339428309 -13.00000000
8.11116791 -1.00167477 0.42831746 13 3 9704 8.18400000 2339428311 2339428311 3.00000000
3.09414339 -0.38210592 -0.60600936 5 4 9704 3.17600000 2339428314 2339428314 -11.00000000
8.09319401 -1.00088918 0.71345693 79 5 9705 8.18600000 2339428316 2339428316 5.00000000
3.85414505 -0.47732693 -0.61510032 4 6 9706 3.93200000 2339428318 2339428318 -9.00000000
8.10654449 -1.00541341 1.00298464 90 7 9707 8.23000000 2339428321 2339428321 7.00000000
5.14552498 -0.63908511 -0.63664544 4 8 9708 5.22400000 2339428323 2339428323 -7.00000000
8.21175766 -1.01991761 1.31060791 7 9 9708 8.37800000 2339428325 2339428325 9.00000000
6.57997036 -0.81841242 -0.58010864 72 10 9709 6.65600000 2339428328 2339428328 -5.00000000
8.09210110 -1.00935876 -0.42737541 17 12 9711 8.16600000 2339428332 2339428332 -3.00000000
8.09169769 -1.01217699 -0.14234182 14 14 9713 8.15600000 2339428337 2339428337 -1.00000000
8.14496231 -1.01883984 2.19944429 47 15 9713 8.49800000 2339428339 2339428339 15.00000000
2.19639635 -0.27785885 -0.59321326 4 0 9721 2.29200000 2339428360 2339428360 -15.00000000
8.08414650 -1.02413225 0.14223711 12 1 9722 8.15000000 2339428362 2339428362 1.00000000
2.56928349 -0.32594281 -0.59791988 5 2 9723 2.65800000 2339428364 2339428364 -13.00000000
8.09771538 -1.02872336 0.42779410 13 3 9724 8.17400000 2339428367 2339428367 3.00000000
3.08694792 -0.39216191 -0.60486454 5 4 9724 3.17000000 2339428369 2339428369 -11.00000000
8.10151005 -1.03064227 0.71450275 79 5 9725 8.19800000 2339428371 2339428371 5.00000000
3.86421275 -0.49227530 -0.61697751 4 6 9726 3.94400000 2339428374 2339428374 -9.00000000
8.09510899 -1.03269958 1.00200975 92 7 9727 8.22200000 2339428376 2339428376 7.00000000
5.13538647 -0.65603626 -0.63567048 4 8 9728 5.21600000 2339428378 2339428378 -7.00000000
8.19620800 -1.04850447 1.30873072 7 9 9729 8.36600000 2339428381 2339428381 9.00000000
6.57707357 -0.84137583 -0.58010864 12 10 9729 6.65600000 2339428383 2339428383 -5.00000000
8.08060455 -1.03658283 -0.42695674 17 12 9731 8.15800000 2339428387 2339428387 -3.00000000
8.08811569 -1.04041612 -0.14234182 14 14 9733 8.15600000 2339428392 2339428392 -1.00000000
8.14883804 -1.04967296 2.20151472 49 15 9734 8.50600000 2339428394 2339428394 15.00000000
2.19551253 -0.28475764 -0.59321326 4 0 9739 2.29200000 2339428415 2339428415 -15.00000000
8.08683777 -1.05029690 0.14234182 12 1 9740 8.15600000 2339428417 2339428417 1.00000000
2.56438184 -0.33351016 -0.59702009 5 2 9741 2.65400000 2339428420 2339428420 -13.00000000
8.09048271 -1.05364215 0.42758477 13 3 9742 8.17000000 2339428422 2339428422 3.00000000
3.08959436 -0.40236497 -0.60562778 5 4 9742 3.17400000 2339428424 2339428424 -11.00000000
8.11008644 -1.05763471 0.71554863 90 5 9743 8.21000000 2339428427 2339428427 5.00000000
3.84697723 -0.50236636 -0.61447459 6 6 9744 3.92800000 2339428429 2339428429 -9.00000000
8.09379292 -1.05838335 1.00225353 85 7 9745 8.22400000 2339428431 2339428431 7.00000000
5.11558580 -0.66984671 -0.63347685 4 8 9746 5.19800000 2339428434 2339428434 -7.00000000
8.21068859 -1.07512665 1.31154656 7 9 9746 8.38400000 2339428436 2339428436 9.00000000
6.57834864 -0.86255217 -0.58045727 16 10 9747 6.66000000 2339428438 2339428438 -5.00000000
8.08324909 -1.06274462 -0.42727074 17 12 9749 8.16400000 2339428443 2339428443 -3.00000000
8.09075451 -1.06660461 -0.14244655 16 14 9751 8.16200000 2339428447 2339428447 -1.00000000
8.15334892 -1.07485640 2.20358539 47 15 9751 8.51400000 2339428450 2339428450 15.00000000
2.18684554 -0.29139900 -0.59114271 4 0 9759 2.28400000 2339428470 2339428470 -15.00000000
8.09501553 -1.08010566 0.14255126 15 1 9760 8.16800000 2339428473 2339428473 1.00000000
2.56706524 -0.34297565 -0.59791988 5 2 9761 2.65800000 2339428475 2339428475 -13.00000000
8.08873463 -1.08214164 0.42768943 10 3 9762 8.17200000 2339428477 2339428477 3.00000000
3.07454967 -0.41132489 -0.60295641 5 4 9762 3.16000000 2339428480 2339428480 -11.00000000
8.10437012 -1.08567309 0.71537435 83 5 9763 8.20800000 2339428482 2339428482 5.00000000
3.84911585 -0.51631701 -0.61510032 6 6 9764 3.93200000 2339428484 2339428484 -9.00000000
8.10775661 -1.08900785 1.00444710 92 7 9765 8.24200000 2339428487 2339428487 7.00000000
5.12502050 -0.68928695 -0.63493925 2 8 9766 5.21000000 2339428489 2339428489 -7.00000000
8.19690418 -1.10389495 1.30998218 7 9 9767 8.37400000 2339428491 2339428491 9.00000000
6.55950117 -0.88338232 -0.57906276 16 10 9767 6.64400000 2339428493 2339428493 -5.00000000
8.08740711 -1.09202302 -0.42768943 17 12 9769 8.17200000 2339428498 2339428498 -3.00000000
8.07509232 -1.09323049 -0.14223711 18 14 9771 8.15000000 2339428503 2339428503 -1.00000000
8.14935398 -1.10473275 2.20358539 49 15 9772 8.51400000 2339428505 2339428505 15.00000000
2.17433071 -0.29745966 -0.58803689 4 0 9779 2.27200000 2339428526 2339428526 -15.00000000
8.08129025 -1.10699904 0.14237674 15 1 9780 8.15800000 2339428528 2339428528 1.00000000
2.57357502 -0.35299352 -0.59971952 4 2 9781 2.66600000 2339428530 2339428530 -13.00000000
8.10667419 -1.11335921 0.42884082 10 3 9782 8.19400000 2339428533 2339428533 3.00000000
3.07893014 -0.42285591 -0.60410130 5 4 9782 3.16600000 2339428535 2339428535 -11.00000000
8.09658337 -1.11341321 0.71502572 100 5 9783 8.20400000 2339428537 2339428537 5.00000000
3.83554864 -0.52813303 -0.61322308 4 6 9784 3.92000000 2339428540 2339428540 -9.00000000
8.11177158 -1.11838698 1.00542212 97 7 9785 8.25000000 2339428542 2339428542 7.00000000
5.12258339 -0.70717239 -0.63493925 2 8 9786 5.21000000 2339428544 2339428544 -7.00000000
8.19319820 -1.13107073 1.30998218 7 9 9786 8.37400000 2339428546 2339428546 9.00000000
6.57019329 -0.90818352 -0.58028293 16 10 9787 6.65800000 2339428549 2339428549 -5.00000000
8.09145927 -1.12134337 -0.42810813 17 12 9789 8.18000000 2339428553 2339428553 -3.00000000
8.07122707 -1.12141120 -0.14223711 16 14 9791 8.15000000 2339428558 2339428558 -1.00000000
8.13416481 -1.13015568 2.20047951 47 15 9791 8.50200000 2339428560 2339428560 15.00000000
2.18475771 -0.30665886 -0.59114271 4 0 9799 2.28400000 2339428581 2339428581 -15.00000000
8.07539654 -1.13492298 0.14234182 12 1 9800 8.15600000 2339428583 2339428583 1.00000000
2.56460810 -0.36088863 -0.59791988 5 2 9801 2.65800000 2339428586 2339428586 -13.00000000
8.12053776 -1.14415789 0.42978287 13 3 9802 8.21200000 2339428588 2339428588 3.00000000
3.08132339 -0.43414864 -0.60486454 5 4 9802 3.17000000 2339428590 2339428590 -11.00000000
8.09462070 -1.14194715 0.71520001 79 5 9803 8.20600000 2339428593 2339428593 5.00000000
3.83759356 -0.54207093 -0.61384887 4 6 9804 3.92400000 2339428595 2339428595 -9.00000000
8.09995651 -1.14558363 1.00444710 92 7 9805 8.24200000 2339428597 2339428597 7.00000000
5.12204885 -0.72532761 -0.63518304 4 8 9806 5.21200000 2339428599 2339428599 -7.00000000
8.19682121 -1.16220200 1.31123364 7 9 9807 8.38200000 2339428602 2339428602 9.00000000
6.57881880 -0.93279040 -0.58132881 16 10 9807 6.67000000 2339428604 2339428604 -5.00000000
8.08354092 -1.14901888 -0.42789876 21 12 9809 8.17600000 2339428609 2339428609 -3.00000000
8.08310127 -1.15183496 -0.14251634 18 14 9811 8.16600000 2339428613 2339428613 -1.00000000
8.14144325 -1.16159856 2.20358539 47 15 9812 8.51400000 2339428616 2339428616 15.00000000
2.18372893 -0.31390208 -0.59114271 4 0 9818 2.28400000 2339428636 2339428636 -15.00000000
8.07950592 -1.16283512 0.14248145 12 1 9819 8.16400000 2339428639 2339428639 1.00000000
2.55953979 -0.36883530 -0.59702009 6 2 9820 2.65400000 2339428641 2339428641 -13.00000000
8.10483837 -1.16936898 0.42915484 15 3 9821 8.20000000 2339428643 2339428643 3.00000000
3.08375311 -0.44492501 -0.60562778 5 4 9821 3.17400000 2339428646 2339428646 -11.00000000
8.10656452 -1.17106247 0.71659452 94 5 9822 8.22200000 2339428648 2339428648 5.00000000
3.82404470 -0.55309725 -0.61197162 6 6 9823 3.91200000 2339428650 2339428650 -9.00000000
8.08628941 -1.17101526 1.00322843 90 7 9824 8.23200000 2339428652 2339428652 7.00000000
5.11568642 -0.74173921 -0.63469553 6 8 9825 5.20800000 2339428655 2339428655 -7.00000000
8.20094967 -1.18908107 1.31248522 7 9 9825 8.39000000 2339428657 2339428657 9.00000000
6.59737825 -0.95775002 -0.58324623 4 10 9826 6.69200000 2339428659 2339428659 -5.00000000
8.07573318 -1.17524326 -0.42768943 17 12 9828 8.17200000 2339428664 2339428664 -3.00000000
8.09308815 -1.18065393 -0.14276068 16 14 9830 8.18000000 2339428669 2339428669 -1.00000000
8.14157677 -1.18772757 2.20462060 49 15 9830 8.51800000 2339428671 2339428671 15.00000000
2.19408727 -0.32321206 -0.59424853 4 0 9838 2.29600000 2339428692 2339428692 -15.00000000
8.08331013 -1.19219792 0.14262107 12 1 9839 8.17200000 2339428694 2339428694 1.00000000
2.55438089 -0.37719816 -0.59612030 4 2 9840 2.65000000 2339428696 2339428696 -13.00000000
8.09280396 -1.19648457 0.42873615 15 3 9841 8.19200000 2339428699 2339428699 3.00000000
3.07441258 -0.45453805 -0.60410130 5 4 9841 3.16600000 2339428701 2339428701 -11.00000000
8.11228180 -1.20081115 0.71746606 83 5 9842 8.23200000 2339428703 2339428703 5.00000000
3.82795286 -0.56731105 -0.61291021 6 6 9843 3.91800000 2339428705 2339428705 -9.00000000
8.09000683 -1.20039999 1.00420344 90 7 9844 8.24000000 2339428708 2339428708 7.00000000
5.11895704 -0.76046693 -0.63542676 6 8 9845 5.21400000 2339428710 2339428710 -7.00000000
8.19674873 -1.21770048 1.31248522 10 9 9845 8.39000000 2339428712 2339428712 9.00000000
8.06414509 -1.19943953 -0.71328259 17 10 9846 8.18400000 2339428715 2339428715 -5.00000000
8.08343410 -1.20519280 -0.42831746 17 12 9848 8.18400000 2339428719 2339428719 -3.00000000
8.07507324 -1.20682776 -0.14251634 16 14 9850 8.16600000 2339428724 2339428724 -1.00000000
8.15457726 -1.21870971 2.20927930 51 15 9850 8.53600000 2339428726 2339428726 15.00000000
2.17766380 -0.32856318 -0.59010744 4 0 9858 2.28000000 2339428747 2339428747 -15.00000000
8.09096336 -1.22219872 0.14283049 12 1 9859 8.18400000 2339428749 2339428749 1.00000000
2.56075597 -0.38727793 -0.59791988 6 2 9860 2.65800000 2339428752 2339428752 -13.00000000
8.09845161 -1.22622144 0.42925951 15 3 9861 8.20200000 2339428754 2339428754 3.00000000
3.06504273 -0.46409133 -0.60257483 5 4 9861 3.15800000 2339428756 2339428756 -11.00000000
8.10607147 -1.22882247 0.71729177 79 5 9862 8.23000000 2339428758 2339428758 5.00000000
3.82985520 -0.58126247 -0.61353600 6 6 9863 3.92200000 2339428761 2339428761 -9.00000000
8.10735607 -1.23191237 1.00688446 92 7 9864 8.26200000 2339428763 2339428763 7.00000000
5.11234617 -0.77773368 -0.63493925 6 8 9865 5.21000000 2339428765 2339428765 -7.00000000
8.18637180 -1.24684262 1.31154656 10 9 9866 8.38400000 2339428768 2339428768 9.00000000
8.04809093 -1.22578132 -0.71223670 17 10 9866 8.17200000 2339428770 2339428770 -5.00000000
8.08510113 -1.23430622 -0.42863148 17 12 9868 8.19000000 2339428775 2339428775 -3.00000000
8.07476521 -1.23561263 -0.14258616 18 14 9870 8.17000000 2339428779 2339428779 -1.00000000
8.14645386 -1.24658263 2.20824409 49 15 9870 8.53200000 2339428781 2339428781 15.00000000
2.17268515 -0.33557290 -0.58907217 4 0 9878 2.27600000 2339428802 2339428802 -15.00000000
8.08071899 -1.24951732 0.14272578 12 1 9879 8.17800000 2339428805 2339428805 1.00000000
2.56324029 -0.39681056 -0.59881973 6 2 9880 2.66200000 2339428807 2339428807 -13.00000000
8.10596466 -1.25631833 0.42988753 15 3 9881 8.21400000 2339428809 2339428809 3.00000000
3.07504463 -0.47659162 -0.60486454 5 4 9881 3.17000000 2339428811 2339428811 -11.00000000
8.08991909 -1.25527740 0.71624589 79 5 9882 8.21800000 2339428814 2339428814 5.00000000
3.81413913 -0.59250504 -0.61134589 6 6 9883 3.90800000 2339428816 2339428816 -9.00000000
8.10300636 -1.26020479 1.00688446 97 7 9884 8.26200000 2339428818 2339428818 7.00000000
5.10371590 -0.79465812 -0.63420808 8 8 9885 5.20400000 2339428821 2339428821 -7.00000000
8.17611408 -1.27449799 1.31060791 10 9 9886 8.37800000 2339428823 2339428823 9.00000000
7.99651623 -1.24650216 -0.70805323 17 10 9886 8.12400000 2339428825 2339428825 -5.00000000
8.09061050 -1.26406252 -0.42915484 17 12 9888 8.20000000 2339428830 2339428830 -3.00000000
8.08028126 -1.26533818 -0.14276068 14 14 9890 8.18000000 2339428834 2339428834 -1.00000000
8.13228798 -1.27493644 2.20565581 47 15 9891 8.52200000 2339428837 2339428837 15.00000000
2.17156053 -0.34277594 -0.58907217 4 0 9897 2.27600000 2339428858 2339428858 -15.00000000
8.07455540 -1.27599490 0.14269088 12 1 9898 8.17600000 2339428860 2339428860 1.00000000
2.55228615 -0.40378579 -0.59657019 6 2 9899 2.65200000 2339428862 2339428862 -13.00000000
8.09780788 -1.28256679 0.42967820 15 3 9900 8.21000000 2339428864 2339428864 3.00000000
3.07344723 -0.48678622 -0.60486454 5 4 9900 3.17000000 2339428867 2339428867 -11.00000000
8.09751892 -1.28396976 0.71729177 76 5 9901 8.23000000 2339428869 2339428869 5.00000000
3.79654574 -0.60267234 -0.60884291 6 6 9902 3.89200000 2339428871 2339428871 -9.00000000
8.10270405 -1.28769159 1.00737202 95 7 9903 8.26600000 2339428874 2339428874 7.00000000
5.08929014 -0.80970687 -0.63274562 8 8 9904 5.19200000 2339428876 2339428876 -7.00000000
8.17964649 -1.30284679 1.31185937 10 9 9905 8.38600000 2339428878 2339428878 9.00000000
8.01594925 -1.27677345 -0.71014500 17 10 9905 8.14800000 2339428881 2339428881 -5.00000000
8.09031868 -1.29151464 -0.42936417 17 12 9907 8.20400000 2339428885 2339428885 -3.00000000
8.08788776 -1.29402196 -0.14297011 14 14 9909 8.19200000 2339428890 2339428890 -1.00000000
8.14350319 -1.30292010 2.20979691 47 15 9909 8.53800000 2339428892 2339428892 15.00000000
2.17225790 -0.35066187 -0.58958977 4 0 9917 2.27800000 2339428913 2339428913 -15.00000000
8.07202625 -1.30449164 0.14272578 15 1 9918 8.17800000 2339428915 2339428915 1.00000000
2.54508996 -0.41175878 -0.59522051 7 2 9919 2.64600000 2339428917 2339428917 -13.00000000
8.09525394 -1.31114495 0.42978287 10 3 9920 8.21200000 2339428920 2339428920 3.00000000
3.06203938 -0.49594215 -0.60295641 5 4 9920 3.16000000 2339428922 2339428922 -11.00000000
8.10675430 -1.31445980 0.71851194 83 5 9921 8.24400000 2339428924 2339428924 5.00000000
3.80806804 -0.61813664 -0.61103302 6 6 9922 3.90600000 2339428927 2339428927 -9.00000000
8.09032154 -1.31469381 1.00639701 95 7 9923 8.25800000 2339428929 2339428929 7.00000000
5.07859516 -0.82619190 -0.63177067 8 8 9924 5.18400000 2339428931 2339428931 -7.00000000
8.18674660 -1.33329642 1.31373668 10 9 9925 8.39800000 2339428934 2339428934 9.00000000
8.03110886 -1.30794907 -0.71188813 17 10 9925 8.16800000 2339428936 2339428936 -5.00000000
8.07787609 -1.31846035 -0.42894551 17 12 9927 8.19600000 2339428940 2339428940 -3.00000000
8.08726883 -1.32289171 -0.14303993 14 14 9929 8.19600000 2339428945 2339428945 -1.00000000
8.15034485 -1.33320951 2.21290278 47 15 9929 8.55000000 2339428947 2339428947 15.00000000
2.18061376 -0.35943437 -0.59217799 4 0 9936 2.28800000 2339428968 2339428968 -15.00000000
8.08738613 -1.33450794 0.14307483 12 1 9937 8.19800000 2339428970 2339428970 1.00000000
2.54178786 -0.41987875 -0.59477061 6 2 9938 2.64400000 2339428973 2339428973 -13.00000000
8.09109497 -1.33657050 0.42978287 13 3 9938 8.21200000 2339428975 2339428975 3.00000000
3.05844092 -0.50577319 -0.60257483 5 4 9939 3.15800000 2339428977 2339428977 -11.00000000
8.10824776 -1.34231174 0.71903485 76 5 9940 8.25000000 2339428980 2339428980 5.00000000
3.80599713 -0.63076127 -0.61103302 6 6 9941 3.90600000 2339428982 2339428982 -9.00000000
8.09570980 -1.34313953 1.00761569 90 7 9942 8.26800000 2339428984 2339428984 7.00000000
5.07191086 -0.84237808 -0.63128322 8 8 9943 5.18000000 2339428986 2339428986 -7.00000000
8.19031239 -1.36030376 1.31498814 7 9 9943 8.40600000 2339428989 2339428989 9.00000000
8.01493454 -1.33261335 -0.71084225 17 10 9944 8.15600000 2339428991 2339428991 -5.00000000
8.08528042 -1.34720993 -0.42957354 17 12 9946 8.20800000 2339428996 2339428996 -3.00000000
8.08678246 -1.35036147 -0.14310974 14 14 9948 8.20000000 2339429000 2339429000 -1.00000000
8.14587879 -1.36022961 2.21290278 47 15 9948 8.55000000 2339429003 2339429003 15.00000000
2.16791558 -0.36511889 -0.58907217 4 0 9956 2.27600000 2339429023 2339429023 -15.00000000
8.09253883 -1.36439228 0.14324935 15 1 9957 8.20800000 2339429026 2339429026 1.00000000
2.55375767 -0.43101892 -0.59791988 7 2 9958 2.65800000 2339429028 2339429028 -13.00000000
8.09401894 -1.36754775 0.43020156 15 3 9959 8.22000000 2339429030 2339429030 3.00000000
3.04504204 -0.51448363 -0.60028511 5 4 9959 3.14600000 2339429033 2339429033 -11.00000000
8.10351276 -1.37060666 0.71903485 76 5 9960 8.25000000 2339429035 2339429035 5.00000000
3.81545830 -0.64602143 -0.61291021 6 6 9961 3.91800000 2339429037 2339429037 -9.00000000
8.09880066 -1.37271762 1.00859070 90 7 9962 8.27600000 2339429039 2339429039 7.00000000
5.06893969 -0.86007720 -0.63128322 8 8 9963 5.18000000 2339429042 2339429042 -7.00000000
8.17553425 -1.38865972 1.31342375 7 9 9964 8.39600000 2339429044 2339429044 9.00000000
7.90416431 -1.34256601 -0.70142943 17 10 9964 8.04800000 2339429046 2339429046 -5.00000000
8.08840370 -1.37676513 -0.42999223 17 12 9966 8.21600000 2339429051 2339429051 -3.00000000
8.08596134 -1.37925386 -0.14317954 14 14 9968 8.20400000 2339429056 2339429056 -1.00000000
8.14845562 -1.39137733 2.21497345 47 15 9969 8.55800000 2339429058 2339429058 15.00000000
2.15513992 -0.37109530 -0.58596629 4 0 9977 2.26400000 2339429079 2339429079 -15.00000000
8.07368851 -1.39166605 0.14300501 12 1 9978 8.19400000 2339429081 2339429081 1.00000000
2.55792189 -0.44137007 -0.59926963 6 2 9979 2.66400000 2339429083 2339429083 -13.00000000
8.10887718 -1.39918888 0.43124828 18 3 9979 8.24000000 2339429086 2339429086 3.00000000
3.03926659 -0.52497250 -0.59952188 5 4 9980 3.14200000 2339429088 2339429088 -11.00000000
8.08469200 -1.39792204 0.71781468 83 5 9981 8.23600000 2339429090 2339429090 5.00000000
3.80722547 -0.65899074 -0.61197162 6 6 9982 3.91200000 2339429092 2339429092 -9.00000000
8.09958267 -1.40340865 1.00932193 90 7 9983 8.28200000 2339429095 2339429095 7.00000000
5.06575298 -0.87865001 -0.63128322 8 8 9984 5.18000000 2339429097 2339429097 -7.00000000
8.17622852 -1.41962898 1.31436241 7 9 9985 8.40200000 2339429099 2339429099 9.00000000
7.81674385 -1.35721207 -0.69410831 17 10 9985 7.96400000 2339429102 2339429102 -5.00000000
8.08330345 -1.40640140 -0.42999223 17 12 9987 8.21600000 2339429106 2339429106 -3.00000000
8.06903172 -1.40682042 -0.14297011 14 14 9989 8.19200000 2339429111 2339429111 -1.00000000
8.13593674 -1.41848505 2.21290278 47 15 9989 8.55000000 2339429113 2339429113 15.00000000
2.15763664 -0.37928480 -0.58700162 4 0 9997 2.26800000 2339429134 2339429134 -15.00000000
8.06681252 -1.41949344 0.14297011 12 1 9998 8.19200000 2339429136 2339429136 1.00000000
2.54101205 -0.44759172 -0.59567040 6 2 9999 2.64800000 2339429138 2339429138 -13.00000000
8.10787773 -1.42817867 0.43145761 18 3 9999 8.24400000 2339429141 2339429141 3.00000000
3.05674982 -0.53898746 -0.60333806 5 4 10000 3.16200000 2339429143 2339429143 -11.00000000
8.09545994 -1.42890489 0.71920919 76 5 10001 8.25200000 2339429145 2339429145 5.00000000
3.78350425 -0.66849571 -0.60853004 6 6 10002 3.89000000 2339429148 2339429148 -9.00000000
8.10636330 -1.43374729 1.01078439 90 7 10003 8.29400000 2339429150 2339429150 7.00000000
5.07047415 -0.89771175 -0.63225818 8 8 10004 5.18800000 2339429152 2339429152 -7.00000000
8.19845390 -1.45298672 1.31874251 7 9 10005 8.43000000 2339429155 2339429155 9.00000000
7.78841686 -1.38031709 -0.69201660 17 10 10005 7.94000000 2339429157 2339429157 -5.00000000
8.08227825 -1.43530726 -0.43020156 17 12 10007 8.22000000 2339429162 2339429162 -3.00000000
8.07391644 -1.43672967 -0.14314464 22 14 10009 8.20200000 2339429166 2339429166 -1.00000000
8.13854313 -1.44822991 2.21497345 47 15 10009 8.55800000 2339429168 2339429168 15.00000000
2.16010261 -0.38749626 -0.58803689 4 0 10017 2.27200000 2339429189 2339429189 -15.00000000
8.07952213 -1.45082414 0.14328426 15 1 10018 8.21000000 2339429191 2339429191 1.00000000
2.52984428 -0.45473501 -0.59342086 7 2 10019 2.63800000 2339429194 2339429194 -13.00000000
8.10062313 -1.45753217 0.43135294 18 3 10020 8.24200000 2339429196 2339429196 3.00000000
3.04905319 -0.54861122 -0.60219318 5 4 10020 3.15600000 2339429198 2339429198 -11.00000000
8.09434414 -1.45786095 0.71955782 76 5 10021 8.25600000 2339429201 2339429201 5.00000000
3.79670000 -0.68450242 -0.61103302 6 6 10022 3.90600000 2339429203 2339429203 -9.00000000
8.09349442 -1.46062493 1.00980937 92 7 10023 8.28600000 2339429205 2339429205 7.00000000
5.05168200 -0.91258240 -0.63030827 8 8 10024 5.17200000 2339429208 2339429208 -7.00000000
8.18192673 -1.47805882 1.31686532 7 9 10024 8.41800000 2339429210 2339429210 9.00000000
7.77570868 -1.40607727 -0.69131935 12 10 10025 7.93200000 2339429212 2339429212 -5.00000000
8.07132339 -1.46244264 -0.42988753 17 12 10027 8.21400000 2339429217 2339429217 -3.00000000
8.07672215 -1.46633303 -0.14328426 16 14 10029 8.21000000 2339429221 2339429221 -1.00000000
8.13698196 -1.47874022 2.21600866 47 15 10030 8.56200000 2339429224 2339429224 15.00000000
2.17393923 -0.39781600 -0.59217799 4 0 10037 2.28800000 2339429244 2339429244 -15.00000000
8.08030987 -1.48009896 0.14338897 18 1 10038 8.21600000 2339429247 2339429247 1.00000000
2.53207517 -0.46426594 -0.59432071 7 2 10039 2.64200000 2339429249 2339429249 -13.00000000
8.08592319 -1.48258579 0.43082958 15 3 10039 8.23200000 2339429251 2339429251 3.00000000
3.04711962 -0.55925107 -0.60219318 5 4 10040 3.15600000 2339429254 2339429254 -11.00000000
8.10096359 -1.48826671 0.72060370 76 5 10041 8.26800000 2339429256 2339429256 5.00000000
3.78263068 -0.69560760 -0.60915583 4 6 10042 3.89400000 2339429258 2339429258 -9.00000000
8.08834648 -1.48886752 1.00980937 90 7 10043 8.28600000 2339429261 2339429261 7.00000000
5.04065657 -0.92877167 -0.62933332 8 8 10044 5.16400000 2339429263 2339429263 -7.00000000
8.17451191 -1.50767887 1.31655240 7 9 10045 8.41600000 2339429265 2339429265 9.00000000
7.77859068 -1.43465638 -0.69201660 12 10 10045 7.94000000 2339429268 2339429268 -5.00000000
8.07402515 -1.49205971 -0.43030623 17 12 10047 8.22200000 2339429272 2339429272 -3.00000000
8.08138561 -1.49633741 -0.14345878 14 14 10049 8.22000000 2339429277 2339429277 -1.00000000
8.14696693 -1.50995100 2.22014976 49 15 10050 8.57800000 2339429279 2339429279 15.00000000
2.16318274 -0.40287513 -0.58958977 4 0 10055 2.27800000 2339429300 2339429300 -15.00000000
8.08938026 -1.50804198 0.14363331 18 1 10056 8.23000000 2339429302 2339429302 1.00000000
2.53443527 -0.47293332 -0.59522051 7 2 10057 2.64600000 2339429304 2339429304 -13.00000000
8.09693241 -1.51091206 0.43166697 18 3 10057 8.24800000 2339429307 2339429307 3.00000000
3.03376842 -0.56665832 -0.59990346 4 4 10058 3.14400000 2339429309 2339429309 -11.00000000
8.09428978 -1.51334310 0.72042936 76 5 10059 8.26600000 2339429311 2339429311 5.00000000
3.79596019 -0.71039462 -0.61165875 4 6 10060 3.91000000 2339429314 2339429314 -9.00000000
8.10118961 -1.51756001 1.01200306 87 7 10061 8.30400000 2339429316 2339429316 7.00000000
5.03771400 -0.94460273 -0.62933332 8 8 10062 5.16400000 2339429318 2339429318 -7.00000000
8.17388630 -1.53265452 1.31717825 5 9 10062 8.42000000 2339429321 2339429321 9.00000000
7.76229620 -1.45688128 -0.69097072 17 10 10063 7.92800000 2339429323 2339429323 -5.00000000
8.08107471 -1.51963234 -0.43093425 17 12 10065 8.23400000 2339429327 2339429327 -3.00000000
8.07271481 -1.52097797 -0.14338897 14 14 10067 8.21600000 2339429332 2339429332 -1.00000000
8.14218330 -1.53553796 2.22014976 47 15 10068 8.57800000 2339429334 2339429334 15.00000000
2.15606952 -0.40934256 -0.58803689 4 0 10075 2.27200000 2339429355 2339429355 -15.00000000
8.08210278 -1.53589666 0.14359841 18 1 10076 8.22800000 2339429357 2339429357 1.00000000
2.54234123 -0.48359805 -0.59746999 6 2 10077 2.65600000 2339429360 2339429360 -13.00000000
8.09357071 -1.53953969 0.43177164 15 3 10077 8.25000000 2339429362 2339429362 3.00000000
3.03370047 -0.57761186 -0.60028511 5 4 10078 3.14600000 2339429364 2339429364 -11.00000000
8.09091568 -1.54196119 0.72060370 76 5 10079 8.26800000 2339429367 2339429367 5.00000000
3.78181481 -0.72141975 -0.60978156 4 6 10080 3.89800000 2339429369 2339429369 -9.00000000
8.11534214 -1.54955220 1.01444042 87 7 10081 8.32400000 2339429371 2339429371 7.00000000
5.03828573 -0.96292716 -0.62982076 8 8 10082 5.16800000 2339429374 2339429374 -7.00000000
8.18012810 -1.56340230 1.31905544 7 9 10082 8.43200000 2339429376 2339429376 9.00000000
7.69649935 -1.47236276 -0.68556708 17 10 10083 7.86600000 2339429378 2339429378 -5.00000000
8.07179832 -1.54707932 -0.43072492 17 12 10085 8.23000000 2339429383 2339429383 -3.00000000
8.06735611 -1.54914773 -0.14338897 14 14 10087 8.21600000 2339429387 2339429387 -1.00000000
8.13677311 -1.56395018 2.22014976 47 15 10088 8.57800000 2339429390 2339429390 15.00000000
2.15462732 -0.41686615 -0.58803689 4 0 10095 2.27200000 2339429410 2339429410 -15.00000000
8.06491280 -1.56181800 0.14338897 15 1 10096 8.21600000 2339429413 2339429413 1.00000000
2.53298497 -0.49098617 -0.59567040 6 2 10097 2.64800000 2339429415 2339429415 -13.00000000
8.10383415 -1.57082272 0.43260902 15 3 10097 8.26600000 2339429417 2339429417 3.00000000
3.03552032 -0.58894581 -0.60104835 5 4 10098 3.15000000 2339429420 2339429420 -11.00000000
8.08939552 -1.57095397 0.72095233 76 5 10099 8.27200000 2339429422 2339429422 5.00000000
3.76763916 -0.73235488 -0.60790431 4 6 10100 3.88600000 2339429424 2339429424 -9.00000000
8.10403824 -1.57673335 1.01370919 90 7 10101 8.31800000 2339429426 2339429426 7.00000000
5.03879070 -0.98126709 -0.63030827 8 8 10102 5.17200000 2339429429 2339429429 -7.00000000
8.18043709 -1.59307957 1.31999397 7 9 10102 8.43800000 2339429431 2339429431 9.00000000
7.72846889 -1.50646210 -0.68887901 17 10 10103 7.90400000 2339429433 2339429433 -5.00000000
8.07614994 -1.57715976 -0.43124828 12 12 10105 8.24000000 2339429438 2339429438 -3.00000000
8.07563686 -1.57998633 -0.14363331 12 14 10107 8.23000000 2339429443 2339429443 -1.00000000
8.13533401 -1.59166598 2.22118497 47 15 10107 8.58200000 2339429445 2339429445 15.00000000
2.15695000 -0.42513183 -0.58907217 4 0 10115 2.27600000 2339429466 2339429466 -15.00000000
8.07118320 -1.59228241 0.14359841 15 1 10116 8.22800000 2339429468 2339429468 1.00000000
2.52743220 -0.49906993 -0.59477061 6 2 10117 2.64400000 2339429470 2339429470 -13.00000000
8.09046364 -1.59755313 0.43219033 15 3 10117 8.25800000 2339429473 2339429473 3.00000000
3.03922415 -0.60068017 -0.60219318 4 4 10118 3.15600000 2339429475 2339429475 -11.00000000
8.09363461 -1.60111487 0.72182387 72 5 10119 8.28200000 2339429477 2339429477 5.00000000
3.76505971 -0.74550194 -0.60790431 4 6 10120 3.88600000 2339429479 2339429479 -9.00000000
8.08874893 -1.60308254 1.01249051 87 7 10121 8.30800000 2339429482 2339429482 7.00000000
5.02754593 -0.99730480 -0.62933332 8 8 10122 5.16400000 2339429484 2339429484 -7.00000000
8.18645287 -1.62393105 1.32187128 7 9 10122 8.45000000 2339429486 2339429486 9.00000000
7.75443125 -1.53963852 -0.69166797 12 10 10123 7.93600000 2339429489 2339429489 -5.00000000
8.07059479 -1.60534120 -0.43124828 12 12 10125 8.24000000 2339429493 2339429493 -3.00000000
8.07987785 -1.61011994 -0.14380783 10 14 10127 8.24000000 2339429498 2339429498 -1.00000000
8.14081287 -1.62373996 2.22429085 47 15 10128 8.59400000 2339429500 2339429500 15.00000000
2.16105914 -0.43417615 -0.59062505 4 0 10136 2.28200000 2339429521 2339429521 -15.00000000
8.07901669 -1.62461376 0.14384273 12 1 10137 8.24200000 2339429523 2339429523 1.00000000
2.52176499 -0.50756103 -0.59387076 6 2 10138 2.64000000 2339429526 2339429526 -13.00000000
8.08231163 -1.62821198 0.43208566 13 3 10139 8.25600000 2339429528 2339429528 3.00000000
3.02160525 -0.60871369 -0.59914023 4 4 10139 3.14000000 2339429530 2339429530 -11.00000000
8.09552479 -1.63234401 0.72252113 72 5 10140 8.29000000 2339429532 2339429532 5.00000000
3.77004743 -0.76085967 -0.60915583 4 6 10141 3.89400000 2339429535 2339429535 -9.00000000
8.09449387 -1.63507676 1.01395297 90 7 10142 8.32000000 2339429537 2339429537 7.00000000
5.01607418 -1.01415145 -0.62835836 8 8 10143 5.15600000 2339429539 2339429539 -7.00000000
8.18044567 -1.65392506 1.32187128 7 9 10143 8.45000000 2339429542 2339429542 9.00000000
7.70968008 -1.56014621 -0.68818176 12 10 10144 7.89600000 2339429544 2339429544 -5.00000000
8.06661415 -1.63530743 -0.43135294 17 12 10146 8.24200000 2339429549 2339429549 -3.00000000
8.07784176 -1.64051938 -0.14387764 14 14 10148 8.24400000 2339429553 2339429553 -1.00000000
8.15024090 -1.65522277 2.22843194 47 15 10148 8.61000000 2339429556 2339429556 15.00000000
2.14817452 -0.43939424 -0.58751923 4 0 10156 2.27000000 2339429576 2339429576 -15.00000000
8.08113194 -1.65440917 0.14398235 12 1 10157 8.25000000 2339429579 2339429579 1.00000000
2.52952337 -0.51831645 -0.59612030 5 2 10158 2.65000000 2339429581 2339429581 -13.00000000
8.08049202 -1.65721714 0.43229499 10 3 10159 8.26000000 2339429583 2339429583 3.00000000
3.00792265 -0.61689079 -0.59685051 4 4 10159 3.12800000 2339429585 2339429585 -11.00000000
8.09368038 -1.66139400 0.72286975 72 5 10160 8.29400000 2339429588 2339429588 5.00000000
3.76930356 -0.77441251 -0.60946870 6 6 10161 3.89600000 2339429590 2339429590 -9.00000000
8.09845829 -1.66532099 1.01517165 90 7 10162 8.33000000 2339429592 2339429592 7.00000000
5.01250362 -1.03165460 -0.62835836 8 8 10163 5.15600000 2339429595 2339429595 -7.00000000
8.16852474 -1.68270111 1.32093263 7 9 10164 8.44400000 2339429597 2339429597 9.00000000
7.70808983 -1.58785248 -0.68853039 12 10 10164 7.90000000 2339429599 2339429599 -5.00000000
8.06672478 -1.66466618 -0.43166697 12 12 10166 8.24800000 2339429604 2339429604 -3.00000000
8.07010841 -1.66830146 -0.14384273 14 14 10168 8.24200000 2339429609 2339429609 -1.00000000
8.13466072 -1.68312669 2.22584391 47 15 10169 8.60000000 2339429611 2339429611 15.00000000
2.13717127 -0.44492140 -0.58493102 4 0 10176 2.26000000 2339429632 2339429632 -15.00000000
8.07530785 -1.68260753 0.14398235 15 1 10177 8.25000000 2339429634 2339429634 1.00000000
2.52006793 -0.52555162 -0.59432071 5 2 10178 2.64200000 2339429636 2339429636 -13.00000000
8.08638859 -1.68786180 0.43292302 13 3 10179 8.27200000 2339429638 2339429638 3.00000000
