# .PCD v0.7 - Point Cloud Data file format
VERSION 0.7
FIELDS x y z intensity laser_id azimuth distance_m adjustedtime timestamp vertical_angle
SIZE 4 4 4 1 1 2 8 8 4 8
TYPE F F F U U U F U U F
COUNT 1 1 1 1 1 1 1 1 1 1
WIDTH 520
HEIGHT 1
VIEWPOINT 0 0 0 1 0 0 0
POINTS 520
DATA ascii
-1.84629774 -1.79043710 -0.49991956 3 4 22588 2.62000000 2339664096 2339664096 -11.00000000
-4.82379866 -4.67621851 0.58777833 13 5 22589 6.74400000 2339664099 2339664099 5.00000000
-2.20871329 -2.14039230 -0.48713693 2 6 22590 3.11400000 2339664101 2339664101 -9.00000000
-4.84055042 -4.68918180 0.82749283 10 7 22591 6.79000000 2339664103 2339664103 7.00000000
-4.88414955 -4.72976542 -0.83480501 2 8 22592 6.85000000 2339664106 2339664106 -7.00000000
-4.83328342 -4.68050718 1.06563163 10 9 22592 6.81200000 2339664108 2339664108 9.00000000
-3.63031697 -3.51433802 -0.44205391 3 10 22593 5.07200000 2339664110 2339664110 -5.00000000
-4.83769512 -4.68150806 1.30856812 12 11 22594 6.85800000 2339664113 2339664113 11.00000000
-4.85772085 -4.69924545 -0.35420975 10 12 22595 6.76800000 2339664115 2339664115 -3.00000000
-4.82736683 -4.66825104 1.55036271 11 13 22596 6.89200000 2339664117 2339664117 13.00000000
-4.85234880 -4.69077110 -0.11780374 12 14 22597 6.75000000 2339664119 2339664119 -1.00000000
-4.81492996 -4.65297318 1.79413366 9 15 22598 6.93200000 2339664122 2339664122 15.00000000
-1.37552929 -1.32601535 -0.51194406 6 0 22605 1.97800000 2339664142 2339664142 -15.00000000
-4.85539103 -4.67898035 0.11769903 11 1 22606 6.74400000 2339664145 2339664145 1.00000000
-1.59432960 -1.53586638 -0.51108879 4 2 22607 2.27200000 2339664147 2339664147 -13.00000000
-4.86899042 -4.69044685 0.35431442 7 3 22607 6.77000000 2339664149 2339664149 3.00000000
-1.84970796 -1.78125775 -0.49915633 3 4 22608 2.61600000 2339664152 2339664152 -11.00000000
-4.85301065 -4.67178822 0.58934712 10 5 22609 6.76200000 2339664154 2339664154 5.00000000
-2.21332455 -2.12992978 -0.48651120 2 6 22610 3.11000000 2339664156 2339664156 -9.00000000
-4.86690331 -4.68189001 0.82919902 10 7 22611 6.80400000 2339664159 2339664159 7.00000000
-2.75150704 -2.64598513 -0.46870950 1 8 22612 3.84600000 2339664161 2339664161 -7.00000000
-4.87034273 -4.68192625 1.07001173 10 9 22613 6.84000000 2339664163 2339664163 9.00000000
-3.64687133 -3.50578666 -0.44257686 3 10 22613 5.07800000 2339664166 2339664166 -5.00000000
-4.86533165 -4.67547560 1.31162107 12 11 22614 6.87400000 2339664168 2339664168 11.00000000
-4.88849783 -4.69609690 -0.35525647 10 12 22615 6.78800000 2339664170 2339664170 -3.00000000
-4.86049938 -4.66756964 1.55576146 12 13 22616 6.91600000 2339664172 2339664172 13.00000000
-4.88456154 -4.68903780 -0.11818770 8 14 22617 6.77200000 2339664175 2339664175 -1.00000000
-4.85762596 -4.66155195 1.80396879 9 15 22618 6.97000000 2339664177 2339664177 15.00000000
-1.38317156 -1.32363617 -0.51297933 6 0 22626 1.98200000 2339664198 2339664198 -15.00000000
-4.88984776 -4.67774105 0.11811788 11 1 22627 6.76800000 2339664200 2339664200 1.00000000
-1.58868086 -1.51923776 -0.50748956 4 2 22628 2.25600000 2339664202 2339664202 -13.00000000
-4.89769697 -4.68361282 0.35515180 7 3 22628 6.78600000 2339664205 2339664205 3.00000000
-1.86190069 -1.77989280 -0.50068283 3 4 22629 2.62400000 2339664207 2339664207 -11.00000000
-4.89170742 -4.67461729 0.59196180 10 5 22630 6.79200000 2339664209 2339664209 5.00000000
-2.22682977 -2.12726140 -0.48776266 2 6 22631 3.11800000 2339664212 2339664212 -9.00000000
-4.89264441 -4.67224646 0.83066142 10 7 22632 6.81600000 2339664214 2339664214 7.00000000
-2.76405835 -2.63862395 -0.46919698 1 8 22633 3.85000000 2339664216 2339664216 -7.00000000
-4.90237331 -4.67990112 1.07345331 10 9 22633 6.86200000 2339664219 2339664219 9.00000000
-3.65825462 -3.49102116 -0.44240254 3 10 22634 5.07600000 2339664221 2339664221 -5.00000000
-4.89237928 -4.66709805 1.31429231 12 11 22635 6.88800000 2339664223 2339664223 11.00000000
-4.91724014 -4.68917513 -0.35609385 10 12 22636 6.80400000 2339664225 2339664225 -3.00000000
-4.89167976 -4.66316986 1.56026053 11 13 22637 6.93600000 2339664228 2339664228 13.00000000
-4.92342949 -4.69179678 -0.11871127 6 14 22638 6.80200000 2339664230 2339664230 -1.00000000
-4.89286280 -4.66103888 1.81069803 9 15 22639 6.99600000 2339664232 2339664232 15.00000000
-1.39478540 -1.32545376 -0.51556754 5 0 22646 1.99200000 2339664253 2339664253 -15.00000000
-4.93224287 -4.68543434 0.11874618 11 1 22647 6.80400000 2339664255 2339664255 1.00000000
-1.59680057 -1.51636684 -0.50838935 4 2 22648 2.26000000 2339664258 2339664258 -13.00000000
-4.92849874 -4.68024158 0.35619852 10 3 22648 6.80600000 2339664260 2339664260 3.00000000
-1.86240697 -1.76797605 -0.49915633 3 4 22649 2.61600000 2339664262 2339664262 -11.00000000
-4.92389250 -4.67259932 0.59387922 10 5 22650 6.81400000 2339664265 2339664265 5.00000000
-2.24284053 -2.12763238 -0.48963988 2 6 22651 3.13000000 2339664267 2339664267 -9.00000000
-4.93197060 -4.67699432 0.83456129 10 7 22652 6.84800000 2339664269 2339664269 7.00000000
-2.75164223 -2.60847402 -0.46554089 1 8 22653 3.82000000 2339664272 2339664272 -7.00000000
-4.92728090 -4.67091417 1.07533050 10 9 22653 6.87400000 2339664274 2339664274 9.00000000
-3.67620301 -3.48371196 -0.44309980 3 10 22654 5.08400000 2339664276 2339664276 -5.00000000
-4.92431879 -4.66484356 1.31849015 12 11 22655 6.91000000 2339664278 2339664278 11.00000000
-4.95388126 -4.69120836 -0.35755926 10 12 22656 6.83200000 2339664281 2339664281 -3.00000000
-4.92066431 -4.65812349 1.56430960 11 13 22657 6.95400000 2339664283 2339664283 13.00000000
-4.95865870 -4.69245005 -0.11916503 6 14 22658 6.82800000 2339664285 2339664285 -1.00000000
-4.93296099 -4.66650009 1.81949794 9 15 22659 7.03000000 2339664288 2339664288 15.00000000
-1.39214909 -1.31419063 -0.51297933 5 0 22665 1.98200000 2339664308 2339664308 -15.00000000
-4.97102308 -4.69101191 0.11930465 14 1 22666 6.83600000 2339664311 2339664311 1.00000000
-1.60040271 -1.50972605 -0.50793946 4 2 22667 2.25800000 2339664313 2339664313 -13.00000000
-4.96723700 -4.68580055 0.35787326 12 3 22667 6.83800000 2339664315 2339664315 3.00000000
-1.86254621 -1.75640261 -0.49762985 3 4 22668 2.60800000 2339664318 2339664318 -11.00000000
-4.96835566 -4.68357897 0.59736544 10 5 22669 6.85400000 2339664320 2339664320 5.00000000
-2.24413323 -2.11476421 -0.48838839 2 6 22670 3.12200000 2339664322 2339664322 -9.00000000
-4.96768188 -4.67966986 0.83797359 10 7 22671 6.87600000 2339664324 2339664324 7.00000000
-2.77617383 -2.61430502 -0.46822202 1 8 22672 3.84200000 2339664327 2339664327 -7.00000000
-4.96000051 -4.67080021 1.07908499 10 9 22672 6.89800000 2339664329 2339664329 9.00000000
-3.67612958 -3.46057677 -0.44170532 3 10 22673 5.06800000 2339664331 2339664331 -5.00000000
-4.95691776 -4.66463375 1.32306957 12 11 22674 6.93400000 2339664334 2339664334 11.00000000
-4.98395824 -4.68843985 -0.35860598 10 12 22675 6.85200000 2339664336 2339664336 -3.00000000
-4.95879841 -4.66314030 1.57150805 11 13 22676 6.98600000 2339664338 2339664338 13.00000000
-4.98876190 -4.68967724 -0.11951408 6 14 22677 6.84800000 2339664341 2339664341 -1.00000000
-4.95744944 -4.66024208 1.82312131 9 15 22677 7.04400000 2339664343 2339664343 15.00000000
-1.39813745 -1.31064427 -0.51349699 5 0 22685 1.98400000 2339664364 2339664364 -15.00000000
-4.99320412 -4.67910051 0.11944427 11 1 22686 6.84400000 2339664366 2339664366 1.00000000
-1.62272918 -1.52011764 -0.51333833 4 2 22687 2.28200000 2339664368 2339664368 -13.00000000
-5.00397015 -4.68754911 0.35933867 10 3 22687 6.86600000 2339664371 2339664371 3.00000000
-1.88013005 -1.76062596 -0.50068283 3 4 22688 2.62400000 2339664373 2339664373 -11.00000000
-4.99340153 -4.67437744 0.59841132 10 5 22689 6.86600000 2339664375 2339664375 5.00000000
-2.26015544 -2.11501598 -0.49026561 2 6 22690 3.13400000 2339664377 2339664377 -9.00000000
-5.00573206 -4.68264246 0.84162968 10 7 22691 6.90600000 2339664380 2339664380 7.00000000
-2.78818250 -2.60731006 -0.46870950 1 8 22692 3.84600000 2339664382 2339664382 -7.00000000
-4.99214554 -4.66829967 1.08252645 10 9 22692 6.92000000 2339664384 2339664384 9.00000000
-5.03450584 -4.70626545 -0.60294342 4 10 22693 6.91800000 2339664387 2339664387 -5.00000000
-4.99612141 -4.66874933 1.32917547 12 11 22694 6.96600000 2339664389 2339664389 11.00000000
-5.01780748 -4.68737459 -0.35986203 10 12 22695 6.87600000 2339664391 2339664391 -3.00000000
-4.99356127 -4.66309309 1.57735682 11 13 22696 7.01200000 2339664394 2339664394 13.00000000
-5.02556658 -4.69133854 -0.12000275 6 14 22697 6.87600000 2339664396 2339664396 -1.00000000
-4.98720884 -4.65390301 1.82778013 9 15 22698 7.06200000 2339664398 2339664398 15.00000000
-1.40576029 -1.30814314 -0.51453227 5 0 22706 1.98800000 2339664419 2339664419 -15.00000000
-5.02642584 -4.67575026 0.11982822 8 1 22707 6.86600000 2339664421 2339664421 1.00000000
-1.61830032 -1.50487053 -0.51018900 4 2 22708 2.26800000 2339664424 2339664424 -13.00000000
-5.03948593 -4.68461847 0.36059475 10 3 22709 6.89000000 2339664426 2339664426 3.00000000
-1.88369453 -1.75104976 -0.49991956 3 4 22709 2.62000000 2339664428 2339664428 -11.00000000
-5.02801418 -4.67231941 0.60050309 10 5 22710 6.89000000 2339664430 2339664430 5.00000000
-2.24039388 -2.08117390 -0.48432112 2 6 22711 3.09600000 2339664433 2339664433 -9.00000000
-5.02722502 -4.66831684 0.84236091 10 7 22712 6.91200000 2339664435 2339664435 7.00000000
-2.79481030 -2.59437227 -0.46822202 1 8 22713 3.84200000 2339664437 2339664437 -7.00000000
-5.02804279 -4.66744184 1.08659375 10 9 22713 6.94600000 2339664440 2339664440 9.00000000
-3.69787765 -3.43147230 -0.44135669 3 10 22714 5.06400000 2339664442 2339664442 -5.00000000
-5.01463890 -4.65174150 1.32955706 12 11 22715 6.96800000 2339664444 2339664444 11.00000000
-5.05838585 -4.69068050 -0.36153677 10 12 22716 6.90800000 2339664447 2339664447 -3.00000000
-5.03205585 -4.66463137 1.58410537 10 13 22717 7.04200000 2339664449 2339664449 13.00000000
-5.05592823 -4.68512011 -0.12031689 8 14 22718 6.89400000 2339664451 2339664451 -1.00000000
-5.01901054 -4.65090990 1.83347416 9 15 22718 7.08400000 2339664454 2339664454 15.00000000
-1.40889919 -1.30191708 -0.51401460 5 0 22726 1.98600000 2339664474 2339664474 -15.00000000
-5.06621885 -4.67988634 0.12038670 8 1 22727 6.89800000 2339664477 2339664477 1.00000000
-1.61495328 -1.49128008 -0.50748956 4 2 22728 2.25600000 2339664479 2339664479 -13.00000000
-5.07048321 -4.68054628 0.36164147 10 3 22729 6.91000000 2339664481 2339664481 3.00000000
-1.88402498 -1.73913717 -0.49839309 3 4 22729 2.61200000 2339664483 2339664483 -11.00000000
-5.06772089 -4.67635822 0.60329205 10 5 22730 6.92200000 2339664486 2339664486 5.00000000
-2.25490475 -2.08003759 -0.48588544 2 6 22731 3.10600000 2339664488 2339664488 -9.00000000
-5.06975794 -4.67496252 0.84674817 10 7 22732 6.94800000 2339664490 2339664490 7.00000000
-2.80093026 -2.58190989 -0.46773455 1 8 22733 3.83800000 2339664493 2339664493 -7.00000000
-5.07416964 -4.67575407 1.09285116 10 9 22734 6.98600000 2339664495 2339664495 9.00000000
-3.71129823 -3.41989350 -0.44153100 6 10 22734 5.06600000 2339664497 2339664497 -5.00000000
-5.05394983 -4.65549135 1.33566296 12 11 22735 7.00000000 2339664500 2339664500 11.00000000
-5.08795166 -4.68517160 -0.36247882 10 12 22736 6.92600000 2339664502 2339664502 -3.00000000
-5.05547667 -4.65363693 1.58635485 9 13 22737 7.05200000 2339664504 2339664504 13.00000000
-5.09873867 -4.69181633 -0.12094518 12 14 22738 6.93000000 2339664507 2339664507 -1.00000000
-5.05308485 -4.64817762 1.83968580 9 15 22739 7.10800000 2339664509 2339664509 15.00000000
-1.41747832 -1.30115700 -0.51556754 5 0 22745 1.99200000 2339664530 2339664530 -15.00000000
-5.10823107 -4.68739653 0.12101499 8 1 22746 6.93400000 2339664532 2339664532 1.00000000
-1.62850606 -1.49382031 -0.51018900 4 2 22747 2.26800000 2339664534 2339664534 -13.00000000
-5.10216951 -4.67855453 0.36279285 12 3 22748 6.93200000 2339664536 2339664536 3.00000000
-1.89556980 -1.73818743 -0.49991956 3 4 22748 2.62000000 2339664539 2339664539 -11.00000000
-5.09788752 -4.67299032 0.60503519 13 5 22749 6.94200000 2339664541 2339664541 5.00000000
-2.26761556 -2.07788682 -0.48713693 2 6 22750 3.11400000 2339664543 2339664543 -9.00000000
-5.10865355 -4.67957878 0.85064805 10 7 22751 6.98000000 2339664546 2339664546 7.00000000
-2.79630041 -2.56054211 -0.46554089 1 8 22752 3.82000000 2339664548 2339664548 -7.00000000
-5.10194540 -4.67179632 1.09566700 10 9 22752 7.00400000 2339664550 2339664550 9.00000000
-3.72996688 -3.41429377 -0.44240254 6 10 22753 5.07600000 2339664553 2339664553 -5.00000000
-5.10412121 -4.67051411 1.34482181 12 11 22754 7.04800000 2339664555 2339664555 11.00000000
-5.12261868 -4.68579769 -0.36383957 10 12 22755 6.95200000 2339664557 2339664557 -3.00000000
-5.08670044 -4.65131235 1.59130371 9 13 22756 7.07400000 2339664560 2339664560 13.00000000
-5.12607670 -4.68567562 -0.12122442 12 14 22757 6.94600000 2339664562 2339664562 -1.00000000
-5.08477354 -4.64792061 1.84589744 9 15 22757 7.13200000 2339664564 2339664564 15.00000000
-1.42343926 -1.29750252 -0.51608515 6 0 22765 1.99400000 2339664585 2339664585 -15.00000000
-5.15116787 -4.69377995 0.12164328 8 1 22766 6.97000000 2339664587 2339664587 1.00000000
-1.62794793 -1.48287749 -0.50838935 4 2 22767 2.26000000 2339664589 2339664589 -13.00000000
-5.13176060 -4.67281818 0.36373490 7 3 22768 6.95000000 2339664592 2339664592 3.00000000
-1.89291596 -1.72362924 -0.49762985 3 4 22768 2.60800000 2339664594 2339664594 -11.00000000
-5.13479567 -4.67394304 0.60747552 13 5 22769 6.97000000 2339664596 2339664596 5.00000000
-2.27777696 -2.07261753 -0.48776266 2 6 22770 3.11800000 2339664599 2339664599 -9.00000000
-5.14257908 -4.67774630 0.85357291 10 7 22771 7.00400000 2339664601 2339664601 7.00000000
-2.82431436 -2.56812692 -0.46870950 1 8 22772 3.84600000 2339664603 2339664603 -7.00000000
-5.12488127 -4.65838003 1.09691846 10 9 22773 7.01200000 2339664606 2339664606 9.00000000
-3.72711897 -3.38785172 -0.44065943 9 10 22773 5.05600000 2339664608 2339664608 -5.00000000
-5.13347054 -4.66455173 1.34825635 12 11 22774 7.06600000 2339664610 2339664610 11.00000000
-5.16851234 -4.69474602 -0.36593300 10 12 22775 6.99200000 2339664612 2339664612 -3.00000000
-5.12021828 -4.64924812 1.59670258 9 13 22776 7.09800000 2339664615 2339664615 13.00000000
-5.15720844 -4.68119383 -0.12157346 12 14 22777 6.96600000 2339664617 2339664617 -1.00000000
-5.11322021 -4.63963795 1.85003853 9 15 22778 7.14800000 2339664619 2339664619 15.00000000
-1.41793394 -1.28345096 -0.51246172 5 0 22785 1.98000000 2339664640 2339664640 -15.00000000
-5.17345190 -4.68113708 0.12178289 8 1 22786 6.97800000 2339664642 2339664642 1.00000000
-1.63455951 -1.47849309 -0.50883931 4 2 22787 2.26200000 2339664645 2339664645 -13.00000000
-5.17026234 -4.67496967 0.36530498 7 3 22788 6.98000000 2339664647 2339664647 3.00000000
-1.90474594 -1.72227812 -0.49915633 3 4 22788 2.61600000 2339664649 2339664649 -11.00000000
-5.16881657 -4.67202282 0.60956728 13 5 22789 6.99400000 2339664652 2339664652 5.00000000
-2.29379201 -2.07260013 -0.48963988 2 6 22790 3.13000000 2339664654 2339664654 -9.00000000
-5.17213392 -4.67174244 0.85576653 10 7 22791 7.02200000 2339664656 2339664656 7.00000000
-5.22599030 -4.71873188 -0.86454111 2 8 22792 7.09400000 2339664659 2339664659 -7.00000000
-5.16082668 -4.65989351 1.10129869 10 9 22792 7.04000000 2339664661 2339664661 9.00000000
-3.73300600 -3.36948109 -0.43996218 6 10 22793 5.04800000 2339664663 2339664663 -5.00000000
-5.16429758 -4.65975618 1.35207260 12 11 22794 7.08600000 2339664665 2339664665 11.00000000
-5.20266533 -4.69272852 -0.36718908 11 12 22795 7.01600000 2339664668 2339664668 -3.00000000
-5.15957260 -4.65222645 1.60390103 10 13 22796 7.13000000 2339664670 2339664670 13.00000000
-5.19431257 -4.68190718 -0.12206213 14 14 22797 6.99400000 2339664672 2339664672 -1.00000000
-5.15153694 -4.64335108 1.85832071 9 15 22797 7.18000000 2339664675 2339664675 15.00000000
-1.42527890 -1.28107643 -0.51349699 5 0 22805 1.98400000 2339664695 2339664695 -15.00000000
-5.20166063 -4.67374229 0.12206213 20 1 22806 6.99400000 2339664698 2339664698 1.00000000
-1.64550960 -1.47798717 -0.51063889 4 2 22807 2.27000000 2339664700 2339664700 -13.00000000
-5.20289660 -4.67157125 0.36645636 7 3 22808 7.00200000 2339664702 2339664702 3.00000000
-1.91951108 -1.72348857 -0.50144607 3 4 22808 2.62800000 2339664705 2339664705 -11.00000000
-5.20436907 -4.67125320 0.61183333 13 5 22809 7.02000000 2339664707 2339664707 5.00000000
-2.28042865 -2.04611158 -0.48525971 2 6 22810 3.10200000 2339664709 2339664709 -9.00000000
-5.20466518 -4.66823959 0.85844767 7 7 22811 7.04400000 2339664712 2339664712 7.00000000
-2.83478451 -2.54172111 -0.46749079 1 8 22812 3.83600000 2339664714 2339664714 -7.00000000
-3.73584318 -3.34845114 -0.43891633 9 10 22813 5.03600000 2339664718 2339664718 -5.00000000
-5.23389196 -4.68786478 -0.36823580 11 12 22815 7.03600000 2339664723 2339664723 -3.00000000
-7.69616079 -6.89083576 2.38493109 8 13 22816 10.60200000 2339664725 2339664725 13.00000000
-5.23297405 -4.68375158 -0.12258571 8 14 22817 7.02400000 2339664728 2339664728 -1.00000000
-7.82188749 -6.99848890 2.81232786 30 15 22818 10.86600000 2339664730 2339664730 15.00000000
-1.43550706 -1.28123903 -0.51556754 5 0 22825 1.99200000 2339664751 2339664751 -15.00000000
-5.23435640 -4.67020082 0.12244608 12 1 22826 7.01600000 2339664753 2339664753 1.00000000
-1.64047837 -1.46315444 -0.50748956 4 2 22827 2.25600000 2339664755 2339664755 -13.00000000
-5.23855162 -4.67066050 0.36781710 2 3 22828 7.02800000 2339664758 2339664758 3.00000000
-1.92258477 -1.71416473 -0.50068283 3 4 22828 2.62400000 2339664760 2339664760 -11.00000000
-2.29050684 -2.04076695 -0.48588544 2 6 22830 3.10600000 2339664765 2339664765 -9.00000000
-2.86736107 -2.55293059 -0.47139063 1 8 22832 3.86800000 2339664769 2339664769 -7.00000000
-3.75643826 -3.34333801 -0.43996218 9 10 22833 5.04800000 2339664774 2339664774 -5.00000000
-5.41886377 -4.81955528 -0.38006371 7 12 22835 7.26200000 2339664778 2339664778 -3.00000000
-7.72890520 -6.87169838 2.38763046 11 13 22836 10.61400000 2339664781 2339664781 13.00000000
-7.84360838 -6.97122860 2.81181002 40 15 22837 10.86400000 2339664785 2339664785 15.00000000
-1.44286215 -1.27878308 -0.51660281 5 0 22845 1.99600000 2339664806 2339664806 -15.00000000
-1.64265811 -1.45483518 -0.50658977 4 2 22847 2.25200000 2339664811 2339664811 -13.00000000
-1.92267680 -1.70223761 -0.49915633 3 4 22848 2.61600000 2339664815 2339664815 -11.00000000
-2.31241107 -2.04584861 -0.48901415 2 6 22850 3.12600000 2339664820 2339664820 -9.00000000
-2.84502363 -2.51529455 -0.46627212 1 8 22852 3.82600000 2339664824 2339664824 -7.00000000
-3.77107167 -3.33284402 -0.44031081 9 10 22853 5.05200000 2339664829 2339664829 -5.00000000
-5.52846861 -4.88258171 -0.38655338 7 12 22855 7.38600000 2339664834 2339664834 -3.00000000
-7.77329731 -6.86273384 2.39392900 14 13 22856 10.64200000 2339664836 2339664836 13.00000000
-7.87055492 -6.94371176 2.81232786 40 15 22858 10.86600000 2339664841 2339664841 15.00000000
-1.43861592 -1.26608098 -0.51349699 4 0 22865 1.98400000 2339664861 2339664861 -15.00000000
-1.65650642 -1.45681393 -0.50928921 4 2 22867 2.26400000 2339664866 2339664866 -13.00000000
-1.92860699 -1.69551587 -0.49915633 3 4 22868 2.61600000 2339664871 2339664871 -11.00000000
-2.30618215 -2.02603054 -0.48619831 2 6 22870 3.10800000 2339664875 2339664875 -9.00000000
-2.86422896 -2.51451564 -0.46797827 1 8 22872 3.84000000 2339664880 2339664880 -7.00000000
-3.78567743 -3.32228851 -0.44065943 9 10 22873 5.05600000 2339664884 2339664884 -5.00000000
-5.54848194 -4.86588812 -0.38676271 7 12 22875 7.39000000 2339664889 2339664889 -3.00000000
-7.82358170 -6.85868168 2.40202737 12 13 22876 10.67800000 2339664891 2339664891 13.00000000
-7.89353800 -6.91757393 2.81232786 40 15 22877 10.86600000 2339664896 2339664896 15.00000000
-1.43720794 -1.25596666 -0.51142645 4 0 22885 1.97600000 2339664917 2339664917 -15.00000000
-1.66745293 -1.45615005 -0.51108879 4 2 22887 2.27200000 2339664921 2339664921 -13.00000000
-1.93155575 -1.68619120 -0.49839309 3 4 22888 2.61200000 2339664926 2339664926 -11.00000000
-2.30282021 -2.00887799 -0.48400822 2 6 22890 3.09400000 2339664930 2339664930 -9.00000000
-2.87298870 -2.50450230 -0.46797827 1 8 22892 3.84000000 2339664935 2339664935 -7.00000000
-3.78823900 -3.30120015 -0.43961358 9 10 22893 5.04400000 2339664940 2339664940 -5.00000000
-5.58200121 -4.86091852 -0.38791412 3 12 22895 7.41200000 2339664944 2339664944 -3.00000000
-7.87687206 -6.85692072 2.41102529 11 13 22896 10.71800000 2339664947 2339664947 13.00000000
-7.91180754 -6.88490534 2.81025720 42 15 22897 10.85800000 2339664951 2339664951 15.00000000
-1.43990612 -1.24992752 -0.51090878 4 0 22904 1.97400000 2339664972 2339664972 -15.00000000
-1.66491210 -1.44422781 -0.50883931 4 2 22906 2.26200000 2339664977 2339664977 -13.00000000
-1.94010329 -1.68234909 -0.49915633 3 4 22907 2.61600000 2339664981 2339664981 -11.00000000
-2.32141209 -2.01157951 -0.48651120 2 6 22909 3.11000000 2339664986 2339664986 -9.00000000
-2.89778543 -2.50925541 -0.47065940 1 8 22911 3.86200000 2339664990 2339664990 -7.00000000
-3.79615235 -3.28601170 -0.43926495 9 10 22912 5.04000000 2339664995 2339664995 -5.00000000
-5.58147383 -4.82800817 -0.38676271 3 12 22914 7.39000000 2339665000 2339665000 -3.00000000
-7.93347120 -6.86007929 2.42137313 11 13 22915 10.76400000 2339665002 2339665002 13.00000000
-7.93605661 -6.85989428 2.81077480 40 15 22916 10.86000000 2339665006 2339665006 15.00000000
-1.46035647 -1.25876784 -0.51660281 5 0 22924 1.99600000 2339665027 2339665027 -15.00000000
-1.66403723 -1.43332028 -0.50703967 4 2 22926 2.25400000 2339665032 2339665032 -13.00000000
-1.94893944 -1.67812860 -0.49991956 3 4 22927 2.62000000 2339665036 2339665036 -11.00000000
-2.31943560 -1.99573374 -0.48463398 2 6 22929 3.09800000 2339665041 2339665041 -9.00000000
-2.89298010 -2.48747706 -0.46846575 1 8 22931 3.84400000 2339665046 2339665046 -7.00000000
-3.81666541 -3.28053284 -0.44031081 9 10 22932 5.05200000 2339665050 2339665050 -5.00000000
-5.58768702 -4.79938650 -0.38603002 3 12 22934 7.37600000 2339665055 2339665055 -3.00000000
-7.99433184 -6.86408138 2.43262076 10 13 22935 10.81400000 2339665057 2339665057 13.00000000
-7.96407843 -6.83327723 2.81181002 38 15 22937 10.86400000 2339665062 2339665062 15.00000000
-1.46180618 -1.25115025 -0.51556754 5 0 22944 1.99200000 2339665083 2339665083 -15.00000000
-1.67051125 -1.42876959 -0.50748956 4 2 22946 2.25600000 2339665087 2339665087 -13.00000000
-1.95478535 -1.67131531 -0.49991956 3 4 22947 2.62000000 2339665092 2339665092 -11.00000000
-2.33239532 -1.99275780 -0.48588544 2 6 22949 3.10600000 2339665096 2339665096 -9.00000000
-2.88805795 -2.46576309 -0.46627212 1 8 22951 3.82600000 2339665101 2339665101 -7.00000000
-3.81596947 -3.25684285 -0.43891633 6 10 22952 5.03600000 2339665106 2339665106 -5.00000000
-5.62720060 -4.79929304 -0.38760009 7 12 22954 7.40600000 2339665110 2339665110 -3.00000000
-8.04197025 -6.85636330 2.43981910 9 13 22955 10.84600000 2339665112 2339665112 13.00000000
-7.98669434 -6.80682993 2.81181002 38 15 22956 10.86400000 2339665117 2339665117 15.00000000
-1.46469247 -1.24478889 -0.51504987 5 0 22964 1.99000000 2339665138 2339665138 -15.00000000
-1.68737137 -1.43302143 -0.51108879 4 2 22966 2.27200000 2339665142 2339665142 -13.00000000
-1.95761406 -1.66194046 -0.49915633 3 4 22967 2.61600000 2339665147 2339665147 -11.00000000
-2.35138774 -1.99482751 -0.48838839 2 6 22969 3.12200000 2339665152 2339665152 -9.00000000
-2.90573263 -2.46336889 -0.46773455 1 8 22971 3.83800000 2339665156 2339665156 -7.00000000
-3.83643460 -3.25123143 -0.43996218 6 10 22972 5.04800000 2339665161 2339665161 -5.00000000
-5.63477421 -4.77187681 -0.38697207 3 12 22974 7.39400000 2339665165 2339665165 -3.00000000
-8.10452557 -6.86098719 2.45151663 15 13 22975 10.89800000 2339665168 2339665168 13.00000000
-8.01188087 -6.78015757 2.81232786 40 15 22976 10.86600000 2339665172 2339665172 15.00000000
-1.46776843 -1.23816657 -0.51453227 8 0 22985 1.98800000 2339665193 2339665193 -15.00000000
-1.68516243 -1.42054713 -0.50883931 4 2 22987 2.26200000 2339665198 2339665198 -13.00000000
-1.96369231 -1.65475428 -0.49915633 3 4 22988 2.61600000 2339665202 2339665202 -11.00000000
-2.34961724 -1.97856152 -0.48651120 2 6 22990 3.11000000 2339665207 2339665207 -9.00000000
-2.92081738 -2.45781469 -0.46870950 1 8 22992 3.84600000 2339665211 2339665211 -7.00000000
-3.83917713 -3.22945309 -0.43891633 9 10 22993 5.03600000 2339665216 2339665216 -5.00000000
-5.65528393 -4.75376272 -0.38718140 3 12 22995 7.39800000 2339665221 2339665221 -3.00000000
-8.17288399 -6.86759281 2.46456385 14 13 22996 10.95600000 2339665223 2339665223 13.00000000
-8.02336407 -6.73956394 2.80766892 40 15 22997 10.84800000 2339665228 2339665228 15.00000000
-1.47208154 -1.23303556 -0.51453227 9 0 23005 1.98800000 2339665248 2339665248 -15.00000000
-1.69758248 -1.42091024 -0.51108879 4 2 23007 2.27200000 2339665253 2339665253 -13.00000000
-1.97547925 -1.65292907 -0.50068283 3 4 23008 2.62400000 2339665258 2339665258 -11.00000000
-2.35954022 -1.97288191 -0.48713693 2 6 23010 3.11400000 2339665262 2339665262 -9.00000000
-2.94156575 -2.45778656 -0.47065940 1 8 23012 3.86200000 2339665267 2339665267 -7.00000000
-3.85348487 -3.21858668 -0.43926495 9 10 23013 5.04000000 2339665271 2339665271 -5.00000000
-5.63964272 -4.70711708 -0.38498330 3 12 23015 7.35600000 2339665276 2339665276 -3.00000000
-8.24319267 -6.87772417 2.47851062 3 13 23016 11.01800000 2339665278 2339665278 13.00000000
-8.05691528 -6.71753454 2.81077480 38 15 23018 10.86000000 2339665283 2339665283 15.00000000
-1.48253298 -1.23257196 -0.51660281 9 0 23026 1.99600000 2339665304 2339665304 -15.00000000
-1.69378543 -1.40720677 -0.50838935 4 2 23028 2.26000000 2339665308 2339665308 -13.00000000
-1.98152423 -1.64567745 -0.50068283 3 4 23029 2.62400000 2339665313 2339665313 -11.00000000
-2.37131572 -1.96800518 -0.48807552 1 6 23031 3.12000000 2339665317 2339665317 -9.00000000
-2.94749832 -2.44445419 -0.47017193 1 8 23033 3.85800000 2339665322 2339665322 -7.00000000
-3.86218810 -3.20189810 -0.43891633 9 10 23034 5.03600000 2339665327 2339665327 -5.00000000
-5.66608572 -4.69406033 -0.38561133 3 12 23036 7.36800000 2339665331 2339665331 -3.00000000
-8.08031464 -6.68936968 2.81077480 40 15 23038 10.86000000 2339665338 2339665338 15.00000000
-1.48980594 -1.22984910 -0.51763809 7 0 23046 2.00000000 2339665359 2339665359 -15.00000000
-1.70620358 -1.40748620 -0.51063889 4 2 23048 2.27000000 2339665363 2339665363 -13.00000000
-1.98271263 -1.63500345 -0.49953794 4 4 23049 2.61800000 2339665368 2339665368 -11.00000000
-2.36902404 -1.95217836 -0.48619831 2 6 23051 3.10800000 2339665373 2339665373 -9.00000000
-2.95448065 -2.43288875 -0.46992818 1 8 23053 3.85600000 2339665377 2339665377 -7.00000000
-3.89180040 -3.20359206 -0.44100806 9 10 23054 5.06000000 2339665382 2339665382 -5.00000000
-5.66701174 -4.66156530 -0.38456461 3 12 23056 7.34800000 2339665387 2339665387 -3.00000000
-8.10361576 -6.66112328 2.81077480 40 15 23058 10.86000000 2339665393 2339665393 15.00000000
-1.48341894 -1.21632767 -0.51401460 7 0 23065 1.98600000 2339665414 2339665414 -15.00000000
-1.70935416 -1.40058541 -0.51018900 4 2 23067 2.26800000 2339665419 2339665419 -13.00000000
-1.98660481 -1.62717557 -0.49915633 3 4 23068 2.61600000 2339665423 2339665423 -11.00000000
-2.38312769 -1.95056748 -0.48776266 2 6 23070 3.11800000 2339665428 2339665428 -9.00000000
-2.95792246 -2.41930771 -0.46919698 1 8 23072 3.85000000 2339665433 2339665433 -7.00000000
-3.89006281 -3.18057966 -0.43961358 6 10 23073 5.04400000 2339665437 2339665437 -5.00000000
-5.68862534 -4.64780188 -0.38498330 3 12 23075 7.35600000 2339665442 2339665442 -3.00000000
-8.12681770 -6.63279581 2.81077480 40 15 23078 10.86000000 2339665449 2339665449 15.00000000
-1.48316133 -1.20748317 -0.51246172 6 0 23085 1.98000000 2339665469 2339665469 -15.00000000
-1.71725607 -1.39706981 -0.51108879 4 2 23087 2.27200000 2339665474 2339665474 -13.00000000
-1.98922634 -1.61775362 -0.49839309 3 4 23088 2.61200000 2339665479 2339665479 -11.00000000
-2.37765813 -1.93227041 -0.48525971 2 6 23090 3.10200000 2339665483 2339665483 -9.00000000
-2.96326733 -2.40646505 -0.46870950 1 8 23092 3.84600000 2339665488 2339665488 -7.00000000
-3.90114141 -3.16698146 -0.43961358 6 10 23093 5.04400000 2339665493 2339665493 -5.00000000
-5.71722317 -4.63798285 -0.38582066 3 12 23095 7.37200000 2339665497 2339665497 -3.00000000
-8.14391708 -6.59952259 2.80870438 38 15 23098 10.85200000 2339665504 2339665504 15.00000000
-1.48436236 -1.19986975 -0.51142645 5 0 23105 1.97600000 2339665525 2339665525 -15.00000000
-1.71302652 -1.38371968 -0.50838935 4 2 23107 2.26000000 2339665529 2339665529 -13.00000000
-2.00097108 -1.61573362 -0.49991956 3 4 23108 2.62000000 2339665534 2339665534 -11.00000000
-2.38285112 -1.92271852 -0.48494685 2 6 23110 3.10000000 2339665539 2339665539 -9.00000000
-2.98401189 -2.40607476 -0.47065940 1 8 23112 3.86200000 2339665543 2339665543 -7.00000000
-3.90286517 -3.14584255 -0.43856770 9 10 23113 5.03200000 2339665548 2339665548 -5.00000000
-5.71626806 -4.60421658 -0.38466927 3 12 23115 7.35000000 2339665552 2339665552 -3.00000000
-8.17292500 -6.57589865 2.81077480 38 15 23118 10.86000000 2339665559 2339665559 15.00000000
-1.49908805 -1.20314538 -0.51504987 5 0 23125 1.99000000 2339665580 2339665580 -15.00000000
-1.71632600 -1.37651253 -0.50793946 4 2 23127 2.25800000 2339665585 2339665585 -13.00000000
-2.00659871 -1.60873914 -0.49991956 3 4 23128 2.62000000 2339665589 2339665589 -11.00000000
-2.40650630 -1.92797518 -0.48838839 2 6 23130 3.12200000 2339665594 2339665594 -9.00000000
-2.97379661 -2.38075662 -0.46773455 1 8 23132 3.83800000 2339665599 2339665599 -7.00000000
-3.92004466 -3.13717961 -0.43926495 6 10 23133 5.04000000 2339665603 2339665603 -5.00000000
-5.72138643 -4.57550287 -0.38393658 3 12 23135 7.33600000 2339665608 2339665608 -3.00000000
-8.19733906 -6.54853582 2.81129241 40 15 23138 10.86200000 2339665615 2339665615 15.00000000
-1.50306952 -1.19816756 -0.51504987 4 0 23144 1.99000000 2339665635 2339665635 -15.00000000
-1.72697818 -1.37567008 -0.50973910 4 2 23146 2.26600000 2339665640 2339665640 -13.00000000
-2.00885081 -1.59963024 -0.49915633 3 4 23147 2.61600000 2339665645 2339665645 -11.00000000
-2.40361214 -1.91260445 -0.48651120 2 6 23149 3.11000000 2339665649 2339665649 -9.00000000
-2.98012137 -2.36964655 -0.46749079 1 8 23151 3.83600000 2339665654 2339665654 -7.00000000
-3.93354583 -3.12664247 -0.43961358 6 10 23152 5.04400000 2339665658 2339665658 -5.00000000
-5.74903917 -4.56644297 -0.38477394 7 12 23154 7.35200000 2339665663 2339665663 -3.00000000
-8.21635818 -6.52154970 2.81077480 26 15 23156 10.86000000 2339665670 2339665670 15.00000000
-1.50724280 -1.19291353 -0.51504987 4 0 23164 1.99000000 2339665691 2339665691 -15.00000000
-1.73482668 -1.37205112 -0.51063889 4 2 23166 2.27000000 2339665695 2339665695 -13.00000000
-2.01134229 -1.59017313 -0.49839309 3 4 23167 2.61200000 2339665700 2339665700 -11.00000000
-2.41337371 -1.90665174 -0.48713693 2 6 23169 3.11400000 2339665704 2339665704 -9.00000000
-2.98370075 -2.35553932 -0.46675959 1 8 23171 3.83000000 2339665709 2339665709 -7.00000000
-3.95069194 -3.11783004 -0.44031081 6 10 23172 5.05200000 2339665714 2339665714 -5.00000000
-5.76494408 -4.54634714 -0.38477394 7 12 23174 7.35200000 2339665718 2339665718 -3.00000000
-8.24172306 -6.49258661 2.81129241 38 15 23177 10.86200000 2339665725 2339665725 15.00000000
-1.50684071 -1.18406427 -0.51349699 5 0 23184 1.98400000 2339665746 2339665746 -15.00000000
-1.73807275 -1.36478364 -0.51018900 4 2 23186 2.26800000 2339665751 2339665751 -13.00000000
-2.01379204 -1.58071816 -0.49762985 3 4 23187 2.60800000 2339665755 2339665755 -11.00000000
-2.42934012 -1.90553081 -0.48901415 2 6 23189 3.12600000 2339665760 2339665760 -9.00000000
-3.02158952 -2.36837745 -0.47139063 1 8 23191 3.86800000 2339665764 2339665764 -7.00000000
-3.93488979 -3.08313036 -0.43734753 6 10 23192 5.01800000 2339665769 2339665769 -5.00000000
-5.79335928 -4.53604650 -0.38561133 7 12 23194 7.36800000 2339665774 2339665774 -3.00000000
-8.26168633 -6.46403027 2.81077480 38 15 23196 10.86000000 2339665781 2339665781 15.00000000
-1.51096463 -1.17879713 -0.51349699 5 0 23204 1.98400000 2339665801 2339665801 -15.00000000
-1.74436307 -1.35990644 -0.51063889 4 2 23206 2.27000000 2339665806 2339665806 -13.00000000
-2.02858877 -1.58091986 -0.49991956 3 4 23207 2.62000000 2339665810 2339665810 -11.00000000
-2.42350864 -1.88732946 -0.48651120 2 6 23209 3.11000000 2339665815 2339665815 -9.00000000
-3.02043867 -2.35050082 -0.46992818 1 8 23211 3.85600000 2339665820 2339665820 -7.00000000
-3.96292663 -3.08283305 -0.43926495 3 10 23212 5.04000000 2339665824 2339665824 -5.00000000
-5.79181242 -4.50231266 -0.38445994 3 12 23214 7.34600000 2339665829 2339665829 -3.00000000
-8.28227043 -6.43133640 2.80973959 38 15 23217 10.85600000 2339665836 2339665836 15.00000000
-1.52443993 -1.18034756 -0.51660281 5 0 23225 1.99600000 2339665857 2339665857 -15.00000000
-1.73700547 -1.34396374 -0.50703967 4 2 23227 2.25400000 2339665861 2339665861 -13.00000000
-2.03126359 -1.57107186 -0.49915633 3 4 23228 2.61600000 2339665866 2339665866 -11.00000000
-2.43040991 -1.87843418 -0.48651120 2 6 23230 3.11000000 2339665870 2339665870 -9.00000000
-3.01803589 -2.33092093 -0.46822202 1 8 23232 3.84200000 2339665875 2339665875 -7.00000000
-3.98839259 -3.07924557 -0.44083375 3 10 23233 5.05800000 2339665880 2339665880 -5.00000000
-5.80669403 -4.47983408 -0.38435528 7 12 23235 7.34400000 2339665884 2339665884 -3.00000000
-8.30160999 -6.40002775 2.80870438 38 15 23237 10.85200000 2339665891 2339665891 15.00000000
-1.52548766 -1.17266428 -0.51556754 5 0 23245 1.99200000 2339665912 2339665912 -15.00000000
-1.74168622 -1.33789229 -0.50703967 4 2 23247 2.25400000 2339665916 2339665916 -13.00000000
-2.03984952 -1.56636322 -0.49991956 3 4 23248 2.62000000 2339665921 2339665921 -11.00000000
-2.43538475 -1.86873651 -0.48619831 1 6 23250 3.10800000 2339665926 2339665926 -9.00000000
-3.02300334 -2.31795597 -0.46773455 1 8 23252 3.83800000 2339665930 2339665930 -7.00000000
-4.01651144 -3.07863760 -0.44275117 3 10 23253 5.08000000 2339665935 2339665935 -5.00000000
-5.82863855 -4.46439552 -0.38477394 3 12 23255 7.35200000 2339665939 2339665939 -3.00000000
-8.21760941 -6.29193211 2.38943005 9 13 23256 10.62200000 2339665942 2339665942 13.00000000
-8.33728600 -6.37894917 2.81284547 40 15 23258 10.86800000 2339665946 2339665946 15.00000000
-1.52189314 -1.16147208 -0.51297933 5 0 23265 1.98200000 2339665967 2339665967 -15.00000000
-1.74944484 -1.33416796 -0.50793946 4 2 23267 2.25800000 2339665972 2339665972 -13.00000000
-2.04218221 -1.55685282 -0.49915633 3 4 23268 2.61600000 2339665976 2339665976 -11.00000000
-2.44660711 -1.86381519 -0.48713693 2 6 23270 3.11400000 2339665981 2339665981 -9.00000000
-3.00580382 -2.28815126 -0.46383473 1 8 23272 3.80600000 2339665986 2339665986 -7.00000000
-4.00345039 -3.04650044 -0.44013649 3 10 23273 5.05000000 2339665990 2339665990 -5.00000000
-5.86008453 -4.45611191 -0.38582066 3 12 23275 7.37200000 2339665995 2339665995 -3.00000000
-8.26744747 -6.28443623 2.39752841 13 13 23276 10.65800000 2339665997 2339665997 13.00000000
-8.35839367 -6.35126638 2.81284547 38 15 23277 10.86800000 2339666002 2339666002 15.00000000
-1.52747798 -1.15731931 -0.51349699 4 0 23285 1.98400000 2339666022 2339666022 -15.00000000
-1.76030600 -1.33275843 -0.50973910 4 2 23287 2.26600000 2339666027 2339666027 -13.00000000
-2.04760432 -1.54971480 -0.49915633 3 4 23288 2.61600000 2339666032 2339666032 -11.00000000
-2.46097589 -1.86122143 -0.48870125 2 6 23290 3.12400000 2339666036 2339666036 -9.00000000
-3.03119349 -2.29081059 -0.46651584 1 8 23292 3.82800000 2339666041 2339666041 -7.00000000
-4.01406002 -3.03250718 -0.44013649 3 10 23293 5.05000000 2339666045 2339666045 -5.00000000
-5.86285162 -4.42600250 -0.38498330 3 12 23295 7.35600000 2339666050 2339666050 -3.00000000
-8.31888866 -6.27784252 2.40607643 16 13 23296 10.69600000 2339666052 2339666052 13.00000000
-8.38778591 -6.32524157 2.81491590 21 15 23298 10.87600000 2339666057 2339666057 15.00000000
-1.53768384 -1.15662539 -0.51556754 5 0 23305 1.99200000 2339666078 2339666078 -15.00000000
-1.76027417 -1.32309306 -0.50838935 4 2 23307 2.26000000 2339666082 2339666082 -13.00000000
-2.05927944 -1.54727519 -0.50068283 3 4 23308 2.62400000 2339666087 2339666087 -11.00000000
-2.46271873 -1.84906149 -0.48776266 2 6 23310 3.11800000 2339666092 2339666092 -9.00000000
-3.07251644 -2.30523396 -0.47163436 1 8 23312 3.87000000 2339666096 2339666096 -7.00000000
-4.01983929 -3.01489091 -0.43961358 6 10 23313 5.04400000 2339666101 2339666101 -5.00000000
-5.89424753 -4.41748810 -0.38603002 3 12 23315 7.37600000 2339666105 2339666105 -3.00000000
-8.37506294 -6.27447128 2.41597438 14 13 23316 10.74000000 2339666108 2339666108 13.00000000
-1.53242445 -1.14431560 -0.51246172 4 0 23325 1.98000000 2339666133 2339666133 -15.00000000
-1.76019633 -1.31344414 -0.50703967 4 2 23327 2.25400000 2339666138 2339666138 -13.00000000
-2.06152058 -1.53772986 -0.49991956 3 4 23328 2.62000000 2339666142 2339666142 -11.00000000
-2.47232580 -1.84281480 -0.48838839 2 6 23330 3.12200000 2339666147 2339666147 -9.00000000
-3.05666423 -2.27670813 -0.46797827 1 8 23332 3.84000000 2339666151 2339666151 -7.00000000
-4.03033876 -3.00084066 -0.43961358 6 10 23333 5.04400000 2339666156 2339666156 -5.00000000
-5.89040279 -4.38257980 -0.38477394 3 12 23335 7.35200000 2339666161 2339666161 -3.00000000
-8.43913269 -6.27659893 2.42812157 12 13 23336 10.79400000 2339666163 2339666163 13.00000000
-7.43630409 -5.52671528 2.48259234 2 15 23338 9.59200000 2339666168 2339666168 15.00000000
-1.54572105 -1.14586222 -0.51556754 4 0 23345 1.99200000 2339666188 2339666188 -15.00000000
-1.76790226 -1.30961192 -0.50793946 4 2 23347 2.25800000 2339666193 2339666193 -13.00000000
-2.05740905 -1.52351439 -0.49762985 3 4 23348 2.60800000 2339666198 2339666198 -11.00000000
-2.47715545 -1.83299851 -0.48807552 2 6 23350 3.12000000 2339666202 2339666202 -9.00000000
-3.05661225 -2.26012325 -0.46675959 1 8 23352 3.83000000 2339666207 2339666207 -7.00000000
-4.05360699 -2.99622798 -0.44100806 6 10 23353 5.06000000 2339666211 2339666211 -5.00000000
-5.90245199 -4.35961866 -0.38456461 3 12 23355 7.34800000 2339666216 2339666216 -3.00000000
-8.50175190 -6.27719831 2.43981910 12 13 23356 10.84600000 2339666218 2339666218 13.00000000
-7.53075266 -5.55823851 2.50795650 2 15 23357 9.69000000 2339666223 2339666223 15.00000000
-1.54815555 -1.13931465 -0.51504987 6 0 23365 1.99000000 2339666244 2339666244 -15.00000000
-1.77874255 -1.30805075 -0.50973910 4 2 23367 2.26600000 2339666248 2339666248 -13.00000000
-2.06587839 -1.51864910 -0.49839309 3 4 23368 2.61200000 2339666253 2339666253 -11.00000000
-2.47876263 -1.82083213 -0.48713693 2 6 23370 3.11400000 2339666257 2339666257 -9.00000000
-3.06928372 -2.25296378 -0.46749079 1 8 23372 3.83600000 2339666262 2339666262 -7.00000000
-4.06082821 -2.97970271 -0.44065943 6 10 23373 5.05600000 2339666267 2339666267 -5.00000000
-5.91763401 -4.33898878 -0.38456461 3 12 23375 7.34800000 2339666271 2339666271 -3.00000000
-8.46173191 -6.19985819 2.81077480 38 15 23377 10.86000000 2339666278 2339666278 15.00000000
-1.54276359 -1.12706602 -0.51194406 4 0 23385 1.97800000 2339666299 2339666299 -15.00000000
-1.78644562 -1.30413187 -0.51063889 4 2 23387 2.27000000 2339666304 2339666304 -13.00000000
-2.07433867 -1.51374316 -0.49915633 3 4 23388 2.61600000 2339666308 2339666308 -11.00000000
-2.47552681 -1.80518520 -0.48525971 2 6 23390 3.10200000 2339666313 2339666313 -9.00000000
-3.08033800 -2.24457455 -0.46797827 1 8 23392 3.84000000 2339666317 2339666317 -7.00000000
-4.05510044 -2.95377898 -0.43891633 9 10 23393 5.03600000 2339666322 2339666322 -5.00000000
-5.95535088 -4.33476114 -0.38603002 3 12 23395 7.37600000 2339666327 2339666327 -3.00000000
-8.46926117 -6.16005611 2.80611610 38 15 23397 10.84200000 2339666333 2339666333 15.00000000
-1.54199672 -1.11827147 -0.51039118 4 0 23405 1.97200000 2339666354 2339666354 -15.00000000
-1.79414296 -1.30017507 -0.51153868 4 2 23407 2.27400000 2339666359 2339666359 -13.00000000
-2.08278966 -1.50879657 -0.49991956 3 4 23408 2.62000000 2339666363 2339666363 -11.00000000
-2.48661351 -1.80000794 -0.48619831 1 6 23410 3.10800000 2339666368 2339666368 -9.00000000
-3.10262990 -2.24427938 -0.47017193 1 8 23412 3.85800000 2339666373 2339666373 -7.00000000
-4.06861544 -2.94194078 -0.43926495 9 10 23413 5.04000000 2339666377 2339666377 -5.00000000
-5.96397018 -4.30926752 -0.38561133 3 12 23415 7.36800000 2339666382 2339666382 -3.00000000
-8.50118065 -6.13575697 2.80922198 35 15 23418 10.85400000 2339666389 2339666389 15.00000000
-1.55686569 -1.12078285 -0.51401460 4 0 23425 1.98600000 2339666410 2339666410 -15.00000000
-1.78601491 -1.28480041 -0.50793946 4 2 23427 2.25800000 2339666414 2339666414 -13.00000000
-2.08804369 -1.50151718 -0.49991956 3 4 23428 2.62000000 2339666419 2339666419 -11.00000000
-2.51213145 -1.80514967 -0.48995274 1 6 23430 3.13200000 2339666423 2339666423 -9.00000000
-3.10399508 -2.22880435 -0.46919698 1 8 23432 3.85000000 2339666428 2339666428 -7.00000000
-4.08371544 -2.93120623 -0.43978786 9 10 23433 5.04600000 2339666433 2339666433 -5.00000000
-5.96599245 -4.27911091 -0.38477394 3 12 23435 7.35200000 2339666437 2339666437 -3.00000000
-7.54795647 -5.40978575 2.48828626 6 15 23437 9.61400000 2339666444 2339666444 15.00000000
-1.56705546 -1.11983442 -0.51608515 4 0 23445 1.99400000 2339666465 2339666465 -15.00000000
-1.79524648 -1.28195572 -0.50928921 4 2 23447 2.26400000 2339666469 2339666469 -13.00000000
-2.09327221 -1.49421930 -0.49991956 3 4 23448 2.62000000 2339666474 2339666474 -11.00000000
-2.50876832 -1.78948700 -0.48807552 1 6 23450 3.12000000 2339666479 2339666479 -9.00000000
-3.09882426 -2.20873833 -0.46724707 1 8 23452 3.83400000 2339666483 2339666483 -7.00000000
-4.08743191 -2.91230893 -0.43909064 9 10 23453 5.03800000 2339666488 2339666488 -5.00000000
-5.97763872 -4.25594282 -0.38456461 3 12 23455 7.34800000 2339666492 2339666492 -3.00000000
-8.79894352 -6.26233339 2.49335742 7 13 23456 11.08400000 2339666495 2339666495 13.00000000
-7.59512806 -5.40356398 2.49760389 40 15 23457 9.65000000 2339666499 2339666499 15.00000000
-1.56484592 -1.10961366 -0.51401460 4 0 23466 1.98600000 2339666520 2339666520 -15.00000000
-1.79516292 -1.27198720 -0.50793946 4 2 23468 2.25800000 2339666525 2339666525 -13.00000000
-2.09232640 -1.48199809 -0.49839309 3 4 23469 2.61200000 2339666529 2339666529 -11.00000000
-2.51531029 -1.78027987 -0.48807552 2 6 23471 3.12000000 2339666534 2339666534 -9.00000000
-3.10203671 -2.19392681 -0.46651584 1 8 23473 3.82800000 2339666538 2339666538 -7.00000000
-4.09970570 -2.89845848 -0.43926495 9 10 23474 5.04000000 2339666543 2339666543 -5.00000000
-5.99645996 -4.23631001 -0.38477394 3 12 23476 7.35200000 2339666548 2339666548 -3.00000000
-7.59752178 -5.36343479 2.49190974 40 15 23478 9.62800000 2339666555 2339666555 15.00000000
-1.56870961 -1.10414445 -0.51401460 4 0 23486 1.98600000 2339666575 2339666575 -15.00000000
-1.80915594 -1.27243972 -0.51063889 4 2 23488 2.27000000 2339666580 2339666580 -13.00000000
-2.10391092 -1.47920203 -0.49991956 3 4 23489 2.62000000 2339666585 2339666585 -11.00000000
-2.52312565 -1.77262461 -0.48838839 2 6 23491 3.12200000 2339666589 2339666589 -9.00000000
-3.14379478 -2.20703769 -0.47163436 1 8 23493 3.87000000 2339666594 2339666594 -7.00000000
-4.10653639 -2.88184118 -0.43891633 9 10 23494 5.03600000 2339666598 2339666598 -5.00000000
-6.00794029 -4.21305895 -0.38456461 3 12 23496 7.34800000 2339666603 2339666603 -3.00000000
-7.62662220 -5.34220266 2.49501562 40 15 23499 9.64000000 2339666610 2339666610 15.00000000
-1.57077897 -1.09782970 -0.51349699 5 0 23505 1.98400000 2339666631 2339666631 -15.00000000
-1.80377948 -1.25973856 -0.50793946 4 2 23507 2.25800000 2339666635 2339666635 -13.00000000
-2.11524367 -1.47671247 -0.50144607 3 4 23508 2.62800000 2339666640 2339666640 -11.00000000
-2.52574968 -1.76198745 -0.48776266 2 6 23510 3.11800000 2339666644 2339666644 -9.00000000
-3.14946771 -2.19546509 -0.47139063 1 8 23512 3.86800000 2339666649 2339666649 -7.00000000
-4.12587833 -2.87504196 -0.43996218 9 10 23513 5.04800000 2339666654 2339666654 -5.00000000
-6.02187824 -4.19311285 -0.38456461 3 12 23515 7.34800000 2339666658 2339666658 -3.00000000
-7.63385344 -5.31159639 2.49190974 40 15 23517 9.62800000 2339666665 2339666665 15.00000000
-1.58095074 -1.09674454 -0.51556754 4 0 23525 1.99200000 2339666686 2339666686 -15.00000000
-1.80175948 -1.24899364 -0.50613987 4 2 23527 2.25000000 2339666690 2339666690 -13.00000000
-2.11715817 -1.46708345 -0.50068283 3 4 23528 2.62400000 2339666695 2339666695 -11.00000000
-2.51564431 -1.74191475 -0.48463398 2 6 23530 3.09800000 2339666700 2339666700 -9.00000000
-3.14895010 -2.17881060 -0.47017193 3 8 23532 3.85800000 2339666704 2339666704 -7.00000000
-4.13261175 -2.85835576 -0.43961358 9 10 23533 5.04400000 2339666709 2339666709 -5.00000000
-6.02662039 -4.16525364 -0.38393658 3 12 23535 7.33600000 2339666714 2339666714 -3.00000000
-7.65711641 -5.28821039 2.49346256 40 15 23537 9.63400000 2339666720 2339666720 15.00000000
-1.58954287 -1.09450614 -0.51712048 5 0 23545 1.99800000 2339666741 2339666741 -15.00000000
-1.81253004 -1.24711525 -0.50793946 4 2 23547 2.25800000 2339666746 2339666746 -13.00000000
-2.10932565 -1.45078373 -0.49762985 3 4 23548 2.60800000 2339666750 2339666750 -11.00000000
-2.52984929 -1.73871720 -0.48619831 2 6 23550 3.10800000 2339666755 2339666755 -9.00000000
-3.14671826 -2.16106272 -0.46870950 1 8 23552 3.84600000 2339666760 2339666760 -7.00000000
-4.15241909 -2.85067868 -0.44065943 6 10 23553 5.05600000 2339666764 2339666764 -5.00000000
-6.05759287 -4.15548944 -0.38498330 3 12 23555 7.35600000 2339666769 2339666769 -3.00000000
-7.68282175 -5.26447773 2.49553323 40 15 23558 9.64200000 2339666776 2339666776 15.00000000
-1.58378410 -1.08241069 -0.51401460 4 0 23565 1.98600000 2339666796 2339666796 -15.00000000
-1.82330930 -1.24517679 -0.50973910 4 2 23567 2.26600000 2339666801 2339666801 -13.00000000
-2.11113405 -1.44119823 -0.49686661 3 4 23568 2.60400000 2339666806 2339666806 -11.00000000
-2.54079866 -1.73321533 -0.48713693 2 6 23570 3.11400000 2339666810 2339666810 -9.00000000
-3.14112043 -2.14112067 -0.46675959 1 8 23572 3.83000000 2339666815 2339666815 -7.00000000
-4.15905190 -2.83392286 -0.44031081 6 10 23573 5.05200000 2339666820 2339666820 -5.00000000
-6.06875944 -4.13207102 -0.38477394 3 12 23575 7.35200000 2339666824 2339666824 -3.00000000
-7.69316435 -5.23219585 2.49294496 40 15 23578 9.63200000 2339666831 2339666831 15.00000000
-1.58755279 -1.07687569 -0.51401460 4 0 23585 1.98600000 2339666852 2339666852 -15.00000000
-1.83409715 -1.24317813 -0.51153868 4 2 23587 2.27400000 2339666856 2339666856 -13.00000000
-2.11940265 -1.43602264 -0.49762985 3 4 23588 2.60800000 2339666861 2339666861 -11.00000000
-2.52066159 -1.70661616 -0.48213103 2 6 23590 3.08200000 2339666866 2339666866 -9.00000000
-3.16008425 -2.13792968 -0.46846575 1 8 23592 3.84400000 2339666870 2339666870 -7.00000000
-4.16726828 -2.81827164 -0.44013649 3 10 23593 5.05000000 2339666875 2339666875 -5.00000000
-6.07983637 -4.10862541 -0.38456461 3 12 23595 7.34800000 2339666879 2339666879 -3.00000000
-7.70978022 -5.20422888 2.49242735 40 15 23598 9.63000000 2339666886 2339666886 15.00000000
-1.59450710 -1.07348526 -0.51504987 4 0 23605 1.99000000 2339666907 2339666907 -15.00000000
-1.83195782 -1.23241735 -0.50973910 4 2 23607 2.26600000 2339666912 2339666912 -13.00000000
-2.14069390 -1.43957150 -0.50144607 3 4 23608 2.62800000 2339666916 2339666916 -11.00000000
-2.54955769 -1.71323168 -0.48651120 2 6 23610 3.11000000 2339666921 2339666921 -9.00000000
