# .PCD v0.7 - Point Cloud Data file format
VERSION 0.7
FIELDS x y z intensity laser_id azimuth distance_m adjustedtime timestamp vertical_angle
SIZE 4 4 4 1 1 2 8 8 4 8
TYPE F F F U U U F U U F
COUNT 1 1 1 1 1 1 1 1 1 1
WIDTH 523
HEIGHT 1
VIEWPOINT 0 0 0 1 0 0 0
POINTS 523
DATA ascii
-4.32168102 -4.87276268 0.56982422 9 5 22157 6.53800000 2340363041 2340363041 5.00000000
-2.03858733 -2.29773116 -0.48651120 2 6 22158 3.11000000 2340363044 2340363044 -9.00000000
-4.34048986 -4.89053011 0.80287522 55 7 22159 6.58800000 2340363046 2340363046 7.00000000
-2.55946827 -2.88279843 -0.47334054 1 8 22160 3.88400000 2340363048 2340363048 -7.00000000
-4.32487965 -4.86951733 1.03152883 62 9 22161 6.59400000 2340363051 2340363051 9.00000000
-3.36321735 -3.78675151 -0.44309980 3 10 22161 5.08400000 2340363053 2340363053 -5.00000000
-4.32004738 -4.86236668 1.26430035 62 11 22162 6.62600000 2340363055 2340363055 11.00000000
-4.37052679 -4.91745472 -0.34478927 10 12 22163 6.58800000 2340363058 2340363058 -3.00000000
-4.30403709 -4.84094238 1.49547458 72 13 22164 6.64800000 2340363060 2340363060 13.00000000
-4.34302378 -4.88307571 -0.11406893 6 14 22165 6.53600000 2340363062 2340363062 -1.00000000
-4.29068422 -4.82422781 1.72994649 63 15 22165 6.68400000 2340363064 2340363064 15.00000000
-1.27688026 -1.43162906 -0.51401460 5 0 22173 1.98600000 2340363085 2340363085 -15.00000000
-4.34003830 -4.86431074 0.11378969 14 1 22174 6.52000000 2340363088 2340363088 1.00000000
-1.47021520 -1.64723694 -0.50973910 4 2 22175 2.26600000 2340363090 2340363090 -13.00000000
-4.34841824 -4.87027931 0.34217247 10 3 22176 6.53800000 2340363092 2340363092 3.00000000
-1.71027637 -1.91552961 -0.49915633 3 4 22176 2.61600000 2340363094 2340363094 -11.00000000
-4.33070040 -4.84873199 0.56877840 9 5 22177 6.52600000 2340363097 2340363097 5.00000000
-2.05054402 -2.29502034 -0.48744980 2 6 22178 3.11600000 2340363099 2340363099 -9.00000000
-4.33239985 -4.84722805 0.79824418 57 7 22179 6.55000000 2340363101 2340363101 7.00000000
-2.57083869 -2.87532663 -0.47358426 1 8 22180 3.88600000 2340363104 2340363104 -7.00000000
-4.33131599 -4.84261227 1.02902591 67 9 22181 6.57800000 2340363106 2340363106 9.00000000
-3.40032363 -3.80171943 -0.44623742 3 10 22181 5.12000000 2340363108 2340363108 -5.00000000
-4.31604862 -4.82384777 1.25819457 62 11 22182 6.59400000 2340363111 2340363111 11.00000000
-4.36102486 -4.87240410 -0.34269583 10 12 22183 6.54800000 2340363113 2340363113 -3.00000000
-4.31050968 -4.81427431 1.49187541 68 13 22184 6.63200000 2340363115 2340363115 13.00000000
-4.34803486 -4.85447979 -0.11375479 9 14 22185 6.51800000 2340363117 2340363117 -1.00000000
-4.29544544 -4.79408121 1.72477007 56 15 22186 6.66400000 2340363120 2340363120 15.00000000
-1.28445160 -1.43003762 -0.51504987 5 0 22193 1.99000000 2340363141 2340363141 -15.00000000
-4.34228992 -4.83276939 0.11340573 17 1 22194 6.49800000 2340363143 2340363143 1.00000000
-1.46423185 -1.62905085 -0.50568998 4 2 22195 2.24800000 2340363145 2340363145 -13.00000000
-4.34669638 -4.83427858 0.34070706 17 3 22196 6.51000000 2340363147 2340363147 3.00000000
-1.72482824 -1.91830742 -0.50144607 3 4 22196 2.62800000 2340363150 2340363150 -11.00000000
-4.33827257 -4.82321596 0.56755817 9 5 22197 6.51200000 2340363152 2340363152 5.00000000
-2.06647015 -2.29665923 -0.48932701 2 6 22198 3.12800000 2340363154 2340363154 -9.00000000
-4.32937288 -4.80994368 0.79458815 63 7 22199 6.52000000 2340363157 2340363157 7.00000000
-2.56492019 -2.84863257 -0.47065940 1 8 22200 3.86200000 2340363159 2340363159 -7.00000000
-4.33232880 -4.80985022 1.02527153 65 9 22201 6.55400000 2340363161 2340363161 9.00000000
-3.40823984 -3.78390527 -0.44554016 3 10 22201 5.11200000 2340363164 2340363164 -5.00000000
-4.31314802 -4.78687477 1.25247025 65 11 22202 6.56400000 2340363166 2340363166 11.00000000
-4.35928535 -4.83638191 -0.34123042 10 12 22203 6.52000000 2340363168 2340363168 -3.00000000
-4.30901861 -4.77893639 1.48557675 70 13 22204 6.60400000 2340363170 2340363170 13.00000000
-4.35022068 -4.82293892 -0.11337084 6 14 22205 6.49600000 2340363173 2340363173 -1.00000000
-4.29838037 -4.76546526 1.71959376 63 15 22205 6.64400000 2340363175 2340363175 15.00000000
-1.29202735 -1.42841077 -0.51608515 4 0 22213 1.99400000 2340363196 2340363196 -15.00000000
-4.34705782 -4.80423737 0.11309160 11 1 22214 6.48000000 2340363198 2340363198 1.00000000
-1.48037136 -1.63548803 -0.50928921 4 2 22215 2.26400000 2340363200 2340363200 -13.00000000
-4.34209585 -4.79538774 0.33903232 10 3 22216 6.47800000 2340363203 2340363203 3.00000000
-1.72360742 -1.90354311 -0.49915633 3 4 22216 2.61600000 2340363205 2340363205 -11.00000000
-4.33100605 -4.78146315 0.56442058 9 5 22217 6.47600000 2340363207 2340363207 5.00000000
-2.07447433 -2.28943205 -0.48932701 2 6 22218 3.12800000 2340363210 2340363210 -9.00000000
-4.33013821 -4.77715254 0.79166323 63 7 22219 6.49600000 2340363212 2340363212 7.00000000
-2.55884719 -2.82201529 -0.46773455 1 8 22220 3.83800000 2340363214 2340363214 -7.00000000
-4.32254887 -4.76543570 1.01901412 67 9 22221 6.51400000 2340363217 2340363217 9.00000000
-3.41607285 -3.76608229 -0.44484290 3 10 22221 5.10400000 2340363219 2340363219 -5.00000000
-4.31004190 -4.74998093 1.24674594 62 11 22222 6.53400000 2340363221 2340363221 11.00000000
-4.35734797 -4.80043173 -0.33976504 10 12 22223 6.49200000 2340363223 2340363223 -3.00000000
-4.30078363 -4.73645449 1.47702861 74 13 22224 6.56600000 2340363226 2340363226 13.00000000
-4.33879423 -4.77664042 -0.11263783 6 14 22225 6.45400000 2340363228 2340363228 -1.00000000
-4.30070066 -4.73470211 1.71389973 69 15 22225 6.62200000 2340363230 2340363230 15.00000000
-1.29310286 -1.41960752 -0.51453227 5 0 22233 1.98800000 2340363251 2340363251 -15.00000000
-4.33282375 -4.75503778 0.11228878 14 1 22234 6.43400000 2340363253 2340363253 1.00000000
-1.48607123 -1.63031065 -0.50928921 4 2 22235 2.26400000 2340363256 2340363256 -13.00000000
-4.32299185 -4.74258518 0.33631086 10 3 22235 6.42600000 2340363258 2340363258 3.00000000
-1.73024154 -1.89751494 -0.49915633 3 4 22236 2.61600000 2340363260 2340363260 -11.00000000
-4.31544542 -4.73098803 0.56023711 9 5 22237 6.42800000 2340363263 2340363263 5.00000000
-2.07979035 -2.27925849 -0.48870125 2 6 22238 3.12400000 2340363265 2340363265 -9.00000000
-4.32938957 -4.74294853 0.78849465 68 7 22239 6.47000000 2340363267 2340363267 7.00000000
-2.59545326 -2.84238410 -0.47260931 1 8 22240 3.87800000 2340363269 2340363269 -7.00000000
-4.30902386 -4.71898317 1.01213098 60 9 22240 6.47000000 2340363272 2340363272 9.00000000
-3.43457317 -3.76001930 -0.44554016 3 10 22241 5.11200000 2340363274 2340363274 -5.00000000
-4.31865025 -4.72621107 1.24445629 62 11 22242 6.52200000 2340363276 2340363276 11.00000000
-4.36194992 -4.77192497 -0.33882299 10 12 22243 6.47400000 2340363279 2340363279 -3.00000000
-4.30282545 -4.70559359 1.47207975 57 13 22244 6.54400000 2340363281 2340363281 13.00000000
-4.33654594 -4.74080896 -0.11214916 9 14 22245 6.42600000 2340363283 2340363283 -1.00000000
-4.30416250 -4.70540667 1.70872331 40 15 22245 6.60200000 2340363286 2340363286 15.00000000
-1.29413271 -1.41081429 -0.51297933 5 0 22253 1.98200000 2340363306 2340363306 -15.00000000
-4.31829929 -4.70599651 0.11148597 2 1 22254 6.38800000 2340363309 2340363309 1.00000000
-1.49702430 -1.63085580 -0.51108879 4 2 22255 2.27200000 2340363311 2340363311 -13.00000000
-4.31062603 -4.69434404 0.33400807 5 3 22256 6.38200000 2340363313 2340363313 3.00000000
-1.73951030 -1.89435589 -0.49991956 3 4 22256 2.62000000 2340363316 2340363316 -11.00000000
-4.29958534 -4.68068027 0.55605364 9 5 22257 6.38000000 2340363318 2340363318 5.00000000
-2.08506060 -2.26907563 -0.48807552 2 6 22258 3.12000000 2340363320 2340363320 -9.00000000
-4.34188890 -4.72342300 0.78776342 31 7 22259 6.46400000 2340363322 2340363322 7.00000000
-2.60535932 -2.83330679 -0.47260931 1 8 22260 3.87800000 2340363325 2340363325 -7.00000000
-4.32227898 -4.69879675 1.01119244 25 9 22261 6.46400000 2340363327 2340363327 9.00000000
-3.42609549 -3.72454596 -0.44275117 3 10 22261 5.08000000 2340363329 2340363329 -5.00000000
-4.32581568 -4.70099497 1.24178493 18 11 22262 6.50800000 2340363332 2340363332 11.00000000
-4.36099625 -4.73756647 -0.33746225 10 12 22263 6.44800000 2340363334 2340363334 -3.00000000
-4.31130457 -4.68194389 1.46938026 17 13 22264 6.53200000 2340363336 2340363336 13.00000000
-4.32461643 -4.69475603 -0.11141616 6 14 22265 6.38400000 2340363339 2340363339 -1.00000000
-4.30828905 -4.67539310 1.70354700 13 15 22266 6.58200000 2340363341 2340363341 15.00000000
-1.30167115 -1.40912640 -0.51401460 5 0 22273 1.98600000 2340363362 2340363362 -15.00000000
-4.33198595 -4.68795729 0.11141616 8 1 22274 6.38400000 2340363364 2340363364 1.00000000
-1.49477112 -1.61703420 -0.50838935 4 2 22275 2.26000000 2340363366 2340363366 -13.00000000
-4.33701515 -4.69175673 0.33484545 5 3 22275 6.39800000 2340363369 2340363369 3.00000000
-1.74877810 -1.89115524 -0.50068283 3 4 22276 2.62400000 2340363371 2340363371 -11.00000000
-4.32130957 -4.67149401 0.55675089 3 5 22277 6.38800000 2340363373 2340363373 5.00000000
-2.08491874 -2.25308442 -0.48619831 2 6 22278 3.10800000 2340363375 2340363375 -9.00000000
-4.35969877 -4.70969486 0.78800720 13 7 22279 6.46600000 2340363378 2340363378 7.00000000
-2.60983849 -2.81836915 -0.47163436 1 8 22280 3.87000000 2340363380 2340363380 -7.00000000
-4.34805107 -4.69382477 1.01338243 12 9 22281 6.47800000 2340363382 2340363382 9.00000000
-3.44449139 -3.71841049 -0.44344842 3 10 22281 5.08800000 2340363385 2340363385 -5.00000000
-4.33419228 -4.67722607 1.23949528 12 11 22282 6.49600000 2340363387 2340363387 11.00000000
-4.36800194 -4.71206188 -0.33672956 10 12 22283 6.43400000 2340363389 2340363389 -3.00000000
-4.34087181 -4.68115520 1.47387934 13 13 22284 6.55200000 2340363392 2340363392 13.00000000
-4.35321760 -4.69282627 -0.11173031 2 14 22285 6.40200000 2340363394 2340363394 -1.00000000
-4.33559370 -4.67382717 1.70820570 9 15 22285 6.60000000 2340363396 2340363396 15.00000000
-1.31316090 -1.41164649 -0.51660281 5 0 22293 1.99600000 2340363417 2340363417 -15.00000000
-4.35649681 -4.68159056 0.11162559 14 1 22294 6.39600000 2340363419 2340363419 1.00000000
-1.49775088 -1.60895395 -0.50748956 4 2 22295 2.25600000 2340363421 2340363421 -13.00000000
-4.36833572 -4.69266987 0.33599684 27 3 22295 6.42000000 2340363424 2340363424 3.00000000
-1.75269294 -1.88216579 -0.49991956 3 4 22296 2.62000000 2340363426 2340363426 -11.00000000
-4.36746693 -4.68845415 0.56058574 29 5 22297 6.43200000 2340363428 2340363428 5.00000000
-2.09277058 -2.24579287 -0.48619831 2 6 22298 3.10800000 2340363431 2340363431 -9.00000000
-4.37205124 -4.69009209 0.78727597 10 7 22299 6.46000000 2340363433 2340363433 7.00000000
-2.60070682 -2.78891659 -0.46822202 1 8 22300 3.84200000 2340363435 2340363435 -7.00000000
-4.37249422 -4.68728542 1.01525962 10 9 22301 6.49000000 2340363438 2340363438 9.00000000
-3.46288633 -3.71219182 -0.44414568 3 10 22301 5.09600000 2340363440 2340363440 -5.00000000
-4.37058401 -4.68359900 1.24521947 12 11 22302 6.52600000 2340363442 2340363442 11.00000000
-4.38306093 -4.69532585 -0.33662486 10 12 22303 6.43200000 2340363445 2340363445 -3.00000000
-4.37314606 -4.68306589 1.47927809 14 13 22304 6.57600000 2340363447 2340363447 13.00000000
-4.38322258 -4.69221497 -0.11207935 24 14 22305 6.42200000 2340363449 2340363449 -1.00000000
-4.36506939 -4.67278194 1.71338212 9 15 22305 6.62000000 2340363451 2340363451 15.00000000
-1.32336342 -1.41269362 -0.51867336 5 0 22313 2.00400000 2340363472 2340363472 -15.00000000
-4.38101625 -4.67510986 0.11183502 17 1 22314 6.40800000 2340363474 2340363474 1.00000000
-1.50602353 -1.60655940 -0.50838935 4 2 22315 2.26000000 2340363477 2340363477 -13.00000000
-1.75388050 -1.87030792 -0.49839309 3 4 22316 2.61200000 2340363481 2340363481 -11.00000000
-4.41788387 -4.70950794 0.56494355 9 5 22317 6.48200000 2340363484 2340363484 5.00000000
-2.11141109 -2.24999785 -0.48870125 2 6 22318 3.12400000 2340363486 2340363486 -9.00000000
-4.40062380 -4.68782806 0.78946960 10 7 22319 6.47800000 2340363488 2340363488 7.00000000
-2.61042619 -2.77982140 -0.46822202 1 8 22320 3.84200000 2340363491 2340363491 -7.00000000
-4.40288830 -4.68859959 1.01870120 10 9 22320 6.51200000 2340363493 2340363493 9.00000000
-3.47855163 -3.70298576 -0.44449428 3 10 22321 5.10000000 2340363495 2340363495 -5.00000000
-4.40303946 -4.68548250 1.24979889 12 11 22322 6.55000000 2340363498 2340363498 11.00000000
-4.41994333 -4.70182610 -0.33819494 10 12 22323 6.46200000 2340363500 2340363500 -3.00000000
-4.39347124 -4.67203093 1.48062789 14 13 22324 6.58200000 2340363502 2340363502 13.00000000
-4.42286777 -4.70164680 -0.11267274 9 14 22325 6.45600000 2340363504 2340363504 -1.00000000
-4.40996885 -4.68629599 1.72425246 9 15 22326 6.66200000 2340363507 2340363507 15.00000000
-1.32033277 -1.39963412 -0.51556754 5 0 22333 1.99200000 2340363527 2340363527 -15.00000000
-4.43436480 -4.69905663 0.11277745 11 1 22334 6.46200000 2340363530 2340363530 1.00000000
-1.51697326 -1.60696089 -0.51018900 4 2 22335 2.26800000 2340363532 2340363532 -13.00000000
-4.42292643 -4.68529654 0.33767158 7 3 22335 6.45200000 2340363534 2340363534 3.00000000
-1.76848602 -1.87273872 -0.50068283 3 4 22336 2.62400000 2340363537 2340363537 -11.00000000
-4.43566465 -4.69550610 0.56511784 13 5 22337 6.48400000 2340363539 2340363539 5.00000000
-2.11111164 -2.23399949 -0.48682407 2 6 22338 3.11200000 2340363541 2340363541 -9.00000000
-4.44150686 -4.69840431 0.79385692 10 7 22339 6.51400000 2340363544 2340363544 7.00000000
-2.61193013 -2.76203847 -0.46675959 1 8 22340 3.83000000 2340363546 2340363546 -7.00000000
-4.42818832 -4.68104076 1.02057850 10 9 22341 6.52400000 2340363548 2340363548 9.00000000
-3.47502589 -3.67345238 -0.44240254 3 10 22341 5.07600000 2340363551 2340363551 -5.00000000
-4.43151283 -4.68291807 1.25323343 12 11 22342 6.56800000 2340363553 2340363553 11.00000000
-4.44868660 -4.69942284 -0.33913699 10 12 22343 6.48000000 2340363555 2340363555 -3.00000000
-4.42985201 -4.67789125 1.48737633 13 13 22344 6.61200000 2340363557 2340363557 13.00000000
-4.44062757 -4.68763113 -0.11270764 13 14 22345 6.45800000 2340363560 2340363560 -1.00000000
-4.42895794 -4.67367840 1.72528780 9 15 22346 6.66600000 2340363562 2340363562 15.00000000
-1.31589663 -1.38521242 -0.51194406 5 0 22353 1.97800000 2340363583 2340363583 -15.00000000
-4.46589327 -4.69949436 0.11316140 14 1 22354 6.48400000 2340363585 2340363585 1.00000000
-1.52525866 -1.60448074 -0.51108879 4 2 22355 2.27200000 2340363587 2340363587 -13.00000000
-4.46952772 -4.70167542 0.33997437 7 3 22355 6.49600000 2340363590 2340363590 3.00000000
-1.77501225 -1.86655414 -0.50068283 3 4 22356 2.62400000 2340363592 2340363592 -11.00000000
-4.46164036 -4.69009924 0.56633800 13 5 22357 6.49800000 2340363594 2340363594 5.00000000
-2.12162042 -2.22947884 -0.48744980 2 6 22358 3.11600000 2340363597 2340363597 -9.00000000
-4.46883011 -4.69437408 0.79580683 10 7 22359 6.53000000 2340363599 2340363599 7.00000000
-4.49292183 -4.71803236 -0.79995036 2 8 22360 6.56400000 2340363601 2340363601 -7.00000000
-4.46003389 -4.68349695 1.02433288 10 9 22360 6.54800000 2340363604 2340363604 9.00000000
-3.49882126 -3.67284060 -0.44379705 3 10 22361 5.09200000 2340363606 2340363606 -5.00000000
-4.46408510 -4.68447590 1.25781286 12 11 22362 6.59200000 2340363608 2340363608 11.00000000
-4.48435688 -4.70410442 -0.34060240 10 12 22363 6.50800000 2340363610 2340363610 -3.00000000
-4.45556831 -4.67227173 1.49052572 14 13 22364 6.62600000 2340363613 2340363613 13.00000000
-4.47904825 -4.69525242 -0.11326612 13 14 22365 6.49000000 2340363615 2340363615 -1.00000000
-4.45591497 -4.66937065 1.72942889 9 15 22366 6.68200000 2340363617 2340363617 15.00000000
-1.32473016 -1.38479853 -0.51349699 5 0 22373 1.98400000 2340363638 2340363638 -15.00000000
-4.48780060 -4.68965578 0.11330102 20 1 22374 6.49200000 2340363640 2340363640 1.00000000
-1.52815485 -1.59633136 -0.51018900 4 2 22375 2.26800000 2340363643 2340363643 -13.00000000
-4.50524855 -4.70624399 0.34143978 7 3 22375 6.52400000 2340363645 2340363645 3.00000000
-1.77608550 -1.85467494 -0.49915633 3 4 22376 2.61600000 2340363647 2340363647 -11.00000000
-4.49314594 -4.69032288 0.56825542 9 5 22377 6.52000000 2340363650 2340363650 5.00000000
-2.12392282 -2.21635437 -0.48619831 2 6 22378 3.10800000 2340363652 2340363652 -9.00000000
-4.50167370 -4.69594240 0.79873168 10 7 22379 6.55400000 2340363654 2340363654 7.00000000
-4.53959036 -4.73384142 -0.80531263 2 8 22380 6.60800000 2340363657 2340363657 -7.00000000
-4.49139500 -4.68358326 1.02777445 10 9 22380 6.57000000 2340363659 2340363659 9.00000000
-3.51437926 -3.66348052 -0.44414568 3 10 22381 5.09600000 2340363661 2340363661 -5.00000000
-4.49264383 -4.68161345 1.26124752 12 11 22382 6.61000000 2340363663 2340363663 11.00000000
-4.51734781 -4.70571184 -0.34185848 10 12 22383 6.53200000 2340363666 2340363666 -3.00000000
-4.49884605 -4.68480206 1.49952376 11 13 22384 6.66600000 2340363668 2340363668 13.00000000
-4.51757574 -4.70266294 -0.11382460 6 14 22385 6.52200000 2340363670 2340363670 -1.00000000
-4.48691130 -4.66911030 1.73512292 9 15 22386 6.70400000 2340363673 2340363673 15.00000000
-1.33223641 -1.38294852 -0.51453227 5 0 22393 1.98800000 2340363693 2340363693 -15.00000000
-4.51801920 -4.68836117 0.11365007 17 1 22394 6.51200000 2340363696 2340363696 1.00000000
-1.52019298 -1.57695758 -0.50568998 4 2 22395 2.24800000 2340363698 2340363698 -13.00000000
-4.52164888 -4.69048882 0.34143978 7 3 22395 6.52400000 2340363700 2340363700 3.00000000
-1.78799987 -1.85411680 -0.50068283 3 4 22396 2.62400000 2340363703 2340363703 -11.00000000
-4.51779032 -4.68321371 0.56930131 9 5 22397 6.53200000 2340363705 2340363705 5.00000000
-2.13987684 -2.21745563 -0.48807552 2 6 22398 3.12000000 2340363707 2340363707 -9.00000000
-4.52355337 -4.68591309 0.79970664 10 7 22399 6.56200000 2340363709 2340363709 7.00000000
-2.64898396 -2.74310327 -0.46822202 1 8 22400 3.84200000 2340363712 2340363712 -7.00000000
-4.52967167 -4.69061232 1.03278029 10 9 22400 6.60200000 2340363714 2340363714 9.00000000
-3.52437711 -3.64832473 -0.44379705 3 10 22401 5.09200000 2340363716 2340363716 -5.00000000
-4.52396584 -4.68143225 1.26544523 12 11 22402 6.63200000 2340363719 2340363719 11.00000000
-4.54485178 -4.70140266 -0.34269583 10 12 22403 6.54800000 2340363721 2340363721 -3.00000000
-4.52059031 -4.67467308 1.50132334 12 13 22404 6.67400000 2340363723 2340363723 13.00000000
-4.55203819 -4.70554924 -0.11427835 6 14 22405 6.54800000 2340363726 2340363726 -1.00000000
-4.51848841 -4.67086744 1.74133456 9 15 22405 6.72800000 2340363728 2340363728 15.00000000
-1.34647167 -1.38799596 -0.51815575 5 0 22413 2.00200000 2340363749 2340363749 -15.00000000
-4.55524635 -4.69408751 0.11417364 14 1 22414 6.54200000 2340363751 2340363751 1.00000000
-1.52568829 -1.57164145 -0.50568998 4 2 22415 2.24800000 2340363753 2340363753 -13.00000000
-4.54912329 -4.68614149 0.34227714 15 3 22415 6.54000000 2340363756 2340363756 3.00000000
-1.78899014 -1.84223044 -0.49915633 3 4 22416 2.61600000 2340363758 2340363758 -11.00000000
-4.55076981 -4.68456411 0.57139307 9 5 22417 6.55600000 2340363760 2340363760 5.00000000
-2.15586400 -2.21847248 -0.48995274 2 6 22418 3.13200000 2340363762 2340363762 -9.00000000
-4.56478882 -4.69571495 0.80409396 10 7 22419 6.59800000 2340363765 2340363765 7.00000000
-2.65577531 -2.73099351 -0.46773455 1 8 22420 3.83800000 2340363767 2340363767 -7.00000000
-4.55703449 -4.68610144 1.03528333 10 9 22420 6.61800000 2340363769 2340363769 9.00000000
-3.53431201 -3.63314390 -0.44344842 3 10 22421 5.08800000 2340363772 2340363772 -5.00000000
-4.55260229 -4.67827511 1.26887977 12 11 22422 6.65000000 2340363774 2340363774 11.00000000
-4.57934618 -4.70411444 -0.34405658 10 12 22423 6.57400000 2340363776 2340363776 -3.00000000
-4.54503775 -4.66724157 1.50402272 11 13 22424 6.68600000 2340363779 2340363779 13.00000000
-4.57680845 -4.69822502 -0.11448779 6 14 22425 6.56000000 2340363781 2340363781 -1.00000000
-4.55445337 -4.67364454 1.74858141 9 15 22426 6.75600000 2340363783 2340363783 15.00000000
-1.34296870 -1.37523043 -0.51504987 4 0 22432 1.99000000 2340363804 2340363804 -15.00000000
-4.58476114 -4.69326067 0.11452269 14 1 22433 6.56200000 2340363806 2340363806 1.00000000
-1.53906369 -1.57493591 -0.50838935 4 2 22434 2.26000000 2340363809 2340363809 -13.00000000
-4.59058428 -4.69594145 0.34416124 15 3 22435 6.57600000 2340363811 2340363811 3.00000000
-1.79508936 -1.83628786 -0.49915633 3 4 22435 2.61600000 2340363813 2340363813 -11.00000000
-4.57463741 -4.67799425 0.57243890 9 5 22436 6.56800000 2340363815 2340363815 5.00000000
-2.14939523 -2.19719052 -0.48682407 2 6 22437 3.11200000 2340363818 2340363818 -9.00000000
-4.59144258 -4.69190216 0.80604386 10 7 22438 6.61400000 2340363820 2340363820 7.00000000
-2.68425798 -2.74203134 -0.47114688 1 8 22439 3.86600000 2340363822 2340363822 -7.00000000
-4.57807684 -4.67661047 1.03653479 10 9 22439 6.62600000 2340363825 2340363825 9.00000000
-3.54634070 -3.62140393 -0.44344842 3 10 22440 5.08800000 2340363827 2340363827 -5.00000000
-4.58869886 -4.68418932 1.27460408 12 11 22441 6.68000000 2340363829 2340363829 11.00000000
-4.61309290 -4.70744705 -0.34541732 10 12 22442 6.60000000 2340363832 2340363832 -3.00000000
-4.57413197 -4.66605997 1.50852180 11 13 22443 6.70600000 2340363834 2340363834 13.00000000
-4.59796333 -4.68873310 -0.11462741 6 14 22444 6.56800000 2340363836 2340363836 -1.00000000
-4.57858181 -4.66896868 1.75220490 9 15 22444 6.77000000 2340363839 2340363839 15.00000000
-1.34234285 -1.36502457 -0.51297933 5 0 22452 1.98200000 2340363859 2340363859 -15.00000000
-4.61513901 -4.69148350 0.11487174 11 1 22453 6.58200000 2340363862 2340363862 1.00000000
-1.55138612 -1.57649899 -0.51063889 4 2 22454 2.27000000 2340363864 2340363864 -13.00000000
-4.62236071 -4.69554520 0.34531263 17 3 22455 6.59800000 2340363866 2340363866 3.00000000
-1.80424285 -1.83280885 -0.49991956 3 4 22455 2.62000000 2340363868 2340363868 -11.00000000
-4.60072422 -4.67193460 0.57365912 9 5 22456 6.58200000 2340363871 2340363871 5.00000000
-2.14873409 -2.18123078 -0.48494685 2 6 22457 3.10000000 2340363873 2340363873 -9.00000000
-4.62590599 -4.69422722 0.80921245 10 7 22458 6.64000000 2340363875 2340363875 7.00000000
-2.66315413 -2.70154381 -0.46578464 1 8 22459 3.82200000 2340363878 2340363878 -7.00000000
-4.61599159 -4.68089724 1.04122782 10 9 22460 6.65600000 2340363880 2340363880 9.00000000
-4.63476229 -4.69993162 -0.57749397 8 10 22460 6.62600000 2340363882 2340363882 -5.00000000
-4.61605167 -4.67932415 1.27765703 21 11 22461 6.69600000 2340363885 2340363885 11.00000000
-4.64071989 -4.70268869 -0.34625468 10 12 22462 6.61600000 2340363887 2340363887 -3.00000000
-4.60955811 -4.66948032 1.51482046 11 13 22463 6.73400000 2340363889 2340363889 13.00000000
-4.63397312 -4.69257450 -0.11511607 6 14 22464 6.59600000 2340363892 2340363892 -1.00000000
-4.60788250 -4.66452503 1.75686371 9 15 22465 6.78800000 2340363894 2340363894 15.00000000
-1.34822106 -1.36193860 -0.51349699 5 0 22471 1.98400000 2340363915 2340363915 -15.00000000
-4.63770676 -4.68325806 0.11504626 8 1 22472 6.59200000 2340363917 2340363917 1.00000000
-1.54974818 -1.56442344 -0.50838935 4 2 22473 2.26000000 2340363919 2340363919 -13.00000000
-4.65477657 -4.69721508 0.34656870 12 3 22474 6.62200000 2340363921 2340363921 3.00000000
-1.81031072 -1.82681561 -0.49991956 3 4 22474 2.62000000 2340363924 2340363924 -11.00000000
-4.63863468 -4.67929173 0.57644808 9 5 22475 6.61400000 2340363926 2340363926 5.00000000
-2.15595555 -2.17409348 -0.48494685 2 6 22476 3.10000000 2340363928 2340363928 -9.00000000
-4.64843702 -4.68590784 0.81043112 10 7 22477 6.65000000 2340363931 2340363931 7.00000000
-2.70845318 -2.72933292 -0.47212183 1 8 22478 3.87400000 2340363933 2340363933 -7.00000000
-4.64319754 -4.67899227 1.04404366 10 9 22478 6.67400000 2340363935 2340363935 9.00000000
-4.66435862 -4.69867611 -0.57923704 8 10 22479 6.64600000 2340363938 2340363938 -5.00000000
-4.63016033 -4.66259813 1.27727544 12 11 22480 6.69400000 2340363940 2340363940 11.00000000
-4.66473484 -4.69577551 -0.34688273 10 12 22481 6.62800000 2340363942 2340363942 -3.00000000
-4.64287472 -4.67213869 1.52066910 11 13 22482 6.76000000 2340363945 2340363945 13.00000000
-4.67206573 -4.69987297 -0.11567455 9 14 22483 6.62800000 2340363947 2340363947 -1.00000000
-4.64158106 -4.66920710 1.76411057 9 15 22483 6.81600000 2340363949 2340363949 15.00000000
-1.35705853 -1.36132860 -0.51504987 5 0 22491 1.99000000 2340363970 2340363970 -15.00000000
-4.67379427 -4.68686438 0.11553493 8 1 22492 6.62000000 2340363972 2340363972 1.00000000
-1.55244708 -1.55624497 -0.50748956 4 2 22493 2.25600000 2340363974 2340363974 -13.00000000
-4.67114449 -4.68093824 0.34656870 10 3 22494 6.62200000 2340363977 2340363977 3.00000000
-1.82222366 -1.82604408 -0.50144607 3 4 22494 2.62800000 2340363979 2340363979 -11.00000000
-4.68590736 -4.69409275 0.58028293 13 5 22495 6.65800000 2340363981 2340363981 5.00000000
-2.17190647 -2.17494106 -0.48682407 2 6 22496 3.11200000 2340363984 2340363984 -9.00000000
-4.67178059 -4.67667532 0.81164980 10 7 22497 6.66000000 2340363986 2340363986 7.00000000
-2.69270658 -2.69458699 -0.46773455 1 8 22498 3.83800000 2340363988 2340363988 -7.00000000
-4.69103956 -4.69267750 1.05092669 10 9 22499 6.71800000 2340363991 2340363991 9.00000000
-4.70467758 -4.70632029 -0.58220035 8 10 22499 6.68000000 2340363993 2340363993 -5.00000000
-4.67000723 -4.67000723 1.28376293 12 11 22500 6.72800000 2340363995 2340363995 11.00000000
-4.69239759 -4.69076014 -0.34772009 10 12 22501 6.64400000 2340363997 2340363997 -3.00000000
-4.67431831 -4.67105579 1.52561808 11 13 22502 6.78200000 2340364000 2340364000 13.00000000
-4.70966387 -4.70473480 -0.11619812 13 14 22503 6.65800000 2340364002 2340364002 -1.00000000
-4.67233324 -4.66581392 1.76928699 9 15 22504 6.83600000 2340364004 2340364004 15.00000000
-1.36453950 -1.35931015 -0.51608515 4 0 22511 1.99400000 2340364025 2340364025 -15.00000000
-4.70712948 -4.68745375 0.11595379 8 1 22512 6.64400000 2340364027 2340364027 1.00000000
-1.55510771 -1.54806685 -0.50658977 4 2 22513 2.25200000 2340364030 2340364030 -13.00000000
-4.70869160 -4.68573666 0.34813878 10 3 22514 6.65200000 2340364032 2340364032 3.00000000
-1.82023692 -1.81136322 -0.49915633 3 4 22514 2.61600000 2340364034 2340364034 -11.00000000
-4.71921444 -4.69456911 0.58237469 13 5 22515 6.68200000 2340364037 2340364037 5.00000000
-2.18228650 -2.17013216 -0.48744980 2 6 22516 3.11600000 2340364039 2340364039 -9.00000000
-4.71764088 -4.68972874 0.81676835 10 7 22517 6.70200000 2340364041 2340364041 7.00000000
-2.73307371 -2.71595502 -0.47309679 1 8 22518 3.88200000 2340364044 2340364044 -7.00000000
-4.71498251 -4.68545008 1.05280399 10 9 22518 6.73000000 2340364046 2340364046 9.00000000
-4.73521233 -4.70391083 -0.58394349 8 10 22519 6.70000000 2340364048 2340364048 -5.00000000
-4.70717621 -4.67442799 1.28948724 12 11 22520 6.75800000 2340364050 2340364050 11.00000000
-4.72575235 -4.69123697 -0.34897617 10 12 22521 6.66800000 2340364053 2340364053 -3.00000000
-4.70166063 -4.66569233 1.52921724 12 13 22522 6.79800000 2340364055 2340364055 13.00000000
-4.73457575 -4.69671583 -0.11640755 12 14 22523 6.67000000 2340364057 2340364057 -1.00000000
-4.71520996 -4.67750502 1.77963972 9 15 22523 6.87600000 2340364060 2340364060 15.00000000
-1.36240911 -1.34774566 -0.51349699 5 0 22531 1.98400000 2340364080 2340364080 -15.00000000
-4.73483801 -4.68224287 0.11623303 8 1 22532 6.66000000 2340364083 2340364083 1.00000000
-1.57713258 -1.55906916 -0.51198858 4 2 22533 2.27600000 2340364085 2340364085 -13.00000000
-4.73638439 -4.68050241 0.34897617 10 3 22534 6.66800000 2340364087 2340364087 3.00000000
-1.82375574 -1.80223846 -0.49839309 3 4 22534 2.61200000 2340364090 2340364090 -11.00000000
-4.74549484 -4.68786860 0.58359486 13 5 22535 6.69600000 2340364092 2340364092 5.00000000
-2.18422627 -2.15694952 -0.48619831 2 6 22536 3.10800000 2340364094 2340364094 -9.00000000
-4.74528408 -4.68438911 0.81871825 10 7 22537 6.71800000 2340364097 2340364097 7.00000000
-4.77577353 -4.71284199 -0.82383674 2 8 22538 6.76000000 2340364099 2340364099 -7.00000000
-4.73774910 -4.67368650 1.05405545 10 9 22539 6.73800000 2340364101 2340364101 9.00000000
-4.78280735 -4.71813583 -0.58777833 4 10 22539 6.74400000 2340364103 2340364103 -5.00000000
-4.74163675 -4.67588902 1.29444826 12 11 22540 6.78400000 2340364106 2340364106 11.00000000
-4.74778843 -4.68032122 -0.34939486 10 12 22541 6.67600000 2340364108 2340364108 -3.00000000
-4.74012661 -4.67113733 1.53641570 11 13 22542 6.83000000 2340364110 2340364110 13.00000000
-4.76233816 -4.69138718 -0.11668679 12 14 22543 6.68600000 2340364113 2340364113 -1.00000000
-4.73645163 -4.66425800 1.78119266 9 15 22544 6.88200000 2340364115 2340364115 15.00000000
-1.36619544 -1.34115112 -0.51297933 6 0 22553 1.98200000 2340364136 2340364136 -15.00000000
-4.76705456 -4.67803383 0.11658207 8 1 22554 6.68000000 2340364138 2340364138 1.00000000
-1.57754278 -1.54754317 -0.51018900 4 2 22555 2.26800000 2340364140 2340364140 -13.00000000
-4.78284121 -4.69024992 0.35106960 7 3 22556 6.70800000 2340364143 2340364143 3.00000000
-1.83626926 -1.80072081 -0.49991956 3 4 22556 2.62000000 2340364145 2340364145 -11.00000000
-4.77484179 -4.68077087 0.58498937 13 5 22557 6.71200000 2340364147 2340364147 5.00000000
-2.18684864 -2.14301634 -0.48494685 2 6 22558 3.10000000 2340364150 2340364150 -9.00000000
-4.79017878 -4.69252777 0.82334930 10 7 22559 6.75600000 2340364152 2340364152 7.00000000
-4.81794548 -4.71808100 -0.82798034 2 8 22560 6.79400000 2340364154 2340364154 -7.00000000
-4.77460623 -4.67563963 1.05843556 10 9 22560 6.76600000 2340364156 2340364156 9.00000000
-4.80373621 -4.70252371 -0.58812696 4 10 22561 6.74800000 2340364159 2340364159 -5.00000000
-4.78200674 -4.67961836 1.30055416 12 11 22562 6.81600000 2340364161 2340364161 11.00000000
-4.80570078 -4.70116282 -0.35232565 10 12 22563 6.73200000 2340364163 2340364163 -3.00000000
-4.77335358 -4.66788960 1.54136467 10 13 22564 6.85200000 2340364166 2340364166 13.00000000
-4.79890585 -4.69123888 -0.11714055 14 14 22565 6.71200000 2340364168 2340364168 -1.00000000
-4.76594830 -4.65902042 1.78585136 9 15 22565 6.90000000 2340364170 2340364170 15.00000000
-1.37225187 -1.33772254 -0.51349699 5 0 22573 1.98400000 2340364191 2340364191 -15.00000000
-4.79767609 -4.67532158 0.11693113 11 1 22574 6.70000000 2340364193 2340364193 1.00000000
-1.58293509 -1.54202712 -0.51018900 4 2 22575 2.26800000 2340364196 2340364196 -13.00000000
-4.82207823 -4.69582081 0.35274434 7 3 22576 6.74000000 2340364198 2340364198 3.00000000
-1.84816992 -1.79977882 -0.50144607 3 4 22576 2.62800000 2340364200 2340364200 -11.00000000
-4.80828333 -4.68075228 0.58708107 13 5 22577 6.73600000 2340364203 2340364203 5.00000000
-2.19714737 -2.13812518 -0.48557258 2 6 22578 3.10400000 2340364205 2340364205 -9.00000000
-4.81933594 -4.68823624 0.82554293 10 7 22579 6.77400000 2340364207 2340364207 7.00000000
-4.85146284 -4.71784163 -0.83090520 2 8 22580 6.81800000 2340364209 2340364209 -7.00000000
-4.81579018 -4.68151617 1.06375432 10 9 22581 6.80000000 2340364212 2340364212 9.00000000
-3.62580585 -3.52471113 -0.44240254 3 10 22581 5.07600000 2340364214 2340364214 -5.00000000
-4.80253649 -4.66700220 1.30169892 12 11 22582 6.82200000 2340364216 2340364216 11.00000000
-4.83640718 -4.69827604 -0.35337237 10 12 22583 6.75200000 2340364219 2340364219 -3.00000000
-4.81058884 -4.67156315 1.54811311 11 13 22584 6.88200000 2340364221 2340364221 13.00000000
-4.83390474 -4.69256639 -0.11759432 14 14 22585 6.73800000 2340364223 2340364223 -1.00000000
-4.80101490 -4.65901089 1.79258072 9 15 22586 6.92600000 2340364226 2340364226 15.00000000
-1.38107717 -1.33695531 -0.51504987 5 0 22593 1.99000000 2340364246 2340364246 -15.00000000
-4.83408499 -4.67801428 0.11741979 11 1 22594 6.72800000 2340364249 2340364249 1.00000000
-1.58270562 -1.53107250 -0.50838935 4 2 22595 2.26000000 2340364251 2340364251 -13.00000000
-4.84705496 -4.68729019 0.35337237 7 3 22596 6.75200000 2340364253 2340364253 3.00000000
-1.85444105 -1.79331660 -0.50144607 3 4 22596 2.62800000 2340364256 2340364256 -11.00000000
-4.84321547 -4.68194199 0.58934712 13 5 22597 6.76200000 2340364258 2340364258 5.00000000
-2.20601773 -2.13181543 -0.48588544 2 6 22598 3.10600000 2340364260 2340364260 -9.00000000
-4.84852076 -4.68379784 0.82773656 10 7 22599 6.79200000 2340364262 2340364262 7.00000000
-2.75452685 -2.66001582 -0.47017193 1 8 22600 3.85800000 2340364265 2340364265 -7.00000000
-4.84976053 -4.68335915 1.06782162 10 9 22600 6.82600000 2340364267 2340364267 9.00000000
-3.64668798 -3.52033591 -0.44344842 3 10 22601 5.08800000 2340364269 2340364269 -5.00000000
-4.84140158 -4.67202234 1.30780482 12 11 22602 6.85400000 2340364272 2340364272 11.00000000
-4.85852766 -4.68691158 -0.35379106 10 12 22603 6.76000000 2340364274 2340364274 -3.00000000
-4.83387995 -4.66150665 1.55036271 10 13 22604 6.89200000 2340364276 2340364276 13.00000000
-4.86753178 -4.69231844 -0.11801317 10 14 22605 6.76200000 2340364279 2340364279 -1.00000000
-4.83034706 -4.65647221 1.79775703 9 15 22605 6.94600000 2340364281 2340364281 15.00000000
-1.39130640 -1.33748162 -0.51712048 6 0 22613 1.99800000 2340364302 2340364302 -15.00000000
-4.86912870 -4.67912436 0.11787355 11 1 22614 6.75400000 2340364304 2340364304 1.00000000
-1.59366179 -1.53093863 -0.51018900 4 2 22615 2.26800000 2340364306 2340364306 -13.00000000
-4.86338711 -4.67034245 0.35337237 7 3 22616 6.75200000 2340364309 2340364309 3.00000000
-1.85502541 -1.78139305 -0.49991956 3 4 22616 2.62000000 2340364311 2340364311 -11.00000000
-4.87533903 -4.68018484 0.59126455 10 5 22617 6.78400000 2340364313 2340364313 5.00000000
-2.22627330 -2.13641167 -0.48870125 2 6 22618 3.12400000 2340364315 2340364315 -9.00000000
-4.88203096 -4.68333530 0.83066142 10 7 22619 6.81600000 2340364318 2340364318 7.00000000
-2.74087119 -2.62840104 -0.46627212 1 8 22620 3.82600000 2340364320 2340364320 -7.00000000
-4.87891054 -4.67870712 1.07063746 10 9 22620 6.84400000 2340364322 2340364322 9.00000000
-3.67621326 -3.52413034 -0.44554016 3 10 22621 5.11200000 2340364325 2340364325 -5.00000000
-4.88177776 -4.67818642 1.31429231 12 11 22622 6.88800000 2340364327 2340364327 11.00000000
-4.90226126 -4.69617462 -0.35577983 10 12 22623 6.79800000 2340364329 2340364329 -3.00000000
-4.86701202 -4.66077852 1.55576146 12 13 22624 6.91600000 2340364332 2340364332 13.00000000
-4.90699339 -4.69742393 -0.11857165 6 14 22625 6.79400000 2340364334 2340364334 -1.00000000
-4.87866783 -4.67030859 1.80966282 9 15 22625 6.99200000 2340364336 2340364336 15.00000000
-1.38711989 -1.32509744 -0.51401460 6 0 22631 1.98600000 2340364357 2340364357 -15.00000000
-4.90983629 -4.68866348 0.11850184 11 1 22632 6.79000000 2340364359 2340364359 1.00000000
-1.59564435 -1.52323329 -0.50928921 4 2 22633 2.26400000 2340364362 2340364362 -13.00000000
-4.90693378 -4.68261814 0.35546583 7 3 22634 6.79200000 2340364364 2340364364 3.00000000
-1.85209072 -1.76742423 -0.49762985 3 4 22634 2.60800000 2340364366 2340364366 -11.00000000
-4.90010977 -4.67447233 0.59248471 10 5 22635 6.79800000 2340364368 2340364368 5.00000000
-2.22153759 -2.11850095 -0.48619831 2 6 22636 3.10800000 2340364371 2340364371 -9.00000000
-4.91108847 -4.68167210 0.83309883 10 7 22637 6.83600000 2340364373 2340364373 7.00000000
-2.75630045 -2.62662458 -0.46749079 1 8 22638 3.83600000 2340364375 2340364375 -7.00000000
-4.90441084 -4.67203999 1.07282758 10 9 22639 6.85800000 2340364378 2340364378 9.00000000
-3.65697193 -3.48370457 -0.44187963 3 10 22639 5.07000000 2340364380 2340364380 -5.00000000
-4.90924597 -4.67501163 1.31772697 12 11 22640 6.90600000 2340364382 2340364382 11.00000000
-4.93000984 -4.69314480 -0.35672188 10 12 22641 6.81600000 2340364385 2340364385 -3.00000000
-4.89574718 -4.65889931 1.56026053 11 13 22642 6.93600000 2340364387 2340364387 13.00000000
-4.92897081 -4.68887663 -0.11874618 6 14 22643 6.80400000 2340364389 2340364389 -1.00000000
-4.89891481 -4.66028500 1.81173337 9 15 22643 7.00000000 2340364391 2340364391 15.00000000
-1.38613069 -1.31492925 -0.51194406 5 0 22651 1.97800000 2340364412 2340364412 -15.00000000
-4.93923187 -4.68388033 0.11881598 11 1 22652 6.80800000 2340364415 2340364415 1.00000000
-1.60378027 -1.52033556 -0.51018900 4 2 22653 2.26800000 2340364417 2340364417 -13.00000000
-4.95804262 -4.69843245 0.35797793 12 3 22654 6.84000000 2340364419 2340364419 3.00000000
-1.86679912 -1.76905096 -0.49991956 3 4 22654 2.62000000 2340364421 2340364421 -11.00000000
-4.93230772 -4.67241144 0.59440219 10 5 22655 6.82000000 2340364424 2340364424 5.00000000
-2.22318172 -2.10530043 -0.48494685 2 6 22656 3.10000000 2340364426 2340364426 -9.00000000
-4.94758320 -4.68360615 0.83651119 10 7 22657 6.86400000 2340364428 2340364428 7.00000000
-2.78419614 -2.63472486 -0.47065940 1 8 22658 3.86200000 2340364431 2340364431 -7.00000000
-4.94077969 -4.67389727 1.07720768 10 9 22659 6.88600000 2340364433 2340364433 9.00000000
-3.67345238 -3.47502589 -0.44240254 3 10 22659 5.07600000 2340364435 2340364435 -5.00000000
-4.93694639 -4.66863823 1.32077992 12 11 22660 6.92200000 2340364438 2340364438 11.00000000
-4.95797348 -4.68688345 -0.35755926 10 12 22661 6.83200000 2340364440 2340364440 -3.00000000
-4.93747473 -4.66587400 1.56835878 11 13 22662 6.97200000 2340364442 2340364442 13.00000000
-4.96711254 -4.69224072 -0.11926974 6 14 22663 6.83400000 2340364444 2340364444 -1.00000000
-4.92860365 -4.65423536 1.81639206 9 15 22664 7.01800000 2340364447 2340364447 15.00000000
-1.39516008 -1.31381321 -0.51349699 5 0 22672 1.98400000 2340364468 2340364468 -15.00000000
-4.97092628 -4.67945242 0.11916503 11 1 22673 6.82800000 2340364470 2340364470 1.00000000
-1.60650349 -1.51177621 -0.50928921 4 2 22674 2.26400000 2340364472 2340364472 -13.00000000
-4.98541307 -4.68980837 0.35871065 12 3 22675 6.85400000 2340364474 2340364474 3.00000000
-1.87327051 -1.76219690 -0.49991956 3 4 22675 2.62000000 2340364477 2340364477 -11.00000000
-4.97262239 -4.67614079 0.59719115 10 5 22676 6.85200000 2340364479 2340364479 5.00000000
-2.23232245 -2.09849095 -0.48525971 1 6 22677 3.10200000 2340364481 2340364481 -9.00000000
-4.97628880 -4.67631626 0.83846110 10 7 22678 6.88000000 2340364484 2340364484 7.00000000
-2.78515315 -2.61634779 -0.46919698 1 8 22679 3.85000000 2340364486 2340364486 -7.00000000
-4.97371721 -4.67063141 1.08064926 10 9 22680 6.90800000 2340364488 2340364488 9.00000000
-3.66728306 -3.44380808 -0.44013649 3 10 22680 5.05000000 2340364491 2340364491 -5.00000000
-4.96833849 -4.66394901 1.32459605 12 11 22681 6.94200000 2340364493 2340364493 11.00000000
-4.99259520 -4.68508053 -0.35881531 10 12 22682 6.85600000 2340364495 2340364495 -3.00000000
-4.97301912 -4.66507816 1.57420743 11 13 22683 6.99800000 2340364497 2340364497 13.00000000
-5.00178099 -4.69041824 -0.11968860 6 14 22684 6.85800000 2340364500 2340364500 -1.00000000
-4.96454859 -4.65550375 1.82363904 9 15 22684 7.04600000 2340364502 2340364502 15.00000000
-1.40255976 -1.31157422 -0.51453227 5 0 22692 1.98800000 2340364523 2340364523 -15.00000000
-4.99599552 -4.67026567 0.11937446 8 1 22693 6.84000000 2340364525 2340364525 1.00000000
-1.60607541 -1.50083709 -0.50748956 4 2 22694 2.25600000 2340364527 2340364527 -13.00000000
-5.01926708 -4.68873787 0.35996670 10 3 22695 6.87800000 2340364530 2340364530 3.00000000
-1.88227963 -1.75832760 -0.50068283 3 4 22695 2.62400000 2340364532 2340364532 -11.00000000
-5.01221418 -4.68051147 0.59998012 10 5 22696 6.88400000 2340364534 2340364534 5.00000000
-2.24685383 -2.09742570 -0.48682407 2 6 22697 3.11200000 2340364537 2340364537 -9.00000000
-5.00854635 -4.67381477 0.84114224 10 7 22698 6.90200000 2340364539 2340364539 7.00000000
-2.79136586 -2.60390162 -0.46870950 1 8 22699 3.84600000 2340364541 2340364541 -7.00000000
-5.01310587 -4.67479658 1.08565521 10 9 22700 6.94000000 2340364544 2340364544 9.00000000
-5.04316616 -4.70282841 -0.60329205 4 10 22700 6.92200000 2340364546 2340364546 -5.00000000
-5.00612974 -4.66665792 1.33032036 12 11 22701 6.97200000 2340364548 2340364548 11.00000000
-5.02645302 -4.68396378 -0.36007139 10 12 22702 6.88000000 2340364550 2340364550 -3.00000000
-5.00353241 -4.66097355 1.57870650 11 13 22703 7.01800000 2340364553 2340364553 13.00000000
-5.03714800 -4.69064617 -0.12014236 6 14 22704 6.88400000 2340364555 2340364555 -1.00000000
-5.00056219 -4.65657711 1.83088589 9 15 22704 7.07400000 2340364557 2340364557 15.00000000
-1.40854502 -1.30798483 -0.51504987 5 0 22712 1.99000000 2340364578 2340364578 -15.00000000
-5.04157877 -4.68000698 0.12007256 8 1 22713 6.88000000 2340364580 2340364580 1.00000000
-1.61844683 -1.50184941 -0.50973910 4 2 22714 2.26600000 2340364583 2340364583 -13.00000000
-5.04357195 -4.68021917 0.36059475 12 3 22714 6.89000000 2340364585 2340364585 3.00000000
-1.88264859 -1.74640584 -0.49915633 3 4 22715 2.61600000 2340364587 2340364587 -11.00000000
-5.04459190 -4.67788935 0.60189754 10 5 22716 6.90600000 2340364590 2340364590 5.00000000
-2.25416160 -2.08956981 -0.48682407 2 6 22717 3.11200000 2340364592 2340364592 -9.00000000
-5.04084730 -4.67114496 0.84382331 10 7 22718 6.92400000 2340364594 2340364594 7.00000000
-2.79315662 -2.58739710 -0.46749079 1 8 22719 3.83600000 2340364596 2340364596 -7.00000000
-5.04886866 -4.67694044 1.09003532 10 9 22719 6.96800000 2340364599 2340364599 9.00000000
-3.70000720 -3.42624426 -0.44118237 3 10 22720 5.06200000 2340364601 2340364601 -5.00000000
-5.04255915 -4.66782618 1.33566296 12 11 22721 7.00000000 2340364603 2340364603 11.00000000
-5.07209110 -4.69352007 -0.36216483 10 12 22722 6.92000000 2340364606 2340364606 -3.00000000
-5.03550768 -4.65803623 1.58365548 9 13 22723 7.04000000 2340364608 2340364608 13.00000000
-5.06670427 -4.68525362 -0.12045651 12 14 22724 6.90200000 2340364610 2340364610 -1.00000000
-5.03664351 -4.65745592 1.83813286 9 15 22724 7.10200000 2340364613 2340364613 15.00000000
-1.40742135 -1.29782176 -0.51297933 4 0 22732 1.98200000 2340364633 2340364633 -15.00000000
-5.08435011 -4.68677664 0.12070084 8 1 22733 6.91600000 2340364636 2340364636 1.00000000
-1.62224638 -1.49487031 -0.50928921 4 2 22734 2.26400000 2340364638 2340364638 -13.00000000
-5.07832003 -4.67794037 0.36185080 10 3 22735 6.91400000 2340364640 2340364640 3.00000000
-1.88295722 -1.73450303 -0.49762985 3 4 22735 2.60800000 2340364643 2340364643 -11.00000000
-5.07847786 -4.67644739 0.60398930 13 5 22736 6.93000000 2340364645 2340364645 5.00000000
-2.26725531 -2.08703995 -0.48807552 2 6 22737 3.12000000 2340364647 2340364647 -9.00000000
-5.08049393 -4.67502785 0.84772313 10 7 22738 6.95600000 2340364649 2340364649 7.00000000
-2.80217147 -2.57763147 -0.46749079 1 8 22739 3.83600000 2340364652 2340364652 -7.00000000
-5.07470083 -4.66642666 1.09191251 10 9 22740 6.98000000 2340364654 2340364654 9.00000000
-3.70901132 -3.41061068 -0.44083375 6 10 22740 5.05800000 2340364656 2340364656 -5.00000000
-5.08917522 -4.67809725 1.34367692 12 11 22741 7.04200000 2340364659 2340364659 11.00000000
-5.10314989 -4.68930054 -0.36321154 10 12 22742 6.94000000 2340364661 2340364661 -3.00000000
-5.06178236 -4.64965868 1.58680475 9 13 22743 7.05400000 2340364663 2340364663 13.00000000
-5.10070324 -4.68376923 -0.12087537 14 14 22744 6.92600000 2340364666 2340364666 -1.00000000
-5.06648874 -4.65072155 1.84279156 9 15 22745 7.12000000 2340364668 2340364668 15.00000000
-1.41456640 -1.29575717 -0.51401460 4 0 22751 1.98600000 2340364689 2340364689 -15.00000000
-5.11903620 -4.68744612 0.12115461 8 1 22752 6.94200000 2340364691 2340364691 1.00000000
-1.63438189 -1.49606156 -0.51153868 4 2 22753 2.27400000 2340364693 2340364693 -13.00000000
-5.11361647 -4.68084288 0.36331621 10 3 22753 6.94200000 2340364696 2340364696 3.00000000
-1.89449227 -1.73355067 -0.49915633 3 4 22754 2.61600000 2340364698 2340364698 -11.00000000
-5.10718870 -4.67168379 0.60555810 13 5 22755 6.94800000 2340364700 2340364700 5.00000000
-2.26250124 -2.06884599 -0.48557258 2 6 22756 3.10400000 2340364702 2340364702 -9.00000000
-5.13113356 -4.69029808 0.85357291 10 7 22757 7.00400000 2340364705 2340364705 7.00000000
-2.81216908 -2.56966400 -0.46773455 1 8 22758 3.83800000 2340364707 2340364707 -7.00000000
-5.10910797 -4.66689205 1.09597981 10 9 22759 7.00600000 2340364709 2340364709 9.00000000
-3.71294546 -3.39157367 -0.43996218 6 10 22759 5.04800000 2340364712 2340364712 -5.00000000
-5.11190891 -4.66781425 1.34558499 12 11 22760 7.05200000 2340364714 2340364714 11.00000000
-5.14817476 -4.69928217 -0.36530498 10 12 22761 6.98000000 2340364716 2340364716 -3.00000000
-5.09876633 -4.65255070 1.59355330 9 13 22762 7.08400000 2340364719 2340364719 13.00000000
-5.13984537 -4.68839073 -0.12143385 12 14 22763 6.95800000 2340364721 2340364721 -1.00000000
-5.09677410 -4.64910269 1.84848559 9 15 22763 7.14200000 2340364723 2340364723 15.00000000
-1.41193545 -1.28431201 -0.51142645 5 0 22771 1.97600000 2340364744 2340364744 -15.00000000
-5.14720345 -4.68031120 0.12143385 8 1 22772 6.95800000 2340364746 2340364746 1.00000000
-1.63526809 -1.48641503 -0.51018900 4 2 22773 2.26800000 2340364748 2340364748 -13.00000000
-5.15209389 -4.68311548 0.36488628 7 3 22773 6.97200000 2340364751 2340364751 3.00000000
-1.90343797 -1.72956765 -0.49991956 3 4 22774 2.62000000 2340364753 2340364753 -11.00000000
-5.13968754 -4.66856337 0.60747552 13 5 22775 6.97000000 2340364755 2340364755 5.00000000
-2.26678419 -2.05827975 -0.48494685 2 6 22776 3.10000000 2340364758 2340364758 -9.00000000
-5.15041447 -4.67502689 0.85406035 10 7 22777 7.00800000 2340364760 2340364760 7.00000000
-2.83582282 -2.57317138 -0.47017193 1 8 22778 3.85800000 2340364762 2340364762 -7.00000000
-5.14438820 -4.66628265 1.10004711 10 9 22779 7.03200000 2340364765 2340364765 9.00000000
-3.72771311 -3.38126969 -0.44031081 9 10 22779 5.05200000 2340364767 2340364767 -5.00000000
-5.13835239 -4.65917349 1.34825635 12 11 22780 7.06600000 2340364769 2340364769 11.00000000
-5.18230438 -4.69737911 -0.36656103 11 12 22781 7.00400000 2340364772 2340364772 -3.00000000
-5.13808107 -4.65566015 1.60075176 9 13 22782 7.11600000 2340364774 2340364774 13.00000000
-5.17692852 -4.68921518 -0.12192251 12 14 22783 6.98600000 2340364776 2340364776 -1.00000000
-5.12585783 -4.64295578 1.85314441 9 15 22783 7.16000000 2340364778 2340364778 15.00000000
-1.42501163 -1.28714514 -0.51453227 5 0 22791 1.98800000 2340364799 2340364799 -15.00000000
-5.18131971 -4.67839718 0.12185270 11 1 22792 6.98200000 2340364801 2340364801 1.00000000
-1.63321364 -1.47416914 -0.50793946 4 2 22793 2.25800000 2340364804 2340364804 -13.00000000
-5.17218924 -4.66687679 0.36509565 7 3 22794 6.97600000 2340364806 2340364806 3.00000000
-1.90654850 -1.72028255 -0.49915633 3 4 22794 2.61600000 2340364808 2340364808 -11.00000000
-5.19293928 -4.68395567 0.61183333 13 5 22795 7.02000000 2340364811 2340364811 5.00000000
-2.26661968 -2.04374075 -0.48338249 1 6 22796 3.09000000 2340364813 2340364813 -9.00000000
-5.18439627 -4.67296886 0.85698521 10 7 22797 7.03200000 2340364815 2340364815 7.00000000
-5.23387814 -4.71591425 -0.86502862 2 8 22798 7.09800000 2340364818 2340364818 -7.00000000
-5.18478155 -4.67167664 1.10536587 10 9 22798 7.06600000 2340364820 2340364820 9.00000000
-3.74245405 -3.37090373 -0.44065943 9 10 22799 5.05600000 2340364822 2340364822 -5.00000000
-5.17063332 -4.65565920 1.35245419 12 11 22800 7.08800000 2340364825 2340364825 11.00000000
-5.20163870 -4.68193293 -0.36677039 11 12 22801 7.00800000 2340364827 2340364827 -3.00000000
-5.17458200 -4.65594530 1.60705030 9 13 22802 7.14400000 2340364829 2340364829 13.00000000
-5.21556711 -4.69117498 -0.12244608 14 14 22803 7.01600000 2340364831 2340364831 -1.00000000
-5.17875433 -4.65642881 1.86608529 6 15 22804 7.21000000 2340364834 2340364834 15.00000000
-1.43381023 -1.28603280 -0.51608515 6 0 22811 1.99400000 2340364854 2340364854 -15.00000000
