# .PCD v0.7 - Point Cloud Data file format
VERSION 0.7
FIELDS x y z intensity laser_id azimuth distance_m adjustedtime timestamp vertical_angle
SIZE 4 4 4 1 1 2 8 8 4 8
TYPE F F F U U U F U U F
COUNT 1 1 1 1 1 1 1 1 1 1
WIDTH 527
HEIGHT 1
VIEWPOINT 0 0 0 1 0 0 0
POINTS 527
DATA ascii
-1.86330247 0.75660866 -0.53886127 4 0 29210 2.08200000 2340682475 2340682475 -15.00000000
-4.07581615 1.65584600 0.07679059 5 1 29211 4.40000000 2340682477 2340682477 1.00000000
-2.15734243 0.87688327 -0.53763300 3 2 29212 2.39000000 2340682479 2340682479 -13.00000000
-4.13687754 1.68233538 0.23404640 5 3 29213 4.47200000 2340682482 2340682482 3.00000000
-2.53698111 1.03170884 -0.53235710 3 4 29213 2.79000000 2340682484 2340682484 -11.00000000
-5.26700592 2.14299393 0.49748498 3 5 29214 5.70800000 2340682486 2340682486 5.00000000
-3.06274009 1.24676430 -0.52374262 3 6 29215 3.34800000 2340682489 2340682489 -9.00000000
-3.82005191 1.55660152 -0.50648898 4 8 29217 4.15600000 2340682493 2340682493 -7.00000000
-5.12713671 2.09025812 -0.48441163 7 10 29218 5.55800000 2340682498 2340682498 -5.00000000
-9.86546612 4.02401352 2.07104087 28 11 29219 10.85400000 2340682500 2340682500 11.00000000
-4.07009697 1.66097569 -0.23038287 2 12 29220 4.40200000 2340682502 2340682502 -3.00000000
-3.98192096 1.62661350 -0.07508025 19 14 29222 4.30200000 2340682507 2340682507 -1.00000000
-8.18308735 3.34445548 2.36871195 47 15 29223 9.15200000 2340682509 2340682509 15.00000000
-1.86409128 0.76489967 -0.53989655 4 0 29231 2.08600000 2340682530 2340682530 -15.00000000
-4.08636856 1.67760849 0.07710473 7 1 29232 4.41800000 2340682532 2340682532 1.00000000
-2.15411401 0.88478446 -0.53763300 3 2 29233 2.39000000 2340682535 2340682535 -13.00000000
-4.13437796 1.69900489 0.23425575 5 3 29234 4.47600000 2340682537 2340682537 3.00000000
-2.52773476 1.03876173 -0.53121227 3 4 29234 2.78400000 2340682539 2340682539 -11.00000000
-3.06911087 1.26249027 -0.52561980 3 6 29236 3.36000000 2340682544 2340682544 -9.00000000
-3.80881429 1.56832480 -0.50575775 6 8 29238 4.15000000 2340682549 2340682549 -7.00000000
-5.10470343 2.10296464 -0.48301712 7 10 29239 5.54200000 2340682553 2340682553 -5.00000000
-9.87243271 4.06912279 2.07562017 31 11 29240 10.87800000 2340682555 2340682555 11.00000000
-4.04551744 1.66826797 -0.22933616 10 12 29241 4.38200000 2340682558 2340682558 -3.00000000
-3.97408414 1.64043415 -0.07504535 19 14 29243 4.30000000 2340682562 2340682562 -1.00000000
-8.17136383 3.37299943 2.36871195 45 15 29243 9.15200000 2340682565 2340682565 15.00000000
-1.85784054 0.76992267 -0.53886127 4 0 29251 2.08200000 2340682585 2340682585 -15.00000000
-4.08233500 1.69262826 0.07713964 7 1 29252 4.42000000 2340682588 2340682588 1.00000000
-2.15821242 0.89528507 -0.53943264 3 2 29253 2.39800000 2340682590 2340682590 -13.00000000
-4.13949060 1.71801984 0.23488377 5 3 29254 4.48800000 2340682592 2340682592 3.00000000
-2.51865363 1.04532111 -0.53006738 3 4 29254 2.77800000 2340682595 2340682595 -11.00000000
-5.41162157 2.24710178 0.51265007 9 5 29255 5.88200000 2340682597 2340682597 5.00000000
-3.07198215 1.27622724 -0.52687126 3 6 29256 3.36800000 2340682599 2340682599 -9.00000000
-3.81431413 1.58618379 -0.50722021 6 8 29258 4.16200000 2340682604 2340682604 -7.00000000
-4.93913221 2.05495095 -0.46802634 3 10 29259 5.37000000 2340682608 2340682608 -5.00000000
-9.87448120 4.11034966 2.07905483 28 11 29260 10.89600000 2340682611 2340682611 11.00000000
-4.04888821 1.68621862 -0.22985952 8 12 29261 4.39200000 2340682613 2340682613 -3.00000000
-3.96833372 1.65429628 -0.07504535 19 14 29263 4.30000000 2340682618 2340682618 -1.00000000
-8.15181446 3.39995170 2.36664128 45 15 29264 9.14400000 2340682620 2340682620 15.00000000
-1.85184801 0.77426505 -0.53782600 4 0 29269 2.07800000 2340682641 2340682641 -15.00000000
-4.08068705 1.70698833 0.07720944 20 1 29270 4.42400000 2340682643 2340682643 1.00000000
-2.15179396 0.90055621 -0.53853285 3 2 29271 2.39400000 2340682645 2340682645 -13.00000000
-4.14512634 1.73564434 0.23551181 5 3 29272 4.50000000 2340682648 2340682648 3.00000000
-2.51354647 1.05247033 -0.52968580 3 4 29272 2.77600000 2340682650 2340682650 -11.00000000
-5.41004848 2.26640129 0.51317298 12 5 29273 5.88800000 2340682652 2340682652 5.00000000
-3.05702662 1.28129041 -0.52499408 3 6 29274 3.35600000 2340682655 2340682655 -9.00000000
-3.82944798 1.60660672 -0.50990134 4 8 29276 4.18400000 2340682659 2340682659 -7.00000000
-4.80589104 2.01725030 -0.45599884 9 10 29277 5.23200000 2340682664 2340682664 -5.00000000
-9.87419033 4.14667225 2.08172607 25 11 29278 10.91000000 2340682666 2340682666 11.00000000
-4.05830145 1.70511949 -0.23069690 8 12 29279 4.40800000 2340682668 2340682668 -3.00000000
-3.97602010 1.67218161 -0.07528968 17 14 29281 4.31400000 2340682673 2340682673 -1.00000000
-8.12032127 3.41513658 2.36042976 45 15 29281 9.12000000 2340682675 2340682675 15.00000000
-1.85269344 0.78222734 -0.53886127 4 0 29289 2.08200000 2340682696 2340682696 -15.00000000
-4.05996704 1.71499717 0.07693021 50 1 29290 4.40800000 2340682698 2340682698 1.00000000
-2.14863729 0.90806186 -0.53853285 3 2 29291 2.39400000 2340682701 2340682701 -13.00000000
-4.15008020 1.75476980 0.23613983 5 3 29292 4.51200000 2340682703 2340682703 3.00000000
-2.53517270 1.07194197 -0.53502840 3 4 29292 2.80400000 2340682705 2340682705 -11.00000000
-5.40760899 2.28760076 0.51369596 9 5 29293 5.89400000 2340682708 2340682708 5.00000000
-3.05253553 1.29195356 -0.52499408 3 6 29294 3.35600000 2340682710 2340682710 -9.00000000
-3.82564425 1.62073863 -0.51014507 6 8 29296 4.18600000 2340682714 2340682714 -7.00000000
-4.77313852 2.02312827 -0.45355847 6 10 29297 5.20400000 2340682719 2340682719 -5.00000000
-9.85965538 4.18111420 2.08172607 28 11 29298 10.91000000 2340682721 2340682721 11.00000000
-4.07254982 1.72785592 -0.23184828 4 12 29299 4.43000000 2340682724 2340682724 -3.00000000
-3.98488355 1.69230366 -0.07556892 17 14 29301 4.33000000 2340682728 2340682728 -1.00000000
-8.11663914 3.44865322 2.36301780 36 15 29302 9.13000000 2340682731 2340682731 15.00000000
-1.84995162 0.78868967 -0.53886127 4 0 29309 2.08200000 2340682751 2340682751 -15.00000000
-4.04843760 1.72680497 0.07682549 16 1 29310 4.40200000 2340682754 2340682754 1.00000000
-2.13828492 0.91249698 -0.53673321 3 2 29311 2.38600000 2340682756 2340682756 -13.00000000
-4.15127707 1.77238262 0.23655853 5 3 29312 4.52000000 2340682758 2340682758 3.00000000
-2.51697087 1.07461774 -0.53197551 3 4 29312 2.78800000 2340682761 2340682761 -11.00000000
-5.41608095 2.31350684 0.51526475 9 5 29313 5.91200000 2340682763 2340682763 5.00000000
-3.03710842 1.29794335 -0.52311683 3 6 29314 3.34400000 2340682765 2340682765 -9.00000000
-3.82361388 1.63564420 -0.51063257 6 8 29316 4.19000000 2340682770 2340682770 -7.00000000
-4.72575045 2.02253103 -0.44972363 6 10 29317 5.16000000 2340682774 2340682774 -5.00000000
-9.86665726 4.22477865 2.08630562 28 11 29318 10.93400000 2340682777 2340682777 11.00000000
-4.08301640 1.74913967 -0.23279034 6 12 29319 4.44800000 2340682779 2340682779 -3.00000000
-3.98814130 1.71014357 -0.07574344 15 14 29321 4.34000000 2340682784 2340682784 -1.00000000
-8.10160732 3.47402740 2.36198258 11 15 29321 9.12600000 2340682786 2340682786 15.00000000
-1.85428512 0.79819769 -0.54093182 4 0 29329 2.09000000 2340682807 2340682807 -15.00000000
-4.15441847 1.78917527 0.07895469 6 1 29330 4.52400000 2340682809 2340682809 1.00000000
-2.14761448 0.92535329 -0.53988254 4 2 29331 2.40000000 2340682811 2340682811 -13.00000000
-4.14873314 1.78844380 0.23676787 5 3 29332 4.52400000 2340682814 2340682814 3.00000000
-2.50959873 1.08184266 -0.53121227 5 4 29332 2.78400000 2340682816 2340682816 -11.00000000
-5.43358517 2.34344482 0.51770508 9 5 29333 5.94000000 2340682818 2340682818 5.00000000
-3.03255939 1.30853689 -0.52311683 3 6 29334 3.34400000 2340682820 2340682820 -9.00000000
-3.81423640 1.64740694 -0.51014507 6 8 29336 4.18600000 2340682825 2340682825 -7.00000000
-4.69671440 2.02953076 -0.44763190 6 10 29337 5.13600000 2340682830 2340682830 -5.00000000
-9.86987114 4.26698446 2.09012175 28 11 29338 10.95400000 2340682832 2340682832 11.00000000
-4.07871914 1.76417422 -0.23289500 6 12 29339 4.45000000 2340682834 2340682834 -3.00000000
-3.98765278 1.72643781 -0.07584815 17 14 29341 4.34600000 2340682839 2340682839 -1.00000000
-1.84440053 0.80158544 -0.53886127 4 0 29349 2.08200000 2340682862 2340682862 -15.00000000
-4.16832018 1.81243718 0.07933864 6 1 29350 4.54600000 2340682864 2340682864 1.00000000
-2.14258432 0.93206686 -0.53943264 3 2 29351 2.39800000 2340682867 2340682867 -13.00000000
-4.15345287 1.80769694 0.23739590 5 3 29352 4.53600000 2340682869 2340682869 3.00000000
-2.50580716 1.09059620 -0.53121227 3 4 29352 2.78400000 2340682871 2340682871 -11.00000000
-5.42902517 2.36398816 0.51805371 9 5 29353 5.94400000 2340682873 2340682873 5.00000000
-3.03521705 1.32227027 -0.52436835 3 6 29354 3.35200000 2340682876 2340682876 -9.00000000
-3.80118394 1.65753722 -0.50917011 6 8 29356 4.17800000 2340682880 2340682880 -7.00000000
-4.66768742 2.03635263 -0.44554016 6 10 29357 5.11200000 2340682885 2340682885 -5.00000000
-9.87470913 4.31005001 2.09431958 28 11 29358 10.97600000 2340682887 2340682887 11.00000000
-4.09266996 1.78719294 -0.23404640 6 12 29359 4.47200000 2340682890 2340682890 -3.00000000
-3.98893142 1.74355042 -0.07598778 14 14 29361 4.35400000 2340682894 2340682894 -1.00000000
-7.99219036 3.49336338 2.33713603 2 15 29361 9.03000000 2340682896 2340682896 15.00000000
-1.83097684 0.80336154 -0.53575540 4 0 29369 2.07000000 2340682917 2340682917 -15.00000000
-4.21323729 1.84948194 0.08031598 24 1 29370 4.60200000 2340682920 2340682920 1.00000000
-2.13931775 0.93954021 -0.53943264 3 2 29371 2.39800000 2340682922 2340682922 -13.00000000
-4.15443182 1.82539785 0.23781459 5 3 29372 4.54400000 2340682924 2340682924 3.00000000
-2.50737715 1.10170567 -0.53235710 3 4 29372 2.79000000 2340682926 2340682926 -11.00000000
-5.44080353 2.39174438 0.51997113 3 5 29373 5.96600000 2340682929 2340682929 5.00000000
-3.03781605 1.33603823 -0.52561980 3 6 29374 3.36000000 2340682931 2340682931 -9.00000000
-3.80627608 1.67559457 -0.51063257 6 8 29376 4.19000000 2340682936 2340682936 -7.00000000
-4.62772989 2.03817844 -0.44240254 3 10 29377 5.07600000 2340682940 2340682940 -5.00000000
-9.87038326 4.34924269 2.09660935 25 11 29378 10.98800000 2340682943 2340682943 11.00000000
-4.08823395 1.80227387 -0.23415107 6 12 29379 4.47400000 2340682945 2340682945 -3.00000000
-3.99379802 1.76230752 -0.07619721 14 14 29381 4.36600000 2340682949 2340682949 -1.00000000
-7.97933292 3.52263284 2.33713603 2 15 29382 9.03000000 2340682952 2340682952 15.00000000
-1.83861732 0.81476307 -0.53886127 4 0 29390 2.08200000 2340682973 2340682973 -15.00000000
-2.13585973 0.94737488 -0.53943264 3 2 29392 2.39800000 2340682977 2340682977 -13.00000000
-4.16231823 1.84709346 0.23865196 5 3 29393 4.56000000 2340682979 2340682979 3.00000000
-2.50870585 1.11327732 -0.53350192 3 4 29393 2.79600000 2340682982 2340682982 -11.00000000
-3.01845646 1.34074831 -0.52311683 3 6 29395 3.34400000 2340682986 2340682986 -9.00000000
-3.80010915 1.68953395 -0.51063257 6 8 29397 4.19000000 2340682991 2340682991 -7.00000000
-4.61476755 2.05269694 -0.44187963 6 10 29398 5.07000000 2340682996 2340682996 -5.00000000
-9.86693192 4.39097786 2.09928060 21 11 29399 11.00200000 2340682998 2340682998 11.00000000
-4.07795191 1.81562114 -0.23394172 4 12 29400 4.47000000 2340683000 2340683000 -3.00000000
-3.99827123 1.78181756 -0.07640664 14 14 29402 4.37800000 2340683005 2340683005 -1.00000000
-7.94934225 3.54260063 2.33195949 2 15 29402 9.01000000 2340683007 2340683007 15.00000000
-1.84634280 0.82590908 -0.54196709 4 0 29410 2.09400000 2340683028 2340683028 -15.00000000
-2.12186837 0.95004654 -0.53673321 3 2 29412 2.38600000 2340683032 2340683032 -13.00000000
-4.15584517 1.86161137 0.23865196 5 3 29413 4.56000000 2340683035 2340683035 3.00000000
-2.51197147 1.12523794 -0.53502840 3 4 29413 2.80400000 2340683037 2340683037 -11.00000000
-3.03178263 1.35935831 -0.52624553 3 6 29415 3.36400000 2340683042 2340683042 -9.00000000
-3.80505490 1.70766532 -0.51209497 6 8 29417 4.20200000 2340683046 2340683046 -7.00000000
-4.61666203 2.07287335 -0.44275117 6 10 29418 5.08000000 2340683051 2340683051 -5.00000000
-9.86587143 4.43182850 2.10233355 21 11 29419 11.01800000 2340683053 2340683053 11.00000000
-4.08980656 1.83803201 -0.23498844 4 12 29420 4.49000000 2340683055 2340683055 -3.00000000
-4.00479269 1.80150580 -0.07665097 12 14 29422 4.39200000 2340683060 2340683060 -1.00000000
-7.96511698 3.58300781 2.34024191 2 15 29422 9.04200000 2340683062 2340683062 15.00000000
-1.84007215 0.83043784 -0.54093182 4 0 29429 2.09000000 2340683083 2340683083 -15.00000000
-4.21186447 1.90172970 0.08066502 96 1 29430 4.62200000 2340683085 2340683085 1.00000000
-2.13291383 0.96349567 -0.54033244 3 2 29431 2.40200000 2340683088 2340683088 -13.00000000
-4.15361643 1.87630260 0.23886131 5 3 29431 4.56400000 2340683090 2340683090 3.00000000
-2.49928093 1.12951910 -0.53312033 3 4 29432 2.79400000 2340683092 2340683092 -11.00000000
-3.01285982 1.36289144 -0.52374262 3 6 29434 3.34800000 2340683097 2340683097 -9.00000000
-3.78490424 1.71372354 -0.51014507 6 8 29436 4.18600000 2340683101 2340683101 -7.00000000
-4.60976267 2.08817148 -0.44275117 6 10 29437 5.08000000 2340683106 2340683106 -5.00000000
-9.87973118 4.47748709 2.10843945 21 11 29438 11.05000000 2340683108 2340683108 11.00000000
-4.09642220 1.85735750 -0.23572114 4 12 29439 4.50400000 2340683111 2340683111 -3.00000000
-10.63746643 4.82536888 2.69671321 57 13 29440 11.98800000 2340683113 2340683113 13.00000000
-4.00972223 1.81973469 -0.07686040 13 14 29441 4.40400000 2340683115 2340683115 -1.00000000
-7.96374655 3.61419177 2.34334755 2 15 29441 9.05400000 2340683118 2340683118 15.00000000
-1.83540416 0.83605504 -0.54041415 4 0 29449 2.08800000 2340683138 2340683138 -15.00000000
-4.23431492 1.92968845 0.08122350 114 1 29450 4.65400000 2340683141 2340683141 1.00000000
-2.13131070 0.97174346 -0.54078233 4 2 29451 2.40400000 2340683143 2340683143 -13.00000000
-4.15761423 1.89648700 0.23948933 5 3 29452 4.57600000 2340683145 2340683145 3.00000000
-2.48996449 1.13579202 -0.53197551 3 4 29452 2.78800000 2340683148 2340683148 -11.00000000
-3.03683519 1.38652682 -0.52874851 3 6 29454 3.38000000 2340683152 2340683152 -9.00000000
-3.78612113 1.73022532 -0.51112002 8 8 29456 4.19400000 2340683157 2340683157 -7.00000000
-4.61694145 2.11087728 -0.44414568 6 10 29457 5.09600000 2340683161 2340683161 -5.00000000
-9.86582756 4.51276350 2.10882092 28 11 29458 11.05200000 2340683164 2340683164 11.00000000
-4.11352348 1.88244975 -0.23708189 4 12 29459 4.53000000 2340683166 2340683166 -3.00000000
-10.61701488 4.86084890 2.69581342 59 13 29460 11.98400000 2340683168 2340683168 13.00000000
-4.01425409 1.83871663 -0.07706983 13 14 29461 4.41600000 2340683171 2340683171 -1.00000000
-7.94693375 3.64174628 2.34231234 2 15 29462 9.05000000 2340683173 2340683173 15.00000000
-1.82706225 0.84035474 -0.53886127 4 0 29470 2.08200000 2340683194 2340683194 -15.00000000
-2.12950492 0.98036355 -0.54123223 3 2 29472 2.40600000 2340683198 2340683198 -13.00000000
-4.17273998 1.92101097 0.24074540 5 3 29472 4.60000000 2340683201 2340683201 3.00000000
-2.49826717 1.15065968 -0.53464681 3 4 29473 2.80200000 2340683203 2340683203 -11.00000000
-3.01379371 1.38937795 -0.52561980 3 6 29475 3.36000000 2340683207 2340683207 -9.00000000
-3.78335905 1.74575388 -0.51160753 8 8 29477 4.19800000 2340683212 2340683212 -7.00000000
-4.58384848 2.11609387 -0.44170532 6 10 29478 5.06800000 2340683217 2340683217 -5.00000000
-9.87060928 4.55877113 2.11340046 18 11 29479 11.07600000 2340683219 2340683219 11.00000000
-4.12110090 1.90421593 -0.23791926 4 12 29480 4.54600000 2340683221 2340683221 -3.00000000
-10.59912682 4.89972925 2.69581342 56 13 29481 11.98400000 2340683224 2340683224 13.00000000
-4.01293325 1.85593545 -0.07717454 11 14 29482 4.42200000 2340683226 2340683226 -1.00000000
-9.04408073 4.18278360 2.66997719 28 15 29482 10.31600000 2340683228 2340683228 15.00000000
-1.83112681 0.84998077 -0.54093182 4 0 29490 2.09000000 2340683249 2340683249 -15.00000000
-4.24397564 1.97088826 0.08167727 63 1 29491 4.68000000 2340683251 2340683251 1.00000000
-2.12606978 0.98779094 -0.54123223 4 2 29492 2.40600000 2340683253 2340683253 -13.00000000
-4.18049955 1.94229722 0.24158278 5 3 29492 4.61600000 2340683256 2340683256 3.00000000
-2.50491738 1.16433847 -0.53693652 3 4 29493 2.81400000 2340683258 2340683258 -11.00000000
-3.01608968 1.40322268 -0.52687126 3 6 29495 3.36800000 2340683263 2340683263 -9.00000000
-3.79163837 1.76565361 -0.51355743 6 8 29497 4.21400000 2340683267 2340683267 -7.00000000
-4.60171795 2.14386106 -0.44414568 6 10 29498 5.09600000 2340683272 2340683272 -5.00000000
-4.11080837 1.91690147 -0.23770991 6 12 29500 4.54200000 2340683277 2340683277 -3.00000000
-10.58195972 4.93669748 2.69581342 57 13 29501 11.98400000 2340683279 2340683279 13.00000000
-4.02092648 1.87669790 -0.07745378 11 14 29502 4.43800000 2340683281 2340683281 -1.00000000
-9.04518032 4.22168112 2.67463613 42 15 29502 10.33400000 2340683283 2340683283 15.00000000
-1.83864522 0.86128438 -0.54403764 4 0 29510 2.10200000 2340683304 2340683304 -15.00000000
-4.26966286 2.00096512 0.08230555 12 1 29511 4.71600000 2340683306 2340683306 1.00000000
-2.11025786 0.98941541 -0.53808290 4 2 29512 2.39200000 2340683309 2340683309 -13.00000000
-4.17877722 1.96015096 0.24189679 5 3 29513 4.62200000 2340683311 2340683311 3.00000000
-2.49906039 1.17224145 -0.53655487 3 4 29513 2.81200000 2340683313 2340683313 -11.00000000
-3.01117301 1.41374218 -0.52687126 3 6 29515 3.36800000 2340683318 2340683318 -9.00000000
-3.78185892 1.77718961 -0.51306993 6 8 29517 4.21000000 2340683323 2340683323 -7.00000000
-4.60863113 2.16669250 -0.44554016 6 10 29518 5.11200000 2340683327 2340683327 -5.00000000
-4.10228491 1.93038881 -0.23760524 6 12 29520 4.54000000 2340683332 2340683332 -3.00000000
-10.55408382 4.96862507 2.69311404 59 13 29521 11.97200000 2340683334 2340683334 13.00000000
-4.02701473 1.89668655 -0.07769811 9 14 29522 4.45200000 2340683336 2340683336 -1.00000000
-9.02440357 4.25233507 2.67308307 47 15 29523 10.32800000 2340683339 2340683339 15.00000000
-1.83562756 0.86769718 -0.54403764 4 0 29530 2.10200000 2340683359 2340683359 -15.00000000
-4.26265240 2.01585674 0.08230555 31 1 29531 4.71600000 2340683362 2340683362 1.00000000
-2.11912203 1.00260949 -0.54123223 3 2 29532 2.40600000 2340683364 2340683364 -13.00000000
-4.19030809 1.98253930 0.24294351 5 3 29532 4.64200000 2340683366 2340683366 3.00000000
-2.49317884 1.18011773 -0.53617328 3 4 29533 2.81000000 2340683369 2340683369 -11.00000000
-3.02585673 1.43354785 -0.53031284 3 6 29535 3.39000000 2340683373 2340683373 -9.00000000
-3.76845765 1.78697777 -0.51209497 6 8 29537 4.20200000 2340683378 2340683378 -7.00000000
-4.62984133 2.19643021 -0.44832915 6 10 29538 5.14400000 2340683383 2340683383 -5.00000000
-4.10995531 1.95155025 -0.23844261 6 12 29540 4.55600000 2340683387 2340683387 -3.00000000
-10.52611446 5.00041819 2.69041467 62 13 29541 11.96000000 2340683389 2340683389 13.00000000
-4.02036953 1.91073191 -0.07769811 9 14 29542 4.45200000 2340683392 2340683392 -1.00000000
-9.00950527 4.28381014 2.67308307 47 15 29543 10.32800000 2340683394 2340683394 15.00000000
-1.83274007 0.87377959 -0.54403764 4 0 29549 2.10200000 2340683415 2340683415 -15.00000000
-2.11226797 1.00795269 -0.54033244 3 2 29551 2.40200000 2340683419 2340683419 -13.00000000
-4.21074867 2.00932622 0.24451359 6 3 29551 4.67200000 2340683422 2340683422 3.00000000
-2.48216486 1.18499565 -0.53464681 3 4 29552 2.80200000 2340683424 2340683424 -11.00000000
-3.00504518 1.43590903 -0.52749699 3 6 29554 3.37200000 2340683429 2340683429 -9.00000000
-3.76609278 1.80117762 -0.51258248 8 8 29556 4.20600000 2340683433 2340683433 -7.00000000
-4.66926098 2.23412967 -0.45286125 3 10 29557 5.19600000 2340683438 2340683438 -5.00000000
-4.11607075 1.97120738 -0.23917532 6 12 29559 4.57000000 2340683442 2340683442 -3.00000000
-10.50595951 5.03361273 2.68951488 59 13 29560 11.95600000 2340683445 2340683445 13.00000000
-4.01942110 1.92664647 -0.07780283 9 14 29561 4.45800000 2340683447 2340683447 -1.00000000
-8.99176598 4.31199217 2.67204785 47 15 29562 10.32400000 2340683449 2340683449 15.00000000
-1.81923354 0.87514693 -0.54093182 4 0 29569 2.09000000 2340683470 2340683470 -15.00000000
-2.11224842 1.01701057 -0.54123223 3 2 29571 2.40600000 2340683475 2340683475 -13.00000000
-4.24689817 2.04480696 0.24702571 4 3 29571 4.72000000 2340683477 2340683477 3.00000000
-2.47624445 1.19280076 -0.53426516 3 4 29572 2.80000000 2340683479 2340683479 -11.00000000
-3.01069069 1.45153713 -0.52937424 3 6 29574 3.38400000 2340683484 2340683484 -9.00000000
-3.76693368 1.81776369 -0.51355743 6 8 29576 4.21400000 2340683489 2340683489 -7.00000000
-5.03284121 2.42972040 -0.48894373 10 10 29577 5.61000000 2340683493 2340683493 -5.00000000
-4.11276150 1.98730099 -0.23938467 13 12 29579 4.57400000 2340683498 2340683498 -3.00000000
-10.49885178 5.07534361 2.69221425 59 13 29580 11.96800000 2340683500 2340683500 13.00000000
-4.03247356 1.95024216 -0.07818678 7 14 29581 4.48000000 2340683502 2340683502 -1.00000000
-8.96970367 4.33998775 2.66997719 49 15 29582 10.31600000 2340683505 2340683505 15.00000000
-1.80921578 0.87811780 -0.53886127 4 0 29589 2.08200000 2340683525 2340683525 -15.00000000
-2.10693264 1.02352595 -0.54078233 4 2 29591 2.40400000 2340683530 2340683530 -13.00000000
-2.48089457 1.20572805 -0.53617328 3 4 29592 2.81000000 2340683535 2340683535 -11.00000000
-2.98428917 1.45166850 -0.52561980 3 6 29594 3.36000000 2340683539 2340683539 -9.00000000
-3.77127433 1.83611536 -0.51501983 8 8 29596 4.22600000 2340683544 2340683544 -7.00000000
-5.02432966 2.44727349 -0.48894373 10 10 29597 5.61000000 2340683548 2340683548 -5.00000000
-4.12734270 2.01214790 -0.24064073 4 12 29599 4.59800000 2340683553 2340683553 -3.00000000
-10.48807812 5.11537743 2.69401383 57 13 29600 11.97600000 2340683555 2340683555 13.00000000
-4.04001856 1.97132158 -0.07846602 7 14 29601 4.49600000 2340683558 2340683558 -1.00000000
-8.95178986 4.36801386 2.66894197 47 15 29601 10.31200000 2340683560 2340683560 15.00000000
-1.82348955 0.89292371 -0.54403764 4 0 29609 2.10200000 2340683581 2340683581 -15.00000000
-4.16980505 2.04276633 0.08104897 4 1 29610 4.64400000 2340683583 2340683583 1.00000000
-2.09809732 1.02830136 -0.53943264 3 2 29611 2.39800000 2340683585 2340683585 -13.00000000
-2.48724723 1.21956658 -0.53846300 3 4 29612 2.82200000 2340683590 2340683590 -11.00000000
-2.99339056 1.46903908 -0.52812278 3 6 29614 3.37600000 2340683594 2340683594 -9.00000000
-3.76127863 1.84751809 -0.51453239 8 8 29616 4.22200000 2340683599 2340683599 -7.00000000
-5.02648497 2.47006917 -0.48998958 10 10 29617 5.62200000 2340683604 2340683604 -5.00000000
-4.18660545 2.05915785 -0.24451359 2 12 29619 4.67200000 2340683608 2340683608 -3.00000000
-10.45617008 5.14507341 2.69041467 57 13 29620 11.96000000 2340683611 2340683611 13.00000000
-4.04746532 1.99247742 -0.07874526 5 14 29621 4.51200000 2340683613 2340683613 -1.00000000
-8.93918705 4.40250158 2.66997719 47 15 29622 10.31600000 2340683615 2340683615 15.00000000
-1.82398283 0.90067643 -0.54507291 4 0 29628 2.10600000 2340683636 2340683636 -15.00000000
-4.15583658 2.05303979 0.08090936 6 1 29629 4.63600000 2340683638 2340683638 1.00000000
-2.10515809 1.04043388 -0.54213202 3 2 29630 2.41000000 2340683641 2340683641 -13.00000000
-2.46207070 1.21736586 -0.53388357 3 4 29631 2.79800000 2340683645 2340683645 -11.00000000
-2.98142076 1.47545278 -0.52687126 3 6 29633 3.36800000 2340683650 2340683650 -9.00000000
-3.74445844 1.85469425 -0.51306993 8 8 29635 4.21000000 2340683654 2340683654 -7.00000000
-5.02719259 2.49114704 -0.49086115 10 10 29636 5.63200000 2340683659 2340683659 -5.00000000
-7.55254364 3.74582982 -0.44182014 4 12 29638 8.44200000 2340683664 2340683664 -3.00000000
-9.07568932 4.50323725 2.33904099 17 13 29639 10.39800000 2340683666 2340683666 13.00000000
-4.04979181 2.01033401 -0.07891978 5 14 29640 4.52200000 2340683668 2340683668 -1.00000000
-8.92185116 4.42884541 2.66894197 47 15 29640 10.31200000 2340683671 2340683671 15.00000000
-1.81045270 0.90186948 -0.54196709 4 0 29648 2.09400000 2340683691 2340683691 -15.00000000
-4.15222406 2.06931782 0.08097917 6 1 29649 4.64000000 2340683694 2340683694 1.00000000
-2.10674524 1.05038452 -0.54348177 4 2 29650 2.41600000 2340683696 2340683696 -13.00000000
-2.46132016 1.22770536 -0.53464681 3 4 29651 2.80200000 2340683700 2340683700 -11.00000000
-2.99392605 1.49467421 -0.52999997 3 6 29653 3.38800000 2340683705 2340683705 -9.00000000
-3.73973727 1.86864078 -0.51331365 6 8 29655 4.21200000 2340683710 2340683710 -7.00000000
-5.02203035 2.51046181 -0.49120978 14 10 29656 5.63600000 2340683714 2340683714 -5.00000000
-7.55728388 3.78110695 -0.44286686 8 12 29658 8.46200000 2340683719 2340683719 -3.00000000
-10.39825249 5.20478725 2.68456578 42 13 29659 11.93400000 2340683721 2340683721 13.00000000
-4.07314634 2.03967977 -0.07951316 3 14 29660 4.55600000 2340683724 2340683724 -1.00000000
-8.90901279 4.46324635 2.66997719 47 15 29661 10.31600000 2340683726 2340683726 15.00000000
-1.80713511 0.90849906 -0.54196709 4 0 29669 2.09400000 2340683747 2340683747 -15.00000000
-2.10636306 1.05985081 -0.54438156 4 2 29671 2.42000000 2340683751 2340683751 -13.00000000
-2.46031094 1.23848379 -0.53541005 3 4 29672 2.80600000 2340683756 2340683756 -11.00000000
-2.98489928 1.50385988 -0.52937424 3 6 29674 3.38400000 2340683760 2340683760 -9.00000000
-3.74172568 1.88680398 -0.51453239 6 8 29676 4.22200000 2340683765 2340683765 -7.00000000
-5.00568008 2.52526212 -0.49051252 14 10 29677 5.62800000 2340683770 2340683770 -5.00000000
-10.18658733 5.14115334 2.21796370 15 11 29678 11.62400000 2340683772 2340683772 11.00000000
-7.57190084 3.82318377 -0.44454160 8 12 29679 8.49400000 2340683774 2340683774 -3.00000000
-8.87613678 4.48560429 2.66480088 47 15 29681 10.29600000 2340683781 2340683781 15.00000000
-1.80739868 0.91654909 -0.54300237 4 0 29689 2.09800000 2340683802 2340683802 -15.00000000
-2.09569955 1.06366909 -0.54258192 4 2 29691 2.41200000 2340683806 2340683806 -13.00000000
-2.46647596 1.25239742 -0.53769976 3 4 29692 2.81800000 2340683811 2340683811 -11.00000000
-2.97258782 1.51069009 -0.52812278 3 6 29694 3.37600000 2340683816 2340683816 -9.00000000
-3.74927163 1.90705347 -0.51648229 6 8 29696 4.23800000 2340683820 2340683820 -7.00000000
-5.00393772 2.54633427 -0.49120978 10 10 29697 5.63600000 2340683825 2340683825 -5.00000000
-10.15108299 5.16777277 2.21414757 25 11 29698 11.60400000 2340683827 2340683827 11.00000000
-7.54783106 3.84415293 -0.44391358 8 12 29699 8.48200000 2340683829 2340683829 -3.00000000
-8.79629898 4.48193836 2.27920413 15 13 29700 10.13200000 2340683832 2340683832 13.00000000
-8.86307907 4.51986170 2.66583610 47 15 29702 10.30000000 2340683836 2340683836 15.00000000
-1.80606949 0.92341703 -0.54351997 4 0 29708 2.10000000 2340683857 2340683857 -15.00000000
-2.09216094 1.07061279 -0.54258192 4 2 29710 2.41200000 2340683862 2340683862 -13.00000000
-2.46580434 1.26235902 -0.53846300 3 4 29711 2.82200000 2340683866 2340683866 -11.00000000
-2.97810984 1.52594399 -0.52999997 3 6 29713 3.38800000 2340683871 2340683871 -9.00000000
-3.74292684 1.91947603 -0.51648229 6 8 29715 4.23800000 2340683876 2340683876 -7.00000000
-5.01319313 2.57200861 -0.49295288 14 10 29716 5.65600000 2340683880 2340683880 -5.00000000
-10.16532993 5.21754313 2.22101665 15 11 29717 11.64000000 2340683882 2340683882 11.00000000
-7.55280924 3.87828445 -0.44496030 8 12 29718 8.50200000 2340683885 2340683885 -3.00000000
-8.70858574 4.47368383 2.26030827 15 13 29719 10.04800000 2340683887 2340683887 13.00000000
-8.85914516 4.55298185 2.66894197 47 15 29720 10.31200000 2340683892 2340683892 15.00000000
-1.80798614 0.93237215 -0.54507291 4 0 29728 2.10600000 2340683912 2340683912 -15.00000000
-2.08494759 1.07612169 -0.54168212 4 2 29730 2.40800000 2340683917 2340683917 -13.00000000
-2.45789409 1.26915705 -0.53769976 3 4 29731 2.81800000 2340683922 2340683922 -11.00000000
-2.97978473 1.53995800 -0.53125143 3 6 29733 3.39600000 2340683926 2340683926 -9.00000000
-3.72915125 1.92888153 -0.51550734 6 8 29735 4.23000000 2340683931 2340683931 -7.00000000
-5.00772381 2.59132361 -0.49330151 14 10 29736 5.66000000 2340683935 2340683935 -5.00000000
-7.54277229 3.90646195 -0.44516966 8 12 29738 8.50600000 2340683940 2340683940 -3.00000000
-8.63927746 4.47626352 2.24636126 14 13 29739 9.98600000 2340683942 2340683942 13.00000000
-8.83553791 4.58186436 2.66687155 47 15 29741 10.30400000 2340683947 2340683947 15.00000000
-1.80472052 0.93867749 -0.54507291 4 0 29748 2.10600000 2340683968 2340683968 -15.00000000
-2.08809280 1.08699226 -0.54348177 4 2 29750 2.41600000 2340683972 2340683972 -13.00000000
-2.44996643 1.27591527 -0.53693652 3 4 29751 2.81400000 2340683977 2340683977 -11.00000000
-2.97439122 1.55034995 -0.53125143 3 6 29753 3.39600000 2340683982 2340683982 -9.00000000
-3.74703526 1.95474100 -0.51891965 6 8 29755 4.25800000 2340683986 2340683986 -7.00000000
-5.00041389 2.60970974 -0.49347582 14 10 29756 5.66200000 2340683991 2340683991 -5.00000000
-5.07191229 2.64927793 -0.29988503 3 12 29758 5.73000000 2340683995 2340683995 -3.00000000
-8.57696724 4.48202419 2.23421383 15 13 29759 9.93200000 2340683998 2340683998 13.00000000
-5.03641415 2.63297367 -0.09919948 4 14 29760 5.68400000 2340684000 2340684000 -1.00000000
-8.81687164 4.60934877 2.66583610 47 15 29760 10.30000000 2340684002 2340684002 15.00000000
-1.79458988 0.94138181 -0.54300237 4 0 29768 2.09800000 2340684023 2340684023 -15.00000000
-5.02341843 2.63623524 0.09902495 7 1 29769 5.67400000 2340684025 2340684025 1.00000000
-2.08428574 1.09427452 -0.54348177 4 2 29770 2.41600000 2340684028 2340684028 -13.00000000
-5.03052425 2.64220452 0.29779160 4 3 29771 5.69000000 2340684030 2340684030 3.00000000
-2.43854523 1.28080785 -0.53541005 3 4 29771 2.80600000 2340684032 2340684032 -11.00000000
-2.97420692 1.56348062 -0.53219002 1 6 29773 3.40200000 2340684037 2340684037 -9.00000000
-3.72964859 1.96226299 -0.51745725 6 8 29775 4.24600000 2340684041 2340684041 -7.00000000
-4.97716951 2.61972475 -0.49208131 17 10 29776 5.64600000 2340684046 2340684046 -5.00000000
-5.02729273 2.64834833 -0.29779160 9 12 29778 5.69000000 2340684051 2340684051 -3.00000000
-10.26628304 5.41050768 2.67916703 6 13 29779 11.91000000 2340684053 2340684053 13.00000000
-5.00950336 2.64121151 -0.09885043 6 14 29780 5.66400000 2340684055 2340684055 -1.00000000
-8.78624821 4.63442326 2.66169500 42 15 29781 10.28400000 2340684058 2340684058 15.00000000
-1.80153859 0.95306057 -0.54610819 4 0 29788 2.11000000 2340684078 2340684078 -15.00000000
-4.97883701 2.63504601 0.09832685 7 1 29789 5.63400000 2340684081 2340684081 1.00000000
-2.07873106 1.10063148 -0.54303187 3 2 29790 2.41400000 2340684083 2340684083 -13.00000000
-4.98773670 2.64198542 0.29580283 6 3 29791 5.65200000 2340684085 2340684085 3.00000000
-2.44446898 1.29482603 -0.53769976 3 4 29791 2.81800000 2340684088 2340684088 -11.00000000
-4.99272060 2.64574122 0.49434736 8 5 29792 5.67200000 2340684090 2340684090 5.00000000
-2.96000481 1.56922674 -0.53062570 3 6 29793 3.39200000 2340684092 2340684092 -9.00000000
-4.99806643 2.65080905 0.69465524 7 7 29794 5.70000000 2340684094 2340684094 7.00000000
-3.72277617 1.97526991 -0.51745725 8 8 29795 4.24600000 2340684097 2340684097 -7.00000000
-4.98535872 2.64518428 0.89386654 7 9 29795 5.71400000 2340684099 2340684099 9.00000000
-4.95391560 2.62960911 -0.49068683 14 10 29796 5.63000000 2340684101 2340684101 -5.00000000
-4.99199343 2.65093803 1.09867823 5 11 29797 5.75800000 2340684104 2340684104 11.00000000
-4.97744989 2.64432883 -0.29538414 9 12 29798 5.64400000 2340684106 2340684106 -3.00000000
-4.98170185 2.64770269 1.30246663 6 13 29799 5.79000000 2340684108 2340684108 13.00000000
-4.96670675 2.64084482 -0.09818724 6 14 29800 5.62600000 2340684111 2340684111 -1.00000000
-1.79479194 0.95752466 -0.54507291 4 0 29808 2.10600000 2340684134 2340684134 -15.00000000
-4.94843912 2.64111066 0.09790800 7 1 29809 5.61000000 2340684136 2340684136 1.00000000
-2.07315755 1.10696304 -0.54258192 4 2 29810 2.41200000 2340684138 2340684138 -13.00000000
-4.95029736 2.64432311 0.29412806 6 3 29811 5.62000000 2340684141 2340684141 3.00000000
-2.45032430 1.30890095 -0.53998947 3 4 29811 2.83000000 2340684143 2340684143 -11.00000000
-4.94655323 2.64343286 0.49068683 8 5 29812 5.63000000 2340684145 2340684145 5.00000000
-2.96321917 1.58420622 -0.53219002 3 6 29813 3.40200000 2340684147 2340684147 -9.00000000
-4.94502163 2.64483380 0.68856180 7 7 29814 5.65000000 2340684150 2340684150 7.00000000
-3.70885730 1.98450673 -0.51648229 6 8 29815 4.23800000 2340684152 2340684152 -7.00000000
-4.95519400 2.65138698 0.89011210 9 9 29815 5.69000000 2340684154 2340684154 9.00000000
-4.93241072 2.64030361 -0.48946664 10 10 29816 5.61600000 2340684157 2340684157 -5.00000000
-4.93771076 2.64424968 1.08875608 8 11 29817 5.70600000 2340684159 2340684159 11.00000000
-4.93297911 2.64282346 -0.29329070 8 12 29818 5.60400000 2340684161 2340684161 -3.00000000
-4.94151258 2.64850545 1.29436839 8 13 29819 5.75400000 2340684164 2340684164 13.00000000
-4.92044878 2.63832164 -0.09745423 6 14 29820 5.58400000 2340684166 2340684166 -1.00000000
-4.94590044 2.65196872 1.50373864 6 15 29820 5.81000000 2340684168 2340684168 15.00000000
-1.80164623 0.96927547 -0.54817873 4 0 29828 2.11800000 2340684189 2340684189 -15.00000000
-4.90397263 2.63941336 0.09720990 7 1 29829 5.57000000 2340684191 2340684191 1.00000000
-2.07614398 1.11788845 -0.54438156 4 2 29830 2.42000000 2340684194 2340684194 -13.00000000
-4.88652706 2.63222408 0.29088324 6 3 29831 5.55800000 2340684196 2340684196 3.00000000
-2.44228363 1.31558418 -0.53922623 3 4 29831 2.82600000 2340684198 2340684198 -11.00000000
-4.89344788 2.63705397 0.48632905 8 5 29832 5.58000000 2340684200 2340684200 5.00000000
-2.96462655 1.59828973 -0.53344154 1 6 29833 3.41000000 2340684203 2340684203 -9.00000000
-4.91304588 2.64982867 0.68539321 7 7 29834 5.62400000 2340684205 2340684205 7.00000000
-3.71937776 2.00686717 -0.51891965 6 8 29835 4.25800000 2340684207 2340684207 -7.00000000
-4.90372372 2.64701104 0.88260323 9 9 29836 5.64200000 2340684210 2340684210 9.00000000
-4.89861870 2.64425516 -0.48702630 10 10 29836 5.58800000 2340684212 2340684212 -5.00000000
-4.90081120 2.64654350 1.08265018 8 11 29837 5.67400000 2340684214 2340684214 11.00000000
-4.88330746 2.63819218 -0.29088324 11 12 29838 5.55800000 2340684217 2340684217 -3.00000000
-4.88080645 2.63794136 1.28087127 7 13 29839 5.69400000 2340684219 2340684219 13.00000000
-4.86195660 2.62885022 -0.09647691 6 14 29840 5.52800000 2340684221 2340684221 -1.00000000
-4.89582872 2.64716482 1.49131536 6 15 29840 5.76200000 2340684223 2340684223 15.00000000
-1.79145956 0.97187364 -0.54610819 4 0 29848 2.11000000 2340684244 2340684244 -15.00000000
-4.86309385 2.63934565 0.09658162 7 1 29849 5.53400000 2340684247 2340684247 1.00000000
-2.07051659 1.12419879 -0.54393166 3 2 29850 2.41800000 2340684249 2340684249 -13.00000000
-4.85449362 2.63687205 0.28952250 6 3 29851 5.53200000 2340684251 2340684251 3.00000000
-2.42732549 1.31847882 -0.53693652 3 4 29851 2.81400000 2340684253 2340684253 -11.00000000
-4.85795355 2.63984966 0.48371437 11 5 29852 5.55000000 2340684256 2340684256 5.00000000
-2.95902944 1.60862851 -0.53344154 1 6 29853 3.41000000 2340684258 2340684258 -9.00000000
-4.87935209 2.65368438 0.68198085 7 7 29854 5.59600000 2340684260 2340684260 7.00000000
-3.71234965 2.01983809 -0.51891965 6 8 29855 4.25800000 2340684263 2340684263 -7.00000000
-4.86669397 2.64900184 0.87759733 9 9 29856 5.61000000 2340684265 2340684265 9.00000000
-4.85435963 2.64228797 -0.48354006 10 10 29856 5.54800000 2340684267 2340684267 -5.00000000
-4.87085295 2.65236759 1.07807088 8 11 29857 5.65000000 2340684270 2340684270 11.00000000
-4.83899117 2.63611269 -0.28878981 11 12 29858 5.51800000 2340684272 2340684272 -3.00000000
-4.85616827 2.64656949 1.27682221 7 13 29859 5.67600000 2340684274 2340684274 13.00000000
-4.81412554 2.62474632 -0.09570900 10 14 29860 5.48400000 2340684276 2340684276 -1.00000000
-4.84878254 2.64473987 1.47992730 6 15 29861 5.71800000 2340684279 2340684279 15.00000000
-1.77788711 0.97255832 -0.54300237 4 0 29868 2.09800000 2340684300 2340684300 -15.00000000
-4.80122566 2.62750506 0.09553447 10 1 29869 5.47400000 2340684302 2340684302 1.00000000
-2.07341719 1.13516271 -0.54573125 3 2 29870 2.42600000 2340684304 2340684304 -13.00000000
-4.82423878 2.64228797 0.28826645 6 3 29871 5.50800000 2340684306 2340684306 3.00000000
-2.41926455 1.32505751 -0.53617328 2 4 29871 2.81000000 2340684309 2340684309 -11.00000000
-4.81026888 2.63572812 0.47987953 8 5 29872 5.50600000 2340684311 2340684311 5.00000000
-2.96032500 1.62274575 -0.53469300 3 6 29873 3.41800000 2340684313 2340684313 -9.00000000
-4.84221029 2.65542817 0.67808104 10 7 29874 5.56400000 2340684316 2340684316 7.00000000
-3.71223807 2.03660345 -0.51989460 8 8 29875 4.26600000 2340684318 2340684318 -7.00000000
-4.81585693 2.64316320 0.87008852 9 9 29876 5.56200000 2340684320 2340684320 9.00000000
-4.81017447 2.64004445 -0.48005384 10 10 29876 5.50800000 2340684323 2340684323 -5.00000000
-4.82026291 2.64667630 1.06891203 8 11 29877 5.60200000 2340684325 2340684325 11.00000000
-4.80875301 2.64144897 -0.28753373 11 12 29878 5.49400000 2340684327 2340684327 -3.00000000
-4.81615925 2.64661121 1.26872396 8 13 29879 5.64000000 2340684329 2340684329 13.00000000
-4.78040123 2.62804770 -0.09522033 10 14 29880 5.45600000 2340684332 2340684332 -1.00000000
-4.80104876 2.63939881 1.46802163 8 15 29880 5.67200000 2340684334 2340684334 15.00000000
-1.78124785 0.98249054 -0.54507291 4 0 29888 2.10600000 2340684355 2340684355 -15.00000000
-4.76050949 2.62685847 0.09490619 7 1 29889 5.43800000 2340684357 2340684357 1.00000000
-2.06603003 1.14050984 -0.54483145 3 2 29890 2.42200000 2340684359 2340684359 -13.00000000
-4.78001881 2.63980079 0.28617302 6 3 29891 5.46800000 2340684362 2340684362 3.00000000
-2.43868470 1.34678173 -0.54151595 3 4 29891 2.83800000 2340684364 2340684364 -11.00000000
-4.77313662 2.63708711 0.47709054 11 5 29892 5.47400000 2340684366 2340684366 5.00000000
-2.94772696 1.62924707 -0.53344154 1 6 29893 3.41000000 2340684369 2340684369 -9.00000000
-4.77732134 2.64157629 0.67028141 9 7 29894 5.50000000 2340684371 2340684371 7.00000000
-3.71205449 2.05339289 -0.52086955 8 8 29895 4.27400000 2340684373 2340684373 -7.00000000
-4.78413248 2.64752340 0.86602122 9 9 29896 5.53600000 2340684376 2340684376 9.00000000
-4.76606464 2.63752460 -0.47656760 10 10 29896 5.46800000 2340684378 2340684378 -5.00000000
-4.76633739 2.63876247 1.05898988 11 11 29897 5.55000000 2340684380 2340684380 11.00000000
-4.75058270 2.63112354 -0.28460294 5 12 29898 5.43800000 2340684382 2340684382 -3.00000000
-4.76939058 2.64262843 1.25882614 8 13 29899 5.59600000 2340684385 2340684385 13.00000000
-4.74496365 2.63017631 -0.09469676 10 14 29900 5.42600000 2340684387 2340684387 -1.00000000
-4.76815128 2.64302945 1.46077466 8 15 29900 5.64400000 2340684389 2340684389 15.00000000
-1.78152978 0.98995835 -0.54610819 4 0 29906 2.11000000 2340684410 2340684410 -15.00000000
-4.72776461 2.62819862 0.09441752 10 1 29907 5.41000000 2340684412 2340684412 1.00000000
-2.05221820 1.14131188 -0.54213202 4 2 29908 2.41000000 2340684415 2340684415 -13.00000000
-4.72329187 2.62679148 0.28324220 6 3 29908 5.41200000 2340684417 2340684417 3.00000000
-2.43101048 1.35252738 -0.54075271 3 4 29909 2.83400000 2340684419 2340684419 -11.00000000
-4.74219656 2.63947272 0.47482449 11 5 29910 5.44800000 2340684422 2340684422 5.00000000
-2.94086814 1.63753855 -0.53312868 3 6 29911 3.40800000 2340684424 2340684424 -9.00000000
-4.73778343 2.63918304 0.66589409 9 7 29912 5.46400000 2340684426 2340684426 7.00000000
-3.70905328 2.06697702 -0.52135706 8 8 29913 4.27800000 2340684428 2340684428 -7.00000000
-4.74864769 2.64632106 0.86101532 9 9 29913 5.50400000 2340684431 2340684431 9.00000000
-4.71947002 2.63114071 -0.47273275 10 10 29914 5.42400000 2340684433 2340684433 -5.00000000
-4.72030258 2.63268471 1.05059433 8 11 29915 5.50600000 2340684435 2340684435 11.00000000
-4.70741034 2.62657166 -0.28250951 8 12 29916 5.39800000 2340684438 2340684438 -3.00000000
-4.72192860 2.63575292 1.24847829 8 13 29917 5.55000000 2340684440 2340684440 13.00000000
-4.71572638 2.63337064 -0.09427790 8 14 29918 5.40200000 2340684442 2340684442 -1.00000000
-4.73115110 2.64198399 1.45197487 8 15 29918 5.61000000 2340684445 2340684445 15.00000000
-1.78480482 0.99994797 -0.54817873 4 0 29926 2.11800000 2340684465 2340684465 -15.00000000
-4.69065142 2.62904239 0.09385904 10 1 29927 5.37800000 2340684468 2340684468 1.00000000
-2.05502105 1.15228093 -0.54393166 3 2 29928 2.41800000 2340684470 2340684470 -13.00000000
-4.68401957 2.62747431 0.28146276 6 3 29929 5.37800000 2340684472 2340684472 3.00000000
-2.42969894 1.36292601 -0.54151595 3 4 29929 2.83800000 2340684475 2340684475 -11.00000000
-4.69472933 2.63455915 0.47098964 8 5 29930 5.40400000 2340684477 2340684477 5.00000000
-2.93685651 1.64876115 -0.53344154 1 6 29931 3.41000000 2340684479 2340684479 -9.00000000
-4.70431089 2.64209604 0.66248173 9 7 29932 5.43600000 2340684481 2340684481 7.00000000
-3.69143176 2.07407713 -0.51989460 8 8 29933 4.26600000 2340684484 2340684484 -7.00000000
-4.69758892 2.64047790 0.85350645 9 9 29934 5.45600000 2340684486 2340684486 9.00000000
-4.68941498 2.63588357 -0.47064102 10 10 29934 5.40000000 2340684488 2340684488 -5.00000000
-4.69397163 2.63952303 1.04677820 8 11 29935 5.48600000 2340684491 2340684491 11.00000000
-4.68428755 2.63515353 -0.28167212 8 12 29936 5.38200000 2340684493 2340684493 -3.00000000
-4.66854429 2.62736988 1.23678088 8 13 29937 5.49800000 2340684495 2340684495 13.00000000
-4.66642809 2.62725139 -0.09347509 8 14 29938 5.35600000 2340684498 2340684498 -1.00000000
-4.68272161 2.63750148 1.44006920 8 15 29939 5.56400000 2340684500 2340684500 15.00000000
-1.77422523 1.00299096 -0.54610819 4 0 29948 2.11000000 2340684521 2340684521 -15.00000000
-4.64919090 2.62931466 0.09323075 10 1 29949 5.34200000 2340684523 2340684523 1.00000000
-2.05736566 1.16400158 -0.54573125 3 2 29950 2.42600000 2340684525 2340684525 -13.00000000
-4.63785315 2.62397122 0.27926466 6 3 29950 5.33600000 2340684528 2340684528 3.00000000
-2.41077948 1.36450887 -0.53846300 3 4 29951 2.82200000 2340684530 2340684530 -11.00000000
-4.63950109 2.62704182 0.46645755 7 5 29952 5.35200000 2340684532 2340684532 5.00000000
-2.93909812 1.66489375 -0.53500587 1 6 29953 3.42000000 2340684534 2340684534 -9.00000000
-4.67340708 2.64839506 0.65955687 9 7 29954 5.41200000 2340684537 2340684537 7.00000000
-3.69380212 2.09411001 -0.52135706 6 8 29955 4.27800000 2340684539 2340684539 -7.00000000
-4.65304995 2.63900542 0.84724909 9 9 29956 5.41600000 2340684541 2340684541 9.00000000
-4.65153074 2.63814354 -0.46785203 13 10 29956 5.36800000 2340684544 2340684544 -5.00000000
-4.65306616 2.64008784 1.03990901 8 11 29957 5.45000000 2340684546 2340684546 11.00000000
-4.63592196 2.63143015 -0.27936932 8 12 29958 5.33800000 2340684548 2340684548 -3.00000000
-4.63808632 2.63372922 1.23138201 8 13 29959 5.47400000 2340684551 2340684551 13.00000000
-4.60240507 2.61453009 -0.09239304 6 14 29960 5.29400000 2340684553 2340684553 -1.00000000
-4.63438940 2.63269973 1.42816353 8 15 29960 5.51800000 2340684555 2340684555 15.00000000
-1.77071333 1.00917804 -0.54610819 4 0 29968 2.11000000 2340684576 2340684576 -15.00000000
-4.60697842 2.62670851 0.09256756 9 1 29969 5.30400000 2340684578 2340684578 1.00000000
-2.04990458 1.16924500 -0.54483145 4 2 29970 2.42200000 2340684580 2340684580 -13.00000000
-4.60958195 2.62925911 0.27811328 8 3 29970 5.31400000 2340684583 2340684583 3.00000000
-2.40600157 1.37291574 -0.53846300 3 4 29971 2.82200000 2340684585 2340684585 -11.00000000
-4.60953951 2.63136768 0.46436581 7 5 29972 5.32800000 2340684587 2340684587 5.00000000
-2.92469168 1.67024493 -0.53344154 3 6 29973 3.41000000 2340684590 2340684590 -9.00000000
-4.63483191 2.64795184 0.65541333 9 7 29974 5.37800000 2340684592 2340684592 7.00000000
-3.70370436 2.11684132 -0.52379441 6 8 29975 4.29800000 2340684594 2340684594 -7.00000000
-4.61465740 2.63856268 0.84193027 9 9 29976 5.38200000 2340684597 2340684597 9.00000000
-4.60424185 2.63260722 -0.46401718 13 10 29976 5.32400000 2340684599 2340684599 -5.00000000
-4.61996412 2.64266682 1.03456640 11 11 29977 5.42200000 2340684601 2340684601 11.00000000
-4.59377193 2.62874889 -0.27738056 8 12 29978 5.30000000 2340684604 2340684604 -3.00000000
-4.61026144 2.63925314 1.22643316 8 13 29979 5.45200000 2340684606 2340684606 13.00000000
-4.56895685 2.61666632 -0.09190437 6 14 29980 5.26600000 2340684608 2340684608 -1.00000000
-4.60337830 2.63637948 1.42143416 8 15 29980 5.49200000 2340684610 2340684610 15.00000000
-1.76753414 1.01473594 -0.54610819 4 0 29986 2.11000000 2340684631 2340684631 -15.00000000
-4.56402254 2.62125039 0.09186947 9 1 29987 5.26400000 2340684633 2340684633 1.00000000
-2.04622126 1.17567909 -0.54483145 3 2 29988 2.42200000 2340684636 2340684636 -13.00000000
-4.58525324 2.63557291 0.27717122 8 3 29989 5.29600000 2340684638 2340684638 3.00000000
-2.41188931 1.38633776 -0.54075271 3 4 29989 2.83400000 2340684640 2340684640 -11.00000000
-4.58052349 2.63391781 0.46227404 7 5 29990 5.30400000 2340684643 2340684643 5.00000000
-2.93141603 1.68631983 -0.53563160 3 6 29991 3.42400000 2340684645 2340684645 -9.00000000
-4.59035969 2.64170647 0.65029484 9 7 29992 5.33600000 2340684647 2340684647 7.00000000
-3.70735788 2.13440919 -0.52525687 6 8 29993 4.31000000 2340684650 2340684650 -7.00000000
-4.58455324 2.63943028 0.83786297 9 9 29993 5.35600000 2340684652 2340684652 9.00000000
-4.55451250 2.62319350 -0.45983371 13 10 29994 5.27600000 2340684654 2340684654 -5.00000000
-4.56400871 2.62972379 1.02388108 11 11 29995 5.36600000 2340684657 2340684657 11.00000000
-4.55088329 2.62321925 -0.27528712 10 12 29996 5.26000000 2340684659 2340684659 -3.00000000
-4.56987190 2.63522744 1.21788502 8 13 29997 5.41400000 2340684661 2340684661 13.00000000
-4.55032110 2.62501168 -0.09169494 6 14 29998 5.25400000 2340684663 2340684663 -1.00000000
-4.57118559 2.63811159 1.41418731 8 15 29999 5.46400000 2340684666 2340684666 15.00000000
-1.77066934 1.02477026 -0.54817873 4 0 30006 2.11800000 2340684686 2340684686 -15.00000000
-4.53234768 2.62414026 0.09141570 7 1 30007 5.23800000 2340684689 2340684689 1.00000000
-2.03873229 1.18086112 -0.54393166 3 2 30008 2.41800000 2340684691 2340684691 -13.00000000
-4.54019451 2.62974167 0.27497312 10 3 30008 5.25400000 2340684693 2340684693 3.00000000
-2.41043282 1.39671695 -0.54151595 3 4 30009 2.83800000 2340684696 2340684696 -11.00000000
-4.53855085 2.63090587 0.45896214 10 5 30010 5.26600000 2340684698 2340684698 5.00000000
-2.92551184 1.69654214 -0.53563160 3 6 30011 3.42400000 2340684700 2340684700 -9.00000000
-4.53474951 2.63081765 0.64371389 9 7 30012 5.28200000 2340684703 2340684703 7.00000000
-3.69988489 2.14733720 -0.52525687 6 8 30013 4.31000000 2340684705 2340684705 -7.00000000
-4.54409885 2.63836217 0.83223134 9 9 30014 5.32000000 2340684707 2340684707 9.00000000
-4.52465200 2.62707090 -0.45774198 9 10 30014 5.25200000 2340684710 2340684710 -5.00000000
-4.52424383 2.62788987 1.01701200 10 11 30015 5.33000000 2340684712 2340684712 11.00000000
-4.51234198 2.62203002 -0.27350771 10 12 30016 5.22600000 2340684714 2340684714 -3.00000000
-4.52695036 2.63157558 1.20888698 8 13 30017 5.37400000 2340684716 2340684716 13.00000000
-4.52384377 2.63082647 -0.09134590 6 14 30018 5.23400000 2340684719 2340684719 -1.00000000
-4.52688265 2.63365102 1.40331686 8 15 30019 5.42200000 2340684721 2340684721 15.00000000
