# .PCD v0.7 - Point Cloud Data file format
VERSION 0.7
FIELDS x y z intensity laser_id azimuth distance_m adjustedtime timestamp vertical_angle
SIZE 4 4 4 1 1 2 8 8 4 8
TYPE F F F U U U F U U F
COUNT 1 1 1 1 1 1 1 1 1 1
WIDTH 524
HEIGHT 1
VIEWPOINT 0 0 0 1 0 0 0
POINTS 524
DATA ascii
-7.20725298 7.26281452 -0.53623420 4 12 31522 10.24600000 2340188930 2340188930 -3.00000000
-7.85713196 7.92046738 2.57568955 47 13 31523 11.45000000 2340188932 2340188932 13.00000000
-6.75673819 6.81596088 2.57162595 45 15 31525 9.93600000 2340188937 2340188937 15.00000000
-1.46840322 1.48489773 -0.55956680 4 0 31532 2.16200000 2340188958 2340188958 -15.00000000
-1.70535886 1.72571945 -0.56012815 3 2 31534 2.49000000 2340188962 2340188962 -13.00000000
-2.01853681 2.04334974 -0.55830711 2 4 31535 2.92600000 2340188967 2340188967 -11.00000000
-2.48546576 2.51777554 -0.56034827 1 6 31537 3.58200000 2340188972 2340188972 -9.00000000
-3.02377105 3.06521797 -0.52866924 74 8 31539 4.33800000 2340188976 2340188976 -7.00000000
-3.47222447 3.52104735 -0.43264112 100 10 31540 4.96400000 2340188981 2340188981 -5.00000000
-7.20008183 7.30642176 -0.53759491 4 12 31542 10.27200000 2340188985 2340188985 -3.00000000
-7.83217144 7.95062208 2.57658935 48 13 31543 11.45400000 2340188988 2340188988 13.00000000
-6.73952055 6.84383535 2.57369661 45 15 31544 9.94400000 2340188992 2340188992 15.00000000
-1.46862531 1.49552774 -0.56163734 4 0 31552 2.17000000 2340189013 2340189013 -15.00000000
-1.70205438 1.73444355 -0.56102794 3 2 31554 2.49400000 2340189018 2340189018 -13.00000000
-2.02788997 2.06720114 -0.56288654 3 4 31555 2.95000000 2340189022 2340189022 -11.00000000
-2.46421623 2.51374054 -0.55753243 1 6 31557 3.56400000 2340189027 2340189027 -9.00000000
-3.01305294 3.07575440 -0.52866924 80 8 31559 4.33800000 2340189031 2340189031 -7.00000000
-3.45712447 3.53029943 -0.43229249 100 10 31560 4.96000000 2340189036 2340189036 -5.00000000
-7.18850279 7.34578514 -0.53864169 4 12 31562 10.29200000 2340189041 2340189041 -3.00000000
-7.79619455 7.96955490 2.57388997 55 13 31563 11.44200000 2340189043 2340189043 13.00000000
-6.71709251 6.87125397 2.57473183 45 15 31565 9.94800000 2340189048 2340189048 15.00000000
-1.45800090 1.49511278 -0.55956680 4 0 31572 2.16200000 2340189068 2340189068 -15.00000000
-1.70142996 1.74595690 -0.56282753 3 2 31574 2.50200000 2340189073 2340189073 -13.00000000
-2.01792192 2.07145476 -0.56212330 3 4 31575 2.94600000 2340189078 2340189078 -11.00000000
-2.47058368 2.53789687 -0.56097400 1 6 31577 3.58600000 2340189082 2340189082 -9.00000000
-3.00921917 3.09336758 -0.52988791 84 8 31579 4.34800000 2340189087 2340189087 -7.00000000
-3.43089008 3.52806187 -0.43054938 99 10 31580 4.94000000 2340189091 2340189091 -5.00000000
-7.12801933 7.33502436 -0.53602487 4 12 31582 10.24200000 2340189096 2340189096 -3.00000000
-7.77375937 8.00231171 2.57568955 52 13 31583 11.45000000 2340189098 2340189098 13.00000000
-6.69157791 6.89071894 2.57369661 45 15 31584 9.94400000 2340189103 2340189103 15.00000000
-1.45277309 1.50019312 -0.55956680 4 0 31592 2.16200000 2340189124 2340189124 -15.00000000
-1.71023190 1.76728964 -0.56777644 4 2 31594 2.52400000 2340189128 2340189128 -13.00000000
-2.00521874 2.07284164 -0.56059682 3 4 31595 2.93800000 2340189133 2340189133 -11.00000000
-2.46582866 2.55076599 -0.56191260 1 6 31597 3.59200000 2340189137 2340189137 -9.00000000
-3.00391984 3.10956383 -0.53086287 90 8 31599 4.35600000 2340189142 2340189142 -7.00000000
-3.40471363 3.52568436 -0.42880625 100 10 31600 4.92000000 2340189147 2340189147 -5.00000000
-7.13843155 7.39722776 -0.53874636 4 12 31602 10.29400000 2340189151 2340189151 -3.00000000
-7.74307299 8.02659321 2.57478976 50 13 31603 11.44600000 2340189154 2340189154 13.00000000
-6.66077900 6.90708208 2.57110834 40 15 31604 9.93400000 2340189158 2340189158 15.00000000
-1.44537389 1.50196564 -0.55853152 4 0 31610 2.15800000 2340189179 2340189179 -15.00000000
-1.69251454 1.76001203 -0.56372732 3 2 31612 2.50600000 2340189184 2340189184 -13.00000000
-2.00413918 2.08479238 -0.56212330 3 4 31613 2.94600000 2340189188 2340189188 -11.00000000
-2.44548655 2.54567909 -0.55909675 1 6 31615 3.57400000 2340189193 2340189193 -9.00000000
-3.00513363 3.13044167 -0.53281277 66 8 31617 4.37200000 2340189197 2340189197 -7.00000000
-3.38810253 3.53061295 -0.42810902 100 10 31618 4.91200000 2340189202 2340189202 -5.00000000
-7.11377478 7.41817617 -0.53864169 8 12 31620 10.29200000 2340189207 2340189207 -3.00000000
-7.71377277 8.04665852 2.57344007 51 13 31621 11.44000000 2340189209 2340189209 13.00000000
-6.64172029 6.93076277 2.57214355 45 15 31622 9.93800000 2340189213 2340189213 15.00000000
-1.44546092 1.51258850 -0.56060207 4 0 31630 2.16600000 2340189234 2340189234 -15.00000000
-1.68097711 1.76027191 -0.56192774 3 2 31632 2.49800000 2340189239 2340189239 -13.00000000
-1.99684966 2.09177542 -0.56212330 3 4 31633 2.94600000 2340189243 2340189243 -11.00000000
-2.44613004 2.56420517 -0.56128687 1 6 31635 3.58800000 2340189248 2340189248 -9.00000000
-2.97364259 3.11936021 -0.52915668 46 8 31637 4.34200000 2340189253 2340189253 -7.00000000
-3.37025976 3.53664875 -0.42741176 94 10 31638 4.90400000 2340189257 2340189257 -5.00000000
-7.30821323 7.67437983 -0.55538917 12 12 31640 10.61200000 2340189262 2340189262 -3.00000000
-7.67891932 8.06647873 2.57119060 50 13 31641 11.43000000 2340189264 2340189264 13.00000000
-6.61494160 6.95366001 2.57162595 45 15 31643 9.93600000 2340189269 2340189269 15.00000000
-1.44788468 1.52628553 -0.56370789 4 0 31651 2.17800000 2340189290 2340189290 -15.00000000
-1.67987692 1.77207816 -0.56372732 3 2 31653 2.50600000 2340189294 2340189294 -13.00000000
-1.98376787 2.09338021 -0.56059682 3 4 31654 2.93800000 2340189299 2340189299 -11.00000000
-2.44214845 2.57889080 -0.56253833 1 6 31656 3.59600000 2340189303 2340189303 -9.00000000
-2.97446942 3.14321470 -0.53135031 40 8 31658 4.36000000 2340189308 2340189308 -7.00000000
-3.35727477 3.54897761 -0.42741176 57 10 31659 4.90400000 2340189313 2340189313 -5.00000000
-7.24573517 7.66482925 -0.55277234 12 12 31661 10.56200000 2340189317 2340189317 -3.00000000
-7.64261055 8.08748722 2.56894112 51 13 31662 11.42000000 2340189319 2340189319 13.00000000
-6.59195518 6.97811222 2.57214355 45 15 31663 9.93800000 2340189324 2340189324 15.00000000
-1.43195093 1.52008080 -0.55956680 4 0 31671 2.16200000 2340189345 2340189345 -15.00000000
-1.67635238 1.78076911 -0.56462717 3 2 31673 2.51000000 2340189349 2340189349 -13.00000000
-1.98452115 2.10887051 -0.56288654 3 4 31674 2.95000000 2340189354 2340189354 -11.00000000
-2.43448472 2.58883882 -0.56285119 1 6 31676 3.59800000 2340189359 2340189359 -9.00000000
-2.97299528 3.16370463 -0.53305650 38 8 31678 4.37400000 2340189363 2340189363 -7.00000000
-3.33258891 3.54760551 -0.42584297 11 10 31679 4.88600000 2340189368 2340189368 -5.00000000
-7.07950544 7.54154491 -0.54209584 8 12 31681 10.35800000 2340189372 2340189372 -3.00000000
-7.61433315 8.11411572 2.56894112 51 13 31682 11.42000000 2340189375 2340189375 13.00000000
-6.55962658 6.99262619 2.56903791 40 15 31683 9.92600000 2340189379 2340189379 15.00000000
-1.43218219 1.53046322 -0.56163734 4 0 31690 2.17000000 2340189400 2340189400 -15.00000000
-1.68108618 1.79770529 -0.56822634 3 2 31692 2.52600000 2340189405 2340189405 -13.00000000
-1.98019838 2.11830807 -0.56364977 3 4 31693 2.95400000 2340189409 2340189409 -11.00000000
-2.42993188 2.60122824 -0.56378978 1 6 31695 3.60400000 2340189414 2340189414 -9.00000000
-2.97196984 3.18370366 -0.53476268 36 8 31697 4.38800000 2340189418 2340189418 -7.00000000
-7.88111448 8.44850349 2.24582195 3 11 31699 11.77000000 2340189425 2340189425 11.00000000
-7.05309582 7.56351900 -0.54199117 8 12 31700 10.35600000 2340189428 2340189428 -3.00000000
-7.58605528 8.13789558 2.56849122 48 13 31701 11.41800000 2340189430 2340189430 13.00000000
-6.54167032 7.01999378 2.57110834 45 15 31702 9.93400000 2340189435 2340189435 15.00000000
-1.42683113 1.53545320 -0.56163734 4 0 31710 2.17000000 2340189455 2340189455 -15.00000000
-1.66949654 1.79785037 -0.56642675 3 2 31712 2.51800000 2340189460 2340189460 -13.00000000
-1.97012067 2.12232971 -0.56288654 3 4 31713 2.95000000 2340189465 2340189465 -11.00000000
-2.40471601 2.59231567 -0.56003541 1 6 31715 3.58000000 2340189469 2340189469 -9.00000000
-2.96218801 3.19551420 -0.53500640 28 8 31717 4.39000000 2340189474 2340189474 -7.00000000
-4.29152918 4.63118601 -0.55239308 3 10 31718 6.33800000 2340189478 2340189478 -5.00000000
-7.02529430 7.58662748 -0.54188651 4 12 31720 10.35400000 2340189483 2340189483 -3.00000000
-7.55495501 8.16146564 2.56759143 50 13 31721 11.41400000 2340189485 2340189485 13.00000000
-6.50802565 7.03541422 2.56800246 42 15 31723 9.92200000 2340189490 2340189490 15.00000000
-1.41988397 1.53925252 -0.56111968 4 0 31731 2.16800000 2340189511 2340189511 -15.00000000
-1.66289592 1.80395734 -0.56642675 3 2 31733 2.51800000 2340189515 2340189515 -13.00000000
-1.97031105 2.13819885 -0.56517625 3 4 31734 2.96200000 2340189520 2340189520 -11.00000000
-2.40590358 2.61273718 -0.56253833 1 6 31736 3.59600000 2340189524 2340189524 -9.00000000
-2.94642329 3.20196748 -0.53427517 30 8 31738 4.38400000 2340189529 2340189529 -7.00000000
-4.29475880 4.66887951 -0.55500776 3 10 31739 6.36800000 2340189534 2340189534 -5.00000000
-7.00419855 7.61967754 -0.54240984 8 12 31741 10.36400000 2340189538 2340189538 -3.00000000
-7.52235365 8.18623161 2.56669164 50 13 31742 11.41000000 2340189541 2340189541 13.00000000
-6.48342752 7.05808830 2.56800246 40 15 31743 9.92200000 2340189545 2340189545 15.00000000
-1.42102683 1.55132210 -0.56370789 4 0 31751 2.17800000 2340189566 2340189566 -15.00000000
-1.65132558 1.80400109 -0.56462717 3 2 31753 2.51000000 2340189570 2340189570 -13.00000000
-1.96283531 2.14506340 -0.56517625 3 4 31754 2.96200000 2340189575 2340189575 -11.00000000
-2.38610458 2.60945702 -0.56003541 1 6 31756 3.58000000 2340189580 2340189580 -9.00000000
-2.93388939 3.21076727 -0.53403145 28 8 31758 4.38200000 2340189584 2340189584 -7.00000000
-4.28918505 4.69561100 -0.55640227 3 10 31759 6.38400000 2340189589 2340189589 -5.00000000
-6.99910259 7.66768217 -0.54408461 8 12 31761 10.39600000 2340189594 2340189594 -3.00000000
-7.48716497 8.20524216 2.56444192 51 13 31762 11.40000000 2340189596 2340189596 13.00000000
-6.46395874 7.08638573 2.57007313 42 15 31763 9.93000000 2340189600 2340189600 15.00000000
-1.41690290 1.55770206 -0.56422549 4 0 31771 2.18000000 2340189621 2340189621 -15.00000000
-1.65288305 1.81840658 -0.56732655 3 2 31773 2.52200000 2340189626 2340189626 -13.00000000
-1.94477344 2.14027786 -0.56212330 3 4 31774 2.94600000 2340189630 2340189630 -11.00000000
-2.39291644 2.63531947 -0.56378978 1 6 31776 3.60400000 2340189635 2340189635 -9.00000000
-2.92266393 3.22098899 -0.53403145 32 8 31778 4.38200000 2340189640 2340189640 -7.00000000
-4.26875257 4.70612717 -0.55587935 3 10 31779 6.37800000 2340189644 2340189644 -5.00000000
-6.98973227 7.71130466 -0.54544532 4 12 31781 10.42200000 2340189649 2340189649 -3.00000000
-7.46502018 8.23854733 2.56669164 53 13 31782 11.41000000 2340189651 2340189651 13.00000000
-6.43016243 7.10143757 2.56696725 40 15 31784 9.91800000 2340189656 2340189656 15.00000000
-1.40239251 1.55260313 -0.56060207 4 0 31791 2.16600000 2340189676 2340189676 -15.00000000
-1.64652550 1.82416511 -0.56732655 3 2 31793 2.52200000 2340189681 2340189681 -13.00000000
-1.94255149 2.15288377 -0.56364977 3 4 31794 2.95400000 2340189686 2340189686 -11.00000000
-2.37576580 2.63485384 -0.56191260 1 6 31796 3.59200000 2340189690 2340189690 -9.00000000
-2.91140270 3.23117137 -0.53403145 38 8 31798 4.38200000 2340189695 2340189695 -7.00000000
-4.26296663 4.73284245 -0.55727381 7 10 31799 6.39400000 2340189700 2340189700 -5.00000000
-6.97880602 7.75347042 -0.54670137 4 12 31801 10.44600000 2340189704 2340189704 -3.00000000
-7.43360996 8.26165771 2.56579161 53 13 31802 11.40600000 2340189706 2340189706 13.00000000
-6.39758444 7.11522055 2.56386137 40 15 31804 9.90600000 2340189711 2340189711 15.00000000
-1.40395999 1.56418967 -0.56319022 4 0 31809 2.17600000 2340189732 2340189732 -15.00000000
-1.64078665 1.82932878 -0.56732655 3 2 31811 2.52200000 2340189736 2340189736 -13.00000000
-1.93053591 2.15312910 -0.56212330 3 4 31812 2.94600000 2340189741 2340189741 -11.00000000
-2.37143111 2.64671803 -0.56285119 1 6 31814 3.59800000 2340189746 2340189746 -9.00000000
-2.91183066 3.25213313 -0.53598136 26 8 31816 4.39800000 2340189750 2340189750 -7.00000000
-4.25604963 4.75511932 -0.55831969 7 10 31817 6.40600000 2340189755 2340189755 -5.00000000
-6.94109821 7.76046991 -0.54565465 4 12 31819 10.42600000 2340189759 2340189759 -3.00000000
-7.39073277 8.26608467 2.55994296 17 13 31820 11.38000000 2340189762 2340189762 13.00000000
-6.37777424 7.13816500 2.56489682 40 15 31822 9.91000000 2340189766 2340189766 15.00000000
-1.40106213 1.57196522 -0.56422549 4 0 31829 2.18000000 2340189787 2340189787 -15.00000000
-1.62143004 1.82049274 -0.56282753 3 2 31831 2.50200000 2340189792 2340189792 -13.00000000
-1.93867445 2.17745018 -0.56670272 2 4 31832 2.97000000 2340189796 2340189796 -11.00000000
-2.36086488 2.65350413 -0.56253833 1 6 31834 3.59600000 2340189801 2340189801 -9.00000000
-2.90046096 3.26227760 -0.53598136 12 8 31836 4.39800000 2340189806 2340189806 -7.00000000
-4.23413086 4.76398993 -0.55762243 7 10 31837 6.39800000 2340189810 2340189810 -5.00000000
-6.92059851 7.79211807 -0.54617804 4 12 31839 10.43600000 2340189815 2340189815 -3.00000000
-6.33324718 7.13330793 2.20227075 17 13 31840 9.79000000 2340189817 2340189817 13.00000000
-6.35666466 7.16471958 2.56644964 45 15 31842 9.91600000 2340189822 2340189822 15.00000000
-1.39684677 1.57829285 -0.56474316 4 0 31849 2.18200000 2340189842 2340189842 -15.00000000
-1.61764741 1.82906103 -0.56372732 3 2 31851 2.50600000 2340189847 2340189847 -13.00000000
-1.92065883 2.17243743 -0.56364977 2 4 31852 2.95400000 2340189852 2340189852 -11.00000000
-2.36335897 2.67505217 -0.56535417 1 6 31854 3.61400000 2340189856 2340189856 -9.00000000
-2.89956617 3.28428721 -0.53793126 8 8 31856 4.41400000 2340189861 2340189861 -7.00000000
-4.22802258 4.79069138 -0.55901694 7 10 31857 6.41400000 2340189865 2340189865 -5.00000000
-6.92506266 7.85217857 -0.54869014 4 12 31859 10.48400000 2340189870 2340189870 -3.00000000
-6.26964712 7.11151838 2.18877387 16 13 31860 9.73000000 2340189872 2340189872 13.00000000
-6.33159351 7.18431044 2.56593204 45 15 31861 9.91400000 2340189877 2340189877 15.00000000
-1.39005363 1.58170807 -0.56422549 4 0 31869 2.18000000 2340189898 2340189898 -15.00000000
-1.61125302 1.83469653 -0.56372732 4 2 31871 2.50600000 2340189902 2340189902 -13.00000000
-1.91824484 2.18502998 -0.56517625 3 4 31872 2.96200000 2340189907 2340189907 -11.00000000
-2.35530972 2.68477058 -0.56566703 1 6 31874 3.61600000 2340189911 2340189911 -9.00000000
-2.89855289 3.30633020 -0.53988117 8 8 31876 4.43000000 2340189916 2340189916 -7.00000000
-4.21521378 4.80991554 -0.55953985 3 10 31877 6.42000000 2340189921 2340189921 -5.00000000
-6.88708448 7.86428308 -0.54785281 4 12 31879 10.46800000 2340189925 2340189925 -3.00000000
-6.11770725 6.98820066 2.14423347 40 13 31880 9.53200000 2340189928 2340189928 13.00000000
-6.27977943 7.17838860 2.55557919 42 15 31882 9.87400000 2340189932 2340189932 15.00000000
-1.37789738 1.57951331 -0.56163734 4 0 31890 2.17000000 2340189953 2340189953 -15.00000000
-1.62116468 1.85968602 -0.56957608 4 2 31892 2.53200000 2340189958 2340189958 -13.00000000
-1.89990485 2.18020535 -0.56212330 3 4 31893 2.94600000 2340189962 2340189962 -11.00000000
-2.34545374 2.69338512 -0.56566703 1 6 31895 3.61600000 2340189967 2340189967 -9.00000000
-2.89423394 3.32591653 -0.54134363 8 8 31897 4.44200000 2340189971 2340189971 -7.00000000
-4.20017147 4.82833958 -0.55988848 3 10 31898 6.42400000 2340189976 2340189976 -5.00000000
-6.88704109 7.92263460 -0.55015558 4 12 31900 10.51200000 2340189981 2340189981 -3.00000000
-6.12656546 7.05029202 2.15638089 30 13 31901 9.58600000 2340189983 2340189983 13.00000000
-6.15079832 7.08067417 2.51313281 45 15 31902 9.71000000 2340189988 2340189988 15.00000000
-1.37869966 1.59161448 -0.56422549 4 0 31910 2.18000000 2340190008 2340190008 -15.00000000
-1.60063386 1.84912610 -0.56462717 4 2 31912 2.51000000 2340190013 2340190013 -13.00000000
-1.90512943 2.20166993 -0.56593949 2 4 31913 2.96600000 2340190017 2340190017 -11.00000000
-2.33474565 2.70006180 -0.56535417 1 6 31915 3.61400000 2340190022 2340190022 -9.00000000
-2.89039397 3.34501123 -0.54280603 10 8 31917 4.45400000 2340190027 2340190027 -7.00000000
-4.18850136 4.84900236 -0.56058574 3 10 31918 6.43200000 2340190031 2340190031 -5.00000000
-6.88544512 7.97686481 -0.55224901 4 12 31920 10.55200000 2340190036 2340190036 -3.00000000
-6.15411425 7.13212633 2.17482686 18 13 31921 9.66800000 2340190038 2340190038 13.00000000
-6.22951317 7.22460461 2.55609679 45 15 31923 9.87600000 2340190043 2340190043 15.00000000
-1.37817454 1.60227573 -0.56629604 4 0 31930 2.18800000 2340190064 2340190064 -15.00000000
-1.59925044 1.86061347 -0.56642675 4 2 31932 2.51800000 2340190068 2340190068 -13.00000000
-1.89999151 2.21128488 -0.56670272 3 4 31933 2.97000000 2340190073 2340190073 -11.00000000
-2.32530642 2.70819497 -0.56535417 1 6 31935 3.61400000 2340190077 2340190077 -9.00000000
-2.87482214 3.35056067 -0.54207486 10 8 31937 4.44800000 2340190082 2340190082 -7.00000000
-4.18322372 4.87720442 -0.56215453 7 10 31938 6.45000000 2340190087 2340190087 -5.00000000
-6.86535740 8.00994968 -0.55287707 4 12 31940 10.56400000 2340190091 2340190091 -3.00000000
-6.10889435 7.12988758 2.16762829 19 13 31941 9.63600000 2340190094 2340190094 13.00000000
-6.22688484 7.27016592 2.56489682 45 15 31942 9.91000000 2340190098 2340190098 15.00000000
-1.37382782 1.60854566 -0.56681371 4 0 31950 2.19000000 2340190119 2340190119 -15.00000000
-1.59148085 1.86470234 -0.56597686 4 2 31952 2.51600000 2340190123 2340190123 -13.00000000
-1.89480960 2.22089052 -0.56746596 3 4 31953 2.97400000 2340190128 2340190128 -11.00000000
-2.31840205 2.71930170 -0.56597990 1 6 31955 3.61800000 2340190133 2340190133 -9.00000000
-2.86310911 3.36057520 -0.54207486 10 8 31957 4.44800000 2340190137 2340190137 -7.00000000
-4.18813467 4.91756296 -0.56511784 7 10 31958 6.48400000 2340190142 2340190142 -5.00000000
-6.03761816 7.09166956 1.81039572 12 11 31959 9.48800000 2340190144 2340190144 11.00000000
-6.86842251 8.07036877 -0.55538917 4 12 31960 10.61200000 2340190146 2340190146 -3.00000000
-6.06376505 7.12741995 2.16042995 20 13 31961 9.60400000 2340190149 2340190149 13.00000000
-6.20144796 7.29441118 2.56541443 45 15 31963 9.91200000 2340190153 2340190153 15.00000000
-1.36348712 1.60720003 -0.56474316 4 0 31969 2.18200000 2340190174 2340190174 -15.00000000
-1.58906901 1.87442899 -0.56732655 4 2 31971 2.52200000 2340190179 2340190179 -13.00000000
-1.88235724 2.22117090 -0.56593949 3 4 31972 2.96600000 2340190183 2340190183 -11.00000000
-2.31703138 2.73601961 -0.56785709 1 6 31974 3.63000000 2340190188 2340190188 -9.00000000
-2.85194921 3.37005115 -0.54207486 10 8 31976 4.44800000 2340190193 2340190193 -7.00000000
-4.15636301 4.91317081 -0.56302607 7 10 31977 6.46000000 2340190197 2340190197 -5.00000000
-6.03181648 7.13263893 1.81573844 21 11 31978 9.51600000 2340190199 2340190199 11.00000000
-6.83388615 8.08395004 -0.55476111 4 12 31979 10.60000000 2340190202 2340190202 -3.00000000
-6.02500248 7.12962723 2.15503120 14 13 31980 9.58000000 2340190204 2340190204 13.00000000
-6.17600775 7.31090641 2.56437922 45 15 31981 9.90800000 2340190209 2340190209 15.00000000
-1.35537946 1.60899472 -0.56370789 4 0 31989 2.17800000 2340190229 2340190229 -15.00000000
-1.58879125 1.88741875 -0.56957608 4 2 31991 2.53200000 2340190234 2340190234 -13.00000000
-1.87459242 2.22772789 -0.56593949 3 4 31992 2.96600000 2340190239 2340190239 -11.00000000
-2.29856753 2.73350763 -0.56566703 1 6 31994 3.61600000 2340190243 2340190243 -9.00000000
-2.85166168 3.39366364 -0.54426849 8 8 31996 4.46600000 2340190248 2340190248 -7.00000000
-4.14687634 4.93680286 -0.56407195 7 10 31997 6.47200000 2340190252 2340190252 -5.00000000
-6.02203178 7.17169285 1.82031786 12 11 31998 9.54000000 2340190255 2340190255 11.00000000
-6.81589890 8.11999321 -0.55559850 4 12 31999 10.61600000 2340190257 2340190257 -3.00000000
-5.98504686 7.13270140 2.14963222 13 13 32000 9.55600000 2340190259 2340190259 13.00000000
-6.14048195 7.32313108 2.56075573 45 15 32002 9.89400000 2340190264 2340190264 15.00000000
-1.35747457 1.62237024 -0.56681371 4 0 32008 2.19000000 2340190285 2340190285 -15.00000000
-1.57502353 1.88370693 -0.56687665 4 2 32010 2.52000000 2340190289 2340190289 -13.00000000
-1.86971283 2.23694468 -0.56670272 2 4 32011 2.97000000 2340190294 2340190294 -11.00000000
-2.28949022 2.74111485 -0.56566703 1 6 32013 3.61600000 2340190299 2340190299 -9.00000000
-2.84420824 3.40767360 -0.54499972 10 8 32015 4.47200000 2340190303 2340190303 -7.00000000
-4.13814116 4.95970631 -0.56511784 7 10 32016 6.48400000 2340190308 2340190308 -5.00000000
-6.77998161 8.13181305 -0.55486584 4 12 32018 10.60200000 2340190312 2340190312 -3.00000000
-5.99754381 7.19592142 2.16267943 18 13 32019 9.61400000 2340190315 2340190315 13.00000000
-6.05314207 7.26520681 2.53383851 42 15 32020 9.79000000 2340190319 2340190319 15.00000000
-1.35180318 1.62709880 -0.56681371 4 0 32028 2.19000000 2340190340 2340190340 -15.00000000
-1.56345940 1.88319588 -0.56507707 4 2 32030 2.51200000 2340190345 2340190345 -13.00000000
-1.86941588 2.25252223 -0.56899244 2 4 32031 2.98200000 2340190349 2340190349 -11.00000000
-2.29377913 2.76581573 -0.56910861 1 6 32033 3.63800000 2340190354 2340190354 -9.00000000
-2.85002947 3.43897891 -0.54841202 8 8 32035 4.50000000 2340190358 2340190358 -7.00000000
-4.13097191 4.98639488 -0.56651235 3 10 32036 6.50000000 2340190363 2340190363 -5.00000000
-6.00688648 7.25334263 1.83062148 9 11 32037 9.59400000 2340190365 2340190365 11.00000000
-6.76938581 8.17696857 -0.55633122 4 12 32038 10.63000000 2340190368 2340190368 -3.00000000
-7.04833794 8.51694965 2.55229473 36 13 32039 11.34600000 2340190370 2340190370 13.00000000
-6.08310604 7.35582590 2.55764985 42 15 32041 9.88200000 2340190375 2340190375 15.00000000
-1.35320485 1.64098513 -0.56991953 4 0 32049 2.20200000 2340190395 2340190395 -15.00000000
-1.56150377 1.89492929 -0.56687665 4 2 32051 2.52000000 2340190400 2340190400 -13.00000000
-1.85865092 2.25632811 -0.56822920 3 4 32052 2.97800000 2340190405 2340190405 -11.00000000
-2.26981688 2.75742793 -0.56566703 1 6 32054 3.61600000 2340190409 2340190409 -9.00000000
-2.86893249 3.48772836 -0.55450553 8 8 32056 4.55000000 2340190414 2340190414 -7.00000000
-4.11646414 5.00611925 -0.56703526 4 10 32057 6.50600000 2340190418 2340190418 -5.00000000
-6.74824619 8.21252632 -0.55706394 8 12 32059 10.64400000 2340190423 2340190423 -3.00000000
-7.01460075 8.53971481 2.55139494 45 13 32060 11.34200000 2340190425 2340190425 13.00000000
-6.06965208 7.39194489 2.56282616 42 15 32061 9.90200000 2340190430 2340190430 15.00000000
-1.34257305 1.63971984 -0.56784898 5 0 32069 2.19400000 2340190451 2340190451 -15.00000000
-1.56104982 1.90790951 -0.56912619 4 2 32071 2.53000000 2340190455 2340190455 -13.00000000
-1.84827757 2.25976276 -0.56746596 3 4 32072 2.97400000 2340190460 2340190460 -11.00000000
-2.25767756 2.76227522 -0.56504130 1 6 32074 3.61200000 2340190464 2340190464 -9.00000000
-2.89441180 3.54384542 -0.56181765 8 8 32076 4.61000000 2340190469 2340190469 -7.00000000
-4.10022449 5.02200127 -0.56720960 4 10 32077 6.50800000 2340190474 2340190474 -5.00000000
-6.73468924 8.25460243 -0.55831999 8 12 32079 10.66800000 2340190478 2340190478 -3.00000000
-6.98474884 8.56414795 2.55139494 57 13 32080 11.34200000 2340190481 2340190481 13.00000000
-6.04137087 7.41009235 2.56179094 40 15 32081 9.89800000 2340190485 2340190485 15.00000000
-1.32859588 1.63367140 -0.56422549 5 0 32088 2.18000000 2340190506 2340190506 -15.00000000
-1.56331754 1.92366183 -0.57227546 4 2 32090 2.54400000 2340190511 2340190511 -13.00000000
-1.83829796 2.26283193 -0.56670272 3 4 32091 2.97000000 2340190515 2340190515 -11.00000000
-2.27091551 2.79735231 -0.57067293 1 6 32093 3.64800000 2340190520 2340190520 -9.00000000
-2.89765143 3.57192349 -0.56474257 8 8 32095 4.63400000 2340190524 2340190524 -7.00000000
-4.09484291 5.04949808 -0.56877840 4 10 32096 6.52600000 2340190529 2340190529 -5.00000000
-6.72236824 8.29551125 -0.55957603 8 12 32098 10.69200000 2340190534 2340190534 -3.00000000
-6.96244383 8.59483433 2.55364442 57 13 32099 11.35200000 2340190536 2340190536 13.00000000
-6.00825453 7.41957617 2.55816746 40 15 32100 9.88400000 2340190540 2340190540 15.00000000
-1.32773983 1.64431131 -0.56629604 5 0 32108 2.18800000 2340190561 2340190561 -15.00000000
-1.55659318 1.92910707 -0.57227546 4 2 32110 2.54400000 2340190566 2340190566 -13.00000000
-1.84024870 2.28145981 -0.56975567 3 4 32111 2.98600000 2340190570 2340190570 -11.00000000
-2.25989747 2.80372405 -0.57036006 1 6 32113 3.64600000 2340190575 2340190575 -9.00000000
-2.88392019 3.58047056 -0.56449878 8 8 32115 4.63200000 2340190580 2340190580 -7.00000000
-4.07719183 5.06376076 -0.56877840 4 10 32116 6.52600000 2340190584 2340190584 -5.00000000
-6.70714283 8.33604336 -0.56072742 4 12 32118 10.71400000 2340190589 2340190589 -3.00000000
-6.93239975 8.61908531 2.55364442 57 13 32119 11.35200000 2340190591 2340190591 13.00000000
-5.98465061 7.44606543 2.55972028 45 15 32121 9.89000000 2340190596 2340190596 15.00000000
-1.32440889 1.65195048 -0.56733137 5 0 32128 2.19200000 2340190617 2340190617 -15.00000000
-1.54497612 1.92844546 -0.57047588 4 2 32130 2.53600000 2340190621 2340190621 -13.00000000
-1.82736468 2.28173995 -0.56822920 3 4 32131 2.97800000 2340190626 2340190626 -11.00000000
-2.24886250 2.81005335 -0.57004720 1 6 32133 3.64400000 2340190630 2340190630 -9.00000000
-2.86520553 3.58276391 -0.56328011 8 8 32135 4.62200000 2340190635 2340190635 -7.00000000
-4.08561754 5.11064291 -0.57243890 4 10 32136 6.56800000 2340190640 2340190640 -5.00000000
-6.69420958 8.37969017 -0.56208819 4 12 32138 10.74000000 2340190644 2340190644 -3.00000000
-6.89740705 8.63714027 2.55184484 57 13 32139 11.34400000 2340190646 2340190646 13.00000000
-5.95992565 7.46586990 2.55972028 45 15 32140 9.89000000 2340190651 2340190651 15.00000000
-1.31863439 1.65656340 -0.56733137 4 0 32148 2.19200000 2340190672 2340190672 -15.00000000
-1.54066145 1.93687689 -0.57137567 4 2 32150 2.54000000 2340190676 2340190676 -13.00000000
-1.83160770 2.30347157 -0.57204539 2 4 32151 2.99800000 2340190681 2340190681 -11.00000000
-2.23412442 2.81169987 -0.56879574 1 6 32153 3.63600000 2340190686 2340190686 -9.00000000
-2.84527540 3.58341575 -0.56181765 8 8 32155 4.61000000 2340190690 2340190690 -7.00000000
-4.06527567 5.12175179 -0.57209027 4 10 32156 6.56400000 2340190695 2340190695 -5.00000000
-6.65995359 8.39674759 -0.56166947 4 12 32158 10.73200000 2340190699 2340190699 -3.00000000
-6.85753012 8.64894867 2.54824543 57 13 32159 11.32800000 2340190702 2340190702 13.00000000
-5.93622875 7.48965645 2.56075573 42 15 32160 9.89400000 2340190706 2340190706 15.00000000
-1.31164610 1.65964055 -0.56681371 4 0 32168 2.19000000 2340190727 2340190727 -15.00000000
-1.53268337 1.94071364 -0.57092577 4 2 32170 2.53800000 2340190732 2340190732 -13.00000000
-1.80652475 2.28827810 -0.56670272 3 4 32171 2.97000000 2340190736 2340190736 -11.00000000
-2.23408389 2.83188820 -0.57129866 1 6 32173 3.65200000 2340190741 2340190741 -9.00000000
-2.83397865 3.59488463 -0.56206143 8 8 32175 4.61200000 2340190745 2340190745 -7.00000000
-4.05723810 5.14843035 -0.57348478 8 10 32176 6.58000000 2340190750 2340190750 -5.00000000
-6.65037346 8.44505024 -0.56334424 4 12 32178 10.76400000 2340190755 2340190755 -3.00000000
-6.82970858 8.67589569 2.54914546 57 13 32179 11.33200000 2340190757 2340190757 13.00000000
-5.90765953 7.50729609 2.55972028 45 15 32180 9.89000000 2340190762 2340190762 15.00000000
-1.29391932 1.64901066 -0.56163734 4 0 32188 2.17000000 2340190782 2340190782 -15.00000000
-1.53191185 1.95371962 -0.57317531 4 2 32190 2.54800000 2340190787 2340190787 -13.00000000
-1.80821514 2.30693150 -0.56975567 3 4 32191 2.98600000 2340190792 2340190792 -11.00000000
-2.21687675 2.83033848 -0.56942147 1 6 32193 3.64000000 2340190796 2340190796 -9.00000000
-2.82508349 3.60944486 -0.56279260 8 8 32195 4.61800000 2340190801 2340190801 -7.00000000
-4.01714277 5.13431597 -0.57034719 4 10 32196 6.54400000 2340190805 2340190805 -5.00000000
-6.64422798 8.49810791 -0.56533301 4 12 32198 10.80200000 2340190810 2340190810 -3.00000000
-6.80178261 8.70275307 2.55004525 60 13 32199 11.33600000 2340190812 2340190812 13.00000000
-5.87415838 7.52128553 2.55713224 45 15 32201 9.88000000 2340190817 2340190817 15.00000000
-1.29765320 1.66570914 -0.56577843 3 0 32208 2.18600000 2340190838 2340190838 -15.00000000
-1.52268863 1.95597959 -0.57227546 4 2 32210 2.54400000 2340190842 2340190842 -13.00000000
-1.80497432 2.31942677 -0.57128215 2 4 32211 2.99400000 2340190847 2340190847 -11.00000000
-2.20213318 2.83182216 -0.56816995 1 6 32213 3.63200000 2340190851 2340190851 -9.00000000
-2.81490302 3.62241912 -0.56328011 8 8 32215 4.62200000 2340190856 2340190856 -7.00000000
-4.00530767 5.15617466 -0.57121873 4 10 32216 6.55400000 2340190861 2340190861 -5.00000000
-6.61574841 8.52282619 -0.56543767 4 12 32218 10.80400000 2340190865 2340190865 -3.00000000
-6.77375221 8.72952271 2.55094504 59 13 32219 11.34000000 2340190868 2340190868 13.00000000
-5.84800053 7.53919697 2.55661464 45 15 32220 9.87800000 2340190872 2340190872 15.00000000
-1.29419470 1.67328489 -0.56681371 3 0 32228 2.19000000 2340190893 2340190893 -15.00000000
-1.51346827 1.95819914 -0.57137567 4 2 32230 2.54000000 2340190897 2340190897 -13.00000000
-1.79446650 2.32260585 -0.57051891 3 4 32231 2.99000000 2340190902 2340190902 -11.00000000
-2.20068502 2.85043693 -0.57036006 1 6 32233 3.64600000 2340190907 2340190907 -9.00000000
-2.79254055 3.61964941 -0.56133020 8 8 32235 4.60600000 2340190911 2340190911 -7.00000000
-4.00310278 5.19063425 -0.57348478 4 10 32236 6.58000000 2340190916 2340190916 -5.00000000
-6.60180712 8.56643391 -0.56679839 4 12 32238 10.83000000 2340190921 2340190921 -3.00000000
-6.73610353 8.74385166 2.54824543 59 13 32239 11.32800000 2340190923 2340190923 13.00000000
-5.82636309 7.56568670 2.55868506 42 15 32240 9.88600000 2340190927 2340190927 15.00000000
-1.29717135 1.68806517 -0.57043719 4 0 32246 2.20400000 2340190948 2340190948 -15.00000000
-1.50968266 1.96603537 -0.57227546 4 2 32248 2.54400000 2340190953 2340190953 -13.00000000
-1.78716087 2.32823205 -0.57051891 2 4 32249 2.99000000 2340190957 2340190957 -11.00000000
-2.20374179 2.87301040 -0.57348877 1 6 32251 3.66600000 2340190962 2340190962 -9.00000000
-2.77511740 3.62052679 -0.56011152 8 8 32253 4.59600000 2340190967 2340190967 -7.00000000
-3.98071694 5.19527721 -0.57261324 4 10 32254 6.57000000 2340190971 2340190971 -5.00000000
-6.56636286 8.57603073 -0.56606573 4 12 32256 10.81600000 2340190976 2340190976 -3.00000000
-6.70386314 8.75878048 2.54644585 59 13 32257 11.32000000 2340190978 2340190978 13.00000000
-5.80358982 7.58803511 2.55972028 40 15 32259 9.89000000 2340190983 2340190983 15.00000000
-1.28424048 1.68336737 -0.56733137 4 0 32266 2.19200000 2340191003 2340191003 -15.00000000
-1.50753653 1.97749221 -0.57407510 4 2 32268 2.55200000 2340191008 2340191008 -13.00000000
-1.77426302 2.32821012 -0.56899244 2 4 32269 2.98200000 2340191013 2340191013 -11.00000000
-2.19010949 2.87597060 -0.57255012 1 6 32271 3.66000000 2340191017 2340191017 -9.00000000
-2.75765395 3.62387300 -0.55913657 12 8 32273 4.58800000 2340191022 2340191022 -7.00000000
-3.95652652 5.20121241 -0.57174170 4 10 32274 6.56000000 2340191027 2340191027 -5.00000000
-6.56539440 8.63706017 -0.56857783 4 12 32276 10.86400000 2340191031 2340191031 -3.00000000
-6.67796421 8.78833389 2.54824543 60 13 32277 11.32800000 2340191033 2340191033 13.00000000
-5.77239418 7.60209274 2.55764985 42 15 32279 9.88200000 2340191038 2340191038 15.00000000
-1.27835655 1.68783987 -0.56733137 4 0 32286 2.19200000 2340191059 2340191059 -15.00000000
-1.50297666 1.98585021 -0.57497489 4 2 32288 2.55600000 2340191063 2340191063 -13.00000000
-1.77086341 2.34065175 -0.57051891 3 4 32289 2.99000000 2340191068 2340191068 -11.00000000
-2.18124843 2.88517380 -0.57286298 1 6 32291 3.66200000 2340191073 2340191073 -9.00000000
-2.75695348 3.64931583 -0.56157392 8 8 32293 4.60800000 2340191077 2340191077 -7.00000000
-3.95035410 5.23089075 -0.57348478 4 10 32294 6.58000000 2340191082 2340191082 -5.00000000
-6.53279924 8.65673637 -0.56836849 4 12 32296 10.86000000 2340191086 2340191086 -3.00000000
-6.64724684 8.81159115 2.54824543 57 13 32297 11.32800000 2340191089 2340191089 13.00000000
-5.73651981 7.60985470 2.55350876 42 15 32299 9.86600000 2340191093 2340191093 15.00000000
-1.27129614 1.69074786 -0.56681371 4 0 32306 2.19000000 2340191114 2340191114 -15.00000000
-1.49369442 1.98796856 -0.57407510 4 2 32308 2.55200000 2340191119 2340191119 -13.00000000
-1.76739836 2.35309815 -0.57204539 3 4 32309 2.99800000 2340191123 2340191123 -11.00000000
-2.16997814 2.89119029 -0.57255012 1 6 32311 3.66000000 2340191128 2340191128 -9.00000000
-2.75968194 3.67956209 -0.56474257 6 8 32313 4.63400000 2340191133 2340191133 -7.00000000
-3.93207073 5.24464846 -0.57348478 4 10 32314 6.58000000 2340191137 2340191137 -5.00000000
-6.52170229 8.70506287 -0.57004321 4 12 32316 10.89200000 2340191142 2340191142 -3.00000000
-6.61644793 8.83474064 2.54824543 56 13 32317 11.32800000 2340191144 2340191144 13.00000000
-5.71339369 7.63447285 2.55506158 40 15 32319 9.87200000 2340191149 2340191149 15.00000000
-1.27202272 1.70468593 -0.56991953 4 0 32327 2.20200000 2340191169 2340191169 -15.00000000
-1.48173857 1.98718083 -0.57227546 4 2 32329 2.54400000 2340191174 2340191174 -13.00000000
-1.76110852 2.36270833 -0.57280862 4 4 32330 3.00200000 2340191179 2340191179 -11.00000000
-2.15346694 2.89120317 -0.57098579 1 6 32332 3.65000000 2340191183 2340191183 -9.00000000
-2.78291917 3.73901749 -0.57229841 2 8 32334 4.69600000 2340191188 2340191188 -7.00000000
-3.92828274 5.27980518 -0.57575083 4 10 32335 6.60600000 2340191192 2340191192 -5.00000000
-6.50166941 8.74493504 -0.57108998 4 12 32337 10.91200000 2340191197 2340191197 -3.00000000
-6.58402252 8.85893154 2.54824543 56 13 32338 11.32800000 2340191199 2340191199 13.00000000
-5.68786192 7.65592051 2.55557919 42 15 32339 9.87400000 2340191204 2340191204 15.00000000
-1.27296400 1.71842968 -0.57302535 4 0 32347 2.21400000 2340191225 2340191225 -15.00000000
-1.47479296 1.99234092 -0.57227546 4 2 32349 2.54400000 2340191229 2340191229 -13.00000000
-1.74817932 2.36252880 -0.57128215 3 4 32350 2.99400000 2340191234 2340191234 -11.00000000
-2.14805937 2.90505576 -0.57223725 1 6 32352 3.65800000 2340191238 2340191238 -9.00000000
-2.76867104 3.74711227 -0.57205468 2 8 32354 4.69400000 2340191243 2340191243 -7.00000000
-3.92758465 5.31752443 -0.57836550 4 10 32355 6.63600000 2340191248 2340191248 -5.00000000
-6.49956942 8.80614471 -0.57360208 4 12 32357 10.96000000 2340191252 2340191252 -3.00000000
-6.55074501 8.87872410 2.54734564 59 13 32358 11.32400000 2340191255 2340191255 13.00000000
-5.66320229 7.68138075 2.55713224 45 15 32360 9.88000000 2340191259 2340191259 15.00000000
-1.26038992 1.71330476 -0.56991953 4 0 32366 2.20200000 2340191280 2340191280 -15.00000000
-1.47394919 2.00507140 -0.57452500 4 2 32368 2.55400000 2340191285 2340191285 -13.00000000
-1.74266028 2.37147689 -0.57204539 2 4 32369 2.99800000 2340191289 2340191289 -11.00000000
-2.14075232 2.91534758 -0.57286298 1 6 32371 3.66200000 2340191294 2340191294 -9.00000000
-2.76562476 3.76907659 -0.57400459 2 8 32373 4.71000000 2340191298 2340191298 -7.00000000
-3.91228628 5.33373260 -0.57871413 4 10 32374 6.64000000 2340191303 2340191303 -5.00000000
-6.49158430 8.85664558 -0.57548618 4 12 32376 10.99600000 2340191308 2340191308 -3.00000000
-6.52126646 8.90039825 2.54734564 57 13 32377 11.32400000 2340191310 2340191310 13.00000000
-5.63447666 7.69290018 2.55506158 40 15 32378 9.87200000 2340191315 2340191315 15.00000000
-1.24300838 1.70209265 -0.56474316 4 0 32386 2.18200000 2340191335 2340191335 -15.00000000
-1.46808994 2.01177835 -0.57497489 4 2 32388 2.55600000 2340191340 2340191340 -13.00000000
-1.73668575 2.38071775 -0.57280862 2 4 32389 3.00200000 2340191344 2340191344 -11.00000000
-2.13521719 2.92918754 -0.57411450 1 6 32391 3.67000000 2340191349 2340191349 -9.00000000
-2.75595760 3.78352118 -0.57473582 2 8 32393 4.71600000 2340191354 2340191354 -7.00000000
-3.87370682 5.31997585 -0.57575083 4 10 32394 6.60600000 2340191358 2340191358 -5.00000000
-6.46885490 8.89055634 -0.57621890 4 12 32396 11.01000000 2340191363 2340191363 -3.00000000
-6.49245071 8.92625999 2.54824543 59 13 32397 11.32800000 2340191365 2340191365 13.00000000
-5.60169983 7.70724916 2.55299115 40 15 32399 9.86400000 2340191370 2340191370 15.00000000
-1.24839818 1.72206211 -0.56991953 4 0 32406 2.20200000 2340191391 2340191391 -15.00000000
-1.46105850 2.01689053 -0.57497489 4 2 32408 2.55600000 2340191395 2340191395 -13.00000000
-1.73297083 2.39312577 -0.57433510 2 4 32409 3.01000000 2340191400 2340191400 -11.00000000
-2.12613750 2.93822336 -0.57442737 1 6 32411 3.67200000 2340191404 2340191404 -9.00000000
-2.75436568 3.80920434 -0.57717323 2 8 32413 4.73600000 2340191409 2340191409 -7.00000000
-3.86328316 5.34476805 -0.57697099 4 10 32414 6.62000000 2340191414 2340191414 -5.00000000
-6.42725658 8.89851093 -0.57527685 4 12 32416 10.99200000 2340191418 2340191418 -3.00000000
-6.46125269 8.94886780 2.54824543 59 13 32417 11.32800000 2340191421 2340191421 13.00000000
-5.57950258 7.73048210 2.55454397 42 15 32418 9.87000000 2340191425 2340191425 15.00000000
-1.24237943 1.72640932 -0.56991953 4 0 32426 2.20200000 2340191446 2340191446 -15.00000000
-1.44604528 2.01090336 -0.57182556 4 2 32428 2.54200000 2340191450 2340191450 -13.00000000
-1.72460675 2.39916039 -0.57433510 4 4 32429 3.01000000 2340191455 2340191455 -11.00000000
-2.11241102 2.94081402 -0.57348877 1 6 32431 3.66600000 2340191460 2340191460 -9.00000000
-2.73063445 3.80428171 -0.57497954 2 8 32433 4.71800000 2340191464 2340191464 -7.00000000
-3.85389495 5.37117147 -0.57836550 4 10 32434 6.63600000 2340191469 2340191469 -5.00000000
-6.42175913 8.95660114 -0.57757962 4 12 32436 11.03600000 2340191473 2340191473 -3.00000000
-6.42770576 8.96819973 2.54734564 59 13 32437 11.32400000 2340191476 2340191476 13.00000000
-5.55338144 7.75402117 2.55557919 40 15 32439 9.87400000 2340191480 2340191480 15.00000000
-1.23828876 1.73409557 -0.57095480 4 0 32447 2.20600000 2340191501 2340191501 -15.00000000
-1.44206107 2.02094889 -0.57317531 4 2 32449 2.54800000 2340191506 2340191506 -13.00000000
-1.71580172 2.40546536 -0.57433510 4 4 32450 3.01000000 2340191510 2340191510 -11.00000000
-2.10849738 2.95818806 -0.57536596 1 6 32452 3.67800000 2340191515 2340191515 -9.00000000
-2.71782422 3.81588125 -0.57522333 2 8 32454 4.72000000 2340191520 2340191520 -7.00000000
-3.85498309 5.41447544 -0.58150309 4 10 32455 6.67200000 2340191524 2340191524 -5.00000000
-6.39120436 8.98333263 -0.57778895 4 12 32457 11.04000000 2340191529 2340191529 -3.00000000
-6.38575697 8.97899342 2.54374647 59 13 32458 11.30800000 2340191531 2340191531 13.00000000
-4.86138105 6.83809948 2.24810219 9 15 32459 8.68600000 2340191536 2340191536 15.00000000
-1.22775948 1.73210311 -0.56888425 4 0 32467 2.19800000 2340191556 2340191556 -15.00000000
-1.43725061 2.02915072 -0.57407510 4 2 32469 2.55200000 2340191561 2340191561 -13.00000000
-1.70512569 2.40823531 -0.57357186 4 4 32470 3.00600000 2340191566 2340191566 -11.00000000
-2.11070871 2.98326850 -0.57880753 1 6 32472 3.70000000 2340191570 2340191570 -9.00000000
-2.71136355 3.83507037 -0.57668573 2 8 32474 4.73200000 2340191575 2340191575 -7.00000000
-3.83375978 5.42464447 -0.58115447 4 10 32475 6.66800000 2340191579 2340191579 -5.00000000
-6.37132883 9.02190208 -0.57883567 4 12 32477 11.06000000 2340191584 2340191584 -3.00000000
-6.35212755 8.99804497 2.54284668 57 13 32478 11.30400000 2340191586 2340191586 13.00000000
-4.83851242 6.85902882 2.24913740 45 15 32480 8.69000000 2340191591 2340191591 15.00000000
-1.22453630 1.73911083 -0.56991953 4 0 32485 2.20200000 2340191612 2340191612 -15.00000000
-1.43535423 2.04003096 -0.57587469 4 2 32487 2.56000000 2340191616 2340191616 -13.00000000
-1.69755161 2.41358042 -0.57357186 4 4 32488 3.00600000 2340191621 2340191621 -11.00000000
-2.08996773 2.97372317 -0.57567883 1 6 32490 3.68000000 2340191626 2340191626 -9.00000000
-2.70044279 3.84519386 -0.57692945 2 8 32492 4.73400000 2340191630 2340191630 -7.00000000
-3.81555414 5.43503141 -0.58098018 4 10 32493 6.66600000 2340191635 2340191635 -5.00000000
-6.36015940 9.06639957 -0.58040577 8 12 32495 11.09000000 2340191639 2340191639 -3.00000000
-6.32606602 9.02114773 2.54374647 59 13 32496 11.30800000 2340191642 2340191642 13.00000000
-4.80594254 6.85595369 2.24344349 40 15 32497 8.66800000 2340191646 2340191646 15.00000000
-1.21624482 1.74020779 -0.56888425 4 0 32505 2.19800000 2340191667 2340191667 -15.00000000
-1.42152965 2.03544283 -0.57317531 4 2 32507 2.54800000 2340191672 2340191672 -13.00000000
-1.69810688 2.43236947 -0.57662481 4 4 32508 3.02200000 2340191676 2340191676 -11.00000000
-2.08183503 2.98424053 -0.57630455 1 6 32510 3.68400000 2340191681 2340191681 -9.00000000
-2.68927455 3.85785389 -0.57741696 2 8 32512 4.73800000 2340191685 2340191685 -7.00000000
-3.78516817 5.43197012 -0.57923704 8 10 32513 6.64600000 2340191690 2340191690 -5.00000000
-6.32390785 9.08198929 -0.57998705 8 12 32515 11.08200000 2340191695 2340191695 -3.00000000
-6.29676437 9.04637337 2.54464626 59 13 32516 11.31200000 2340191697 2340191697 13.00000000
-4.77857542 6.87035036 2.24240828 40 15 32518 8.66400000 2340191702 2340191702 15.00000000
-1.21615756 1.75439107 -0.57199007 4 0 32527 2.21000000 2340191722 2340191722 -15.00000000
-1.40815532 2.03287649 -0.57092577 4 2 32529 2.53800000 2340191727 2340191727 -13.00000000
-1.68651950 2.43564343 -0.57586157 2 4 32530 3.01800000 2340191732 2340191732 -11.00000000
-2.06811309 2.98896337 -0.57567883 1 6 32532 3.68000000 2340191736 2340191736 -9.00000000
-2.67669964 3.87141705 -0.57790440 2 8 32534 4.74200000 2340191741 2340191741 -7.00000000
-3.77674389 5.46449327 -0.58115447 4 10 32535 6.66800000 2340191745 2340191745 -5.00000000
-6.30374384 9.12756824 -0.58134782 8 12 32537 11.10800000 2340191750 2340191750 -3.00000000
-6.26198244 9.07048512 2.54464626 55 13 32538 11.31200000 2340191752 2340191752 13.00000000
-4.75665426 6.89258862 2.24396110 42 15 32539 8.67000000 2340191757 2340191757 15.00000000
-1.21659648 1.76817477 -0.57509589 4 0 32547 2.22200000 2340191778 2340191778 -15.00000000
-1.40988314 2.05062580 -0.57452500 4 2 32549 2.55400000 2340191782 2340191782 -13.00000000
-1.66911125 2.42857194 -0.57280862 2 4 32550 3.00200000 2340191787 2340191787 -11.00000000
-2.07108665 3.01570439 -0.57943326 1 6 32552 3.70400000 2340191791 2340191791 -9.00000000
-2.67777133 3.90201473 -0.58107305 2 8 32554 4.76800000 2340191796 2340191796 -7.00000000
-3.77004409 5.49571609 -0.58307195 8 10 32555 6.69000000 2340191801 2340191801 -5.00000000
-6.26619816 9.14128017 -0.58082443 4 12 32557 11.09800000 2340191805 2340191805 -3.00000000
-6.22036839 9.07781982 2.54059720 53 13 32558 11.29400000 2340191808 2340191808 13.00000000
-4.73256540 6.90915060 2.24396110 40 15 32559 8.67000000 2340191812 2340191812 15.00000000
-1.20885551 1.76879811 -0.57406062 4 0 32565 2.21800000 2340191833 2340191833 -15.00000000
-1.40233493 2.05343580 -0.57407510 4 2 32567 2.55200000 2340191838 2340191838 -13.00000000
-1.66368735 2.43704653 -0.57357186 4 4 32568 3.00600000 2340191842 2340191842 -11.00000000
-2.06382871 3.02545977 -0.58005899 1 6 32570 3.70800000 2340191847 2340191847 -9.00000000
-2.67332625 3.92188978 -0.58277923 6 8 32572 4.78200000 2340191851 2340191851 -7.00000000
-3.75500393 5.51082611 -0.58342052 4 10 32573 6.69400000 2340191856 2340191856 -5.00000000
-6.25993061 9.19393921 -0.58291787 4 12 32575 11.13800000 2340191861 2340191861 -3.00000000
-6.19730139 9.10537243 2.54284668 56 13 32576 11.30400000 2340191863 2340191863 13.00000000
-4.70540285 6.91599798 2.24137282 40 15 32577 8.66000000 2340191867 2340191867 15.00000000
-1.19399810 1.76021707 -0.56991953 4 0 32585 2.20200000 2340191888 2340191888 -15.00000000
-1.39953208 2.06477070 -0.57587469 4 2 32587 2.56000000 2340191893 2340191893 -13.00000000
-1.66398025 2.45584154 -0.57662481 2 4 32588 3.02200000 2340191897 2340191897 -11.00000000
-2.04218054 3.01628804 -0.57693028 1 6 32590 3.68800000 2340191902 2340191902 -9.00000000
-2.66073227 3.93284178 -0.58302295 4 8 32592 4.78400000 2340191907 2340191907 -7.00000000
-3.73686075 5.52555037 -0.58359486 8 10 32593 6.69600000 2340191911 2340191911 -5.00000000
-6.25352049 9.25379562 -0.58532536 4 12 32595 11.18400000 2340191916 2340191916 -3.00000000
-6.16548014 9.12694931 2.54284668 57 13 32596 11.30400000 2340191918 2340191918 13.00000000
-4.67786121 6.92999554 2.24033761 40 15 32598 8.65600000 2340191923 2340191923 15.00000000
-1.19431984 1.77398932 -0.57302535 4 0 32605 2.21400000 2340191944 2340191944 -15.00000000
-1.39666724 2.07611108 -0.57767433 4 2 32607 2.56800000 2340191948 2340191948 -13.00000000
-1.65101540 2.45511842 -0.57509834 2 4 32608 3.01400000 2340191953 2340191953 -11.00000000
-2.03824997 3.03323579 -0.57880753 1 6 32610 3.70000000 2340191957 2340191957 -9.00000000
-2.63702846 3.92727304 -0.58082926 2 8 32612 4.76600000 2340191962 2340191962 -7.00000000
-3.71755028 5.53856039 -0.58359486 8 10 32613 6.69600000 2340191967 2340191967 -5.00000000
-6.22674322 9.28386211 -0.58584869 4 12 32615 11.19400000 2340191971 2340191971 -3.00000000
-6.14009476 9.15812683 2.54554605 57 13 32616 11.31600000 2340191973 2340191973 13.00000000
-4.65485477 6.94546986 2.24033761 40 15 32617 8.65600000 2340191978 2340191978 15.00000000
-1.18919349 1.77975380 -0.57354301 4 0 32625 2.21600000 2340191999 2340191999 -15.00000000
-1.38075495 2.06800818 -0.57407510 4 2 32627 2.55200000 2340192003 2340192003 -13.00000000
-1.64679480 2.46739841 -0.57662481 4 4 32628 3.02200000 2340192008 2340192008 -11.00000000
-2.02545738 3.03704524 -0.57818180 1 6 32630 3.69600000 2340192013 2340192013 -9.00000000
-2.62330365 3.93645406 -0.58082926 2 8 32632 4.76600000 2340192017 2340192017 -7.00000000
-3.70371747 5.55979443 -0.58446640 8 10 32633 6.70600000 2340192022 2340192022 -5.00000000
-6.19540501 9.30720329 -0.58595335 8 12 32635 11.19600000 2340192026 2340192026 -3.00000000
-6.10377121 9.17301464 2.54374647 56 13 32636 11.30800000 2340192029 2340192029 13.00000000
-4.63593197 6.96971846 2.24292588 42 15 32637 8.66600000 2340192033 2340192033 15.00000000
-1.18372965 1.78571057 -0.57406062 4 0 32646 2.21800000 2340192054 2340192054 -15.00000000
-1.37101376 2.06980562 -0.57317531 4 2 32648 2.54800000 2340192059 2340192059 -13.00000000
-1.63340473 2.46686983 -0.57509834 4 4 32649 3.01400000 2340192063 2340192063 -11.00000000
-2.01867247 3.05103827 -0.57943326 1 6 32651 3.70400000 2340192068 2340192068 -9.00000000
-2.60010004 3.93279529 -0.57887936 2 8 32653 4.75000000 2340192072 2340192072 -7.00000000
-3.70198965 5.60158920 -0.58742970 4 10 32654 6.74000000 2340192077 2340192077 -5.00000000
-6.17115641 9.34484768 -0.58689541 8 12 32656 11.21400000 2340192082 2340192082 -3.00000000
-6.06796217 9.19207191 2.54284668 57 13 32657 11.30400000 2340192084 2340192084 13.00000000
-4.61035538 6.98666334 2.24292588 45 15 32658 8.66600000 2340192089 2340192089 15.00000000
-1.17324221 1.78337610 -0.57199007 4 0 32666 2.21000000 2340192109 2340192109 -15.00000000
-1.37234414 2.08760595 -0.57677448 4 2 32668 2.56400000 2340192114 2340192114 -13.00000000
-1.62694013 2.47583795 -0.57586157 4 4 32669 3.01800000 2340192119 2340192119 -11.00000000
-2.00584149 3.05476379 -0.57880753 1 6 32671 3.70000000 2340192123 2340192123 -9.00000000
