# .PCD v0.7 - Point Cloud Data file format
VERSION 0.7
FIELDS x y z intensity laser_id azimuth distance_m adjustedtime timestamp vertical_angle
SIZE 4 4 4 1 1 2 8 8 4 8
TYPE F F F U U U F U U F
COUNT 1 1 1 1 1 1 1 1 1 1
WIDTH 528
HEIGHT 1
VIEWPOINT 0 0 0 1 0 0 0
POINTS 528
DATA ascii
4.79447460 -5.31360245 0.12492432 12 1 13794 7.15800000 2340539814 2340539814 1.00000000
1.38223326 -1.53243411 -0.47644633 4 2 13795 2.11800000 2340539816 2340539816 -13.00000000
3.42256784 -3.79581428 0.26785544 17 3 13796 5.11800000 2340539818 2340539818 3.00000000
1.93128228 -2.14189720 -0.56059682 3 4 13796 2.93800000 2340539821 2340539821 -11.00000000
3.68435287 -4.08758211 0.48144832 2 5 13797 5.52400000 2340539823 2340539823 5.00000000
2.35501146 -2.61367011 -0.55721956 5 6 13798 3.56200000 2340539825 2340539825 -9.00000000
4.76548529 -5.29075050 0.87429065 52 7 13799 7.17400000 2340539827 2340539827 7.00000000
3.04044676 -3.37675810 -0.55791783 6 8 13800 4.57800000 2340539830 2340539830 -7.00000000
4.76543283 -5.29440737 1.12820542 55 9 13801 7.21200000 2340539832 2340539832 9.00000000
4.20666504 -4.67361498 -0.55012703 19 10 13801 6.31200000 2340539834 2340539834 -5.00000000
4.74971485 -5.27879715 1.38031232 53 11 13802 7.23400000 2340539837 2340539837 11.00000000
4.78162622 -5.31612921 -0.37472546 11 12 13803 7.16000000 2340539839 2340539839 -3.00000000
4.73883009 -5.27039909 1.63629401 66 13 13804 7.27400000 2340539841 2340539841 13.00000000
4.78159046 -5.31982327 -0.12485451 6 14 13805 7.15400000 2340539844 2340539844 -1.00000000
4.72176075 -5.25510311 1.89300251 47 15 13806 7.31400000 2340539846 2340539846 15.00000000
1.37450075 -1.53352070 -0.55180222 64 0 13813 2.13200000 2340539867 2340539867 -15.00000000
4.77055979 -5.32434893 0.12478471 3 1 13814 7.15000000 2340539869 2340539869 1.00000000
1.37687564 -1.53724968 -0.47644633 4 2 13815 2.11800000 2340539871 2340539871 -13.00000000
3.41395926 -3.81160641 0.26816943 17 3 13815 5.12400000 2340539874 2340539874 3.00000000
1.90807879 -2.13107395 -0.55601740 3 4 13816 2.91400000 2340539876 2340539876 -11.00000000
2.34587383 -2.62187457 -0.55721956 5 6 13818 3.56200000 2340539880 2340539880 -9.00000000
4.73640108 -5.29551601 0.87234074 55 7 13819 7.15800000 2340539883 2340539883 7.00000000
3.02334857 -3.38143134 -0.55694288 8 8 13820 4.57000000 2340539885 2340539885 -7.00000000
4.72980976 -5.29186249 1.12413812 52 9 13821 7.18600000 2340539887 2340539887 9.00000000
4.18634224 -4.68381357 -0.54960412 15 10 13821 6.30600000 2340539890 2340539890 -5.00000000
4.71817923 -5.28070450 1.37649608 53 11 13822 7.21400000 2340539892 2340539892 11.00000000
4.73909235 -5.30597496 -0.37284136 11 12 13823 7.12400000 2340539894 2340539894 -3.00000000
4.70223379 -5.26655722 1.62999535 66 13 13824 7.24600000 2340539897 2340539897 13.00000000
4.72970295 -5.29918432 -0.12398189 8 14 13825 7.10400000 2340539899 2340539899 -1.00000000
4.69401741 -5.25920200 1.88886142 47 15 13825 7.29800000 2340539901 2340539901 15.00000000
1.36271763 -1.53109396 -0.54921401 77 0 13833 2.12200000 2340539922 2340539922 -15.00000000
3.02662349 -3.40178633 0.07947826 8 1 13834 4.55400000 2340539924 2340539924 1.00000000
1.38445210 -1.55660784 -0.48094535 4 2 13835 2.13800000 2340539926 2340539926 -13.00000000
3.02101564 -3.39667678 0.23823327 5 3 13835 4.55200000 2340539929 2340539929 3.00000000
1.90062833 -2.13772130 -0.55601740 3 4 13836 2.91400000 2340539931 2340539931 -11.00000000
2.33670735 -2.63004732 -0.55721956 5 6 13838 3.56200000 2340539936 2340539936 -9.00000000
4.70470524 -5.29717493 0.86990339 52 7 13839 7.13800000 2340539938 2340539938 7.00000000
3.01679850 -3.39790201 -0.55791783 8 8 13840 4.57800000 2340539940 2340539940 -7.00000000
4.68901777 -5.28322458 1.11881924 55 9 13841 7.15200000 2340539943 2340539943 9.00000000
4.15806437 -4.68498707 -0.54803532 15 10 13841 6.28800000 2340539945 2340539945 -5.00000000
4.68929338 -5.28539324 1.37344313 56 11 13842 7.19800000 2340539947 2340539947 11.00000000
4.71524096 -5.31650829 -0.37242267 11 12 13843 7.11600000 2340539950 2340539950 -3.00000000
4.67347908 -5.27127409 1.62639618 62 13 13844 7.23000000 2340539952 2340539952 13.00000000
4.69526052 -5.29770374 -0.12356304 8 14 13845 7.08000000 2340539954 2340539954 -1.00000000
4.65769196 -5.25531483 1.88161445 49 15 13845 7.27000000 2340539956 2340539956 15.00000000
1.34638226 -1.52234364 -0.54455525 80 0 13851 2.10400000 2340539977 2340539977 -15.00000000
3.00267649 -3.39629650 0.07912921 14 1 13852 4.53400000 2340539979 2340539979 1.00000000
1.37955511 -1.56094944 -0.48094535 4 2 13853 2.13800000 2340539982 2340539982 -13.00000000
3.01370239 -3.41116667 0.23854730 13 3 13854 4.55800000 2340539984 2340539984 3.00000000
1.88870358 -2.13779664 -0.55449092 3 4 13854 2.90600000 2340539986 2340539986 -11.00000000
2.32843351 -2.63737535 -0.55721956 5 6 13856 3.56200000 2340539991 2340539991 -9.00000000
4.67753220 -5.30002213 0.86795348 52 7 13857 7.12200000 2340539993 2340539993 7.00000000
3.00348234 -3.40438557 -0.55743039 8 8 13858 4.57400000 2340539996 2340539996 -7.00000000
4.66025257 -5.28230095 1.11569059 55 9 13858 7.13200000 2340539998 2340539998 9.00000000
4.13278246 -4.68607283 -0.54664081 15 10 13859 6.27200000 2340540000 2340540000 -5.00000000
4.65319109 -5.27800941 1.36771894 59 11 13860 7.16800000 2340540003 2340540003 11.00000000
4.68795109 -5.31930828 -0.37158528 11 12 13861 7.10000000 2340540005 2340540005 -3.00000000
4.64916658 -5.27715683 1.62369668 66 13 13862 7.21800000 2340540007 2340540007 13.00000000
4.66405582 -5.29592037 -0.12317909 8 14 13863 7.05800000 2340540009 2340540009 -1.00000000
4.62492037 -5.25333118 1.87540281 47 15 13864 7.24600000 2340540012 2340540012 15.00000000
1.33723581 -1.52267945 -0.54300237 81 0 13871 2.09800000 2340540032 2340540032 -15.00000000
2.99739909 -3.41427088 0.07930373 8 1 13872 4.54400000 2340540035 2340540035 1.00000000
1.37024176 -1.56136143 -0.47959566 4 2 13873 2.13200000 2340540037 2340540037 -13.00000000
3.00764370 -3.42714620 0.23896597 5 3 13873 4.56600000 2340540039 2340540039 3.00000000
1.89158762 -2.15618300 -0.55754387 3 4 13874 2.92200000 2340540042 2340540042 -11.00000000
4.62675858 -5.27580690 0.61392504 6 5 13875 7.04400000 2340540044 2340540044 5.00000000
2.31139994 -2.63657451 -0.55534238 5 6 13876 3.55000000 2340540046 2340540046 -9.00000000
4.63676119 -5.29093742 0.86380988 57 7 13877 7.08800000 2340540049 2340540049 7.00000000
2.99158049 -3.41484904 -0.55743039 8 8 13878 4.57400000 2340540051 2340540051 -7.00000000
4.62784672 -5.28448534 1.11256194 55 9 13879 7.11200000 2340540053 2340540053 9.00000000
4.11639977 -4.70046997 -0.54664081 11 10 13879 6.27200000 2340540056 2340540056 -5.00000000
4.62051392 -5.27797079 1.36352110 59 11 13880 7.14600000 2340540058 2340540058 11.00000000
4.64041805 -5.30257368 -0.36928251 11 12 13881 7.05600000 2340540060 2340540060 -3.00000000
4.61532021 -5.27575254 1.61829793 70 13 13882 7.19400000 2340540062 2340540062 13.00000000
4.64159203 -5.30765295 -0.12307437 6 14 13883 7.05200000 2340540065 2340540065 -1.00000000
4.59002542 -5.25053549 1.86867356 47 15 13884 7.22000000 2340540067 2340540067 15.00000000
1.33926260 -1.53630781 -0.54610819 78 0 13892 2.11000000 2340540088 2340540088 -15.00000000
3.00325775 -3.44634008 0.07979240 4 1 13893 4.57200000 2340540090 2340540090 1.00000000
1.50019276 -1.72212887 -0.52728528 2 2 13894 2.34400000 2340540092 2340540092 -13.00000000
3.00293374 -3.44718266 0.23959401 3 3 13894 4.57800000 2340540095 2340540095 3.00000000
1.88367212 -2.16310143 -0.55754387 3 4 13895 2.92200000 2340540097 2340540097 -11.00000000
4.61654758 -5.30324888 0.61514521 57 5 13896 7.05800000 2340540099 2340540099 5.00000000
2.30950141 -2.65396953 -0.55721956 5 6 13897 3.56200000 2340540102 2340540102 -9.00000000
4.59258366 -5.27943993 0.85917890 52 7 13898 7.05000000 2340540104 2340540104 7.00000000
2.97253132 -3.41830111 -0.55621171 8 8 13899 4.56400000 2340540106 2340540106 -7.00000000
4.60029840 -5.29017305 1.11037183 60 9 13899 7.09800000 2340540109 2340540109 9.00000000
4.10175848 -4.71853352 -0.54698944 11 10 13900 6.27600000 2340540111 2340540111 -5.00000000
4.58053446 -5.27115965 1.35741520 59 11 13901 7.11400000 2340540113 2340540113 11.00000000
4.60261488 -5.29843664 -0.36781710 11 12 13902 7.02800000 2340540115 2340540115 -3.00000000
4.58062029 -5.27497625 1.61289907 70 13 13903 7.17000000 2340540118 2340540118 13.00000000
3.32959533 -3.83566618 -0.08865822 6 14 13904 5.08000000 2340540120 2340540120 -1.00000000
4.56441975 -5.26002836 1.86608529 47 15 13905 7.21000000 2340540122 2340540122 15.00000000
1.33642042 -1.54389453 -0.54714346 76 0 13912 2.11400000 2340540143 2340540143 -15.00000000
4.58625937 -5.30012798 0.12234137 9 1 13913 7.01000000 2340540145 2340540145 1.00000000
1.58213985 -1.82905078 -0.55832851 3 2 13914 2.48200000 2340540148 2340540148 -13.00000000
3.50438905 -4.05128908 0.28073007 2 3 13914 5.36400000 2340540150 2340540150 3.00000000
1.86070049 -2.15184307 -0.55296445 3 4 13915 2.89800000 2340540152 2340540152 -11.00000000
4.58497858 -5.30425787 0.61340213 54 5 13916 7.03800000 2340540155 2340540155 5.00000000
2.29764009 -2.65902567 -0.55659384 3 6 13917 3.55800000 2340540157 2340540157 -9.00000000
4.56893635 -5.28943014 0.85820389 55 7 13918 7.04200000 2340540159 2340540159 7.00000000
2.95798635 -3.42565131 -0.55572420 8 8 13919 4.56000000 2340540162 2340540162 -7.00000000
4.56114817 -5.28227711 1.10536587 57 9 13919 7.06600000 2340540164 2340540164 9.00000000
4.07224417 -4.71774006 -0.54524630 11 10 13920 6.25600000 2340540166 2340540166 -5.00000000
4.55441141 -5.27819824 1.35512543 59 11 13921 7.10200000 2340540168 2340540168 11.00000000
4.57887363 -5.30842113 -0.36739841 11 12 13922 7.02000000 2340540171 2340540171 -3.00000000
4.53672743 -5.26141644 1.60390103 72 13 13923 7.13000000 2340540173 2340540173 13.00000000
3.30835247 -3.83817720 -0.08844879 14 14 13924 5.06800000 2340540175 2340540175 -1.00000000
4.53089857 -5.25836706 1.85987365 47 15 13925 7.18600000 2340540178 2340540178 15.00000000
1.33075285 -1.54878247 -0.54714346 62 0 13933 2.11400000 2340540198 2340540198 -15.00000000
4.55377340 -5.30173254 0.12199232 8 1 13934 6.99000000 2340540201 2340540201 1.00000000
1.58177280 -1.84222996 -0.56057805 2 2 13935 2.49200000 2340540203 2340540203 -13.00000000
4.54339790 -5.29152060 0.36551431 7 3 13935 6.98400000 2340540205 2340540205 3.00000000
1.85280108 -2.15864825 -0.55296445 3 4 13936 2.89800000 2340540208 2340540208 -11.00000000
4.55642509 -5.31044245 0.61218196 64 5 13937 7.02400000 2340540210 2340540210 5.00000000
2.29302311 -2.67342663 -0.55784529 3 6 13938 3.56600000 2340540212 2340540212 -9.00000000
4.53401375 -5.28805637 0.85527903 52 7 13939 7.01800000 2340540214 2340540214 7.00000000
2.93895173 -3.42893386 -0.55450553 8 8 13940 4.55000000 2340540217 2340540217 -7.00000000
4.52504539 -5.27946091 1.10129869 57 9 13940 7.04000000 2340540219 2340540219 9.00000000
4.02381325 -4.69632196 -0.54106283 15 10 13941 6.20800000 2340540221 2340540221 -5.00000000
4.51970959 -5.27696276 1.35054612 59 11 13942 7.07800000 2340540224 2340540224 11.00000000
4.55289173 -5.31758213 -0.36687505 11 12 13943 7.01000000 2340540226 2340540226 -3.00000000
4.50474167 -5.26320410 1.59940195 68 13 13944 7.11000000 2340540228 2340540228 13.00000000
3.29426265 -3.85027719 -0.08844879 6 14 13945 5.06800000 2340540231 2340540231 -1.00000000
4.49744511 -5.25653601 1.85366201 49 15 13945 7.16200000 2340540233 2340540233 15.00000000
1.32283068 -1.55047894 -0.54610819 58 0 13953 2.11000000 2340540254 2340540254 -15.00000000
4.52745342 -5.30846691 0.12178289 11 1 13954 6.97800000 2340540256 2340540256 1.00000000
1.56648242 -1.83735955 -0.55742872 1 2 13955 2.47800000 2340540258 2340540258 -13.00000000
4.51971626 -5.30126858 0.36509565 7 3 13955 6.97600000 2340540261 2340540261 3.00000000
1.84780157 -2.16809106 -0.55372769 3 4 13956 2.90200000 2340540263 2340540263 -11.00000000
4.50814199 -5.29143333 0.60817277 67 5 13957 6.97800000 2340540265 2340540265 5.00000000
2.28367710 -2.68141460 -0.55784529 3 6 13958 3.56600000 2340540267 2340540267 -9.00000000
4.51037979 -5.29780483 0.85430408 52 7 13959 7.01000000 2340540270 2340540270 7.00000000
2.93983030 -3.45428896 -0.55694288 8 8 13960 4.57000000 2340540272 2340540272 -7.00000000
4.49378586 -5.28018093 1.09816992 55 9 13960 7.02000000 2340540274 2340540274 9.00000000
3.98673892 -4.68605900 -0.53827387 19 10 13961 6.17600000 2340540277 2340540277 -5.00000000
4.48599911 -5.27476072 1.34596670 56 11 13962 7.05400000 2340540279 2340540279 11.00000000
4.52524662 -5.32279062 -0.36614236 10 12 13963 6.99600000 2340540281 2340540281 -3.00000000
4.47372246 -5.26404715 1.59490299 68 13 13964 7.09000000 2340540284 2340540284 13.00000000
4.50042200 -5.29733753 -0.12132913 8 14 13965 6.95200000 2340540286 2340540286 -1.00000000
4.45563889 -5.24647951 1.84434450 47 15 13966 7.12600000 2340540288 2340540288 15.00000000
1.33142066 -1.57106876 -0.55180222 41 0 13972 2.13200000 2340540309 2340540309 -15.00000000
4.48655844 -5.29598713 0.12115461 11 1 13973 6.94200000 2340540311 2340540311 1.00000000
1.54904640 -1.82915998 -0.55337960 1 2 13974 2.46000000 2340540314 2340540314 -13.00000000
4.48698854 -5.30024481 0.36394423 10 3 13975 6.95400000 2340540316 2340540316 3.00000000
1.83806479 -2.17120981 -0.55296445 3 4 13975 2.89800000 2340540318 2340540318 -11.00000000
4.47383833 -5.28658199 0.60590672 64 5 13976 6.95200000 2340540320 2340540320 5.00000000
2.26711774 -2.67992401 -0.55596811 3 6 13977 3.55400000 2340540323 2340540323 -9.00000000
4.47227812 -5.28848076 0.85040426 57 7 13978 6.97800000 2340540325 2340540325 7.00000000
2.92323303 -3.45795488 -0.55596793 8 8 13979 4.56200000 2340540327 2340540327 -7.00000000
4.46349859 -5.27996826 1.09504128 52 9 13979 7.00000000 2340540330 2340540330 9.00000000
3.98017955 -4.70990658 -0.53949404 15 10 13980 6.19000000 2340540332 2340540332 -5.00000000
4.45074558 -5.26861143 1.34062397 56 11 13981 7.02600000 2340540334 2340540334 11.00000000
4.49081850 -5.31793022 -0.36478162 10 12 13982 6.97000000 2340540337 2340540337 -3.00000000
4.44618511 -5.26694107 1.59130371 68 13 13983 7.07400000 2340540339 2340540339 13.00000000
4.47251368 -5.30000591 -0.12104989 8 14 13984 6.93600000 2340540341 2340540341 -1.00000000
4.42667580 -5.24568748 1.83916819 47 15 13984 7.10600000 2340540344 2340540344 15.00000000
1.33463538 -1.58605385 -0.55542564 28 0 13992 2.14600000 2340540364 2340540364 -15.00000000
4.45002317 -5.29019165 0.12066594 11 1 13993 6.91400000 2340540367 2340540367 1.00000000
1.52509332 -1.81367493 -0.54708099 1 2 13994 2.43200000 2340540369 2340540369 -13.00000000
4.45560837 -5.30058622 0.36289752 10 3 13995 6.93400000 2340540371 2340540371 3.00000000
1.83300114 -2.18061829 -0.55372769 3 4 13995 2.90200000 2340540373 2340540373 -11.00000000
4.44510365 -5.28996372 0.60451221 54 5 13996 6.93600000 2340540376 2340540376 5.00000000
2.25139642 -2.68025851 -0.55440372 3 6 13997 3.54400000 2340540378 2340540378 -9.00000000
4.43336582 -5.27973604 0.84650445 55 7 13998 6.94600000 2340540380 2340540380 7.00000000
2.91114473 -3.46813774 -0.55596793 6 8 13999 4.56200000 2340540383 2340540383 -7.00000000
4.43141937 -5.28115988 1.09191251 52 9 14000 6.98000000 2340540385 2340540385 9.00000000
4.00341558 -4.77108526 -0.54489768 15 10 14000 6.25200000 2340540387 2340540387 -5.00000000
4.42223406 -5.27208185 1.33757102 56 11 14001 7.01000000 2340540390 2340540390 11.00000000
4.45426226 -5.31214762 -0.36331621 10 12 14002 6.94200000 2340540392 2340540392 -3.00000000
4.41275072 -5.26450729 1.58590496 62 13 14003 7.05000000 2340540394 2340540394 13.00000000
4.43728971 -5.29566002 -0.12059613 8 14 14004 6.91000000 2340540397 2340540397 -1.00000000
4.40121746 -5.25447178 1.83657992 51 15 14005 7.09600000 2340540399 2340540399 15.00000000
1.33776152 -1.60108030 -0.55904913 20 0 14012 2.16000000 2340540420 2340540420 -15.00000000
4.41999292 -5.29188013 0.12035179 11 1 14013 6.89600000 2340540422 2340540422 1.00000000
1.49502265 -1.79056573 -0.53853285 1 2 14014 2.39400000 2340540424 2340540424 -13.00000000
4.42556047 -5.30230713 0.36195546 10 3 14015 6.91600000 2340540426 2340540426 3.00000000
1.82537830 -2.18700337 -0.55372769 3 4 14015 2.90200000 2340540429 2340540429 -11.00000000
4.41384697 -5.29014921 0.60276914 33 5 14016 6.91600000 2340540431 2340540431 5.00000000
2.24708796 -2.69416904 -0.55565524 1 6 14017 3.55200000 2340540433 2340540433 -9.00000000
4.40982437 -5.28908062 0.84552950 55 7 14018 6.93800000 2340540436 2340540436 7.00000000
2.89647913 -3.47522855 -0.55548048 8 8 14019 4.55800000 2340540438 2340540438 -7.00000000
4.40123463 -5.28065157 1.08878386 55 9 14019 6.96000000 2340540440 2340540440 9.00000000
4.01479483 -4.81870651 -0.54873258 11 10 14020 6.29600000 2340540443 2340540443 -5.00000000
4.39375257 -5.27541780 1.33451807 56 11 14021 6.99400000 2340540445 2340540445 11.00000000
4.41141176 -5.29850054 -0.36132744 10 12 14022 6.90400000 2340540447 2340540447 -3.00000000
4.37938786 -5.26190424 1.58050609 64 13 14023 7.02600000 2340540450 2340540450 13.00000000
4.40087223 -5.28959560 -0.12010746 8 14 14024 6.88200000 2340540452 2340540452 -1.00000000
4.37264872 -5.25567245 1.83192122 49 15 14024 7.07800000 2340540454 2340540454 15.00000000
1.34449947 -1.62060809 -0.56422549 22 0 14032 2.18000000 2340540475 2340540475 -15.00000000
4.39894056 -5.30419827 0.12028199 11 1 14033 6.89200000 2340540477 2340540477 1.00000000
1.42906344 -1.72376251 -0.51693749 1 2 14034 2.29800000 2340540479 2340540479 -13.00000000
4.39555502 -5.30388260 0.36101341 10 3 14035 6.89800000 2340540482 2340540482 3.00000000
1.81272209 -2.18731546 -0.55220121 3 4 14035 2.89400000 2340540484 2340540484 -11.00000000
4.38137197 -5.28864717 0.60085171 27 5 14036 6.89400000 2340540486 2340540486 5.00000000
2.24522948 -2.71112490 -0.55753243 1 6 14037 3.56400000 2340540489 2340540489 -9.00000000
4.37741041 -5.28762150 0.84284836 21 7 14038 6.91600000 2340540491 2340540491 7.00000000
2.87673688 -3.47614217 -0.55401802 8 8 14039 4.54600000 2340540493 2340540493 -7.00000000
4.36925936 -5.28152704 1.08565521 55 9 14040 6.94000000 2340540496 2340540496 9.00000000
3.99286985 -4.82655048 -0.54803532 11 10 14040 6.28800000 2340540498 2340540498 -5.00000000
4.36405087 -5.27710629 1.33108354 59 11 14041 6.97600000 2340540500 2340540500 11.00000000
4.38525391 -5.30463076 -0.36069942 10 12 14042 6.89200000 2340540502 2340540502 -3.00000000
4.35106277 -5.26514196 1.57690692 66 13 14043 7.01000000 2340540505 2340540505 13.00000000
4.36964560 -5.28950834 -0.11975841 8 14 14044 6.86200000 2340540507 2340540507 -1.00000000
4.33859491 -5.25378847 1.82570958 47 15 14045 7.05400000 2340540509 2340540509 15.00000000
1.33883429 -1.62529147 -0.56422549 22 0 14052 2.18000000 2340540530 2340540530 -15.00000000
4.35624695 -5.29019117 0.11961880 11 1 14053 6.85400000 2340540532 2340540532 1.00000000
1.39826775 -1.69864917 -0.50793946 1 2 14054 2.25800000 2340540535 2340540535 -13.00000000
4.35417080 -5.29143333 0.35912934 10 3 14055 6.86200000 2340540537 2340540537 3.00000000
1.81006575 -2.19969344 -0.55372769 3 4 14055 2.90200000 2340540539 2340540539 -11.00000000
4.34769630 -5.28544474 0.59875995 13 5 14056 6.87000000 2340540542 2340540542 5.00000000
2.21944213 -2.69911051 -0.55346513 1 6 14057 3.53800000 2340540544 2340540544 -9.00000000
3.03410530 -3.69115257 0.58667904 6 7 14058 4.81400000 2340540546 2340540546 7.00000000
2.86710596 -3.48923016 -0.55450553 8 8 14059 4.55000000 2340540549 2340540549 -7.00000000
4.33667183 -5.27767229 1.08190072 55 9 14059 6.91600000 2340540551 2340540551 9.00000000
3.96335149 -4.82506323 -0.54629219 11 10 14060 6.26800000 2340540553 2340540553 -5.00000000
4.33065319 -5.27410030 1.32650411 59 11 14061 6.95200000 2340540555 2340540555 11.00000000
4.35784054 -5.30909920 -0.35996670 10 12 14062 6.87800000 2340540558 2340540558 -3.00000000
4.32276821 -5.26824570 1.57330763 68 13 14063 6.99400000 2340540560 2340540560 13.00000000
4.34100962 -5.29236031 -0.11947917 8 14 14064 6.84600000 2340540562 2340540562 -1.00000000
4.30154610 -5.24424839 1.81742728 47 15 14064 7.02200000 2340540565 2340540565 15.00000000
1.33804512 -1.63593638 -0.56629604 18 0 14072 2.18800000 2340540585 2340540585 -15.00000000
4.32509661 -5.28988409 0.11926974 11 1 14073 6.83400000 2340540588 2340540588 1.00000000
1.39972925 -1.71257293 -0.51063889 1 2 14074 2.27000000 2340540590 2340540590 -13.00000000
4.33061934 -5.30041313 0.35871065 10 3 14075 6.85400000 2340540592 2340540592 3.00000000
1.79740775 -2.19991708 -0.55220121 3 4 14075 2.89400000 2340540595 2340540595 -11.00000000
4.32165813 -5.29132986 0.59771407 10 5 14076 6.85800000 2340540597 2340540597 5.00000000
2.21125627 -2.70837140 -0.55377799 1 6 14077 3.54000000 2340540599 2340540599 -9.00000000
3.01994729 -3.70018339 0.58643526 6 7 14078 4.81200000 2340540602 2340540602 7.00000000
2.86494803 -3.51152182 -0.55645543 8 8 14079 4.56600000 2340540604 2340540604 -7.00000000
4.30980778 -5.28434658 1.08002353 65 9 14080 6.90400000 2340540606 2340540606 9.00000000
3.92381835 -4.81107664 -0.54315460 11 10 14080 6.23200000 2340540608 2340540608 -5.00000000
4.29360819 -5.26636028 1.32077992 62 11 14081 6.92200000 2340540611 2340540611 11.00000000
4.32414007 -5.30570030 -0.35871065 10 12 14082 6.85400000 2340540613 2340540613 -3.00000000
4.29204369 -5.26819468 1.56880867 68 13 14083 6.97400000 2340540615 2340540615 13.00000000
4.33008623 -5.31678391 -0.11968860 2 14 14084 6.85800000 2340540618 2340540618 -1.00000000
4.27497816 -5.25099039 1.81432152 47 15 14085 7.01000000 2340540620 2340540620 15.00000000
1.32071531 -1.62513983 -0.56111968 9 0 14090 2.16800000 2340540641 2340540641 -15.00000000
3.05008960 -3.75447297 0.08443474 2 1 14091 4.83800000 2340540643 2340540643 1.00000000
1.47910833 -1.82134104 -0.54168212 2 2 14092 2.40800000 2340540645 2340540645 -13.00000000
3.04380560 -3.74941134 0.25309667 2 3 14093 4.83600000 2340540648 2340540648 3.00000000
1.80286133 -2.22079515 -0.55601740 3 4 14093 2.91400000 2340540650 2340540650 -11.00000000
3.02568769 -3.72842312 0.42009068 2 5 14094 4.82000000 2340540652 2340540652 5.00000000
2.21020365 -2.72450924 -0.55565524 1 6 14095 3.55200000 2340540655 2340540655 -9.00000000
4.27364779 -5.26998854 0.83309883 10 7 14096 6.83600000 2340540657 2340540657 7.00000000
2.84390163 -3.50816870 -0.55450553 8 8 14097 4.55000000 2340540659 2340540659 -7.00000000
4.27793884 -5.27716255 1.07595623 62 9 14097 6.87800000 2340540661 2340540661 9.00000000
3.89864945 -4.81099606 -0.54176009 11 10 14098 6.21600000 2340540664 2340540664 -5.00000000
4.26715612 -5.26761913 1.31772697 62 11 14099 6.90600000 2340540666 2340540666 11.00000000
4.29488134 -5.30373716 -0.35766393 10 12 14100 6.83400000 2340540668 2340540668 -3.00000000
4.25585413 -5.25741816 1.56161022 72 13 14101 6.94200000 2340540671 2340540671 13.00000000
3.05042338 -3.76964879 -0.08464417 6 14 14102 4.85000000 2340540673 2340540673 -1.00000000
4.24601173 -5.24713182 1.80862749 51 15 14102 6.98800000 2340540675 2340540675 15.00000000
1.30411637 -1.61620903 -0.55646098 4 0 14110 2.15000000 2340540696 2340540696 -15.00000000
3.03319907 -3.76042771 0.08433003 8 1 14111 4.83200000 2340540698 2340540698 1.00000000
1.47274160 -1.82649291 -0.54168212 3 2 14112 2.40800000 2340540701 2340540701 -13.00000000
3.03445935 -3.76467848 0.25341070 8 3 14113 4.84200000 2340540703 2340540703 3.00000000
1.78277791 -2.21178961 -0.55220121 3 4 14113 2.89400000 2340540705 2340540705 -11.00000000
3.03015542 -3.76068211 0.42253104 9 5 14114 4.84800000 2340540708 2340540708 5.00000000
2.19944072 -2.73066950 -0.55534238 1 6 14115 3.55000000 2340540710 2340540710 -9.00000000
2.82417035 -3.50879598 -0.55304307 8 8 14117 4.53800000 2340540714 2340540714 -7.00000000
4.24742365 -5.27895498 1.07314038 52 9 14118 6.86000000 2340540717 2340540717 9.00000000
3.86434627 -4.80284357 -0.53931975 11 10 14118 6.18800000 2340540719 2340540719 -5.00000000
4.23520803 -5.26565409 1.31352913 56 11 14119 6.88400000 2340540721 2340540721 11.00000000
4.26632977 -5.30624437 -0.35682654 10 12 14120 6.81800000 2340540724 2340540724 -3.00000000
4.21794319 -5.24793863 1.55441177 66 13 14121 6.91000000 2340540726 2340540726 13.00000000
3.02847886 -3.76936173 -0.08439983 6 14 14122 4.83600000 2340540728 2340540728 -1.00000000
4.21586418 -5.24910355 1.80396879 49 15 14123 6.97000000 2340540731 2340540731 15.00000000
1.29846680 -1.62075150 -0.55646098 4 0 14130 2.15000000 2340540751 2340540751 -15.00000000
3.01630425 -3.76630998 0.08422531 8 1 14131 4.82600000 2340540754 2340540754 1.00000000
1.50289416 -1.87726104 -0.55517918 4 2 14132 2.46800000 2340540756 2340540756 -13.00000000
3.00258040 -3.75185704 0.25184062 6 3 14133 4.81200000 2340540758 2340540758 3.00000000
1.77013958 -2.21186781 -0.55067474 3 4 14133 2.88600000 2340540761 2340540761 -11.00000000
2.99460626 -3.74323201 0.41939342 6 5 14134 4.81200000 2340540763 2340540763 5.00000000
2.19236302 -2.74141574 -0.55596811 1 6 14135 3.55400000 2340540765 2340540765 -9.00000000
4.22559643 -5.28574085 0.83090520 65 7 14136 6.81800000 2340540767 2340540767 7.00000000
2.81190538 -3.51863265 -0.55304307 8 8 14137 4.53800000 2340540770 2340540770 -7.00000000
4.21386290 -5.27294970 1.06907308 60 9 14137 6.83400000 2340540772 2340540772 9.00000000
3.84134007 -4.80851984 -0.53844815 11 10 14138 6.17800000 2340540774 2340540774 -5.00000000
4.20945072 -5.27120066 1.31123936 59 11 14139 6.87200000 2340540777 2340540777 11.00000000
4.23532104 -5.30549526 -0.35577983 10 12 14140 6.79800000 2340540779 2340540779 -3.00000000
4.18501234 -5.24435186 1.54901302 66 13 14141 6.88600000 2340540781 2340540781 13.00000000
4.21868086 -5.28843498 -0.11808299 6 14 14142 6.76600000 2340540784 2340540784 -1.00000000
4.18036366 -5.24040174 1.79620421 56 15 14142 6.94000000 2340540786 2340540786 15.00000000
1.28438318 -1.61469090 -0.55283749 4 0 14150 2.13600000 2340540807 2340540807 -15.00000000
4.20787907 -5.29192495 0.11801317 8 1 14151 6.76200000 2340540809 2340540809 1.00000000
1.52300906 -1.91605723 -0.56507707 9 2 14152 2.51200000 2340540811 2340540811 -13.00000000
4.20463514 -5.29163551 0.35420975 7 3 14153 6.76800000 2340540814 2340540814 3.00000000
1.76729333 -2.22418165 -0.55220121 3 4 14153 2.89400000 2340540816 2340540816 -11.00000000
4.18850517 -5.27322483 0.58917284 10 5 14154 6.76000000 2340540818 2340540818 5.00000000
2.17541027 -2.73976970 -0.55409086 1 6 14155 3.54200000 2340540820 2340540820 -9.00000000
4.19724703 -5.28801966 0.82895529 55 7 14156 6.80200000 2340540823 2340540823 7.00000000
2.80207348 -3.53153682 -0.55353057 8 8 14157 4.54200000 2340540825 2340540825 -7.00000000
4.18192530 -5.27060509 1.06563163 55 9 14157 6.81200000 2340540827 2340540827 9.00000000
3.85053205 -4.85468006 -0.54210871 11 10 14158 6.22000000 2340540830 2340540830 -5.00000000
4.17882776 -5.27047873 1.30742323 59 11 14159 6.85200000 2340540832 2340540832 11.00000000
4.21925688 -5.32337761 -0.35598919 10 12 14160 6.80200000 2340540834 2340540834 -3.00000000
4.15941954 -5.24976349 1.54631352 68 13 14161 6.87400000 2340540837 2340540837 13.00000000
4.19647026 -5.29842615 -0.11797827 8 14 14162 6.76000000 2340540839 2340540839 -1.00000000
4.15005159 -5.23981810 1.79102778 56 15 14162 6.92000000 2340540841 2340540841 15.00000000
1.28922987 -1.63303411 -0.55749625 4 0 14171 2.15400000 2340540862 2340540862 -15.00000000
4.17730570 -5.29318428 0.11769903 11 1 14172 6.74400000 2340540864 2340540864 1.00000000
1.50390625 -1.90632689 -0.56057805 10 2 14173 2.49200000 2340540867 2340540867 -13.00000000
4.17531776 -5.29446459 0.35337237 7 3 14174 6.75200000 2340540869 2340540869 3.00000000
1.75426662 -2.22447801 -0.55067474 3 4 14174 2.88600000 2340540871 2340540871 -11.00000000
4.16174889 -5.27915335 0.58812696 10 5 14175 6.74800000 2340540873 2340540873 5.00000000
2.15190434 -2.73065782 -0.55064934 1 6 14176 3.52000000 2340540876 2340540876 -9.00000000
4.16309643 -5.28465557 0.82603043 55 7 14177 6.77800000 2340540878 2340540878 7.00000000
2.79156733 -3.54490232 -0.55401802 8 8 14178 4.54600000 2340540880 2340540880 -7.00000000
4.15188169 -5.27420616 1.06312859 55 9 14179 6.79600000 2340540883 2340540883 9.00000000
3.85489583 -4.89693975 -0.54524630 11 10 14179 6.25600000 2340540885 2340540885 -5.00000000
4.13641500 -5.25644541 1.30017245 59 11 14180 6.81400000 2340540887 2340540887 11.00000000
4.17255068 -5.30427074 -0.35368639 10 12 14181 6.75800000 2340540890 2340540890 -3.00000000
4.13292313 -5.25578213 1.54361415 66 13 14182 6.86200000 2340540892 2340540892 13.00000000
4.15848541 -5.29018927 -0.11745469 8 14 14183 6.73000000 2340540894 2340540894 -1.00000000
4.12126780 -5.24284315 1.78688669 54 15 14183 6.90400000 2340540896 2340540896 15.00000000
1.28352165 -1.63752437 -0.55749625 4 0 14191 2.15400000 2340540917 2340540917 -15.00000000
4.14893675 -5.29514122 0.11741979 11 1 14192 6.72800000 2340540920 2340540920 1.00000000
1.49483943 -1.90849662 -0.55967820 15 2 14193 2.48800000 2340540922 2340540922 -13.00000000
4.14572954 -5.29485369 0.35243034 10 3 14194 6.73400000 2340540924 2340540924 3.00000000
1.75859427 -2.24604583 -0.55449092 3 4 14194 2.90600000 2340540926 2340540926 -11.00000000
4.13592768 -5.28423452 0.58708107 10 5 14195 6.73600000 2340540929 2340540929 5.00000000
2.15696645 -2.75682211 -0.55440372 1 6 14196 3.54400000 2340540931 2340540931 -9.00000000
4.12872553 -5.27882814 0.82286179 60 7 14197 6.75200000 2340540933 2340540933 7.00000000
2.76939464 -3.54211426 -0.55206811 8 8 14198 4.53000000 2340540936 2340540936 -7.00000000
4.12858057 -5.28244114 1.06187713 55 9 14199 6.78800000 2340540938 2340540938 9.00000000
3.82796359 -4.89780760 -0.54385185 11 10 14199 6.24000000 2340540940 2340540940 -5.00000000
4.11078882 -5.26156998 1.29788280 59 11 14200 6.80200000 2340540943 2340540943 11.00000000
4.13679886 -5.29676628 -0.35222098 10 12 14201 6.73000000 2340540945 2340540945 -3.00000000
4.10255957 -5.25481653 1.53911507 60 13 14202 6.84200000 2340540947 2340540947 13.00000000
4.13384199 -5.29679108 -0.11728017 8 14 14203 6.72000000 2340540949 2340540949 -1.00000000
4.09014082 -5.24268198 1.78171027 56 15 14204 6.88400000 2340540952 2340540952 15.00000000
1.27067912 -1.63284707 -0.55439037 4 0 14211 2.14200000 2340540973 2340540973 -15.00000000
4.11814976 -5.29380751 0.11707074 11 1 14212 6.70800000 2340540975 2340540975 1.00000000
1.48577595 -1.91062617 -0.55877841 29 2 14213 2.48400000 2340540977 2340540977 -13.00000000
4.10883522 -5.28563976 0.35086024 10 3 14214 6.70400000 2340540979 2340540979 3.00000000
1.74110401 -2.23977065 -0.55143797 3 4 14214 2.89000000 2340540982 2340540982 -11.00000000
4.11256695 -5.29234648 0.58638382 10 5 14215 6.72800000 2340540984 2340540984 5.00000000
2.14369488 -2.75965452 -0.55346513 3 6 14216 3.53800000 2340540986 2340540986 -9.00000000
4.10418653 -5.28536844 0.82164311 57 7 14217 6.74200000 2340540989 2340540989 7.00000000
2.74971008 -3.54235101 -0.55060571 6 8 14218 4.51800000 2340540991 2340540991 -7.00000000
4.09316206 -5.27497149 1.05749702 55 9 14219 6.76000000 2340540993 2340540993 9.00000000
3.82550073 -4.93002892 -0.54594356 15 10 14219 6.26400000 2340540996 2340540996 -5.00000000
4.08517790 -5.26657963 1.29559302 59 11 14220 6.79000000 2340540998 2340540998 11.00000000
4.10604620 -5.29539061 -0.35117427 10 12 14221 6.71000000 2340541000 2340541000 -3.00000000
4.04360056 -5.21673727 1.52381849 19 13 14222 6.77400000 2340541002 2340541002 13.00000000
4.09573078 -5.28589725 -0.11672170 8 14 14223 6.68800000 2340541005 2340541005 -1.00000000
1.26733398 -1.64033020 -0.55542564 4 0 14231 2.14600000 2340541028 2340541028 -15.00000000
4.08742285 -5.29232407 0.11672170 11 1 14232 6.68800000 2340541030 2340541030 1.00000000
1.47909749 -1.91580093 -0.55877841 36 2 14233 2.48400000 2340541032 2340541032 -13.00000000
4.08425856 -5.29204416 0.35033688 10 3 14234 6.69400000 2340541035 2340541035 3.00000000
1.72607815 -2.23650932 -0.54914826 3 4 14234 2.87800000 2340541037 2340541037 -11.00000000
4.07824707 -5.28616238 0.58411777 10 5 14235 6.70200000 2340541039 2340541039 5.00000000
2.13042974 -2.76242781 -0.55252653 1 6 14236 3.53200000 2340541042 2340541042 -9.00000000
4.07601595 -5.28708553 0.81969321 55 7 14237 6.72600000 2340541044 2340541044 7.00000000
2.73975182 -3.55507255 -0.55109316 6 8 14238 4.52200000 2340541046 2340541046 -7.00000000
4.04458570 -5.25010586 1.04967523 22 9 14239 6.71000000 2340541049 2340541049 9.00000000
3.79367733 -4.92441225 -0.54385185 15 10 14239 6.24000000 2340541051 2340541051 -5.00000000
4.07778978 -5.29703045 -0.35033688 10 12 14241 6.69400000 2340541055 2340541055 -3.00000000
3.96237683 -5.14896822 1.49997365 45 13 14242 6.66800000 2340541058 2340541058 13.00000000
4.06140423 -5.27955675 -0.11626793 9 14 14243 6.66200000 2340541060 2340541060 -1.00000000
3.95895004 -5.14637327 1.73978162 6 15 14243 6.72200000 2340541062 2340541062 15.00000000
1.25426030 -1.63576579 -0.55231982 4 0 14252 2.13400000 2340541083 2340541083 -15.00000000
4.05340004 -5.28822470 0.11630283 11 1 14253 6.66400000 2340541085 2340541085 1.00000000
1.47325110 -1.92275608 -0.55922830 38 2 14254 2.48600000 2340541088 2340541088 -13.00000000
4.05239868 -5.28882980 0.34918550 10 3 14254 6.67200000 2340541090 2340541090 3.00000000
1.72264457 -2.24905515 -0.55067474 3 4 14255 2.88600000 2340541092 2340541092 -11.00000000
4.03583145 -5.27101755 0.58080590 9 5 14256 6.66400000 2340541095 2340541095 5.00000000
2.13109612 -2.78433537 -0.55534238 3 6 14257 3.55000000 2340541097 2340541097 -9.00000000
4.04816675 -5.29095364 0.81798702 60 7 14258 6.71200000 2340541099 2340541099 7.00000000
2.73393917 -3.57455087 -0.55255562 6 8 14259 4.53400000 2340541101 2340541101 -7.00000000
3.96743131 -5.18730783 1.03434467 7 9 14259 6.61200000 2340541104 2340541104 9.00000000
3.77318287 -4.93511820 -0.54350322 15 10 14260 6.23600000 2340541106 2340541106 -5.00000000
3.95559025 -5.17556906 1.26620853 12 11 14261 6.63600000 2340541108 2340541108 11.00000000
4.05349779 -5.30559206 -0.34991822 10 12 14262 6.68600000 2340541111 2340541111 -3.00000000
3.94466114 -5.16500521 1.50042355 22 13 14263 6.67000000 2340541113 2340541113 13.00000000
4.03231859 -5.28169203 -0.11598869 9 14 14264 6.64600000 2340541115 2340541115 -1.00000000
3.92716575 -5.14395857 1.73408759 9 15 14264 6.70000000 2340541118 2340541118 15.00000000
1.24386227 -1.63398552 -0.55024928 2 0 14272 2.12600000 2340541138 2340541138 -15.00000000
4.01796246 -5.28006268 0.11581417 11 1 14273 6.63600000 2340541141 2340541141 1.00000000
1.46181107 -1.92168295 -0.55742872 34 2 14274 2.47800000 2340541143 2340541143 -13.00000000
4.02573347 -5.29410791 0.34855747 10 3 14275 6.66000000 2340541145 2340541145 3.00000000
1.72191346 -2.26443124 -0.55296445 3 4 14275 2.89800000 2340541148 2340541148 -11.00000000
4.00896740 -5.27397013 0.57958567 9 5 14276 6.65000000 2340541150 2340541150 5.00000000
2.10343695 -2.76816511 -0.55064934 1 6 14277 3.52000000 2340541152 2340541152 -9.00000000
4.01046133 -5.27975988 0.81408721 60 7 14278 6.68000000 2340541154 2340541154 7.00000000
2.72384596 -3.58723426 -0.55304307 6 8 14279 4.53800000 2340541157 2340541157 -7.00000000
3.93167186 -5.17978621 1.02996457 10 9 14280 6.58400000 2340541159 2340541159 9.00000000
3.75593305 -4.94825888 -0.54350322 15 10 14280 6.23600000 2340541161 2340541161 -5.00000000
3.92681980 -5.17526913 1.26277399 12 11 14281 6.61800000 2340541164 2340541164 11.00000000
4.01564121 -5.29424858 -0.34824345 10 12 14282 6.65400000 2340541166 2340541166 -3.00000000
3.91247916 -5.16010904 1.49502468 23 13 14283 6.64600000 2340541168 2340541168 13.00000000
4.01144171 -5.29254770 -0.11591888 9 14 14284 6.64200000 2340541171 2340541171 -1.00000000
3.90128613 -5.14907885 1.73098183 9 15 14285 6.68800000 2340541173 2340541173 15.00000000
1.24397480 -1.64602351 -0.55283749 3 0 14292 2.13600000 2340541194 2340541194 -15.00000000
3.98986387 -5.28129148 0.11553493 11 1 14293 6.62000000 2340541196 2340541196 1.00000000
1.45157099 -1.92210865 -0.55607903 16 2 14294 2.47200000 2340541198 2340541198 -13.00000000
3.99250770 -5.28670883 0.34719673 10 3 14294 6.63400000 2340541201 2340541201 3.00000000
1.70453560 -2.25789285 -0.54991150 3 4 14295 2.88200000 2340541203 2340541203 -11.00000000
3.98933339 -5.28634167 0.57941139 9 5 14296 6.64800000 2340541205 2340541205 5.00000000
2.09852004 -2.78179860 -0.55190080 1 6 14297 3.52800000 2340541207 2340541207 -9.00000000
3.97646928 -5.27312231 0.81091863 57 7 14298 6.65400000 2340541210 2340541210 7.00000000
2.70413804 -3.58720946 -0.55158067 6 8 14299 4.52600000 2340541212 2340541212 -7.00000000
3.90881181 -5.18716860 1.02871299 10 9 14300 6.57600000 2340541214 2340541214 9.00000000
3.73743844 -4.95974827 -0.54332888 15 10 14300 6.23400000 2340541217 2340541217 -5.00000000
3.89691830 -5.17326355 1.25895774 12 11 14301 6.59800000 2340541219 2340541219 11.00000000
3.98752499 -5.29546928 -0.34740609 10 12 14302 6.63800000 2340541221 2340541221 -3.00000000
3.88037944 -5.15505123 1.48962593 23 13 14303 6.62200000 2340541224 2340541224 13.00000000
3.98933601 -5.30172443 -0.11581417 9 14 14304 6.63600000 2340541226 2340541226 -1.00000000
3.88070488 -5.15735674 1.72942889 9 15 14304 6.68200000 2340541228 2340541228 15.00000000
1.24401844 -1.65808213 -0.55542564 4 0 14312 2.14600000 2340541249 2340541249 -15.00000000
3.96300578 -5.28398800 0.11529060 11 1 14313 6.60600000 2340541251 2340541251 1.00000000
1.44134581 -1.92248631 -0.55472928 7 2 14314 2.46600000 2340541253 2340541253 -13.00000000
3.95246387 -5.27184916 0.34531263 10 3 14314 6.59800000 2340541256 2340541256 3.00000000
1.69193399 -2.25754499 -0.54838502 3 4 14315 2.87400000 2340541258 2340541258 -11.00000000
3.94815874 -5.26993847 0.57609946 9 5 14316 6.61000000 2340541260 2340541260 5.00000000
2.08998108 -2.79068780 -0.55221367 1 6 14317 3.53000000 2340541263 2340541263 -9.00000000
3.94971085 -5.27584696 0.80921245 60 7 14318 6.64000000 2340541265 2340541265 7.00000000
2.68446350 -3.58709097 -0.55011821 6 8 14319 4.51400000 2340541267 2340541267 -7.00000000
3.87529850 -5.18021822 1.02464581 10 9 14320 6.55000000 2340541270 2340541270 9.00000000
3.71652246 -4.96797800 -0.54280597 15 10 14320 6.22800000 2340541272 2340541272 -5.00000000
3.87060618 -5.17582941 1.25628638 12 11 14321 6.58400000 2340541274 2340541274 11.00000000
3.95944929 -5.29655886 -0.34656870 10 12 14322 6.62200000 2340541277 2340541277 -3.00000000
3.84952974 -5.15139341 1.48467696 26 13 14323 6.60000000 2340541279 2340541279 13.00000000
3.95405078 -5.29318857 -0.11532550 9 14 14324 6.60800000 2340541281 2340541281 -1.00000000
3.85689807 -5.16313314 1.72684062 11 15 14324 6.67200000 2340541283 2340541283 15.00000000
1.23591518 -1.65931582 -0.55439037 4 0 14332 2.14200000 2340541304 2340541304 -15.00000000
3.94453716 -5.29778910 0.11529060 11 1 14333 6.60600000 2340541306 2340541306 1.00000000
1.43229926 -1.92437923 -0.55382949 4 2 14334 2.46200000 2340541309 2340541309 -13.00000000
3.92953849 -5.28149271 0.34499863 7 3 14335 6.59200000 2340541311 2340541311 3.00000000
1.68404341 -2.26343703 -0.54838502 3 4 14335 2.87400000 2340541313 2340541313 -11.00000000
3.91903806 -5.26929998 0.57453066 9 5 14336 6.59200000 2340541316 2340541316 5.00000000
2.07551265 -2.79162526 -0.55096221 1 6 14337 3.52200000 2340541318 2340541318 -9.00000000
3.92061353 -5.27526236 0.80701882 55 7 14338 6.62200000 2340541320 2340541320 7.00000000
2.67666125 -3.60281348 -0.55109316 6 8 14339 4.52200000 2340541323 2340541323 -7.00000000
3.84160638 -5.17084169 1.02026558 15 9 14339 6.52200000 2340541325 2340541325 9.00000000
3.69203091 -4.97132397 -0.54176009 15 10 14340 6.21600000 2340541327 2340541327 -5.00000000
3.84666419 -5.18142700 1.25437832 15 11 14341 6.57400000 2340541330 2340541330 11.00000000
3.94331741 -5.31355524 -0.34677804 10 12 14342 6.62600000 2340541332 2340541332 -3.00000000
3.78972602 -5.10845613 1.46848047 18 13 14343 6.52800000 2340541334 2340541334 13.00000000
3.91887379 -5.28447151 -0.11483683 9 14 14344 6.58000000 2340541336 2340541336 -1.00000000
3.70334411 -4.99565887 1.66627705 9 15 14345 6.43800000 2340541339 2340541339 15.00000000
1.22437263 -1.65585327 -0.55180222 4 0 14352 2.13200000 2340541359 2340541359 -15.00000000
3.90343642 -5.28097248 0.11462741 11 1 14353 6.56800000 2340541362 2340541362 1.00000000
1.42209911 -1.92466521 -0.55247980 10 2 14354 2.45600000 2340541364 2340541364 -13.00000000
3.90250778 -5.28164387 0.34416124 7 3 14354 6.57600000 2340541366 2340541366 3.00000000
1.67613232 -2.26930165 -0.54838502 3 4 14355 2.87400000 2340541369 2340541369 -11.00000000
3.87931895 -5.25409651 0.57139307 9 5 14356 6.55600000 2340541371 2340541371 5.00000000
2.05871701 -2.78931713 -0.54908496 1 6 14357 3.51000000 2340541373 2340541373 -9.00000000
3.89510417 -5.27933168 0.80555636 52 7 14358 6.61000000 2340541376 2340541376 7.00000000
2.66878176 -3.61852527 -0.55206811 6 8 14359 4.53000000 2340541378 2340541378 -7.00000000
3.74995041 -5.08630896 1.00086772 10 9 14360 6.39800000 2340541380 2340541380 9.00000000
3.67229056 -4.98097372 -0.54141146 15 10 14360 6.21200000 2340541383 2340541383 -5.00000000
3.67480636 -4.98620796 1.20400476 9 11 14361 6.31000000 2340541385 2340541385 11.00000000
3.91408372 -5.31281567 -0.34583601 14 12 14362 6.60800000 2340541387 2340541387 -3.00000000
3.64128852 -4.94434166 1.41764152 9 13 14363 6.30200000 2340541389 2340541389 13.00000000
3.88617730 -5.27879429 -0.11441798 9 14 14364 6.55600000 2340541392 2340541392 -1.00000000
3.62519622 -4.92609119 1.63884223 9 15 14365 6.33200000 2340541394 2340541394 15.00000000
1.22259569 -1.66436231 -0.55335510 4 0 14370 2.13800000 2340541415 2340541415 -15.00000000
3.87380743 -5.27547932 0.11424346 11 1 14371 6.54600000 2340541417 2340541417 1.00000000
1.41373932 -1.92598152 -0.55158001 12 2 14372 2.45200000 2340541419 2340541419 -13.00000000
3.85280418 -5.24879646 0.34123042 7 3 14372 6.52000000 2340541422 2340541422 3.00000000
1.67364061 -2.28088760 -0.54991150 3 4 14373 2.88200000 2340541424 2340541424 -11.00000000
3.65775204 -4.98671865 0.54106283 9 5 14374 6.20800000 2340541426 2340541426 5.00000000
2.04994416 -2.79577088 -0.54908496 1 6 14375 3.51000000 2340541429 2340541429 -9.00000000
2.65505433 -3.62368894 -0.55158067 6 8 14377 4.52600000 2340541433 2340541433 -7.00000000
3.63910723 -4.96675110 0.97521245 10 9 14377 6.23400000 2340541436 2340541436 9.00000000
3.65191507 -4.98605633 -0.54071420 15 10 14378 6.20400000 2340541438 2340541438 -5.00000000
3.62433004 -4.95020628 1.19255626 12 11 14379 6.25000000 2340541440 2340541440 11.00000000
3.87024307 -5.28801680 -0.34342855 10 12 14380 6.56200000 2340541442 2340541442 -3.00000000
3.62113476 -4.94946575 1.41584194 9 13 14381 6.29400000 2340541445 2340541445 13.00000000
3.80110717 -5.19736004 -0.11239350 6 14 14382 6.44000000 2340541447 2340541447 -1.00000000
3.60514212 -4.93121767 1.63677168 9 15 14383 6.32400000 2340541449 2340541449 15.00000000
1.22133148 -1.67486346 -0.55542564 4 0 14390 2.14600000 2340541470 2340541470 -15.00000000
3.63156199 -4.98194075 0.10761154 8 1 14391 6.16600000 2340541472 2340541472 1.00000000
1.41045070 -1.93562949 -0.55292970 3 2 14392 2.45800000 2340541475 2340541475 -13.00000000
3.62509274 -4.97488976 0.32259884 10 3 14392 6.16400000 2340541477 2340541477 3.00000000
1.66104496 -2.28036833 -0.54838502 3 4 14393 2.87400000 2340541479 2340541479 -11.00000000
3.61100316 -4.95919037 0.53670508 9 5 14394 6.15800000 2340541482 2340541482 5.00000000
2.04714751 -2.81249213 -0.55096221 1 6 14395 3.52200000 2340541484 2340541484 -9.00000000
3.61824369 -4.97278070 0.75510246 10 7 14396 6.19600000 2340541486 2340541486 7.00000000
2.64472437 -3.63614559 -0.55206811 6 8 14397 4.53000000 2340541489 2340541489 -7.00000000
3.61477637 -4.96983862 0.97333527 10 9 14397 6.22200000 2340541491 2340541491 9.00000000
3.62394333 -4.98427057 -0.53914541 15 10 14398 6.18600000 2340541493 2340541493 -5.00000000
3.59894896 -4.95171070 1.18988490 12 11 14399 6.23600000 2340541495 2340541495 11.00000000
3.62753463 -4.99287319 -0.32343620 9 12 14400 6.18000000 2340541498 2340541498 -3.00000000
3.59238434 -4.94630814 1.41134286 9 13 14401 6.27400000 2340541500 2340541500 13.00000000
3.61846614 -4.98404884 -0.10750683 9 14 14402 6.16000000 2340541502 2340541502 -1.00000000
3.58336806 -4.93751764 1.63470113 9 15 14403 6.31600000 2340541505 2340541505 15.00000000
1.21518457 -1.67932868 -0.55542564 4 0 14411 2.14600000 2340541525 2340541525 -15.00000000
3.60038590 -4.97739506 0.10722759 11 1 14412 6.14400000 2340541528 2340541528 1.00000000
1.40905607 -1.94868183 -0.55517918 4 2 14413 2.46800000 2340541530 2340541530 -13.00000000
3.59045053 -4.96548414 0.32113343 7 3 14413 6.13600000 2340541532 2340541532 3.00000000
1.65037560 -2.28325868 -0.54762185 3 4 14414 2.87000000 2340541535 2340541535 -11.00000000
3.59046888 -4.96916199 0.53635645 9 5 14415 6.15400000 2340541537 2340541537 5.00000000
2.04376507 -2.82958460 -0.55283940 1 6 14416 3.53400000 2340541539 2340541539 -9.00000000
3.58953476 -4.97152424 0.75290883 7 7 14417 6.17800000 2340541541 2340541541 7.00000000
2.62208533 -3.63293743 -0.55011821 6 8 14418 4.51400000 2340541544 2340541544 -7.00000000
3.58150768 -4.96223116 0.96926796 10 9 14418 6.19600000 2340541546 2340541546 9.00000000
3.60914803 -5.00236654 -0.53966838 15 10 14419 6.19200000 2340541548 2340541548 -5.00000000
3.57618213 -4.95849895 1.18835843 12 11 14420 6.22800000 2340541551 2340541551 11.00000000
3.59519410 -4.98669386 -0.32218015 13 12 14421 6.15600000 2340541553 2340541553 -3.00000000
3.56169796 -4.94205093 1.40639400 9 13 14422 6.25200000 2340541555 2340541555 13.00000000
3.58147216 -4.97131824 -0.10694835 9 14 14423 6.12800000 2340541558 2340541558 -1.00000000
3.56498194 -4.94842863 1.63418341 9 15 14423 6.31400000 2340541560 2340541560 15.00000000
1.20480704 -1.67728412 -0.55335510 4 0 14431 2.13800000 2340541581 2340541581 -15.00000000
3.57365894 -4.97693777 0.10694835 11 1 14432 6.12800000 2340541583 2340541583 1.00000000
1.41247237 -1.96783674 -0.55922830 5 2 14433 2.48600000 2340541585 2340541585 -13.00000000
3.57076645 -4.97474194 0.32092407 7 3 14433 6.13200000 2340541588 2340541588 3.00000000
1.64010644 -2.28581548 -0.54685861 3 4 14434 2.86600000 2340541590 2340541590 -11.00000000
3.55916667 -4.96223688 0.53426468 9 5 14435 6.13000000 2340541592 2340541592 5.00000000
2.01315713 -2.80780458 -0.54720777 1 6 14436 3.49800000 2340541594 2340541594 -9.00000000
3.56637716 -4.97595644 0.75169009 10 7 14437 6.16800000 2340541597 2340541597 7.00000000
2.61054420 -3.64368176 -0.55036193 6 8 14438 4.51600000 2340541599 2340541599 -7.00000000
3.55726171 -4.96506786 0.96739072 10 9 14438 6.18400000 2340541601 2340541601 9.00000000
3.57542324 -4.99225712 -0.53722799 11 10 14439 6.16400000 2340541604 2340541604 -5.00000000
3.55542326 -4.96616268 1.18721354 12 11 14440 6.22200000 2340541606 2340541606 11.00000000
3.56614184 -4.98297119 -0.32113343 13 12 14441 6.13600000 2340541608 2340541608 -3.00000000
3.53875589 -4.94652891 1.40414453 9 13 14442 6.24200000 2340541611 2340541611 13.00000000
3.55479145 -4.97077703 -0.10666911 9 14 14443 6.11200000 2340541613 2340541613 -1.00000000
3.52996898 -4.93788815 1.62641883 9 15 14444 6.28400000 2340541615 2340541615 15.00000000
1.19445872 -1.67518771 -0.55128455 4 0 14451 2.13000000 2340541636 2340541636 -15.00000000
3.54233646 -4.96984100 0.10652949 11 1 14452 6.10400000 2340541638 2340541638 1.00000000
1.39994073 -1.96481979 -0.55697882 4 2 14453 2.47600000 2340541641 2340541641 -13.00000000
3.55019188 -4.98454237 0.32071474 7 3 14454 6.12800000 2340541643 2340541643 3.00000000
1.63895118 -2.30112123 -0.54914826 3 4 14454 2.87800000 2340541645 2340541645 -11.00000000
3.53489017 -4.96489191 0.53321886 13 5 14455 6.11800000 2340541647 2340541647 5.00000000
2.00792551 -2.82125211 -0.54845923 1 6 14456 3.50600000 2340541650 2340541650 -9.00000000
3.54208136 -4.97867012 0.75022769 10 7 14457 6.15600000 2340541652 2340541652 7.00000000
